# .PCD v0.7 - Point Cloud Data file format
VERSION 0.7
FIELDS x y z rgb
SIZE 4 4 4 4
TYPE F F F U
COUNT 1 1 1 1
WIDTH 1024
HEIGHT 1
VIEWPOINT 0 0 0 1 0 0 0
POINTS 1024
DATA ascii
-0.019562295 0.0046508941 0.37900001 4286989374
-0.0183313 0.0046508941 0.37900001 4286919981
-0.017100308 0.0046508941 0.37900001 4287314739
-0.015869318 0.0046508941 0.37900001 4287183923
-0.014638324 0.0046508941 0.37900001 4287250999
-0.026663836 0.0058202217 0.37500003 4286948500
-0.025513692 0.0058357422 0.37600002 4287275922
-0.024357051 0.0058512627 0.377 4287006588
-0.023132551 0.0058512627 0.377 4286929743
-0.021966169 0.0058667837 0.37800002 4287124292
-0.020738425 0.0058667837 0.37800002 4287382069
-0.019510679 0.0058667837 0.37800002 4289421650
-0.0183313 0.0058823037 0.37900001 4286657315
-0.017100308 0.0058823037 0.37900001 4287050792
-0.015869318 0.0058823037 0.37900001 4287313964
-0.014638324 0.0058823037 0.37900001 4287445550
-0.013442707 0.0058978247 0.38000003 4287511600
-0.012208466 0.0058978247 0.38000003 4287119413
-0.029913599 0.0069447863 0.37 4287341974
-0.02878944 0.0069635562 0.37100002 4287671193
-0.027658783 0.006982326 0.37200001 4287929485
-0.026592731 0.0070198653 0.37400001 4286609514
-0.025445838 0.0070386352 0.37500003 4286337352
-0.024292445 0.0070574046 0.37600002 4287122756
-0.023132551 0.007076174 0.377 4286790448
-0.021908056 0.007076174 0.377 4287250481
-0.020738425 0.0070949444 0.37800002 4287380784
-0.019510679 0.0070949444 0.37800002 4287183405
-0.018282935 0.0070949444 0.37800002 4286788131
-0.017100308 0.0071137138 0.37900001 4287051046
-0.015869318 0.0071137138 0.37900001 4287313964
-0.014638324 0.0071137138 0.37900001 4287840565
-0.013442707 0.0071324836 0.38000003 4286855462
-0.012208466 0.0071324836 0.38000003 4287709751
-0.011003105 0.0071512531 0.38100001 4286068526
-0.032142434 0.0081029171 0.36800003 4286145621
-0.031031266 0.0081249354 0.36900002 4287263332
-0.029913599 0.0081469538 0.37 4286735707
-0.02878944 0.008168973 0.37100002 4286930002
-0.027658783 0.0081909914 0.37200001 4286530619
-0.026521629 0.0082130106 0.37300003 4286134830
-0.02537798 0.0082350289 0.37400001 4287381817
-0.024227837 0.0082570482 0.37500003 4287447097
-0.023071194 0.0082790665 0.37600002 4286854958
-0.021908056 0.0083010858 0.377 4286132520
-0.020683561 0.0083010858 0.377 4285609004
-0.019510679 0.0083231041 0.37800002 4285805100
-0.018282935 0.0083231041 0.37800002 4285540635
-0.017055189 0.0083231041 0.37800002 4286723624
-0.015869318 0.0083451234 0.37900001 4287248428
-0.014638324 0.0083451234 0.37900001 4286786852
-0.013442707 0.0083671426 0.38000003 4291198838
-0.012208466 0.0083671426 0.38000003 4286789678
-0.011003105 0.008389161 0.38100001 4287314993
-0.033337701 0.0092985863 0.36800003 4286726715
-0.032142434 0.0092985863 0.36800003 4287318073
-0.030947171 0.0092985863 0.36800003 4287581245
-0.029832752 0.009323854 0.36900002 4287581763
-0.028711839 0.0093491217 0.37 4287910728
-0.027584432 0.0093743894 0.37100002 4286526506
-0.026450524 0.0093996571 0.37200001 4286788395
-0.025310125 0.0094249258 0.37300003 4285869605
-0.024227837 0.0094754612 0.37500003 4287125838
-0.023009835 0.0094754612 0.37500003 4288716434
-0.021849945 0.0095007289 0.37600002 4288258965
-0.020683561 0.0095259966 0.377 4287931797
-0.019459063 0.0095259966 0.377 4288194455
-0.018282935 0.0095512653 0.37800002 4284891966
-0.017055189 0.0095512653 0.37800002 4285674027
-0.015869318 0.009576533 0.37900001 4286263075
-0.014638324 0.009576533 0.37900001 4286985258
-0.013442707 0.0096018007 0.38000003 4286722604
-0.012208466 0.0096018007 0.38000003 4288038462
-0.011003105 0.0096270684 0.38100001 4287249200
-0.034439124 0.010465739 0.36700001 4286789680
-0.03324711 0.010465739 0.36700001 4286854442
-0.032142434 0.010494256 0.36800003 4287247401
-0.030947171 0.010494256 0.36800003 4287445034
-0.029751904 0.010494256 0.36800003 4287773999
-0.028634241 0.010522773 0.36900002 4287313448
-0.027510079 0.01055129 0.37 4287513394
-0.026379421 0.010579807 0.37100002 4286527787
-0.025242269 0.010608324 0.37200001 4288914065
-0.024163229 0.010665358 0.37400001 4287734416
-0.023009835 0.010693875 0.37500003 4287144334
-0.021849945 0.010722392 0.37600002 4287210642
-0.020628696 0.010722392 0.37600002 4287144849
-0.019459063 0.010750908 0.377 4287210642
-0.018282935 0.010779426 0.37800002 4287801496
-0.017055189 0.010779426 0.37800002 4283844413
-0.015869318 0.010807943 0.37900001 4285606431
-0.014638324 0.010807943 0.37900001 4286263334
-0.013442707 0.01083646 0.38000003 4286524707
-0.012240593 0.010864977 0.38100001 4287445809
-0.011003105 0.010864977 0.38100001 4288169532
-0.039314024 0.011689926 0.36800003 4287735701
-0.038118757 0.011689926 0.36800003 4287802264
-0.036823157 0.01165816 0.36700001 4285549121
-0.035631139 0.01165816 0.36700001 4285872176
-0.034439124 0.01165816 0.36700001 4286657061
-0.03324711 0.01165816 0.36700001 4286853413
-0.032055091 0.01165816 0.36700001 4287115815
-0.030863075 0.01165816 0.36700001 4287445034
-0.029671056 0.01165816 0.36700001 4287445032
-0.028556641 0.011689926 0.36800003 4287247653
-0.027435729 0.011721692 0.36900002 4287510827
-0.026308317 0.011753458 0.37 4287774515
-0.025242269 0.011816991 0.37200001 4288052335
-0.024098622 0.011848757 0.37300003 4287470984
-0.022948474 0.011880523 0.37400001 4287013777
-0.021791834 0.011912289 0.37500003 4286947984
-0.020628696 0.011944055 0.37600002 4286947216
-0.019459063 0.01197582 0.377 4287669910
-0.018282935 0.012007587 0.37800002 4288127118
-0.017055189 0.012007587 0.37800002 4286735705
-0.015869318 0.012039353 0.37900001 4288305486
-0.014676948 0.01207112 0.38000003 4285540638
-0.013442707 0.01207112 0.38000003 4285869346
-0.012240593 0.012102885 0.38100001 4286000162
-0.011003105 0.012102885 0.38100001 4286197028
-0.039314024 0.012885596 0.36800003 4282074421
-0.038015172 0.01285058 0.36700001 4283783756
-0.036823157 0.01285058 0.36700001 4285413424
-0.035631139 0.01285058 0.36700001 4285673766
-0.034439124 0.01285058 0.36700001 4286197282
-0.033156518 0.012815565 0.36600003 4286458912
-0.031967748 0.012815565 0.36600003 4286721057
-0.03077898 0.012815565 0.36600003 4286983716
-0.029671056 0.01285058 0.36700001 4286786850
-0.02847904 0.01285058 0.36700001 4291459182
-0.027361378 0.012885596 0.36800003 4287774515
-0.026237214 0.012920611 0.36900002 4287773745
-0.025174415 0.012990641 0.37100002 4285673768
-0.024034014 0.013025655 0.37200001 4289632650
-0.022948474 0.013095686 0.37400001 4288062354
-0.021791834 0.013130702 0.37500003 4286741615
-0.020628696 0.013165717 0.37600002 4285743931
-0.019459063 0.013200732 0.377 4285873203
-0.018282935 0.013235748 0.37800002 4286791477
-0.017100308 0.013270762 0.37900001 4287250999
-0.015869318 0.013270762 0.37900001 4286263840
-0.014676948 0.013305778 0.38000003 4287184688
-0.013478083 0.013340793 0.38100001 4285936936
-0.012240593 0.013340793 0.38100001 4285740072
-0.011031985 0.013375808 0.38200003 4285674279
-0.0097912485 0.013375808 0.38200003 4287324501
-0.03920719 0.014043001 0.36700001 4281479710
-0.038015172 0.014043001 0.36700001 4282594344
-0.036823157 0.014043001 0.36700001 4285282090
-0.035534054 0.014004736 0.36600003 4285477668
-0.034345284 0.014004736 0.36600003 4285738271
-0.033156518 0.014004736 0.36600003 4285934623
-0.031967748 0.014004736 0.36600003 4286262303
-0.03077898 0.014004736 0.36600003 4286787877
-0.02959021 0.014004736 0.36600003 4286786337
-0.02847904 0.014043001 0.36700001 4287181095
-0.027361378 0.014081265 0.36800003 4292513937
-0.026237214 0.014119529 0.36900002 4287249718
-0.025106557 0.014157793 0.37 4286919465
-0.024034014 0.014234321 0.37200001 4287316794
-0.022948474 0.014310851 0.37400001 4286331696
-0.021791834 0.014349115 0.37500003 4286987827
-0.020683561 0.014425643 0.377 4287513140
-0.019510679 0.014463908 0.37800002 4287052589
-0.0183313 0.014502171 0.37900001 4285803810
-0.017100308 0.014502171 0.37900001 4285739557
-0.01591119 0.014540437 0.38000003 4285082140
-0.014715571 0.0145787 0.38100001 4286069035
-0.013478083 0.0145787 0.38100001 4285280804
-0.012272721 0.014616965 0.38200003 4285280802
-0.011060865 0.01465523 0.38300002 4285017632
-0.0098168794 0.01465523 0.38300002 4286335809
-0.03920719 0.01523542 0.36700001 4282268963
-0.038015172 0.01523542 0.36700001 4283512870
-0.036722824 0.015193908 0.36600003 4285150250
-0.035534054 0.015193908 0.36600003 4285082912
-0.034345284 0.015193908 0.36600003 4285411105
-0.033065926 0.015152394 0.36500001 4285344799
-0.031880401 0.015152394 0.36500001 4285803037
-0.03077898 0.015193908 0.36600003 4286196512
-0.02959021 0.015193908 0.36600003 4286327071
-0.028401442 0.015193908 0.36600003 4286983718
-0.027287025 0.01523542 0.36700001 4287049772
-0.026237214 0.015318448 0.36900002 4287181356
-0.025106557 0.01535996 0.37 4287577138
-0.024034014 0.015442987 0.37200001 4287050794
-0.022948474 0.015526014 0.37400001 4287445550
-0.021849945 0.015609041 0.37600002 4287380784
-0.020683561 0.015650554 0.377 4285475869
-0.012304849 0.015899636 0.38300002 4285676076
-0.011089743 0.015941149 0.384 4285543974
-0.0098425103 0.015941149 0.384 4285411107
-0.03920719 0.016427841 0.36700001 4282662438
-0.03791159 0.016383078 0.36600003 4283774759
-0.036722824 0.016383078 0.36600003 4284755492
-0.035436966 0.016338315 0.36500001 4284557083
-0.034251444 0.016338315 0.36500001 4284820255
-0.033065926 0.016338315 0.36500001 4284754462
-0.031880401 0.016338315 0.36500001 4285014294
-0.030694883 0.016338315 0.36500001 4285276439
-0.02959021 0.016383078 0.36600003 4286196512
-0.028401442 0.016383078 0.36600003 4286196512
-0.027287025 0.016427841 0.36700001 4286984231
-0.026237214 0.016517365 0.36900002 4287050024
-0.025106557 0.016562128 0.37 4287051051
-0.024034014 0.016651653 0.37200001 4286129949
-0.023009835 0.016785942 0.37500003 4286526760
-0.021908056 0.016875464 0.377 4285674277
-0.011118623 0.017233565 0.38500002 4285017632
-0.0098681422 0.017233565 0.38500002 4285806635
-0.03791159 0.017572252 0.36600003 4284036134
-0.036722824 0.017572252 0.36600003 4285083941
-0.035436966 0.017524239 0.36500001 4285147937
-0.034251444 0.017524239 0.36500001 4284426011
-0.033065926 0.017524239 0.36500001 4284031253
-0.031880401 0.017524239 0.36500001 4284556570
-0.030694883 0.017524239 0.36500001 4285016349
-0.02959021 0.017572252 0.36600003 4285540638
-0.02847904 0.017620262 0.36700001 4285869600
-0.027361378 0.017668275 0.36800003 4285868315
-0.026308317 0.017764296 0.37 4286130717
-0.025174415 0.01781231 0.37100002 4286262303
-0.024098622 0.017908333 0.37300003 4285935393
-0.0099194059 0.018580494 0.38700002 4285281320
-0.008684813 0.018628506 0.38800001 4286069037
-0.0074437237 0.018676519 0.38900003 4287191377
-0.035339877 0.018658901 0.36400002 4285542178
-0.034157608 0.018658901 0.36400002 4284162323
-0.033065926 0.018710161 0.36500001 4284228632
-0.031880401 0.018710161 0.36500001 4283834390
-0.030694883 0.018710161 0.36500001 4284162839
-0.02959021 0.018761422 0.36600003 4284688154
-0.02847904 0.018812682 0.36700001 4285148705
-0.027435729 0.018915204 0.36900002 4285804580
-0.026379421 0.019017726 0.37100002 4285738787
-0.024163229 0.019171508 0.37400001 4285746750
-0.019665526 0.019530332 0.38100001 4284951839
-0.018476404 0.019581594 0.38200003 4285017630
-0.0087071965 0.019940419 0.38900003 4285740842
-0.0074628587 0.019991679 0.39000002 4287120440
-0.0062120259 0.020042941 0.39100003 4288514681
-0.035339877 0.019841574 0.36400002 4286330406
-0.034157608 0.019841574 0.36400002 4283899149
-0.033065926 0.019896083 0.36500001 4283572755
-0.031880401 0.019896083 0.36500001 4283375122
-0.03077898 0.019950593 0.36600003 4283571731
-0.02959021 0.019950593 0.36600003 4284295195
-0.02847904 0.020005103 0.36700001 4284820767
-0.027435729 0.020114122 0.36900002 4285148705
-0.018524772 0.020877261 0.38300002 4284951837
-0.0087071965 0.021204319 0.38900003 4285083427
-0.0074628587 0.021258829 0.39000002 4285804580
-0.0062120259 0.021313339 0.39100003 4287053872
-0.0049546966 0.021367848 0.39200002 4286859323
-0.031880401 0.021082005 0.36500001 4282131217
-0.03077898 0.021139765 0.36600003 4283051549
-0.029671056 0.021197524 0.36700001 4283375635
-0.028556641 0.021255283 0.36800003 4284886048
-0.027510079 0.021370798 0.37 4285082912
-0.0087295799 0.022525977 0.39000002 4284820515
-0.0074628587 0.022525977 0.39000002 4285740070
-0.0062120259 0.022583738 0.39100003 4286919460
-0.0049546966 0.022641497 0.39200002 4287643183
-0.0036814802 0.022641497 0.39200002 4285937201
-0.037600838 0.02214591 0.36300001 4285477931
-0.036421813 0.02214591 0.36300001 4286132770
-0.0074819946 0.023854136 0.39100003 4285411879
-0.0062120259 0.023854136 0.39100003 4286985001
-0.0049546966 0.023915144 0.39200002 4288036919
-0.0036908714 0.023976151 0.39300001 4287905849
-0.0024144067 0.023976151 0.39300001 4286527026
-0.042433515 0.023389595 0.36400002 4282401314
-0.039848808 0.02326108 0.36200002 4283187496
-0.038779866 0.023325335 0.36300001 4285084711
-0.037600838 0.023325335 0.36300001 4285607975
-0.036421813 0.023325335 0.36300001 4287382837
-0.034345284 0.023518108 0.36600003 4282263568
-0.0074819946 0.025124537 0.39100003 4285083175
-0.0062120259 0.025124537 0.39100003 4286328616
-0.0049546966 0.025188792 0.39200002 4293302935
-0.0036814802 0.025188792 0.39200002 4287119415
-0.0024144067 0.02525305 0.39300001 4287511348
-0.042316936 0.02450476 0.36300001 4282138142
-0.041137911 0.02450476 0.36300001 4282466594
-0.039848808 0.024437254 0.36200002 4284234792
-0.038779866 0.02450476 0.36300001 4285609256
-0.037600838 0.02450476 0.36300001 4286001443
-0.036421813 0.02450476 0.36300001 4285935902
-0.035339877 0.024572266 0.36400002 4283966739
-0.034251444 0.024639772 0.36500001 4281739021
-0.032975335 0.024572266 0.36400002 4280752642
-0.031793062 0.024572266 0.36400002 4283709995
-0.030526692 0.02450476 0.36300001 4284232228
-0.029347666 0.02450476 0.36300001 4285935396
-0.0074819946 0.026394935 0.39100003 4285280039
-0.0062279128 0.026462441 0.39200002 4286131750
-0.0049546966 0.026462441 0.39200002 4286392869
-0.0036814802 0.026462441 0.39200002 4288170820
-0.0024144067 0.026529947 0.39300001 4287183925
-0.0011379421 0.026529947 0.39300001 4284302136
-0.042316936 0.025684183 0.36300001 4282335521
-0.041024584 0.025613429 0.36200002 4282989858
-0.039848808 0.025613429 0.36200002 4284627753
-0.038673036 0.025613429 0.36200002 4285542691
-0.037600838 0.025684183 0.36300001 4286395944
-0.036421813 0.025684183 0.36300001 4285147933
-0.035339877 0.02575494 0.36400002 4283115282
-0.034157608 0.02575494 0.36400002 4280884741
-0.032975335 0.02575494 0.36400002 4283056934
-0.031705715 0.025684183 0.36300001 4283905827
-0.030526692 0.025684183 0.36300001 4285019431
-0.029347666 0.025684183 0.36300001 4286066725
-0.028944639 0.026391739 0.37300003 4286001189
-0.0074819946 0.027665334 0.39100003 4285148707
-0.0062279128 0.027736088 0.39200002 4285935139
-0.0049546966 0.027736088 0.39200002 4286393637
-0.0036814802 0.027736088 0.39200002 4286591016
-0.0024144067 0.027806843 0.39300001 4286985774
-0.0011379421 0.027806843 0.39300001 4284498232
-0.042200364 0.026789604 0.36200002 4282400801
-0.041024584 0.026789604 0.36200002 4284103976
-0.039848808 0.026789604 0.36200002 4285019429
-0.038673036 0.026789604 0.36200002 4285475099
-0.037497256 0.026789604 0.36200002 4286987311
-0.036421813 0.026863607 0.36300001 4283439886
-0.035242788 0.026863607 0.36300001 4281932301
-0.034157608 0.026937613 0.36400002 4281411087
-0.032884743 0.026863607 0.36300001 4282265111
-0.031705715 0.026863607 0.36300001 4284166687
-0.030526692 0.026863607 0.36300001 4285150502
-0.029428514 0.026937613 0.36400002 4285936166
-0.0062279128 0.029009737 0.39200002 4285607971
-0.0049546966 0.029009737 0.39200002 4285672994
-0.0036814802 0.029009737 0.39200002 4286066982
-0.0024144067 0.02908374 0.39300001 4286724916
-0.043256316 0.027888525 0.36100003 4282269474
-0.042083789 0.027888525 0.36100003 4282071582
-0.040911257 0.027888525 0.36100003 4284823333
-0.039738733 0.027888525 0.36100003 4285477922
-0.038673036 0.027965778 0.36200002 4286459682
-0.037497256 0.027965778 0.36200002 4286987309
-0.03632148 0.027965778 0.36200002 4283310358
-0.035242788 0.028043032 0.36300001 4280947206
-0.034063764 0.028043032 0.36300001 4281212943
-0.032884743 0.028043032 0.36300001 4282724383
-0.031705715 0.028043032 0.36300001 4284229915
-0.030610789 0.028120287 0.36400002 4285477668
-0.029428514 0.028120287 0.36400002 4285608225
-0.0062279128 0.030283384 0.39200002 4285476900
-0.0049546966 0.030283384 0.39200002 4285346084
-0.0036814802 0.030283384 0.39200002 4284954415
-0.0024144067 0.030360637 0.39300001 4286275672
-0.043136492 0.028980948 0.36000001 4281546269
-0.042083789 0.029061452 0.36100003 4282596131
-0.040911257 0.029061452 0.36100003 4285479465
-0.039738733 0.029061452 0.36100003 4285870627
-0.038566206 0.029061452 0.36100003 4286919460
-0.037497256 0.029141953 0.36200002 4286986280
-0.03632148 0.029141953 0.36200002 4282324492
-0.035242788 0.029222455 0.36300001 4281211662
-0.034063764 0.029222455 0.36300001 4281277966
-0.032884743 0.029222455 0.36300001 4283907376
-0.031793062 0.029302958 0.36400002 4284360734
-0.030694883 0.02938346 0.36500001 4285476898
-0.02959021 0.029463964 0.36600003 4285672994
-0.02878944 0.029866477 0.37100002 4284757029
-0.0062279128 0.031557031 0.39200002 4285937453
-0.0049546966 0.031557031 0.39200002 4284888363
-0.0036814802 0.031557031 0.39200002 4285822314
-0.0024144067 0.031637534 0.39300001 4288063901
-0.043136492 0.030150624 0.36000001 4282136353
-0.042083789 0.030234378 0.36100003 4283973419
-0.040911257 0.030234378 0.36100003 4285741094
-0.039738733 0.030234378 0.36100003 4286395172
-0.038566206 0.030234378 0.36100003 4287314218
-0.037393674 0.030234378 0.36100003 4287380011
-0.03632148 0.030318128 0.36200002 4283966743
-0.035145704 0.030318128 0.36200002 4282063889
-0.034063764 0.030401878 0.36300001 4281539341
-0.032884743 0.030401878 0.36300001 4283445540
-0.031793062 0.030485632 0.36400002 4284623390
-0.030694883 0.030569382 0.36500001 4285804580
-0.029671056 0.030736886 0.36700001 4285935141
-0.0062279128 0.032830682 0.39200002 4285480761
-0.0049546966 0.032830682 0.39200002 4289308571
-0.0036814802 0.032830682 0.39200002 4287736732
-0.0024144067 0.03291443 0.39300001 4287605662
-0.043136492 0.0313203 0.36000001 4282395670
-0.042083789 0.031407304 0.36100003 4284890412
-0.040911257 0.031407304 0.36100003 4286264361
-0.039738733 0.031407304 0.36100003 4286328098
-0.038566206 0.031407304 0.36100003 4289616203
-0.037393674 0.031407304 0.36100003 4287247655
-0.03632148 0.031494305 0.36200002 4287378728
-0.035145704 0.031494305 0.36200002 4287446831
-0.033969928 0.031494305 0.36200002 4285807148
-0.032884743 0.031581301 0.36300001 4285083939
-0.031793062 0.031668305 0.36400002 4285607201
-0.030694883 0.031755306 0.36500001 4286264104
-0.029671056 0.031929307 0.36700001 4286066727
-0.01132078 0.034104329 0.39200002 4284889910
-0.010047563 0.034104329 0.39200002 4285214761
-0.00750113 0.034104329 0.39200002 4285935398
-0.0062279128 0.034104329 0.39200002 4287262567
-0.044305775 0.032489982 0.36000001 4282665004
-0.043136492 0.032489982 0.36000001 4284365349
-0.041967213 0.032489982 0.36000001 4285545258
-0.040911257 0.03258023 0.36100003 4286788647
-0.039738733 0.03258023 0.36100003 4286853413
-0.038566206 0.03258023 0.36100003 4287115302
-0.037393674 0.03258023 0.36100003 4287443751
-0.036221147 0.03258023 0.36100003 4287771944
-0.035145704 0.032670479 0.36200002 4287837737
-0.033969928 0.032670479 0.36200002 4287904300
-0.032884743 0.032760728 0.36300001 4287378728
-0.031793062 0.032850981 0.36400002 4288961099
-0.03077898 0.033031482 0.36600003 4286526247
-0.029751904 0.03321198 0.36800003 4286132518
-0.01132078 0.035377979 0.39200002 4285149998
-0.010047563 0.035377979 0.39200002 4285607975
-0.0087743467 0.035377979 0.39200002 4285869346
-0.00750113 0.035377979 0.39200002 4286329897
-0.044305775 0.033659656 0.36000001 4282269474
-0.043136492 0.033659656 0.36000001 4284954919
-0.041967213 0.033659656 0.36000001 4285608486
-0.04079793 0.033659656 0.36000001 4286591268
-0.039738733 0.033753157 0.36100003 4286786850
-0.038566206 0.033753157 0.36100003 4287049509
-0.037393674 0.033753157 0.36100003 4287115556
-0.036221147 0.033753157 0.36100003 4287378726
-0.035048615 0.033753157 0.36100003 4291918954
-0.033969928 0.033846654 0.36200002 4287116839
-0.032884743 0.033940151 0.36300001 4288036404
-0.031793062 0.034033652 0.36400002 4287970095
-0.03077898 0.034220651 0.36600003 4287313194
-0.029751904 0.034407649 0.36800003 4286131748
-0.01132078 0.036651626 0.39200002 4285871660
-0.010047563 0.036651626 0.39200002 4286001191
-0.0087743467 0.036651626 0.39200002 4286197541
-0.0075202654 0.036745124 0.39300001 4286066727
-0.044305775 0.034829333 0.36000001 4282793256
-0.043136492 0.034829333 0.36000001 4284888615
-0.041967213 0.034829333 0.36000001 4285608484
-0.04079793 0.034829333 0.36000001 4286197534
-0.039628651 0.034829333 0.36000001 4286459166
-0.038566206 0.034926083 0.36100003 4286787104
-0.037393674 0.034926083 0.36100003 4287116069
-0.036221147 0.034926083 0.36100003 4287247142
-0.035048615 0.034926083 0.36100003 4287181608
-0.033969928 0.035022829 0.36200002 4292579987
-0.032884743 0.035119578 0.36300001 4287644478
-0.031793062 0.035216328 0.36400002 4287641646
-0.03077898 0.035409823 0.36600003 4287510575
-0.029751904 0.035603318 0.36800003 4286001191
-0.01132078 0.037925273 0.39200002 4286001191
-0.010047563 0.037925273 0.39200002 4286197543
-0.0087743467 0.037925273 0.39200002 4286591018
-0.0075202654 0.038022023 0.39300001 4285475619
-0.045475055 0.035999011 0.36000001 4281743650
-0.044305775 0.035999011 0.36000001 4282991151
-0.043136492 0.035999011 0.36000001 4284822568
-0.041967213 0.035999011 0.36000001 4285543465
-0.04079793 0.035999011 0.36000001 4285804834
-0.039628651 0.035999011 0.36000001 4286198820
-0.038566206 0.036099009 0.36100003 4286328096
-0.037393674 0.036099009 0.36100003 4286590498
-0.036221147 0.036099009 0.36100003 4286721059
-0.035048615 0.036099009 0.36100003 4286918184
-0.033969928 0.036199003 0.36200002 4287248180
-0.032884743 0.036299001 0.36300001 4287511091
-0.031793062 0.036398999 0.36400002 4288102710
-0.03077898 0.036598995 0.36600003 4287839027
-0.029751904 0.036798988 0.36800003 4285082914
-0.012593997 0.03919892 0.39200002 4285217841
-0.01132078 0.03919892 0.39200002 4286986546
-0.010047563 0.03919892 0.39200002 4286722604
-0.0087967301 0.039298918 0.39300001 4286656809
-0.045475055 0.037168685 0.36000001 4282138410
-0.044305775 0.037168685 0.36000001 4282794033
-0.043136492 0.037168685 0.36000001 4284100905
-0.042083789 0.037271935 0.36100003 4284822570
-0.040911257 0.037271935 0.36100003 4285411879
-0.039738733 0.037271935 0.36100003 4285279523
-0.038566206 0.037271935 0.36100003 4285277466
-0.037393674 0.037271935 0.36100003 4286131235
-0.036221147 0.037271935 0.36100003 4286524707
-0.035048615 0.037271935 0.36100003 4286853672
-0.033969928 0.037375178 0.36200002 4286852132
-0.032884743 0.037478425 0.36300001 4287575853
-0.031793062 0.037581671 0.36400002 4287839025
-0.03077898 0.037788164 0.36600003 4286655266
-0.029751904 0.037994657 0.36800003 4289504408
-0.016288033 0.040162832 0.38900003 4286987831
-0.012593997 0.040472571 0.39200002 4286789678
-0.0087743467 0.040472571 0.39200002 4286460713
-0.045475055 0.038338363 0.36000001 4285825909
-0.044428848 0.038444858 0.36100003 4283323979
-0.043256316 0.038444858 0.36100003 4284103733
-0.042083789 0.038444858 0.36100003 4284364079
-0.040911257 0.038444858 0.36100003 4285150250
-0.039738733 0.038444858 0.36100003 4284491804
-0.038566206 0.038444858 0.36100003 4285016349
-0.037393674 0.038444858 0.36100003 4285344031
-0.036221147 0.038444858 0.36100003 4286065955
-0.035145704 0.038551353 0.36200002 4286328868
-0.033969928 0.038551353 0.36200002 4286524707
-0.032884743 0.038657848 0.36300001 4286787620
-0.031793062 0.038764346 0.36400002 4286786850
-0.03077898 0.038977336 0.36600003 4285998879
-0.017506385 0.041320235 0.38800001 4287513401
-0.016288033 0.041426733 0.38900003 4286789680
-0.015063183 0.041533228 0.39000002 4287448380
-0.013831838 0.041639723 0.39100003 4286655782
-0.0087743467 0.041746218 0.39200002 4285413683
-0.044428848 0.039617784 0.36100003 4286090626
-0.043256316 0.039617784 0.36100003 4284236602
-0.042083789 0.039617784 0.36100003 4283904044
-0.041024584 0.039727528 0.36200002 4284296226
-0.039848808 0.039727528 0.36200002 4284492833
-0.038673036 0.039727528 0.36200002 4284556829
-0.037497256 0.039727528 0.36200002 4284424984
-0.03632148 0.039727528 0.36200002 4285279008
-0.035145704 0.039727528 0.36200002 4285804580
-0.034063764 0.039837271 0.36300001 4286199338
-0.032884743 0.039837271 0.36300001 4286264361
-0.031793062 0.039947018 0.36400002 4286461740
-0.03077898 0.040166508 0.36600003 4286066982
-0.029671056 0.040276252 0.36700001 4288582274
-0.018718243 0.042471144 0.38700002 4286527537
-0.017506385 0.042580888 0.38800001 4287776062
-0.016288033 0.042690631 0.38900003 4290409322
-0.015063183 0.042800374 0.39000002 4287249716
-0.044551916 0.040903702 0.36200002 4288723890
-0.04337614 0.040903702 0.36200002 4283449918
-0.042200364 0.040903702 0.36200002 4284234806
-0.041024584 0.040903702 0.36200002 4284231978
-0.039848808 0.040903702 0.36200002 4284231460
-0.038673036 0.040903702 0.36200002 4284296226
-0.037497256 0.040903702 0.36200002 4284427042
-0.036421813 0.041016694 0.36300001 4284754976
-0.035242788 0.041016694 0.36300001 4285281320
-0.034063764 0.041016694 0.36300001 4285544492
-0.032975335 0.04112969 0.36400002 4285741871
-0.031880401 0.041242685 0.36500001 4285544492
-0.03077898 0.041355681 0.36600003 4285872689
-0.029671056 0.041468672 0.36700001 4284366644
-0.018718243 0.043728545 0.38700002 4286066475
-0.017506385 0.043841537 0.38800001 4289885810
-0.01132078 0.044293512 0.39200002 4288038198
-0.010047563 0.044293512 0.39200002 4287578935
-0.0087743467 0.044293512 0.39200002 4290092433
-0.042316936 0.042196121 0.36300001 4282926139
-0.041137911 0.042196121 0.36300001 4284167983
-0.039958887 0.042196121 0.36300001 4284364847
-0.038779866 0.042196121 0.36300001 4284232489
-0.037600838 0.042196121 0.36300001 4284166183
-0.036421813 0.042196121 0.36300001 4284559909
-0.035339877 0.042312365 0.36400002 4284691495
-0.034157608 0.042312365 0.36400002 4284626734
-0.032975335 0.042312365 0.36400002 4285419847
-0.031880401 0.042428605 0.36500001 4284365362
-0.03077898 0.042544849 0.36600003 4284757550
-0.029671056 0.042661093 0.36700001 4284888624
-0.02847904 0.042661093 0.36700001 4289504919
-0.010047563 0.045567162 0.39200002 4287708981
-0.041251242 0.043495037 0.36400002 4285686365
-0.040068969 0.043495037 0.36400002 4284827456
-0.038886696 0.043495037 0.36400002 4284761400
-0.037704423 0.043495037 0.36400002 4284037677
-0.03652215 0.043495037 0.36400002 4283839016
-0.035339877 0.043495037 0.36400002 4288188034
-0.03077898 0.043734021 0.36600003 4284563771
-0.029671056 0.04385351 0.36700001 4285743672
-0.02847904 0.04385351 0.36700001 4289101943
-0.017551504 0.046482336 0.38900003 4286919215
-0.015063183 0.046601824 0.39000002 4288693046
-0.013796463 0.046601824 0.39000002 4290802790
-0.01256187 0.046721317 0.39100003 4293900980
-0.01132078 0.046840809 0.39200002 4289621861
-0.010047563 0.046840809 0.39200002 4286526506
-0.0087743467 0.046840809 0.39200002 4287906106
-0.040068969 0.044677708 0.36400002 4285359712
-0.038993526 0.044800449 0.36500001 4283839532
-0.037808005 0.044800449 0.36500001 4284101673
-0.036622487 0.044800449 0.36500001 4282588697
-0.029671056 0.045045931 0.36700001 4285153078
-0.02847904 0.045045931 0.36700001 4285413683
-0.020026835 0.047623493 0.38800001 4286208076
-0.013796463 0.047868975 0.39000002 4288431164
-0.01256187 0.047991715 0.39100003 4287576886
-0.01132078 0.048114456 0.39200002 4286787627
-0.0087743467 0.048114456 0.39200002 4287774772
-0.038993526 0.045986373 0.36500001 4285091913
-0.037808005 0.045986373 0.36500001 4284366646
-0.036722824 0.046112366 0.36600003 4284693042
-0.029671056 0.046238355 0.36700001 4284234036
-0.028556641 0.046364348 0.36800003 4285678652
-0.027361378 0.046364348 0.36800003 4285479982
-0.022489171 0.048758157 0.38700002 4286534985
-0.021232197 0.048758157 0.38700002 4286985004
-0.01256187 0.049262118 0.39100003 4286918690
-0.011291901 0.049262118 0.39100003 4287115815
-0.0087743467 0.049388107 0.39200002 4287315763
-0.03791159 0.047301535 0.36600003 4284301632
-0.036722824 0.047301535 0.36600003 4285482045
-0.035631139 0.047430772 0.36700001 4284493351
-0.029751904 0.047560014 0.36800003 4287204996
-0.028556641 0.047560014 0.36800003 4283775286
-0.027435729 0.047689252 0.36900002 4286137397
-0.026308317 0.047818489 0.37 4285937449
-0.01256187 0.050532516 0.39100003 4286330151
-0.011291901 0.050532516 0.39100003 4286394920
-0.010047563 0.050661754 0.39200002 4286460713
-0.0087743467 0.050661754 0.39200002 4285807412
-0.038015172 0.048623197 0.36700001 4282268472
-0.036823157 0.048623197 0.36700001 4284891191
-0.035631139 0.048623197 0.36700001 4285349687
-0.034532964 0.048755687 0.36800003 4285156162
-0.033337701 0.048755687 0.36800003 4288653723
-0.027510079 0.049020659 0.37 4284558628
-0.026308317 0.049020659 0.37 4286529075
-0.025174415 0.049153149 0.37100002 4286723372
-0.015063183 0.051670425 0.39000002 4284622363
-0.013796463 0.051670425 0.39000002 4285345834
-0.01256187 0.051802915 0.39100003 4286333242
-0.011291901 0.051802915 0.39100003 4285872691
-0.010047563 0.051935405 0.39200002 4285806898
-0.0087743467 0.051935405 0.39200002 4284635472
-0.036923494 0.049951352 0.36800003 4284760382
-0.035728227 0.049951352 0.36800003 4285087802
-0.034532964 0.049951352 0.36800003 4285611316
-0.028711839 0.050222825 0.37 4288388239
-0.027510079 0.050222825 0.37 4285082660
-0.026379421 0.050358564 0.37100002 4286132268
-0.025242269 0.050494298 0.37200001 4287249718
-0.024034014 0.050494298 0.37200001 4287906101
-0.018814977 0.052801836 0.38900003 4286790448
-0.017551504 0.052801836 0.38900003 4285871658
-0.016288033 0.052801836 0.38900003 4285020208
-0.015063183 0.052937571 0.39000002 4285086517
-0.013796463 0.052937571 0.39000002 4285218105
-0.01256187 0.053073313 0.39100003 4284757554
-0.011291901 0.053073313 0.39100003 4284694587
-0.010047563 0.053209048 0.39200002 4287068016
-0.037023827 0.051286008 0.36900002 4283317047
-0.035825316 0.051286008 0.36900002 4284825659
-0.034626804 0.051286008 0.36900002 4285480500
-0.033428293 0.051286008 0.36900002 4285610033
-0.032229777 0.051286008 0.36900002 4284295974
-0.031115361 0.051424995 0.37 4284429359
-0.029913599 0.051424995 0.37 4284691247
-0.028711839 0.051424995 0.37 4285741105
-0.027584432 0.051563982 0.37100002 4287315763
-0.026379421 0.051563982 0.37100002 4288960336
-0.025242269 0.051702969 0.37200001 4289098091
-0.024098622 0.051841956 0.37300003 4287646786
-0.022948474 0.051980942 0.37400001 4287905331
-0.022489171 0.053787768 0.38700002 4287050022
-0.021287059 0.053926751 0.38800001 4285741869
-0.02007845 0.054065742 0.38900003 4285019177
-0.018814977 0.054065742 0.38900003 4284889140
-0.017551504 0.054065742 0.38900003 4284563771
-0.016329905 0.054204725 0.39000002 4285886054
-0.015063183 0.054204725 0.39000002 4286216302
-0.013831838 0.054343715 0.39100003 4286611058
-0.01256187 0.054343715 0.39100003 4287993742
-0.011291901 0.054343715 0.39100003 4288656553
-0.035922401 0.052627165 0.37 4284433470
-0.034720641 0.052627165 0.37 4285219125
-0.033518881 0.052627165 0.37 4285413935
-0.032317121 0.052627165 0.37 4285280552
-0.031115361 0.052627165 0.37 4285017382
-0.029994447 0.052769404 0.37100002 4285476137
-0.02878944 0.052769404 0.37100002 4286330156
-0.027584432 0.052769404 0.37100002 4287183405
-0.026450524 0.052911635 0.37200001 4287116585
-0.025242269 0.052911635 0.37200001 4287774267
-0.024098622 0.053053875 0.37300003 4286853420
-0.022887116 0.053053875 0.37300003 4287313969
-0.022489171 0.055045173 0.38700002 4286394922
-0.021287059 0.055187404 0.38800001 4283904044
-0.02007845 0.055329643 0.38900003 4287200117
-0.018814977 0.055329643 0.38900003 4288261793
-0.017596623 0.055471878 0.39000002 4287736732
-0.016329905 0.055471878 0.39000002 4287934113
-0.015063183 0.055471878 0.39000002 4287999906
-0.013831838 0.055614114 0.39100003 4287934111
-0.01256187 0.055614114 0.39100003 4287934111
-0.037224501 0.053974815 0.37100002 4289444786
-0.036019489 0.053974815 0.37100002 4283187262
-0.034814484 0.053974815 0.37100002 4284890419
-0.033609476 0.053974815 0.37100002 4285021746
-0.032404464 0.053974815 0.37100002 4284953386
-0.031199457 0.053974815 0.37100002 4284821287
-0.029994447 0.053974815 0.37100002 4285411109
-0.02878944 0.053974815 0.37100002 4285804582
-0.027658783 0.054120298 0.37200001 4286132518
-0.026450524 0.054120298 0.37200001 4286592299
-0.025242269 0.054120298 0.37200001 4286984747
-0.024098622 0.054265786 0.37300003 4287116333
-0.022887116 0.054265786 0.37300003 4286987057
-0.021287059 0.056448054 0.38800001 4288524706
-0.02007845 0.056593541 0.38900003 4287867805
-0.018814977 0.056593541 0.38900003 4287736219
-0.017596623 0.056739025 0.39000002 4287671455
-0.016329905 0.056739025 0.39000002 4287934627
-0.015101807 0.056884512 0.39100003 4287934627
-0.013831838 0.056884512 0.39100003 4287803041
-0.036116578 0.055328969 0.37200001 4283652692
-0.034908321 0.055328969 0.37200001 4284365622
-0.033700064 0.055328969 0.37200001 4284299054
-0.032491807 0.055328969 0.37200001 4284560171
-0.031283554 0.055328969 0.37200001 4284756523
-0.030075293 0.055328969 0.37200001 4284754208
-0.028867038 0.055328969 0.37200001 4285279523
-0.027658783 0.055328969 0.37200001 4285936940
-0.026450524 0.055328969 0.37200001 4286134319
-0.025242269 0.055328969 0.37200001 4286527276
-0.024098622 0.055477705 0.37300003 4286527276
-0.022887116 0.055477705 0.37300003 4285413424
-0.034908321 0.056537632 0.37200001 4284564802
-0.033700064 0.056537632 0.37200001 4284036657
-0.032491807 0.056537632 0.37200001 4284299056
-0.031283554 0.056537632 0.37200001 4284429870
-0.030075293 0.056537632 0.37200001 4284427558
-0.028867038 0.056537632 0.37200001 4284493351
-0.027658783 0.056537632 0.37200001 4285281836
-0.026450524 0.056537632 0.37200001 4286137145
-0.025242269 0.056537632 0.37200001 4285544238
-0.024034014 0.056537632 0.37200001 4285741617
-0.022887116 0.056689616 0.37300003 4286016611
-0.035002161 0.057901535 0.37300003 4286480249
-0.033790659 0.057901535 0.37300003 4283908419
-0.032491807 0.057746299 0.37200001 4284169015
-0.031283554 0.057746299 0.37200001 4284628796
-0.030075293 0.057746299 0.37200001 4284299056
-0.028867038 0.057746299 0.37200001 4285153593
-0.027658783 0.057746299 0.37200001 4285087800
-0.026450524 0.057746299 0.37200001 4285153078
-0.025242269 0.057746299 0.37200001 4284891706
-0.024034014 0.057746299 0.37200001 4287397748
-0.032579154 0.059113447 0.37300003 4286283642
-0.031367648 0.059113447 0.37300003 4285493608
-0.030156143 0.059113447 0.37300003 4284703061
-0.028867038 0.058954962 0.37200001 4284965204
-0.027658783 0.058954962 0.37200001 4285096277
-0.026450524 0.058954962 0.37200001 4287532164
-0.02167137 0.033313658 0.37875646 4294967295
-0.02167137 0.033313658 0.37875646 4294901760
-0.02167137 0.032820322 0.3786751 4294901760
-0.02167137 0.032326981 0.37859377 4294901760
-0.02167137 0.031833645 0.37851241 4294901760
-0.02167137 0.031340308 0.37843105 4294901760
-0.02167137 0.03084697 0.37834972 4294901760
-0.02167137 0.030353632 0.37826836 4294901760
-0.02167137 0.029860293 0.378187 4294901760
-0.02167137 0.029366957 0.37810567 4294901760
-0.02167137 0.028873619 0.37802431 4294901760
-0.02167137 0.02838028 0.37794295 4294901760
-0.02167137 0.027886944 0.37786162 4294901760
-0.02167137 0.027393606 0.37778026 4294901760
-0.02167137 0.026900269 0.3776989 4294901760
-0.02167137 0.026406931 0.37761757 4294901760
-0.02167137 0.025913592 0.37753621 4294901760
-0.02167137 0.025420256 0.37745485 4294901760
-0.02167137 0.024926916 0.37737352 4294901760
-0.02167137 0.024433579 0.37729216 4294901760
-0.02167137 0.023940243 0.3772108 4294901760
-0.02167137 0.023446903 0.37712947 4294901760
-0.02167137 0.022953566 0.37704811 4294901760
-0.02167137 0.02246023 0.37696674 4294901760
-0.02167137 0.02196689 0.37688541 4294901760
-0.02167137 0.021473553 0.37680405 4294901760
-0.02167137 0.020980217 0.37672269 4294901760
-0.02167137 0.020486878 0.37664136 4294901760
-0.02167137 0.01999354 0.37656 4294901760
-0.02167137 0.019500203 0.37647864 4294901760
-0.02167137 0.019006865 0.37639731 4294901760
-0.02167137 0.018513527 0.37631595 4294901760
-0.02167137 0.01802019 0.37623459 4294901760
-0.02167137 0.017526852 0.37615326 4294901760
-0.02167137 0.017033514 0.3760719 4294901760
-0.02167137 0.016540175 0.37599054 4294901760
-0.02167137 0.016046839 0.37590921 4294901760
-0.02167137 0.015553501 0.37582785 4294901760
-0.02167137 0.015060162 0.37574649 4294901760
-0.02167137 0.014566826 0.37566516 4294901760
-0.02167137 0.014073489 0.3755838 4294901760
-0.02167137 0.013580149 0.37550244 4294901760
-0.02167137 0.013086813 0.37542111 4294901760
-0.02167137 0.012593476 0.37533975 4294901760
-0.02167137 0.012100136 0.37525839 4294901760
-0.02167137 0.011606799 0.37517706 4294901760
-0.02167137 0.011113463 0.3750957 4294901760
-0.02167137 0.010620123 0.37501433 4294901760
-0.02167137 0.010126786 0.374933 4294901760
-0.02167137 0.0096334498 0.37485164 4294901760
-0.02167137 0.0091401096 0.37477028 4294901760
-0.02167137 0.0086467732 0.37468892 4294901760
-0.02167137 0.0081534367 0.37460759 4294901760
-0.02167137 0.0076600984 0.37452623 4294901760
-0.02167137 0.0071667619 0.3744449 4294901760
-0.02167137 0.0066734217 0.37436354 4294901760
-0.02167137 0.0061800834 0.37428218 4294901760
-0.02167137 0.0056867469 0.37420082 4294901760
-0.02167137 0.0051934104 0.37411949 4294901760
-0.02167137 0.0047000721 0.37403813 4294901760
-0.02167137 0.0042067356 0.37395677 4294901760
-0.02167137 0.0037133954 0.37387544 4294901760
-0.02167137 0.0032200571 0.37379408 4294901760
-0.02167137 0.0027267206 0.37371272 4294901760
-0.02167137 0.0022333842 0.37363139 4294901760
-0.02167137 0.0017400458 0.37355003 4294901760
-0.02167137 0.0012467094 0.37346867 4294901760
-0.02167137 0.00075336918 0.37338734 4294901760
-0.02167137 0.00026003271 0.37330598 4294901760
-0.02167137 -0.00023330748 0.37322462 4294901760
-0.02167137 -0.00072664395 0.37314329 4294901760
-0.02167137 -0.0012199804 0.37306193 4294901760
-0.02167137 -0.0017133169 0.37298056 4294901760
-0.02167137 -0.0022066571 0.37289923 4294901760
-0.02167137 -0.0026999936 0.37281787 4294901760
-0.02167137 -0.0031933337 0.37273651 4294901760
-0.02167137 -0.0036866702 0.37265518 4294901760
-0.02167137 -0.0041800067 0.37257382 4294901760
-0.02167137 -0.0046733432 0.37249246 4294901760
-0.02167137 -0.0051666796 0.37241113 4294901760
-0.02167137 -0.0056600198 0.37232977 4294901760
-0.02167137 -0.00615336 0.37224841 4294901760
-0.02167137 -0.0066466965 0.37216708 4294901760
-0.02167137 -0.0071400329 0.37208572 4294901760
-0.02167137 -0.0076333694 0.37200436 4294901760
-0.02167137 -0.0081267059 0.37192303 4294901760
-0.02167137 -0.0086200461 0.37184167 4294901760
-0.02167137 -0.0091133863 0.37176031 4294901760
-0.02167137 -0.0096067227 0.37167898 4294901760
-0.02167137 -0.010100059 0.37159762 4294901760
-0.02167137 -0.010593396 0.37151626 4294901760
-0.02167137 -0.011086732 0.37143493 4294901760
-0.02167137 -0.011580072 0.37135357 4294901760
-0.02167137 -0.012073413 0.37127221 4294901760
-0.02167137 -0.012566749 0.37119088 4294901760
-0.02167137 -0.013060085 0.37110952 4294901760
-0.02167137 -0.013553422 0.37102816 4294901760
-0.02167137 -0.014046758 0.37094682 4294901760
-0.02167137 -0.014540099 0.37086546 4294901760
-0.02167137 -0.015033439 0.3707841 4294901760
-0.02167137 -0.015526775 0.37070277 4294901760
-0.02167137 -0.016020112 0.37062141 4294901760
-0.02167137 0.033313658 0.37875646 4278255360
-0.021336161 0.033253297 0.37912253 4278255360
-0.02100095 0.033192936 0.37948856 4278255360
-0.020665741 0.033132575 0.37985462 4278255360
-0.02033053 0.033072215 0.38022065 4278255360
-0.019995321 0.033011854 0.38058671 4278255360
-0.019660112 0.032951493 0.38095275 4278255360
-0.019324901 0.032891132 0.38131881 4278255360
-0.018989692 0.032830771 0.38168484 4278255360
-0.018654481 0.03277041 0.3820509 4278255360
-0.018319272 0.032710049 0.38241693 4278255360
-0.017984062 0.032649688 0.382783 4278255360
-0.017648853 0.032589328 0.38314903 4278255360
-0.017313642 0.03252897 0.38351509 4278255360
-0.016978433 0.03246861 0.38388112 4278255360
-0.016643222 0.032408249 0.38424718 4278255360
-0.016308013 0.032347888 0.38461322 4278255360
-0.015972804 0.032287527 0.38497928 4278255360
-0.015637593 0.032227166 0.38534534 4278255360
-0.015302384 0.032166805 0.38571137 4278255360
-0.014967173 0.032106444 0.38607743 4278255360
-0.014631964 0.032046083 0.38644347 4278255360
-0.014296755 0.031985722 0.38680953 4278255360
-0.013961544 0.031925362 0.38717556 4278255360
-0.013626335 0.031865001 0.38754162 4278255360
-0.013291125 0.03180464 0.38790765 4278255360
-0.012955916 0.031744279 0.38827372 4278255360
-0.012620705 0.031683918 0.38863975 4278255360
-0.012285496 0.031623557 0.38900581 4278255360
-0.011950286 0.031563196 0.38937184 4278255360
-0.011615076 0.031502835 0.3897379 4278255360
-0.011279866 0.031442475 0.39010394 4278255360
-0.010944657 0.031382114 0.39047 4278255360
-0.010609446 0.031321753 0.39083606 4278255360
-0.010274237 0.031261392 0.39120209 4278255360
-0.009939028 0.031201033 0.39156815 4278255360
-0.009603817 0.031140672 0.39193419 4278255360
-0.0092686079 0.031080311 0.39230025 4278255360
-0.0089333979 0.03101995 0.39266628 4278255360
-0.0085981889 0.030959589 0.39303234 4278255360
-0.0082629779 0.030899229 0.39339837 4278255360
-0.0079277689 0.030838868 0.39376444 4278255360
-0.0075925598 0.030778507 0.39413047 4278255360
-0.0072573489 0.030718146 0.39449653 4278255360
-0.0069221398 0.030657787 0.39486256 4278255360
-0.0065869298 0.030597426 0.39522862 4278255360
-0.0062517198 0.030537065 0.39559466 4278255360
-0.0059165098 0.030476704 0.39596072 4278255360
-0.0055813007 0.030416343 0.39632675 4278255360
-0.0052460898 0.030355982 0.39669281 4278255360
-0.0049108807 0.030295622 0.39705884 4278255360
-0.0045756716 0.030235261 0.39742491 4278255360
-0.0042404626 0.0301749 0.39779097 4278255360
-0.0039052516 0.030114539 0.398157 4278255360
-0.0035700407 0.030054178 0.39852306 4278255360
-0.0032348316 0.029993817 0.39888909 4278255360
-0.0028996225 0.029933456 0.39925516 4278255360
-0.0025644116 0.029873097 0.39962119 4278255360
-0.0022292025 0.029812736 0.39998725 4278255360
-0.0018939935 0.029752376 0.40035328 4278255360
-0.0015587825 0.029692015 0.40071934 4278255360
-0.0012235735 0.029631654 0.40108538 4278255360
-0.00088836253 0.029571293 0.40145144 4278255360
-0.00055315346 0.029510932 0.40181747 4278255360
-0.00021794438 0.029450571 0.40218353 4278255360
0.00011726469 0.02939021 0.40254956 4278255360
0.00045247748 0.029329849 0.40291563 4278255360
0.00078768656 0.029269489 0.40328169 4278255360
0.0011228956 0.02920913 0.40364772 4278255360
0.0014581047 0.029148769 0.40401378 4278255360
0.0017933138 0.029088408 0.40437981 4278255360
0.0021285247 0.029028047 0.40474588 4278255360
0.0024637356 0.028967686 0.40511191 4278255360
0.0027989447 0.028907325 0.40547797 4278255360
0.0031341538 0.028846964 0.405844 4278255360
0.0034693629 0.028786603 0.40621006 4278255360
0.0038045738 0.028726242 0.4065761 4278255360
0.0041397829 0.028665882 0.40694216 4278255360
0.0044749919 0.028605521 0.40730819 4278255360
0.0048102029 0.02854516 0.40767425 4278255360
0.0051454138 0.028484799 0.40804029 4278255360
0.0054806229 0.028424438 0.40840635 4278255360
0.0058158319 0.028364077 0.40877238 4278255360
0.006151041 0.028303718 0.40913844 4278255360
0.0064862501 0.028243357 0.40950447 4278255360
0.0068214629 0.028182996 0.40987054 4278255360
0.007156672 0.028122636 0.4102366 4278255360
0.007491881 0.028062275 0.41060263 4278255360
0.0078270901 0.028001914 0.41096869 4278255360
0.008162301 0.027941553 0.41133472 4278255360
0.0084975101 0.027881192 0.41170079 4278255360
0.008832721 0.027820831 0.41206682 4278255360
0.0091679301 0.02776047 0.41243288 4278255360
0.0095031392 0.027700111 0.41279891 4278255360
0.0098383501 0.02763975 0.41316497 4278255360
0.010173559 0.02757939 0.41353101 4278255360
0.010508768 0.027519029 0.41389707 4278255360
0.010843981 0.027458668 0.41426313 4278255360
0.01117919 0.027398307 0.41462916 4278255360
0.011514399 0.027337946 0.41499519 4278255360
0.011849608 0.027277585 0.41536126 4278255360
-0.02167137 0.033313658 0.37875646 4278190335
-0.02204236 0.03325912 0.37908721 4278190335
-0.022413353 0.033204582 0.37941796 4278190335
-0.022784343 0.03315004 0.3797487 4278190335
-0.023155333 0.033095501 0.38007945 4278190335
-0.023526326 0.033040963 0.38041019 4278190335
-0.023897316 0.032986425 0.38074091 4278190335
-0.024268307 0.032931883 0.38107166 4278190335
-0.024639299 0.032877345 0.3814024 4278190335
-0.02501029 0.032822806 0.38173315 4278190335
-0.025381282 0.032768268 0.3820639 4278190335
-0.025752272 0.03271373 0.38239464 4278190335
-0.026123263 0.032659188 0.38272539 4278190335
-0.026494253 0.03260465 0.38305613 4278190335
-0.026865246 0.032550111 0.38338688 4278190335
-0.027236238 0.032495573 0.3837176 4278190335
-0.027607229 0.032441035 0.38404834 4278190335
-0.027978219 0.032386493 0.38437909 4278190335
-0.02834921 0.032331955 0.38470984 4278190335
-0.028720202 0.032277416 0.38504058 4278190335
-0.029091192 0.032222878 0.38537133 4278190335
-0.029462185 0.032168336 0.38570207 4278190335
-0.029833175 0.032113798 0.38603282 4278190335
-0.030204166 0.03205926 0.38636357 4278190335
-0.030575156 0.032004721 0.38669431 4278190335
-0.030946149 0.031950183 0.38702506 4278190335
-0.031317137 0.031895641 0.38735577 4278190335
-0.031688131 0.031841103 0.38768652 4278190335
-0.032059122 0.031786565 0.38801727 4278190335
-0.032430112 0.031732026 0.38834801 4278190335
-0.032801107 0.031677488 0.38867876 4278190335
-0.033172093 0.031622946 0.38900951 4278190335
-0.033543088 0.031568408 0.38934025 4278190335
-0.033914078 0.03151387 0.389671 4278190335
-0.034285069 0.031459332 0.39000174 4278190335
-0.034656059 0.03140479 0.39033246 4278190335
-0.035027049 0.031350251 0.39066321 4278190335
-0.035398044 0.031295713 0.39099395 4278190335
-0.035769034 0.031241175 0.3913247 4278190335
-0.036140025 0.031186635 0.39165545 4278190335
-0.036511015 0.031132096 0.39198619 4278190335
-0.036882006 0.031077556 0.39231694 4278190335
-0.037253 0.031023018 0.39264768 4278190335
-0.03762399 0.03096848 0.39297843 4278190335
-0.037994981 0.03091394 0.39330918 4278190335
-0.038365971 0.030859401 0.39363992 4278190335
-0.038736962 0.030804861 0.39397064 4278190335
-0.039107956 0.030750323 0.39430138 4278190335
-0.039478943 0.030695783 0.39463213 4278190335
-0.039849937 0.030641245 0.39496288 4278190335
-0.040220927 0.030586705 0.39529362 4278190335
-0.040591918 0.030532166 0.39562437 4278190335
-0.040962908 0.030477628 0.39595512 4278190335
-0.041333899 0.030423088 0.39628586 4278190335
-0.041704893 0.03036855 0.39661661 4278190335
-0.042075884 0.03031401 0.39694732 4278190335
-0.042446874 0.030259471 0.39727807 4278190335
-0.042817865 0.030204933 0.39760882 4278190335
-0.043188855 0.030150393 0.39793956 4278190335
-0.043559849 0.030095855 0.39827031 4278190335
-0.04393084 0.030041315 0.39860106 4278190335
-0.04430183 0.029986776 0.3989318 4278190335
-0.044672821 0.029932236 0.39926255 4278190335
-0.045043811 0.029877698 0.39959329 4278190335
-0.045414805 0.029823158 0.39992404 4278190335
-0.045785792 0.02976862 0.40025479 4278190335
-0.046156786 0.029714081 0.4005855 4278190335
-0.046527777 0.029659541 0.40091625 4278190335
-0.046898767 0.029605003 0.40124699 4278190335
-0.047269762 0.029550463 0.40157774 4278190335
-0.047640748 0.029495925 0.40190849 4278190335
-0.048011743 0.029441386 0.40223923 4278190335
-0.048382733 0.029386846 0.40256998 4278190335
-0.048753724 0.029332306 0.40290073 4278190335
