# .PCD v0.7 - Point Cloud Data file format
VERSION 0.7
FIELDS x y z rgb
SIZE 4 4 4 4
TYPE F F F U
COUNT 1 1 1 1
WIDTH 673
HEIGHT 1
VIEWPOINT 0 0 0 1 0 0 0
POINTS 673
DATA ascii
-0.02824665 0.031833734 0.58400005 4279716650
-0.026304696 0.031779222 0.583 4279323687
-0.028198281 0.033673447 0.583 4279322914
-0.026259577 0.03361569 0.58200002 4278797595
-0.024285499 0.033500172 0.58000004 4278864671
-0.022324409 0.033384655 0.57800001 4278733087
-0.020411689 0.033326894 0.57700002 4279060515
-0.018505465 0.033269137 0.57600003 4279060515
-0.016576856 0.03315362 0.574 4279192871
-0.014686871 0.033095859 0.57300001 4279061798
-0.012803384 0.033038102 0.57200003 4279324970
-0.010945526 0.033038102 0.57200003 4279522349
-0.0090717813 0.032980345 0.57100004 4279521836
-0.007217173 0.032980345 0.57100004 4279192871
-0.028198281 0.035567675 0.583 4279190043
-0.026214458 0.03544566 0.58100003 4278993947
-0.024285499 0.035384651 0.58000004 4279060767
-0.022324409 0.035262633 0.57800001 4278731802
-0.020411689 0.035201628 0.57700002 4278666009
-0.018505465 0.035140619 0.57600003 4278600216
-0.016605737 0.035079613 0.57500005 4278600216
-0.014712502 0.035018601 0.574 4278600216
-0.012825768 0.034957595 0.57300001 4278469398
-0.010945526 0.034896586 0.57200003 4278469398
-0.0090876687 0.034896586 0.57200003 4278469400
-0.007217173 0.034835581 0.57100004 4278666779
-0.0053625642 0.034835581 0.57100004 4278666779
-0.0035018115 0.034774572 0.57000005 4278732572
-0.028149914 0.037397645 0.58200002 4278992664
-0.026214458 0.037333392 0.58100003 4278928154
-0.024285499 0.037269134 0.58000004 4278862875
-0.022324409 0.037140619 0.57800001 4278862875
-0.020411689 0.037076361 0.57700002 4278666009
-0.018505465 0.037012104 0.57600003 4278731802
-0.016605737 0.03694785 0.57500005 4278666009
-0.014712502 0.036883589 0.574 4278665496
-0.012825768 0.036819331 0.57300001 4278731289
-0.010945526 0.036755078 0.57200003 4278466581
-0.0090876687 0.036755078 0.57200003 4278336019
-0.0072298124 0.036755078 0.57200003 4278665496
-0.0053719557 0.036755078 0.57200003 4278533910
-0.0035202419 0.036819331 0.57300001 4278533910
-0.028149914 0.039288625 0.58200002 4279386650
-0.026214458 0.039221119 0.58100003 4278993945
-0.024243629 0.039086107 0.57900006 4278731287
-0.022324409 0.039018597 0.57800001 4278797080
-0.020411689 0.038951091 0.57700002 4278665494
-0.018505465 0.038883585 0.57600003 4278731287
-0.016605737 0.038816083 0.57500005 4278665494
-0.014712502 0.038748574 0.574 4278665494
-0.012825768 0.038681068 0.57300001 4278862361
-0.010964662 0.038681068 0.57300001 4278860056
-0.0091035562 0.038681068 0.57300001 4278860310
-0.0072298124 0.038613562 0.57200003 4279058459
-0.0053719557 0.038613562 0.57200003 4278794517
-0.0035202419 0.038681068 0.57300001 4279320861
-0.001659137 0.038681068 0.57300001 4278663699
0.00020196805 0.038681068 0.57300001 4278993179
0.002063073 0.038681068 0.57300001 4278928156
0.0039310264 0.038748574 0.574 4278796568
0.0057953792 0.038748574 0.574 4278664982
0.0076597324 0.038748574 0.574 4278731289
0.0095240846 0.038748574 0.574 4278600216
0.011388438 0.038748574 0.574 4278468630
0.013252791 0.038748574 0.574 4278468630
0.015117144 0.038748574 0.574 4278666009
0.016981497 0.038748574 0.574 4278666009
0.018845851 0.038748574 0.574 4278666009
0.022574555 0.038748574 0.574 4278731802
0.028118543 0.038681068 0.57300001 4279061537
0.030031966 0.038748574 0.574 4279061537
0.033819493 0.038816083 0.57500005 4279257894
0.035687093 0.038816083 0.57500005 4279323174
-0.028149914 0.041179601 0.58200002 4279058457
-0.026214458 0.041108847 0.58100003 4278796566
-0.024285499 0.041038092 0.58000004 4278862873
-0.022324409 0.04089658 0.57800001 4278731287
-0.020411689 0.040825825 0.57700002 4278665494
-0.018505465 0.040755071 0.57600003 4278533908
-0.016605737 0.040684316 0.57500005 4278665496
-0.014738135 0.040684316 0.57500005 4278665496
-0.01284815 0.040613558 0.574 4278796568
-0.010983797 0.040613558 0.574 4278197504
-0.0091035562 0.040542804 0.57300001 4279451934
-0.0072424519 0.040542804 0.57300001 4278197504
-0.0053813471 0.040542804 0.57300001 4278590476
-0.0035202419 0.040542804 0.57300001 4278655756
-0.001659137 0.040542804 0.57300001 4278524683
0.00020196805 0.040542804 0.57300001 4278393867
0.0020666735 0.040613558 0.574 4278195974
0.0039310264 0.040613558 0.574 4278196742
0.0057953792 0.040613558 0.574 4278195712
0.0076597324 0.040613558 0.574 4278198790
0.0095240846 0.040613558 0.574 4278201865
0.011388438 0.040613558 0.574 4278334736
0.013252791 0.040613558 0.574 4278663447
0.015117144 0.040613558 0.574 4278860826
0.016981497 0.040613558 0.574 4278993179
0.018878685 0.040684316 0.57500005 4278730007
0.020746283 0.040684316 0.57500005 4278335247
0.022613885 0.040684316 0.57500005 4278795798
0.024481487 0.040684316 0.57500005 4278468115
0.026349088 0.040684316 0.57500005 4278533908
0.028167615 0.040613558 0.574 4278731800
0.030031966 0.040613558 0.574 4278731800
0.031951889 0.040684316 0.57500005 4278666007
0.033819493 0.040684316 0.57500005 4278863386
0.035687093 0.040684316 0.57500005 4278600216
0.037620004 0.040755071 0.57600003 4279192353
0.039490856 0.040755071 0.57600003 4279126560
0.041433513 0.040825825 0.57700002 4279323939
0.043307606 0.040825825 0.57700002 4279061285
-0.028149914 0.043070577 0.58200002 4279124252
-0.026214458 0.042996574 0.58100003 4278928156
-0.024285499 0.042922571 0.58000004 4278666011
-0.022363035 0.042848568 0.57900006 4278731804
-0.020447064 0.042774558 0.57800001 4278468630
-0.018537592 0.042700555 0.57700002 4278468630
-0.016634615 0.042626552 0.57600003 4278731291
-0.014738135 0.042552549 0.57500005 4278533912
-0.01284815 0.042478543 0.574 4278795800
-0.010983797 0.042478543 0.574 4278198018
-0.0091194436 0.042478543 0.574 4279254555
-0.0072550913 0.042478543 0.574 4278198276
-0.0053907386 0.042478543 0.574 4279972129
-0.0035263854 0.042478543 0.574 4279577371
-0.0016620324 0.042478543 0.574 4279971362
0.00020232052 0.042478543 0.574 4279050260
0.0020666735 0.042478543 0.574 4278589709
0.0039310264 0.042478543 0.574 4278260744
0.0057953792 0.042478543 0.574 4278589709
0.0076730778 0.042552549 0.57500005 4278195720
0.009540678 0.042552549 0.57500005 4279649826
0.01140828 0.042552549 0.57500005 4279123480
0.013275881 0.042552549 0.57500005 4279912744
0.015143481 0.042552549 0.57500005 4279056922
0.017011084 0.042552549 0.57500005 4278727959
0.018878685 0.042552549 0.57500005 4278200844
0.020746283 0.042552549 0.57500005 4278197504
0.022613885 0.042552549 0.57500005 4278198016
0.024481487 0.042552549 0.57500005 4278196992
0.026349088 0.042552549 0.57500005 4278196736
0.02821669 0.042552549 0.57500005 4278201612
0.03008429 0.042552549 0.57500005 4278662677
0.031951889 0.042552549 0.57500005 4279255838
0.033819493 0.042552549 0.57500005 4279387935
0.035749156 0.042626552 0.57600003 4278927384
0.037620004 0.042626552 0.57600003 4278796568
0.039559416 0.042700555 0.57700002 4278337044
0.041433513 0.042700555 0.57700002 4278731800
0.043382663 0.042774558 0.57800001 4278600986
0.045260008 0.042774558 0.57800001 4278995746
0.047218911 0.042848568 0.57900006 4279390250
0.049099505 0.042848568 0.57900006 4278664732
-0.028149914 0.044961553 0.58200002 4278993179
-0.026214458 0.044884302 0.58100003 4279059742
-0.024285499 0.04480705 0.58000004 4278928670
-0.022363035 0.044729795 0.57900006 4278797084
-0.020447064 0.04465254 0.57800001 4278665498
-0.018537592 0.044575289 0.57700002 4278533912
-0.016634615 0.044498034 0.57600003 4278665498
-0.014738135 0.044420782 0.57500005 4278731291
-0.012870535 0.044420782 0.57500005 4279452447
-0.011002934 0.044420782 0.57500005 4278198531
-0.0091194436 0.044343524 0.574 4279451164
-0.0072550913 0.044343524 0.574 4278396173
-0.0053907386 0.044343524 0.574 4278920211
-0.0035263854 0.044343524 0.574 4278986004
-0.0016620324 0.044343524 0.574 4280366887
0.00020232052 0.044343524 0.574 4278919441
0.0020666735 0.044343524 0.574 4278458890
0.0039378749 0.044420782 0.57500005 4279051027
0.0058054761 0.044420782 0.57500005 4279314199
0.0076730778 0.044420782 0.57500005 4278657552
0.009540678 0.044420782 0.57500005 4278926103
0.01140828 0.044420782 0.57500005 4278199301
0.013275881 0.044420782 0.57500005 4278198536
0.015143481 0.044420782 0.57500005 4279318812
0.017011084 0.044420782 0.57500005 4278198016
0.018878685 0.044420782 0.57500005 4279319324
0.020746283 0.044420782 0.57500005 4279254301
0.022613885 0.044420782 0.57500005 4279056922
0.024481487 0.044420782 0.57500005 4278860310
0.026349088 0.044420782 0.57500005 4279189275
0.02821669 0.044420782 0.57500005 4279517727
0.03008429 0.044420782 0.57500005 4279386141
0.03200746 0.044498034 0.57600003 4279385887
0.033878308 0.044498034 0.57600003 4278925336
0.035749156 0.044498034 0.57600003 4278333201
0.037685316 0.044575289 0.57700002 4278267408
0.039559416 0.044575289 0.57700002 4278201352
0.041505318 0.04465254 0.57800001 4278599189
0.043382663 0.04465254 0.57800001 4278731289
0.045338318 0.044729795 0.57900006 4278862877
0.047218911 0.044729795 0.57900006 4278797084
0.049099505 0.044729795 0.57900006 4278862877
0.051068146 0.04480705 0.58000004 4282278993
-0.030143484 0.04701354 0.58400005 4280108328
-0.028198281 0.046933033 0.583 4279059488
-0.026259577 0.046852533 0.58200002 4278862877
-0.024285499 0.046691529 0.58000004 4278863388
-0.022363035 0.046611026 0.57900006 4278731802
-0.020447064 0.046530519 0.57800001 4278665496
-0.018537592 0.046450019 0.57700002 4278665496
-0.016634615 0.046369519 0.57600003 4278731289
-0.014763767 0.046369519 0.57600003 4278665496
-0.012870535 0.046289016 0.57500005 4279320348
-0.011002934 0.046289016 0.57500005 4278198788
-0.009135332 0.046289016 0.57500005 4279451164
-0.0072677312 0.046289016 0.57500005 4278198791
-0.0053907386 0.046208508 0.574 4278853135
-0.0035263854 0.046208508 0.574 4278589963
-0.0016620324 0.046208508 0.574 4278655502
0.00020267301 0.046289016 0.57500005 4278721295
0.002070274 0.046289016 0.57500005 4278655502
0.0039378749 0.046289016 0.57500005 4278657039
0.0058054761 0.046289016 0.57500005 4278986002
0.0076730778 0.046289016 0.57500005 4279314967
0.009540678 0.046289016 0.57500005 4280043047
0.01140828 0.046289016 0.57500005 4278197515
0.013275881 0.046289016 0.57500005 4278657552
0.015143481 0.046289016 0.57500005 4278593039
0.017011084 0.046289016 0.57500005 4279319324
0.018878685 0.046289016 0.57500005 4278200843
0.020746283 0.046289016 0.57500005 4279056406
0.022653213 0.046369519 0.57600003 4278924820
0.024524063 0.046369519 0.57600003 4278201099
0.026394913 0.046369519 0.57600003 4278201096
0.028265761 0.046369519 0.57600003 4278596625
0.030136609 0.046369519 0.57600003 4278662931
0.03200746 0.046369519 0.57600003 4278991896
0.033937123 0.046450019 0.57700002 4278992666
0.035811223 0.046450019 0.57700002 4278992666
0.037685316 0.046450019 0.57700002 4278992666
0.039627977 0.046530519 0.57800001 4278197248
0.041505318 0.046530519 0.57800001 4278993179
0.043382663 0.046530519 0.57800001 4278533910
0.045338318 0.046611026 0.57900006 4278533910
0.047218911 0.046611026 0.57900006 4278533910
0.049184304 0.046691529 0.58000004 4278862363
0.051068146 0.046691529 0.58000004 4279910959
-0.03620214 0.049413525 0.59000003 4285760630
-0.0301951 0.048994765 0.58500004 4280042281
-0.028198281 0.048827261 0.583 4279190304
-0.026259577 0.048743509 0.58200002 4279125281
-0.024327371 0.048659757 0.58100003 4278731291
-0.022401659 0.048576009 0.58000004 4278731804
-0.020482441 0.048492257 0.57900006 4278666011
-0.018569719 0.048408501 0.57800001 4278270740
-0.016663495 0.048324749 0.57700002 4278665498
-0.014763767 0.048241001 0.57600003 4278533912
-0.012892918 0.048241001 0.57600003 4278201352
-0.011002934 0.048157249 0.57500005 4278200072
-0.009135332 0.048157249 0.57500005 4279254555
-0.0072677312 0.048157249 0.57500005 4279254555
-0.0054001305 0.048157249 0.57500005 4278856211
-0.0035325291 0.048157249 0.57500005 4279118101
-0.001664928 0.048157249 0.57500005 4278459660
0.00020267301 0.048157249 0.57500005 4278195718
0.002070274 0.048157249 0.57500005 4278589709
0.0039378749 0.048157249 0.57500005 4278260744
0.0058054761 0.048157249 0.57500005 4278656015
0.0076864217 0.048241001 0.57600003 4279841822
0.0095572704 0.048241001 0.57600003 4279318810
0.01142812 0.048241001 0.57600003 4278856211
0.013298969 0.048241001 0.57600003 4278526476
0.015169818 0.048241001 0.57600003 4279515676
0.017040668 0.048241001 0.57600003 4278726673
0.018911516 0.048241001 0.57600003 4279582236
0.020782365 0.048241001 0.57600003 4278199555
0.022653213 0.048241001 0.57600003 4278266888
0.024524063 0.048241001 0.57600003 4279187992
0.026394913 0.048241001 0.57600003 4279318810
0.028265761 0.048241001 0.57600003 4278726675
0.030188929 0.048324749 0.57700002 4278792468
0.032063026 0.048324749 0.57700002 4278199818
0.033937123 0.048324749 0.57700002 4278791955
0.035811223 0.048324749 0.57700002 4278200843
0.037750628 0.048408501 0.57800001 4278991383
0.039627977 0.048408501 0.57800001 4278198530
0.041505318 0.048408501 0.57800001 4278861080
0.043457724 0.048492257 0.57900006 4278665498
0.045338318 0.048492257 0.57900006 4278665496
0.047300462 0.048576009 0.58000004 4278796568
0.049184304 0.048576009 0.58000004 4278862363
0.051068146 0.048576009 0.58000004 4278793248
-0.036324855 0.051504493 0.59200001 4285695607
-0.03225977 0.051156487 0.588 4285302645
-0.02824665 0.050808489 0.58400005 4279451945
-0.026304696 0.050721485 0.583 4279584299
-0.024327371 0.050547484 0.58100003 4279190304
-0.022401659 0.050460488 0.58000004 4279124765
-0.020482441 0.050373487 0.57900006 4278928156
-0.018569719 0.050286483 0.57800001 4278862363
-0.016663495 0.050199483 0.57700002 4278862363
-0.014789398 0.050199483 0.57700002 4278796570
-0.012892918 0.050112482 0.57600003 4278993179
-0.011022069 0.050112482 0.57600003 4278993179
-0.009135332 0.050025482 0.57500005 4278796570
-0.0072677312 0.050025482 0.57500005 4278928156
-0.0054001305 0.050025482 0.57500005 4278993179
-0.0035325291 0.050025482 0.57500005 4279058459
-0.001664928 0.050025482 0.57500005 4279058205
0.00020267301 0.050025482 0.57500005 4279058205
0.002070274 0.050025482 0.57500005 4279189021
0.0039447234 0.050112482 0.57600003 4279517473
0.0058155726 0.050112482 0.57600003 4279779877
0.0076864217 0.050112482 0.57600003 4279582498
0.0095572704 0.050112482 0.57600003 4279582496
0.01142812 0.050112482 0.57600003 4278726675
0.013298969 0.050112482 0.57600003 4278594576
0.015169818 0.050112482 0.57600003 4278196736
0.017040668 0.050112482 0.57600003 4278196992
0.018911516 0.050112482 0.57600003 4278195968
0.020782365 0.050112482 0.57600003 4278198531
0.022653213 0.050112482 0.57600003 4278726160
0.024524063 0.050112482 0.57600003 4279713822
0.026394913 0.050112482 0.57600003 4279976994
0.028314834 0.050199483 0.57700002 4279582236
0.030188929 0.050199483 0.57700002 4279779615
0.032063026 0.050199483 0.57700002 4279385371
0.033995941 0.050286483 0.57800001 4279450910
0.035873286 0.050286483 0.57800001 4279385887
0.037750628 0.050286483 0.57800001 4279517473
0.039696541 0.050373487 0.57900006 4278398222
0.041577131 0.050373487 0.57900006 4278927386
0.043457724 0.050373487 0.57900006 4278862363
0.045416623 0.050460488 0.58000004 4278862363
0.047300462 0.050460488 0.58000004 4278993947
0.049184304 0.050460488 0.58000004 4278993179
0.051068146 0.050460488 0.58000004 4278989857
-0.036447577 0.05360847 0.59400004 4285629560
-0.03029833 0.052976716 0.58700001 4285302645
-0.028295018 0.052796219 0.58500004 4285106296
-0.026349816 0.05270597 0.58400005 4283658852
-0.024369242 0.052525468 0.58200002 4281291065
-0.016692374 0.052164465 0.57800001 4279648809
-0.014789398 0.052074216 0.57700002 4279321125
-0.012892918 0.051983967 0.57600003 4279321125
-0.011022069 0.051983967 0.57600003 4279255332
-0.0091512194 0.051983967 0.57600003 4279124513
-0.0072677312 0.051893719 0.57500005 4278993697
-0.0054001305 0.051893719 0.57500005 4278927904
-0.0035325291 0.051893719 0.57500005 4278927902
-0.001664928 0.051893719 0.57500005 4278796316
0.00020267301 0.051893719 0.57500005 4278862109
0.0020738745 0.051983967 0.57600003 4278862109
0.0039447234 0.051983967 0.57600003 4278862109
0.0058155726 0.051983967 0.57600003 4278928156
0.0076864217 0.051983967 0.57600003 4278927386
0.0095572704 0.051983967 0.57600003 4279190045
0.01142812 0.051983967 0.57600003 4279124252
0.013298969 0.051983967 0.57600003 4279189275
0.015169818 0.051983967 0.57600003 4279189275
0.017040668 0.051983967 0.57600003 4279255066
0.018911516 0.051983967 0.57600003 4279255066
0.020782365 0.051983967 0.57600003 4279320861
0.022653213 0.051983967 0.57600003 4279386654
0.024524063 0.051983967 0.57600003 4279320094
0.026440736 0.052074216 0.57700002 4279451680
0.028314834 0.052074216 0.57700002 4278858259
0.030188929 0.052074216 0.57700002 4279121431
0.032118596 0.052164465 0.57800001 4278200072
0.033995941 0.052164465 0.57800001 4278197504
0.035873286 0.052164465 0.57800001 4278196736
0.037815943 0.052254722 0.57900006 4278198535
0.039696541 0.052254722 0.57900006 4278925849
0.041577131 0.052254722 0.57900006 4278927132
0.043532778 0.05234497 0.58000004 4278796570
0.045416623 0.05234497 0.58000004 4278928156
0.047300462 0.05234497 0.58000004 4278862363
0.049184304 0.05234497 0.58000004 4279058718
0.051068146 0.05234497 0.58000004 4284975223
-0.028343385 0.054790441 0.58600003 4285171059
-0.026349816 0.054603446 0.58400005 4285105780
-0.024369242 0.054416444 0.58200002 4285434743
-0.022440281 0.054322947 0.58100003 4285434741
-0.020517817 0.054229449 0.58000004 4285632892
-0.018601848 0.054135952 0.57900006 4285303675
-0.016692374 0.054042447 0.57800001 4285896325
-0.014789398 0.05394895 0.57700002 4285567360
-0.012892918 0.053855453 0.57600003 4284974964
-0.011022069 0.053855453 0.57600003 4283397215
-0.0091512194 0.053855453 0.57600003 4281488964
-0.0072803707 0.053855453 0.57600003 4279845166
-0.001664928 0.053761955 0.57500005 4278728988
0.00020302548 0.053855453 0.57600003 4279255332
0.0020738745 0.053855453 0.57600003 4279124259
0.0039447234 0.053855453 0.57600003 4279124259
0.0058155726 0.053855453 0.57600003 4279124259
0.0076864217 0.053855453 0.57600003 4278926880
0.0095738629 0.05394895 0.57700002 4279190306
0.01144796 0.05394895 0.57700002 4279190306
0.013322057 0.05394895 0.57700002 4278992927
0.015169818 0.053855453 0.57600003 4278992927
0.017040668 0.053855453 0.57600003 4278927132
0.018911516 0.053855453 0.57600003 4279124511
0.020782365 0.053855453 0.57600003 4279124511
0.022653213 0.053855453 0.57600003 4279058718
0.024566639 0.05394895 0.57700002 4279124511
0.026440736 0.05394895 0.57700002 4279058718
0.028314834 0.05394895 0.57700002 4279124511
0.030188929 0.05394895 0.57700002 4279190304
0.032118596 0.054042447 0.57800001 4279124511
0.033995941 0.054042447 0.57800001 4279189791
0.035873286 0.054042447 0.57800001 4279058207
0.037815943 0.054135952 0.57900006 4279058207
0.039696541 0.054135952 0.57900006 4279124511
0.041648939 0.054229449 0.58000004 4278993179
0.043532778 0.054229449 0.58000004 4278862363
0.045416623 0.054229449 0.58000004 4278928156
0.047300462 0.054229449 0.58000004 4279059742
0.049184304 0.054229449 0.58000004 4278530839
0.051156193 0.054322947 0.58100003 4285895812
-0.026394937 0.056597669 0.58500004 4285236852
-0.0035386726 0.055726934 0.57600003 4283855459
-0.0016678235 0.055726934 0.57600003 4284119655
0.0020738745 0.055726934 0.57600003 4285304442
0.0039447234 0.055726934 0.57600003 4285106550
0.0058155726 0.055726934 0.57600003 4283924072
0.0076997662 0.05582368 0.57700002 4282608212
0.0095738629 0.05582368 0.57700002 4281489731
0.01144796 0.05582368 0.57700002 4279910959
0.013322057 0.05582368 0.57700002 4279319074
0.015196154 0.05582368 0.57700002 4279121695
0.017070251 0.05582368 0.57700002 4279384867
0.018944349 0.05582368 0.57700002 4278990109
0.020818444 0.05582368 0.57700002 4278662427
0.022692541 0.05582368 0.57700002 4278728220
0.024566639 0.05582368 0.57700002 4278925601
0.026440736 0.05582368 0.57700002 4278925601
0.028314834 0.05582368 0.57700002 4279057957
0.030241249 0.05592043 0.57800001 4279255336
0.032118596 0.05592043 0.57800001 4279189541
0.033995941 0.05592043 0.57800001 4279255334
0.035935353 0.056017179 0.57900006 4279255334
0.037815943 0.056017179 0.57900006 4279255332
0.039696541 0.056017179 0.57900006 4278860574
0.041648939 0.056113929 0.58000004 4279320355
0.043532778 0.056113929 0.58000004 4279320607
0.045416623 0.056113929 0.58000004 4279254814
0.047300462 0.056113929 0.58000004 4279647273
0.049184304 0.056113929 0.58000004 4285106809
0.051156193 0.056210674 0.58100003 4285237112
0.017070251 0.057698414 0.57700002 4285567614
0.018944349 0.057698414 0.57700002 4285764478
0.020818444 0.057698414 0.57700002 4285632892
0.022692541 0.057698414 0.57700002 4285830271
0.024566639 0.057698414 0.57700002 4285896064
0.026440736 0.057698414 0.57700002 4285896577
0.028314834 0.057698414 0.57700002 4285699970
0.030241249 0.057798408 0.57800001 4285831302
0.032118596 0.057798408 0.57800001 4285830786
0.033995941 0.057798408 0.57800001 4285764993
0.035935353 0.05789841 0.57900006 4285567614
0.037815943 0.05789841 0.57900006 4285764993
0.039765101 0.057998408 0.58000004 4285764991
0.041648939 0.057998408 0.58000004 4285632892
0.043532778 0.057998408 0.58000004 4285304188
0.045416623 0.057998408 0.58000004 4285764739
0.047300462 0.057998408 0.58000004 4285041270
0.049184304 0.057998408 0.58000004 4285172089
0.051156193 0.058098402 0.58100003 4285172089
0.037815943 0.05977964 0.57900006 4285500284
0.039765101 0.059882887 0.58000004 4285434491
0.041648939 0.059882887 0.58000004 4285500284
0.043532778 0.059882887 0.58000004 4285302905
0.045416623 0.059882887 0.58000004 4285434491
0.047300462 0.059882887 0.58000004 4285303675
0.049184304 0.059882887 0.58000004 4285172089
0.0095633017 0.046915468 0.5768804 4294967295
0.0095633017 0.046915468 0.5768804 4294901760
0.0095633017 0.046915468 0.57738042 4294901760
0.0095633017 0.046915468 0.57788038 4294901760
0.0095633017 0.046915468 0.57838041 4294901760
0.0095633017 0.046915468 0.57888037 4294901760
0.0095633017 0.046915468 0.57938039 4294901760
0.0095633017 0.046915468 0.57988042 4294901760
0.0095633017 0.046915468 0.58038038 4294901760
0.0095633017 0.046915468 0.5808804 4294901760
0.0095633017 0.046915468 0.58138037 4294901760
0.0095633017 0.046915468 0.58188039 4294901760
0.0095633017 0.046915468 0.58238041 4294901760
0.0095633017 0.046915468 0.58288038 4294901760
0.0095633017 0.046915468 0.5833804 4294901760
0.0095633017 0.046915468 0.58388042 4294901760
0.0095633017 0.046915468 0.58438039 4294901760
0.0095633017 0.046915468 0.58488041 4294901760
0.0095633017 0.046915468 0.58538038 4294901760
0.0095633017 0.046915468 0.5858804 4294901760
0.0095633017 0.046915468 0.58638042 4294901760
0.0095633017 0.046915468 0.58688039 4294901760
0.0095633017 0.046915468 0.58738041 4294901760
0.0095633017 0.046915468 0.58788037 4294901760
0.0095633017 0.046915468 0.5883804 4294901760
0.0095633017 0.046915468 0.58888042 4294901760
0.0095633017 0.046915468 0.58938038 4294901760
0.0095633017 0.046915468 0.58988041 4294901760
0.0095633017 0.046915468 0.59038037 4294901760
0.0095633017 0.046915468 0.59088039 4294901760
0.0095633017 0.046915468 0.59138042 4294901760
0.0095633017 0.046915468 0.59188038 4294901760
0.0095633017 0.046915468 0.5923804 4294901760
0.0095633017 0.046915468 0.59288037 4294901760
0.0095633017 0.046915468 0.59338039 4294901760
0.0095633017 0.046915468 0.59388041 4294901760
0.0095633017 0.046915468 0.59438038 4294901760
0.0095633017 0.046915468 0.5948804 4294901760
0.0095633017 0.046915468 0.59538043 4294901760
0.0095633017 0.046915468 0.59588039 4294901760
0.0095633017 0.046915468 0.59638041 4294901760
0.0095633017 0.046915468 0.59688038 4294901760
0.0095633017 0.046915468 0.5973804 4294901760
0.0095633017 0.046915468 0.59788042 4294901760
0.0095633017 0.046915468 0.59838039 4294901760
0.0095633017 0.046915468 0.59888041 4294901760
0.0095633017 0.046915468 0.59938037 4294901760
0.0095633017 0.046915468 0.5998804 4294901760
0.0095633017 0.046915468 0.60038042 4294901760
0.0095633017 0.046915468 0.60088038 4294901760
0.0095633017 0.046915468 0.60138041 4294901760
0.0095633017 0.046915468 0.60188043 4294901760
0.0095633017 0.046915468 0.60238039 4294901760
0.0095633017 0.046915468 0.60288042 4294901760
0.0095633017 0.046915468 0.60338038 4294901760
0.0095633017 0.046915468 0.60388041 4294901760
0.0095633017 0.046915468 0.60438043 4294901760
0.0095633017 0.046915468 0.60488039 4294901760
0.0095633017 0.046915468 0.60538042 4294901760
0.0095633017 0.046915468 0.60588038 4294901760
0.0095633017 0.046915468 0.6063804 4294901760
0.0095633017 0.046915468 0.60688043 4294901760
0.0095633017 0.046915468 0.60738039 4294901760
0.0095633017 0.046915468 0.60788041 4294901760
0.0095633017 0.046915468 0.60838038 4294901760
0.0095633017 0.046915468 0.6088804 4294901760
0.0095633017 0.046915468 0.60938042 4294901760
0.0095633017 0.046915468 0.60988039 4294901760
0.0095633017 0.046915468 0.61038041 4294901760
0.0095633017 0.046915468 0.61088037 4294901760
0.0095633017 0.046915468 0.6113804 4294901760
0.0095633017 0.046915468 0.61188042 4294901760
0.0095633017 0.046915468 0.61238039 4294901760
0.0095633017 0.046915468 0.61288041 4294901760
0.0095633017 0.046915468 0.61338043 4294901760
0.0095633017 0.046915468 0.6138804 4294901760
0.0095633017 0.046915468 0.61438042 4294901760
0.0095633017 0.046915468 0.61488038 4294901760
0.0095633017 0.046915468 0.61538041 4294901760
0.0095633017 0.046915468 0.61588043 4294901760
0.0095633017 0.046915468 0.61638039 4294901760
0.0095633017 0.046915468 0.61688042 4294901760
0.0095633017 0.046915468 0.61738038 4294901760
0.0095633017 0.046915468 0.6178804 4294901760
0.0095633017 0.046915468 0.61838043 4294901760
0.0095633017 0.046915468 0.61888039 4294901760
0.0095633017 0.046915468 0.61938041 4294901760
0.0095633017 0.046915468 0.61988044 4294901760
0.0095633017 0.046915468 0.6203804 4294901760
0.0095633017 0.046915468 0.62088042 4294901760
0.0095633017 0.046915468 0.62138039 4294901760
0.0095633017 0.046915468 0.62188041 4294901760
0.0095633017 0.046915468 0.62238044 4294901760
0.0095633017 0.046915468 0.6228804 4294901760
0.0095633017 0.046915468 0.62338042 4294901760
0.0095633017 0.046915468 0.62388039 4294901760
0.0095633017 0.046915468 0.62438041 4294901760
0.0095633017 0.046915468 0.62488043 4294901760
0.0095633017 0.046915468 0.6253804 4294901760
0.0095633017 0.046915468 0.62588042 4294901760
0.0095633017 0.046915468 0.62638038 4294901760
0.0095633017 0.046915468 0.62688041 4294901760
0.0095633017 0.046915468 0.5768804 4278255360
0.0095299408 0.04681908 0.57736987 4278255360
0.0094965789 0.046722692 0.57785934 4278255360
0.009463218 0.0466263 0.57834888 4278255360
0.0094298571 0.046529911 0.57883835 4278255360
0.0093964953 0.046433523 0.57932782 4278255360
0.0093631344 0.046337135 0.5798173 4278255360
0.0093297726 0.046240747 0.58030677 4278255360
0.0092964116 0.046144355 0.5807963 4278255360
0.0092630507 0.046047967 0.58128577 4278255360
0.0092296889 0.045951579 0.58177525 4278255360
0.009196328 0.045855191 0.58226472 4278255360
0.0091629671 0.045758802 0.58275425 4278255360
0.0091296053 0.045662411 0.58324373 4278255360
0.0090962444 0.045566022 0.5837332 4278255360
0.0090628834 0.045469634 0.58422267 4278255360
0.0090295216 0.045373246 0.58471215 4278255360
0.0089961607 0.045276858 0.58520168 4278255360
0.0089627989 0.045180466 0.58569115 4278255360
0.008929438 0.045084078 0.58618063 4278255360
0.0088960771 0.04498769 0.5866701 4278255360
0.0088627152 0.044891302 0.58715957 4278255360
0.0088293543 0.044794913 0.58764911 4278255360
0.0087959934 0.044698521 0.58813858 4278255360
0.0087626316 0.044602133 0.58862805 4278255360
0.0087292707 0.044505745 0.58911753 4278255360
0.0086959098 0.044409357 0.589607 4278255360
0.0086625479 0.044312969 0.59009653 4278255360
0.008629187 0.044216577 0.59058601 4278255360
0.0085958261 0.044120189 0.59107548 4278255360
0.0085624643 0.044023801 0.59156495 4278255360
0.0085291034 0.043927412 0.59205449 4278255360
0.0084957425 0.043831024 0.59254396 4278255360
0.0084623806 0.043734632 0.59303343 4278255360
0.0084290197 0.043638244 0.59352291 4278255360
0.0083956579 0.043541856 0.59401238 4278255360
0.008362297 0.043445468 0.59450191 4278255360
0.0083289361 0.04334908 0.59499139 4278255360
0.0082955742 0.043252688 0.59548086 4278255360
0.0082622133 0.0431563 0.59597033 4278255360
0.0082288524 0.043059912 0.59645981 4278255360
0.0081954906 0.042963523 0.59694934 4278255360
0.0081621297 0.042867135 0.59743881 4278255360
0.0081287678 0.042770743 0.59792829 4278255360
0.0080954069 0.042674355 0.59841776 4278255360
0.008062046 0.042577967 0.59890723 4278255360
0.0080286842 0.042481579 0.59939677 4278255360
0.0079953233 0.042385191 0.59988624 4278255360
0.0079619624 0.042288799 0.60037571 4278255360
0.0079286005 0.042192411 0.60086519 4278255360
0.0078952396 0.042096023 0.60135472 4278255360
0.0078618787 0.041999634 0.60184419 4278255360
0.0078285169 0.041903246 0.60233366 4278255360
0.007795156 0.041806854 0.60282314 4278255360
0.0077617946 0.041710466 0.60331261 4278255360
0.0077284332 0.041614078 0.60380214 4278255360
0.0076950723 0.04151769 0.60429162 4278255360
0.007661711 0.041421302 0.60478109 4278255360
0.0076283496 0.041324914 0.60527056 4278255360
0.0075949887 0.041228522 0.60576004 4278255360
0.0075616268 0.041132133 0.60624957 4278255360
0.0075282659 0.041035745 0.60673904 4278255360
0.007494905 0.040939357 0.60722852 4278255360
0.0074615432 0.040842965 0.60771799 4278255360
0.0074281823 0.040746577 0.60820746 4278255360
0.0073948214 0.040650189 0.608697 4278255360
0.0073614595 0.040553801 0.60918647 4278255360
0.0073280986 0.040457413 0.60967594 4278255360
0.0072947373 0.040361021 0.61016542 4278255360
0.0072613759 0.040264633 0.61065495 4278255360
0.007228015 0.040168244 0.61114442 4278255360
0.0071946536 0.040071856 0.6116339 4278255360
0.0071612922 0.039975464 0.61212337 4278255360
0.0071279313 0.039879076 0.61261284 4278255360
0.0070945695 0.039782688 0.61310238 4278255360
0.0070612086 0.0396863 0.61359185 4278255360
0.0070278477 0.039589912 0.61408132 4278255360
0.0069944859 0.039493524 0.6145708 4278255360
0.0069611249 0.039397135 0.61506027 4278255360
0.0069277636 0.039300743 0.6155498 4278255360
0.0068944022 0.039204355 0.61603928 4278255360
0.0068610413 0.039107967 0.61652875 4278255360
0.0068276799 0.039011575 0.61701822 4278255360
0.0067943186 0.038915187 0.6175077 4278255360
0.0067609577 0.038818799 0.61799723 4278255360
0.0067275958 0.038722411 0.6184867 4278255360
0.0066942349 0.038626023 0.61897618 4278255360
0.006660874 0.038529634 0.61946565 4278255360
0.0066275122 0.038433246 0.61995518 4278255360
0.0065941513 0.038336854 0.62044466 4278255360
0.0065607904 0.038240466 0.62093413 4278255360
0.0065274285 0.038144078 0.6214236 4278255360
0.0064940676 0.038047686 0.62191308 4278255360
0.0064607062 0.037951298 0.62240261 4278255360
0.0064273449 0.03785491 0.62289208 4278255360
0.006393984 0.037758522 0.62338156 4278255360
0.0063606226 0.037662134 0.62387103 4278255360
0.0063272612 0.037565745 0.6243605 4278255360
0.0062939003 0.037469354 0.62485003 4278255360
0.0062605385 0.037372965 0.62533951 4278255360
0.0062271776 0.037276577 0.62582898 4278255360
