# .PCD v0.7 - Point Cloud Data file format
VERSION 0.7
FIELDS x y z rgb
SIZE 4 4 4 4
TYPE F F F U
COUNT 1 1 1 1
WIDTH 1057
HEIGHT 1
VIEWPOINT 0 0 0 1 0 0 0
POINTS 1057
DATA ascii
0.0025270884 0.035700068 0.36900002 4279910947
0.0037256009 0.035700068 0.36900002 4278862363
0.0049107694 0.035603318 0.36800003 4278928154
0.006089441 0.035506569 0.36700001 4278731289
0.0072417771 0.035313074 0.36500001 4278665496
0.0084042093 0.035216328 0.36400002 4278533910
0.0095338086 0.035022829 0.36200002 4278731289
0.010650417 0.034829333 0.36000001 4278731289
0.011786866 0.034732588 0.35900003 4278468117
0.012916816 0.034635838 0.35800001 4278533910
0.014040273 0.034539089 0.35700002 4278402324
0.015157233 0.034442339 0.35600001 4278861080
0.016313521 0.034442339 0.35600001 4278595601
0.017420739 0.034345593 0.35500002 4278859797
0.018573778 0.034345593 0.35500002 4278663701
0.01967125 0.034248844 0.354 4278795287
0.020821042 0.034248844 0.354 4278465552
0.053545594 0.031830143 0.32900003 4280373297
0.05461419 0.031830143 0.32900003 4279780647
0.055682778 0.031830143 0.32900003 4280504883
0.05675137 0.031830143 0.32900003 4280569393
0.057995707 0.031926889 0.33000001 4282213966
-0.0035124326 0.037398972 0.37400001 4279707674
-0.0022853927 0.037198976 0.37200001 4280167457
-0.0010742405 0.037098981 0.37100002 4280891694
0.00013076815 0.037098981 0.37100002 4281089073
0.0013321763 0.03699898 0.37 4280500268
0.0025270884 0.036898986 0.36900002 4279647775
0.0037155047 0.036798988 0.36800003 4278993947
0.004897425 0.03669899 0.36700001 4278664980
0.006072849 0.036598995 0.36600003 4278731287
0.0072417771 0.036498994 0.36500001 4278731287
0.0083811209 0.036299001 0.36300001 4278731289
0.0095074726 0.036099009 0.36100003 4278665496
0.010650417 0.035999011 0.36000001 4278665496
0.011786866 0.035899013 0.35900003 4278402324
0.012916816 0.035799015 0.35800001 4278533910
0.014040273 0.035699017 0.35700002 4278402324
0.015157233 0.035599019 0.35600001 4278198020
0.016267698 0.035499025 0.35500002 4278196997
0.017420739 0.035499025 0.35500002 4278794004
0.018573778 0.035499025 0.35500002 4278859797
0.01967125 0.035399023 0.354 4278195712
0.020821042 0.035399023 0.354 4278458373
0.021908771 0.035299029 0.35300002 4278589189
0.022990003 0.035199031 0.35200003 4278458886
0.02406474 0.035099033 0.35100001 4278262790
0.02513298 0.034999039 0.35000002 4278194176
0.02626978 0.034999039 0.35000002 4278198534
0.027328275 0.034899037 0.34900001 4278660367
0.028380277 0.034799043 0.34800002 4278727441
0.029510582 0.034799043 0.34800002 4278990613
0.030552836 0.034699045 0.347 4278400529
0.031588595 0.034599047 0.34600002 4278795800
0.032712407 0.034599047 0.34600002 4278730005
0.033836212 0.034599047 0.34600002 4278532626
0.034858983 0.034499053 0.34500003 4278533396
0.035875253 0.034399055 0.34400001 4278599189
0.036992565 0.034399055 0.34400001 4278467603
0.037999097 0.034299057 0.34300002 4278401808
0.038999125 0.034199059 0.34200001 4278599187
0.040109944 0.034199059 0.34200001 4278533910
0.051877178 0.033199087 0.33200002 4279518756
0.052955512 0.033199087 0.33200002 4281097020
0.053708345 0.032999091 0.33000001 4285701763
0.054780185 0.032999091 0.33000001 4287874219
0.055852026 0.032999091 0.33000001 4286032011
0.057096366 0.033099093 0.33100003 4282610007
0.058171455 0.033099093 0.33100003 4280702010
0.059783522 0.033399083 0.33400002 4279715115
0.06105059 0.033499077 0.33500001 4280242229
0.062324163 0.033599075 0.33600003 4280373043
0.063604228 0.033699073 0.33700001 4280636215
0.064890787 0.033799071 0.33800003 4282016073
-0.0035124326 0.038614135 0.37400001 4280036639
-0.0022853927 0.038407642 0.37200001 4280562469
-0.0010742405 0.038304396 0.37100002 4280562729
0.00013041566 0.03820115 0.37 4281024050
0.0013321763 0.03820115 0.37 4280631340
0.0025270884 0.038097903 0.36900002 4279516191
0.0037155047 0.037994657 0.36800003 4278796568
0.004897425 0.03789141 0.36700001 4278862361
0.006072849 0.037788164 0.36600003 4278533910
0.0072417771 0.037684917 0.36500001 4278731291
0.0083811209 0.037478425 0.36300001 4278665498
0.0095074726 0.037271935 0.36100003 4278665498
0.010650417 0.037168685 0.36000001 4278468117
0.011754032 0.036962193 0.35800001 4278665496
0.012880736 0.03685895 0.35700002 4278468117
0.014040273 0.03685895 0.35700002 4278533910
0.015157233 0.0367557 0.35600001 4278987797
0.016267698 0.036652453 0.35500002 4278722830
0.017420739 0.036652453 0.35500002 4279056924
0.018573778 0.036652453 0.35500002 4279320609
0.01967125 0.036549207 0.354 4278589191
0.020821042 0.036549207 0.354 4278719752
0.021908771 0.03644596 0.35300002 4278719752
0.022990003 0.036342718 0.35200003 4278719498
0.02406474 0.036239468 0.35100001 4278719498
0.025204787 0.036239468 0.35100001 4278720011
0.02626978 0.036136225 0.35000002 4278654986
0.027328275 0.036032975 0.34900001 4278589193
0.028380277 0.035929732 0.34800002 4278654984
0.029510582 0.035929732 0.34800002 4278589191
0.030552836 0.035826482 0.347 4278196486
0.031679891 0.035826482 0.347 4278195714
0.032712407 0.035723239 0.34600002 4278198276
0.033836212 0.035723239 0.34600002 4278267406
0.034858983 0.035619993 0.34500003 4278530578
0.035875253 0.035516743 0.34400001 4279057176
0.036992565 0.035516743 0.34400001 4278860308
0.037999097 0.0354135 0.34300002 4279320859
0.038999125 0.03531025 0.34200001 4278663699
0.040109944 0.03531025 0.34200001 4278664212
0.041100234 0.035207007 0.34100002 4278664982
0.0422078 0.035207007 0.34100002 4278664980
0.043188341 0.035103757 0.34 4278730003
0.045129947 0.034897268 0.33800003 4278468115
0.046227768 0.034897268 0.33800003 4278533908
0.047325596 0.034897268 0.33800003 4278468117
0.048280153 0.034794021 0.33700001 4278270740
0.049374733 0.034794021 0.33700001 4278468117
0.050319545 0.034690775 0.33600003 4278533908
0.051257867 0.034587529 0.33500001 4278533910
0.052033436 0.034381032 0.333 4278797082
0.052955512 0.034277789 0.33200002 4278862875
0.054033849 0.034277789 0.33200002 4279059742
0.054946192 0.034174543 0.33100003 4279190558
0.056021277 0.034174543 0.33100003 4279518756
0.057268862 0.034277789 0.33200002 4280438577
0.058347199 0.034277789 0.33200002 4283004250
0.059783522 0.034484282 0.33400002 4286493075
0.06105059 0.034587529 0.33500001 4285834884
0.062324163 0.034690775 0.33600003 4282281812
0.063604228 0.034794021 0.33700001 4280242227
0.0646988 0.034794021 0.33700001 4279650344
0.065988615 0.034897268 0.33800003 4279650342
0.067086443 0.034897268 0.33800003 4280241709
0.068184264 0.034897268 0.33800003 4280241711
0.069282085 0.034897268 0.33800003 4280700979
-0.0022792493 0.039509814 0.37100002 4280693801
-0.0010713449 0.039403316 0.37 4280759594
0.00013041566 0.039403316 0.37 4281089073
0.0013285758 0.039296821 0.36900002 4280499754
0.0025270884 0.039296821 0.36900002 4279779877
0.0037155047 0.03919033 0.36800003 4278862361
0.004897425 0.039083831 0.36700001 4278862361
0.006072849 0.038977336 0.36600003 4278862875
0.0072417771 0.038870838 0.36500001 4278533912
0.0083811209 0.038657848 0.36300001 4278731291
0.0095074726 0.038444858 0.36100003 4278533912
0.010620832 0.038231868 0.35900003 4278665498
0.011754032 0.03812537 0.35800001 4278533912
0.012880736 0.038018879 0.35700002 4278468119
0.014000944 0.03791238 0.35600001 4278402326
0.015157233 0.03791238 0.35600001 4278264587
0.016267698 0.037805885 0.35500002 4278593039
0.017420739 0.037805885 0.35500002 4278860058
0.018521456 0.03769939 0.354 4278860058
0.01967125 0.03769939 0.354 4278720779
0.020762227 0.037592895 0.35300002 4279181076
0.021908771 0.037592895 0.35300002 4278851597
0.022990003 0.0374864 0.35200003 4278983183
0.02406474 0.037379902 0.35100001 4278785291
0.025204787 0.037379902 0.35100001 4278719498
0.02626978 0.037273411 0.35000002 4278785291
0.027328275 0.037166912 0.34900001 4278916877
0.028380277 0.037060417 0.34800002 4278785291
0.029510582 0.037060417 0.34800002 4278719498
0.030552836 0.036953922 0.347 4278720011
0.031679891 0.036953922 0.347 4278588939
0.032712407 0.036847427 0.34600002 4278194945
0.033836212 0.036847427 0.34600002 4279055388
0.034858983 0.036740933 0.34500003 4279055386
0.035979543 0.036740933 0.34500003 4278527759
0.036992565 0.036634434 0.34400001 4278197769
0.037999097 0.036527943 0.34300002 4278195713
0.038999125 0.036421444 0.34200001 4278195969
0.040109944 0.036421444 0.34200001 4278196740
0.041100234 0.036314949 0.34100002 4278266124
0.0422078 0.036314949 0.34100002 4278529294
0.043188341 0.036208451 0.34 4278727441
0.044292662 0.036208451 0.34 4279254555
0.045263465 0.03610196 0.33900002 4278795287
0.046227768 0.035995465 0.33800003 4278730005
0.047325596 0.035995465 0.33800003 4278730005
0.048280153 0.035888966 0.33700001 4278730005
0.049374733 0.035888966 0.33700001 4278796568
0.050319545 0.035782471 0.33600003 4278664980
0.051257867 0.035675976 0.33500001 4278599187
0.052189693 0.035569482 0.33400002 4278599187
0.053115014 0.035462983 0.333 4278664980
0.0541966 0.035462983 0.333 4278468115
0.055112191 0.035356492 0.33200002 4278533908
0.056190521 0.035356492 0.33200002 4278665496
0.057441354 0.035462983 0.333 4279059740
0.05852294 0.035462983 0.333 4279190556
0.059783522 0.035569482 0.33400002 4278927384
0.06105059 0.035675976 0.33500001 4278598421
0.062324163 0.035782471 0.33600003 4279780125
0.063604228 0.035888966 0.33700001 4280636721
0.0646988 0.035888966 0.33700001 4285176954
0.06579338 0.035888966 0.33700001 4285505921
0.06688796 0.035888966 0.33700001 4281361223
0.067982532 0.035888966 0.33700001 4280111408
0.069077104 0.035888966 0.33700001 4279454246
0.069963463 0.035782471 0.33600003 4279388453
-0.0022731056 0.040605485 0.37 4280496422
-0.0010713449 0.040605485 0.37 4280628008
0.0001300632 0.040495742 0.36900002 4281089073
0.0013285758 0.040495742 0.36900002 4280501038
0.0025202399 0.040385999 0.36800003 4279451682
0.0037155047 0.040385999 0.36800003 4278796570
0.004897425 0.040276252 0.36700001 4278731291
0.006072849 0.040166508 0.36600003 4278797084
0.0072417771 0.040056761 0.36500001 4278731289
0.0084272977 0.040056761 0.36500001 4278731289
0.0094811358 0.039508041 0.36000001 4278731289
0.010620832 0.039398298 0.35900003 4278468117
0.011754032 0.039288551 0.35800001 4278533910
0.012880736 0.039178807 0.35700002 4278533910
0.014000944 0.03906906 0.35600001 4278533910
0.015157233 0.03906906 0.35600001 4278196998
0.016267698 0.038959317 0.35500002 4279053590
0.017420739 0.038959317 0.35500002 4278728470
0.018521456 0.03884957 0.354 4279320094
0.01967125 0.03884957 0.354 4278458377
0.020762227 0.038739827 0.35300002 4279445018
0.021908771 0.038739827 0.35300002 4278985234
0.022990003 0.038630083 0.35200003 4278918926
0.02406474 0.038520336 0.35100001 4279708957
0.025204787 0.038520336 0.35100001 4279248406
0.02626978 0.038410597 0.35000002 4279511578
0.027328275 0.038300849 0.34900001 4279972127
0.028461827 0.038300849 0.34900001 4278983437
0.029510582 0.038191106 0.34800002 4279247123
0.030552836 0.038081359 0.347 4279246355
0.031679891 0.038081359 0.347 4278522632
0.032712407 0.037971616 0.34600002 4278195717
0.033836212 0.037971616 0.34600002 4279055900
0.034858983 0.037861872 0.34500003 4278860826
0.035979543 0.037861872 0.34500003 4278663447
0.036992565 0.037752125 0.34400001 4278793750
0.037999097 0.037642382 0.34300002 4279056154
0.03911316 0.037642382 0.34300002 4278990361
0.040109944 0.037532635 0.34200001 4279319072
0.041100234 0.037422892 0.34100002 4278989593
0.0422078 0.037422892 0.34100002 4279054873
0.043188341 0.037313148 0.34 4278725138
0.044292662 0.037313148 0.34 4278197766
0.045263465 0.037203405 0.33900002 4278196996
0.046364535 0.037203405 0.33900002 4278196482
0.047325596 0.037093662 0.33800003 4278196736
0.048423421 0.037093662 0.33800003 4278396425
0.049374733 0.036983915 0.33700001 4278858259
0.050319545 0.036874171 0.33600003 4279055638
0.051410876 0.036874171 0.33600003 4278991383
0.052345946 0.036764424 0.33500001 4278991896
0.053274523 0.036654681 0.33400002 4278532113
0.0541966 0.036544934 0.333 4278664212
0.055278186 0.036544934 0.333 4278664982
0.056359768 0.036544934 0.333 4278796568
0.057441354 0.036544934 0.333 4278862361
0.058698688 0.036654681 0.33400002 4278796568
0.059783522 0.036654681 0.33400002 4278862361
0.06105059 0.036764424 0.33500001 4278796568
0.062324163 0.036874171 0.33600003 4279059222
0.06341549 0.036874171 0.33600003 4279124502
0.064506821 0.036874171 0.33600003 4279190295
0.065598145 0.036874171 0.33600003 4278992662
0.066689476 0.036874171 0.33600003 4278664212
0.0677808 0.036874171 0.33600003 4279586600
0.068872131 0.036874171 0.33600003 4279652906
0.069755234 0.036764424 0.33500001 4279126562
0.070631847 0.036654681 0.33400002 4278929181
0.071716674 0.036654681 0.33400002 4279191840
-0.0022731056 0.041807652 0.37 4283128646
-0.0010713449 0.041807652 0.37 4282207544
0.0001300632 0.04169466 0.36900002 4281286442
0.0013285758 0.04169466 0.36900002 4280830255
0.0025202399 0.041581668 0.36800003 4279320348
0.003705408 0.041468672 0.36700001 4278862361
0.004897425 0.041468672 0.36700001 4278665496
0.006072849 0.041355681 0.36600003 4278797084
0.0072219367 0.04112969 0.36400002 4278797084
0.0083580324 0.040903702 0.36200002 4278731289
0.0094811358 0.040677715 0.36000001 4278533910
0.010620832 0.040564723 0.35900003 4278468117
0.011754032 0.040451728 0.35800001 4278468117
0.012880736 0.040338736 0.35700002 4278467603
0.014000944 0.040225741 0.35600001 4278401812
0.015157233 0.040225741 0.35600001 4278263306
0.016267698 0.040112749 0.35500002 4279447578
0.017420739 0.040112749 0.35500002 4278793750
0.018521456 0.039999753 0.354 4278924566
0.01967125 0.039999753 0.354 4278589963
0.020762227 0.039886761 0.35300002 4279511578
0.021908771 0.039886761 0.35300002 4279117588
0.022990003 0.03977377 0.35200003 4279183381
0.02406474 0.039660774 0.35100001 4280038690
0.025204787 0.039660774 0.35100001 4278393097
0.02626978 0.039547779 0.35000002 4278986004
0.027328275 0.039434783 0.34900001 4278195972
0.028461827 0.039434783 0.34900001 4278589191
0.029510582 0.039321791 0.34800002 4278458377
0.030552836 0.039208796 0.347 4279578141
0.031679891 0.039208796 0.347 4278655502
0.032712407 0.039095804 0.34600002 4278394378
0.033836212 0.039095804 0.34600002 4278924566
0.034858983 0.038982812 0.34500003 4278597908
0.035979543 0.038982812 0.34500003 4278202122
0.036992565 0.038869817 0.34400001 4278198019
0.037999097 0.038756825 0.34300002 4278199818
0.03911316 0.038756825 0.34300002 4278860056
0.040109944 0.03864383 0.34200001 4278728470
0.041220758 0.03864383 0.34200001 4278794263
0.0422078 0.038530838 0.34100002 4278860056
0.04331537 0.038530838 0.34100002 4278860310
0.044292662 0.038417842 0.34 4278991896
0.045263465 0.03830485 0.33900002 4278991383
0.046364535 0.03830485 0.33900002 4279122199
0.047325596 0.038191859 0.33800003 4279120918
0.048423421 0.038191859 0.33800003 4279384090
0.049374733 0.038078863 0.33700001 4279382807
0.050469305 0.038078863 0.33700001 4278856465
0.051410876 0.037965868 0.33600003 4278195712
0.052345946 0.037852872 0.33500001 4278196226
0.053434025 0.037852872 0.33500001 4278195457
0.054359358 0.03773988 0.33400002 4278196482
0.055444192 0.03773988 0.33400002 4278330634
0.056529019 0.03773988 0.33400002 4278726162
0.057613853 0.03773988 0.33400002 4278727957
0.058698688 0.03773988 0.33400002 4278925849
0.059783522 0.03773988 0.33400002 4278795287
0.06105059 0.037852872 0.33500001 4278729492
0.062138673 0.037852872 0.33500001 4278795796
0.063226752 0.037852872 0.33500001 4278664210
0.064506821 0.037965868 0.33600003 4278730003
0.065598145 0.037965868 0.33600003 4279058968
0.066490993 0.037852872 0.33500001 4278664980
0.067579068 0.037852872 0.33500001 4278664982
0.068667151 0.037852872 0.33500001 4278731802
0.069547012 0.03773988 0.33400002 4278666009
0.07042037 0.037626885 0.333 4278797595
0.071501955 0.037626885 0.333 4278731802
0.072365575 0.037513893 0.33200002 4279387683
-0.0022731056 0.043009818 0.37 4280559381
-0.0010713449 0.043009818 0.37 4282402609
0.0001300632 0.042893577 0.36900002 4279376901
0.0013285758 0.042893577 0.36900002 4280896559
0.0025202399 0.042777337 0.36800003 4279255068
0.003705408 0.042661093 0.36700001 4278599189
0.0048840805 0.042544849 0.36600003 4278731289
0.0060562561 0.042428605 0.36500001 4278665496
0.0072219367 0.042312365 0.36400002 4278665496
0.0083580324 0.042079877 0.36200002 4278468117
0.0094811358 0.041847393 0.36000001 4278468117
0.010620832 0.041731153 0.35900003 4278665496
0.011754032 0.041614905 0.35800001 4278665496
0.012880736 0.041498665 0.35700002 4278599189
0.014000944 0.041382421 0.35600001 4278335247
0.015157233 0.041382421 0.35600001 4278393097
0.016267698 0.041266181 0.35500002 4278328072
0.017420739 0.041266181 0.35500002 4278859543
0.018521456 0.041149933 0.354 4278529808
0.01967125 0.041149933 0.354 4278654986
0.020762227 0.041033693 0.35300002 4278720011
0.021908771 0.041033693 0.35300002 4278523146
0.022990003 0.040917452 0.35200003 4278458377
0.02406474 0.040801208 0.35100001 4278853648
0.025204787 0.040801208 0.35100001 4278458377
0.02626978 0.040684965 0.35000002 4279116307
0.027328275 0.040568721 0.34900001 4278458377
0.028461827 0.040568721 0.34900001 4279115537
0.029510582 0.04045248 0.34800002 4279512861
0.030552836 0.040336236 0.347 4278196744
0.031679891 0.040336236 0.347 4278458377
0.032712407 0.040219992 0.34600002 4279052308
0.033836212 0.040219992 0.34600002 4278990361
0.034858983 0.040103752 0.34500003 4278530580
0.035979543 0.040103752 0.34500003 4278198025
0.036992565 0.039987508 0.34400001 4278524429
0.03810988 0.039987508 0.34400001 4278523916
0.03911316 0.039871268 0.34300002 4279318297
0.040109944 0.03975502 0.34200001 4278200329
0.041220758 0.03975502 0.34200001 4278595087
0.0422078 0.03963878 0.34100002 4278199301
0.04331537 0.03963878 0.34100002 4278859543
0.044292662 0.039522536 0.34 4278727957
0.045396984 0.039522536 0.34 4278200072
0.046364535 0.039406296 0.33900002 4278595603
0.047465611 0.039406296 0.33900002 4278794517
0.048423421 0.039290052 0.33800003 4278926103
0.049374733 0.039173808 0.33700001 4278991383
0.050469305 0.039173808 0.33700001 4278859797
0.051410876 0.039057568 0.33600003 4278990359
0.052502207 0.039057568 0.33600003 4279121431
0.053434025 0.038941324 0.33500001 4279055640
0.054522108 0.038941324 0.33500001 4279120920
0.055444192 0.03882508 0.33400002 4279317275
0.056529019 0.03882508 0.33400002 4278790931
0.057613853 0.03882508 0.33400002 4278460683
0.058698688 0.03882508 0.33400002 4278196997
0.059783522 0.03882508 0.33400002 4278195200
0.06105059 0.038941324 0.33500001 4278195714
0.062138673 0.038941324 0.33500001 4278200331
0.063226752 0.038941324 0.33500001 4278597908
0.064314827 0.038941324 0.33500001 4278664212
0.06540291 0.038941324 0.33500001 4278598419
0.066292517 0.03882508 0.33400002 4278598419
0.067377344 0.03882508 0.33400002 4278730005
0.068462178 0.03882508 0.33400002 4278533396
0.069338784 0.038708836 0.333 4278533396
0.0702089 0.038592596 0.33200002 4278664982
0.071287237 0.038592596 0.33200002 4278928154
0.072147608 0.038476355 0.33100003 4279058970
0.073222697 0.038476355 0.33100003 4278663447
0.0001300632 0.044092495 0.36900002 4280427792
0.0013249754 0.043973006 0.36800003 4281225524
0.0025133914 0.04385351 0.36700001 4279124252
0.003705408 0.04385351 0.36700001 4278665496
0.0048840805 0.043734021 0.36600003 4278533910
0.0060562561 0.043614529 0.36500001 4278731289
0.0072219367 0.043495037 0.36400002 4278402324
0.0083580324 0.043256052 0.36200002 4278468119
0.0094811358 0.043017067 0.36000001 4278665498
0.010620832 0.042897578 0.35900003 4278204433
0.011754032 0.042778086 0.35800001 4278402324
0.012880736 0.042658594 0.35700002 4278402322
0.014000944 0.042539101 0.35600001 4278928152
0.015157233 0.042539101 0.35600001 4279187226
0.016267698 0.042419609 0.35500002 4279317275
0.017420739 0.042419609 0.35500002 4278925336
0.018521456 0.042300116 0.354 4278661394
0.01967125 0.042300116 0.354 4278851597
0.020762227 0.042180628 0.35300002 4278851597
0.021908771 0.042180628 0.35300002 4278785804
0.022990003 0.042061135 0.35200003 4278851597
0.02406474 0.041941643 0.35100001 4278720265
0.025204787 0.041941643 0.35100001 4278720265
0.02626978 0.04182215 0.35000002 4278719498
0.027328275 0.041702658 0.34900001 4278785291
0.028461827 0.041702658 0.34900001 4278720011
0.029510582 0.041583166 0.34800002 4278195204
0.030552836 0.041463673 0.347 4278525451
0.031679891 0.041463673 0.347 4278458888
0.032712407 0.041344184 0.34600002 4278789650
0.033836212 0.041344184 0.34600002 4278727957
0.034858983 0.041224692 0.34500003 4278199564
0.035979543 0.041224692 0.34500003 4278262029
0.036992565 0.0411052 0.34400001 4278654734
0.03810988 0.0411052 0.34400001 4278786320
0.03911316 0.040985707 0.34300002 4278592523
0.040109944 0.040866215 0.34200001 4279185941
0.041220758 0.040866215 0.34200001 4278859543
0.0422078 0.040746726 0.34100002 4279056152
0.04331537 0.040746726 0.34100002 4278660115
0.044292662 0.04062723 0.34 4278331150
0.045396984 0.04062723 0.34 4279450910
0.046364535 0.040507741 0.33900002 4278200331
0.047465611 0.040507741 0.33900002 4279121945
0.048423421 0.040388249 0.33800003 4278859797
0.049521249 0.040388249 0.33800003 4278794517
0.050469305 0.040268756 0.33700001 4278728724
0.051563885 0.040268756 0.33700001 4278794517
0.052502207 0.040149264 0.33600003 4278728724
0.053434025 0.040029772 0.33500001 4278662931
0.054522108 0.040029772 0.33500001 4278860310
0.055610187 0.040029772 0.33500001 4278926103
0.056698266 0.040029772 0.33500001 4278728724
0.057613853 0.039910283 0.33400002 4278925590
0.058698688 0.039910283 0.33400002 4278859543
0.059783522 0.039910283 0.33400002 4279187738
0.06105059 0.040029772 0.33500001 4279055638
0.062138673 0.040029772 0.33500001 4278196999
0.063226752 0.040029772 0.33500001 4279186713
0.064122848 0.039910283 0.33400002 4278597906
0.065207683 0.039910283 0.33400002 4278663699
0.066292517 0.039910283 0.33400002 4278730005
0.067175612 0.039790787 0.333 4278664212
0.068257198 0.039790787 0.333 4278532626
0.069130562 0.039671298 0.33200002 4278532626
0.0702089 0.039671298 0.33200002 4278532113
0.071072519 0.039551806 0.33100003 4278663699
0.072147608 0.039551806 0.33100003 4278532115
0.073001474 0.039432313 0.33000001 4278991642
0.074073315 0.039432313 0.33000001 4282013255
0.0025133914 0.045045931 0.36700001 4279320346
0.0036953117 0.044923194 0.36600003 4278664982
0.0048840805 0.044923194 0.36600003 4278993947
0.0060562561 0.044800449 0.36500001 4278599189
0.0072219367 0.044677708 0.36400002 4278599191
0.0084042093 0.044677708 0.36400002 4278664984
0.0094811358 0.044186745 0.36000001 4278664984
0.010620832 0.044064008 0.35900003 4278336533
0.011754032 0.043941263 0.35800001 4278336533
0.012880736 0.043818522 0.35700002 4278467601
0.014000944 0.043695781 0.35600001 4278201092
0.015157233 0.043695781 0.35600001 4278462990
0.016267698 0.043573041 0.35500002 4278199047
0.017420739 0.043573041 0.35500002 4278663447
0.018521456 0.0434503 0.354 4278729240
0.01967125 0.0434503 0.354 4278923287
0.020762227 0.043327559 0.35300002 4278723343
0.021908771 0.043327559 0.35300002 4278392584
0.022990003 0.043204818 0.35200003 4278392584
0.02406474 0.043082077 0.35100001 4278851851
0.025204787 0.043082077 0.35100001 4278851338
0.02626978 0.042959336 0.35000002 4278785291
0.027328275 0.042836595 0.34900001 4278851084
0.028380277 0.042713854 0.34800002 4278851084
0.029510582 0.042713854 0.34800002 4278654218
0.030552836 0.04259111 0.347 4278785804
0.031588595 0.042468373 0.34600002 4278720011
0.032712407 0.042468373 0.34600002 4279447578
0.033738423 0.042345632 0.34500003 4278924820
0.034858983 0.042345632 0.34500003 4279120920
0.035875253 0.042222891 0.34400001 4278327820
0.036992565 0.042222891 0.34400001 4278588941
0.037999097 0.04210015 0.34300002 4278654734
0.03911316 0.04210015 0.34300002 4279382039
0.040109944 0.041977406 0.34200001 4278659084
0.041220758 0.041977406 0.34200001 4279187224
0.0422078 0.041854668 0.34100002 4278397708
0.04331537 0.041854668 0.34100002 4278790931
0.044422939 0.041854668 0.34100002 4279120666
0.045396984 0.041731924 0.34 4279123482
0.046501301 0.041731924 0.34 4279057176
0.047465611 0.041609187 0.33900002 4279054357
0.048423421 0.041486446 0.33800003 4278196992
0.049521249 0.041486446 0.33800003 4278330380
0.050469305 0.041363701 0.33700001 4278265357
0.051563885 0.041363701 0.33700001 4278199817
0.052502207 0.041240964 0.33600003 4278792466
0.053593531 0.041240964 0.33600003 4278199301
0.054522108 0.041118219 0.33500001 4278595089
0.055610187 0.041118219 0.33500001 4278662677
0.056698266 0.041118219 0.33500001 4278531091
0.057786349 0.041118219 0.33500001 4278531345
0.058874432 0.041118219 0.33500001 4278728724
0.059962511 0.041118219 0.33500001 4278926103
0.06105059 0.041118219 0.33500001 4278926103
0.061953187 0.040995482 0.33400002 4278197767
0.063038021 0.040995482 0.33400002 4279646240
0.064122848 0.040995482 0.33400002 4278728722
0.065207683 0.040995482 0.33400002 4278729492
0.066094033 0.040872738 0.333 4278663699
0.067175612 0.040872738 0.333 4278729492
0.068052225 0.040750001 0.33200002 4278729492
0.069130562 0.040750001 0.33200002 4278597906
0.06999743 0.04062726 0.33100003 4278663699
0.071072519 0.04062726 0.33100003 4278532115
0.071929634 0.040504515 0.33000001 4278794263
0.073001474 0.040504515 0.33000001 4278925338
0.074073315 0.040504515 0.33000001 4280763188
0.002506543 0.046112366 0.36600003 4279581721
0.0036953117 0.046112366 0.36600003 4278597906
0.004870736 0.045986373 0.36500001 4278927384
0.0060396637 0.045860387 0.36400002 4278927384
0.0072020958 0.045734394 0.36300001 4278730005
0.0083580324 0.045608405 0.36200002 4278599189
0.0094811358 0.045356423 0.36000001 4278467603
0.010620832 0.045230437 0.35900003 4278401810
0.011754032 0.045104444 0.35800001 4278533396
0.012880736 0.044978455 0.35700002 4278664212
0.014040273 0.044978455 0.35700002 4278532628
0.015157233 0.044852462 0.35600001 4278596371
0.016267698 0.044726476 0.35500002 4278464015
0.017420739 0.044726476 0.35500002 4278729494
0.018521456 0.044600483 0.354 4278795287
0.01967125 0.044600483 0.354 4278729494
0.020762227 0.044474494 0.35300002 4278729494
0.021908771 0.044474494 0.35300002 4279056922
0.022990003 0.044348504 0.35200003 4279056152
0.02406474 0.044222515 0.35100001 4279186711
0.02513298 0.044096526 0.35000002 4279778080
0.02626978 0.044096526 0.35000002 4279513373
0.027328275 0.043970533 0.34900001 4278657550
0.028380277 0.043844543 0.34800002 4278458377
0.029425781 0.04371855 0.347 4278589963
0.030464789 0.043592565 0.34600002 4278720011
0.031588595 0.043592565 0.34600002 4278785804
0.032617863 0.043466575 0.34500003 4278987799
0.033738423 0.043466575 0.34500003 4279318810
0.034858983 0.043466575 0.34500003 4278726673
0.035875253 0.043340582 0.34400001 4278988564
0.036992565 0.043340582 0.34400001 4279052308
0.037999097 0.043214593 0.34300002 4279315480
0.03911316 0.043214593 0.34300002 4279121431
0.040109944 0.043088604 0.34200001 4278990359
0.041220758 0.043088604 0.34200001 4278200329
0.0422078 0.042962614 0.34100002 4279318810
0.04331537 0.042962614 0.34100002 4279121433
0.044292662 0.042836621 0.34 4278198279
0.045396984 0.042836621 0.34 4278726162
0.046501301 0.042836621 0.34 4278198533
0.047465611 0.042710632 0.33900002 4279055638
0.048566684 0.042710632 0.33900002 4278198273
0.049521249 0.042584646 0.33800003 4278395662
0.050469305 0.042458653 0.33700001 4278198283
0.051563885 0.042458653 0.33700001 4278330380
0.052502207 0.042332664 0.33600003 4278196738
0.053593531 0.042332664 0.33600003 4279055127
0.054684862 0.042332664 0.33600003 4278726162
0.055610187 0.042206671 0.33500001 4278726421
0.056698266 0.042206671 0.33500001 4278198278
0.057786349 0.042206671 0.33500001 4278199561
0.058874432 0.042206671 0.33500001 4278595089
0.059962511 0.042206671 0.33500001 4278531091
0.06105059 0.042206671 0.33500001 4278728724
0.061953187 0.042080685 0.33400002 4278194944
0.063038021 0.042080685 0.33400002 4279449115
0.064122848 0.042080685 0.33400002 4278532113
0.065207683 0.042080685 0.33400002 4278663699
0.066094033 0.041954692 0.333 4278532113
0.066973887 0.041828703 0.33200002 4278729492
0.068052225 0.041828703 0.33200002 4278400527
0.068922341 0.041702714 0.33100003 4278532113
0.06999743 0.041702714 0.33100003 4278532115
0.071072519 0.041702714 0.33100003 4278532115
0.071929634 0.041576721 0.33000001 4278202898
0.073001474 0.041576721 0.33000001 4278860058
0.074073315 0.041576721 0.33000001 4279053340
0.002506543 0.047301535 0.36600003 4279707662
0.003685215 0.047172293 0.36500001 4279317266
0.004870736 0.047172293 0.36500001 4279055890
0.0060396637 0.047043055 0.36400002 4279254553
0.0072020958 0.046913814 0.36300001 4278991894
0.0083580324 0.046784576 0.36200002 4278861078
0.0094811358 0.046526097 0.36000001 4278729492
0.010620832 0.046396859 0.35900003 4278663699
0.011754032 0.046267621 0.35800001 4278400527
0.012916816 0.046267621 0.35800001 4278729492
0.014040273 0.046138383 0.35700002 4278663701
0.015157233 0.046009142 0.35600001 4278729494
0.016313521 0.046009142 0.35600001 4278991896
0.017420739 0.045879904 0.35500002 4278992666
0.018521456 0.045750663 0.354 4278730007
0.01967125 0.045750663 0.354 4278664212
0.020762227 0.045621425 0.35300002 4278795798
0.021908771 0.045621425 0.35300002 4278795798
0.022990003 0.045492187 0.35200003 4278664212
0.02406474 0.045362946 0.35100001 4278730005
0.02513298 0.045233708 0.35000002 4278663699
0.02626978 0.045233708 0.35000002 4278926103
0.027328275 0.045104466 0.34900001 4279189021
0.028380277 0.044975229 0.34800002 4278991129
0.029425781 0.044845987 0.347 4279056924
0.030464789 0.044716749 0.34600002 4278924568
0.0314973 0.044587512 0.34500003 4279186972
0.032617863 0.044587512 0.34500003 4279253019
0.033640627 0.04445827 0.34400001 4278331404
0.034757942 0.04445827 0.34400001 4278197251
0.035875253 0.04445827 0.34400001 4278195969
0.036885031 0.044329032 0.34300002 4278195200
0.037999097 0.044329032 0.34300002 4278196742
0.038999125 0.044199791 0.34200001 4278329097
0.040109944 0.044199791 0.34200001 4278856978
0.041220758 0.044199791 0.34200001 4279055638
0.0422078 0.044070557 0.34100002 4279187224
0.04331537 0.044070557 0.34100002 4278990359
0.044292662 0.043941315 0.34 4278858773
0.045396984 0.043941315 0.34 4278858773
0.046364535 0.043812077 0.33900002 4279319324
0.047465611 0.043812077 0.33900002 4278859797
0.048423421 0.04368284 0.33800003 4279188762
0.049521249 0.04368284 0.33800003 4279187224
0.050469305 0.043553598 0.33700001 4278594576
0.051563885 0.043553598 0.33700001 4279448861
0.052658461 0.043553598 0.33700001 4278462990
0.053593531 0.04342436 0.33600003 4278857494
0.054684862 0.04342436 0.33600003 4278396943
0.055610187 0.043295119 0.33500001 4279054103
0.056698266 0.043295119 0.33500001 4278461966
0.057786349 0.043295119 0.33500001 4278198023
0.058874432 0.043295119 0.33500001 4278265357
0.059962511 0.043295119 0.33500001 4278728470
0.060868353 0.043165881 0.33400002 4278991896
0.061953187 0.043165881 0.33400002 4278198021
0.063038021 0.043165881 0.33400002 4279252506
0.064122848 0.043165881 0.33400002 4278729494
0.065012448 0.04303664 0.333 4278663701
0.066094033 0.04303664 0.333 4278597908
0.066973887 0.042907402 0.33200002 4278663699
0.068052225 0.042907402 0.33200002 4278597906
0.068922341 0.042778164 0.33100003 4278663701
0.06999743 0.042778164 0.33100003 4278663701
0.070857793 0.042648923 0.33000001 4278268943
0.071929634 0.042648923 0.33000001 4278531861
0.073001474 0.042648923 0.33000001 4278794263
0.074073315 0.042648923 0.33000001 4278594839
0.003685215 0.048358217 0.36500001 4279180551
0.004870736 0.048358217 0.36500001 4278917892
0.0060396637 0.048225731 0.36400002 4278920972
0.0072020958 0.048093241 0.36300001 4278789900
0.0083580324 0.047960754 0.36200002 4278857230
0.0095074726 0.047828268 0.36100003 4279055379
0.010650417 0.047695778 0.36000001 4278859797
0.011786866 0.047563292 0.35900003 4278991381
0.012916816 0.047430802 0.35800001 4278728209
0.014040273 0.047298312 0.35700002 4278925588
0.01519981 0.047298312 0.35700002 4279188760
0.016313521 0.047165822 0.35600001 4278991896
0.017420739 0.047033336 0.35500002 4278992412
0.018573778 0.047033336 0.35500002 4278663447
0.01967125 0.046900846 0.354 4278729753
0.020821042 0.046900846 0.354 4278730007
0.021908771 0.04676836 0.35300002 4278664214
0.022990003 0.046635874 0.35200003 4278466835
0.02406474 0.046503384 0.35100001 4278730007
0.02513298 0.046370897 0.35000002 4278664214
0.026194721 0.046238404 0.34900001 4278598421
0.027249973 0.046105918 0.34800002 4278466833
0.028298723 0.045973428 0.347 4278795798
0.029340981 0.045840941 0.34600002 4278730005
0.030376742 0.045708455 0.34500003 4278795798
0.031406004 0.045575965 0.34400001 4278664212
0.032523315 0.045575965 0.34400001 4278795800
0.033640627 0.045575965 0.34400001 4278663701
0.034656905 0.045443479 0.34300002 4278795287
0.035770968 0.045443479 0.34300002 4278729494
0.036885031 0.045443479 0.34300002 4278859545
0.037888311 0.045310989 0.34200001 4278858775
0.038999125 0.045310989 0.34200001 4279318299
0.040109944 0.045310989 0.34200001 4279383322
0.041100234 0.045178503 0.34100002 4278527500
0.0422078 0.045178503 0.34100002 4278195202
0.043188341 0.045046009 0.34 4278195200
0.044292662 0.045046009 0.34 4278196226
0.045263465 0.044913523 0.33900002 4278195968
0.046364535 0.044913523 0.33900002 4278462220
0.047465611 0.044913523 0.33900002 4278726673
0.048423421 0.044781037 0.33800003 4279187224
0.049521249 0.044781037 0.33800003 4278925590
0.050469305 0.044648547 0.33700001 4278794004
0.051563885 0.044648547 0.33700001 4278794004
0.052502207 0.044516061 0.33600003 4278925590
0.053593531 0.044516061 0.33600003 4279450910
0.054684862 0.044516061 0.33600003 4278727187
0.055610187 0.044383571 0.33500001 4279121431
0.056698266 0.044383571 0.33500001 4278331915
0.057786349 0.044383571 0.33500001 4278198276
0.058874432 0.044383571 0.33500001 4278396943
0.059962511 0.044383571 0.33500001 4278860310
0.060868353 0.044251084 0.33400002 4278860310
0.061953187 0.044251084 0.33400002 4278197513
0.063038021 0.044251084 0.33400002 4279055640
0.064122848 0.044251084 0.33400002 4278795287
0.065012448 0.044118594 0.333 4278729494
0.066094033 0.044118594 0.333 4278597906
0.066973887 0.043986108 0.33200002 4278597906
0.068052225 0.043986108 0.33200002 4278730005
0.068922341 0.043853618 0.33100003 4278335249
0.06999743 0.043853618 0.33100003 4278598421
0.070857793 0.043721128 0.33000001 4278400529
0.071929634 0.043721128 0.33000001 4278663701
0.073001474 0.043721128 0.33000001 4278861080
0.074073315 0.043721128 0.33000001 4278726423
0.0060396637 0.049408402 0.36400002 4279113990
0.0072020958 0.049272664 0.36300001 4279048197
0.0083580324 0.049136925 0.36200002 4278851847
0.0095074726 0.049001191 0.36100003 4278589959
0.010650417 0.048865452 0.36000001 4278394117
0.011786866 0.048729714 0.35900003 4278657289
0.012916816 0.048593976 0.35800001 4278987279
0.014079601 0.048593976 0.35800001 4279251221
0.01519981 0.048458241 0.35700002 4279186711
0.016313521 0.048322503 0.35600001 4279318297
0.01746981 0.048322503 0.35600001 4279517475
0.018573778 0.048186764 0.35500002 4279320096
0.01967125 0.048051026 0.354 4279386402
0.020821042 0.048051026 0.354 4279320609
0.021970835 0.048051026 0.354 4279254814
0.022990003 0.047779553 0.35200003 4278991642
0.02406474 0.047643814 0.35100001 4278730007
0.02513298 0.04750808 0.35000002 4278927386
0.026194721 0.047372341 0.34900001 4278730007
0.027249973 0.047236603 0.34800002 4278795800
0.028298723 0.047100864 0.347 4278664214
0.029340981 0.04696513 0.34600002 4278795800
0.030288691 0.046693653 0.34400001 4278598421
0.031406004 0.046693653 0.34400001 4278598421
0.032428775 0.046557918 0.34300002 4278730007
0.033542838 0.046557918 0.34300002 4278730007
0.034656905 0.046557918 0.34300002 4278532628
0.035666678 0.04642218 0.34200001 4278664214
0.036777493 0.04642218 0.34200001 4278598421
0.037888311 0.04642218 0.34200001 4278795800
0.038885094 0.046286441 0.34100002 4278597908
0.039992664 0.046286441 0.34100002 4278663701
0.041100234 0.046286441 0.34100002 4278991896
0.042084023 0.046150703 0.34 4278991642
0.043188341 0.046150703 0.34 4278990361
0.044162393 0.046014968 0.33900002 4279187226
0.045263465 0.046014968 0.33900002 4279515678
0.046227768 0.04587923 0.33800003 4279318299
0.047325596 0.04587923 0.33800003 4278856465
0.048423421 0.04587923 0.33800003 4278460683
0.049374733 0.045743492 0.33700001 4278194944
0.050469305 0.045743492 0.33700001 4278195456
0.051563885 0.045743492 0.33700001 4278195712
0.052502207 0.045607757 0.33600003 4278197764
0.053593531 0.045607757 0.33600003 4278725392
0.054522108 0.045472018 0.33500001 4279055127
0.055610187 0.045472018 0.33500001 4278924566
0.056698266 0.045472018 0.33500001 4278727187
0.057786349 0.045472018 0.33500001 4278858773
0.058874432 0.045472018 0.33500001 4279121945
0.059783522 0.04533628 0.33400002 4278465552
0.060868353 0.04533628 0.33400002 4279255068
0.061953187 0.04533628 0.33400002 4278263308
0.063038021 0.04533628 0.33400002 4278858261
0.064122848 0.04533628 0.33400002 4278729240
0.065012448 0.045200542 0.333 4278729494
0.066094033 0.045200542 0.333 4278729492
0.066973887 0.045064807 0.33200002 4278597906
0.068052225 0.045064807 0.33200002 4278729492
0.068922341 0.044929069 0.33100003 4278663699
0.06999743 0.044929069 0.33100003 4278597906
0.071072519 0.044929069 0.33100003 4278597906
0.071929634 0.04479333 0.33000001 4278531343
0.073001474 0.04479333 0.33000001 4278860310
0.074073315 0.04479333 0.33000001 4278594324
0.0072020958 0.050452087 0.36300001 4279375109
0.0083580324 0.050313104 0.36200002 4279113477
0.0095074726 0.050174121 0.36100003 4279179016
0.010650417 0.05003513 0.36000001 4278982920
0.011786866 0.049896147 0.35900003 4279246092
0.012952897 0.049896147 0.35900003 4279772690
0.014079601 0.049757157 0.35800001 4280365340
0.01519981 0.049618173 0.35700002 4279312912
0.016313521 0.049479183 0.35600001 4285960058
0.01746981 0.049479183 0.35600001 4285369720
0.018626098 0.049479183 0.35600001 4283002457
0.019782387 0.049479183 0.35600001 4280502323
0.020938676 0.049479183 0.35600001 4279251484
0.022094965 0.049479183 0.35600001 4279581219
0.023251252 0.049479183 0.35600001 4279582246
0.02406474 0.048784252 0.35100001 4279385635
0.02513298 0.048645265 0.35000002 4279451428
0.026194721 0.048506279 0.34900001 4279385887
0.027249973 0.048367295 0.34800002 4279385887
0.02821717 0.048089322 0.34600002 4279123998
0.029256182 0.047950335 0.34500003 4278795033
0.030288691 0.047811348 0.34400001 4279190045
0.031314708 0.047672361 0.34300002 4278795800
0.032428775 0.047672361 0.34300002 4278664214
0.033445042 0.047533374 0.34200001 4278532628
0.03455586 0.047533374 0.34200001 4278466835
0.035666678 0.047533374 0.34200001 4278664214
0.036777493 0.047533374 0.34200001 4278795800
0.037777528 0.047394387 0.34100002 4278664214
0.038885094 0.047394387 0.34100002 4278598421
0.039992664 0.047394387 0.34100002 4278664214
0.040979702 0.047255401 0.34 4278795800
0.042084023 0.047255401 0.34 4278664214
0.04306132 0.047116414 0.33900002 4279058972
0.044162393 0.047116414 0.33900002 4278598421
0.045129947 0.046977431 0.33800003 4279124765
0.046227768 0.046977431 0.33800003 4278729494
0.047325596 0.046977431 0.33800003 4278794517
0.048280153 0.04683844 0.33700001 4278794517
0.049374733 0.04683844 0.33700001 4279121945
0.050469305 0.04683844 0.33700001 4278990359
0.051410876 0.046699457 0.33600003 4279450396
0.052502207 0.046699457 0.33600003 4279252504
0.053593531 0.046699457 0.33600003 4279580188
0.054522108 0.046560466 0.33500001 4278658832
0.055610187 0.046560466 0.33500001 4278195200
0.056698266 0.046560466 0.33500001 4278195714
0.057613853 0.046421483 0.33400002 4278195200
0.058698688 0.046421483 0.33400002 4278197254
0.059783522 0.046421483 0.33400002 4278264841
0.060868353 0.046421483 0.33400002 4278593806
0.061953187 0.046421483 0.33400002 4278329097
0.063038021 0.046421483 0.33400002 4278924566
0.064122848 0.046421483 0.33400002 4278729494
0.065012448 0.046282496 0.333 4278729494
0.066094033 0.046282496 0.333 4278597908
0.066973887 0.046143509 0.33200002 4278663701
0.068052225 0.046143509 0.33200002 4278795287
0.068922341 0.046004526 0.33100003 4278597908
0.06999743 0.046004526 0.33100003 4278532113
0.071072519 0.046004526 0.33100003 4278400527
0.071929634 0.045865536 0.33000001 4278794515
0.073001474 0.045865536 0.33000001 4279188760
0.074073315 0.045865536 0.33000001 4279711524
0.030200643 0.048786808 0.34300002 4279385889
0.031314708 0.048786808 0.34300002 4278991129
0.032334227 0.048644569 0.34200001 4279189021
0.033445042 0.048644569 0.34200001 4279189021
0.03455586 0.048644569 0.34200001 4278991896
0.035666678 0.048644569 0.34200001 4278729494
0.036669958 0.048502333 0.34100002 4278730007
0.037777528 0.048502333 0.34100002 4278730007
0.038885094 0.048502333 0.34100002 4278664214
0.039875381 0.048360098 0.34 4278598421
0.040979702 0.048360098 0.34 4278730007
0.041960247 0.048217863 0.33900002 4278598421
0.042934295 0.048075628 0.33800003 4278730007
0.044032123 0.048075628 0.33800003 4278598421
0.045129947 0.048075628 0.33800003 4278664214
0.046090998 0.047933392 0.33700001 4278598421
0.047185577 0.047933392 0.33700001 4278730007
0.048280153 0.047933392 0.33700001 4278795800
0.049374733 0.047933392 0.33700001 4278795287
0.050319545 0.047791157 0.33600003 4278861080
0.051410876 0.047791157 0.33600003 4278861080
0.052502207 0.047791157 0.33600003 4278795287
0.053434025 0.047648918 0.33500001 4278860310
0.054522108 0.047648918 0.33500001 4278859797
0.055610187 0.047648918 0.33500001 4279056406
0.056529019 0.047506686 0.33400002 4279056152
0.057613853 0.047506686 0.33400002 4279515676
0.058698688 0.047506686 0.33400002 4279317527
0.059783522 0.047506686 0.33400002 4279251482
0.060868353 0.047506686 0.33400002 4278922517
0.061953187 0.047506686 0.33400002 4279186711
0.063038021 0.047506686 0.33400002 4278925590
0.064122848 0.047506686 0.33400002 4278729494
0.065012448 0.047364447 0.333 4278795285
0.066094033 0.047364447 0.333 4278795285
0.067175612 0.047364447 0.333 4278795285
0.068052225 0.047222216 0.33200002 4278663699
0.069130562 0.047222216 0.33200002 4278597906
0.06999743 0.04707998 0.33100003 4278663699
0.071072519 0.04707998 0.33100003 4278532113
0.071929634 0.046937741 0.33000001 4278465550
0.073001474 0.046937741 0.33000001 4278859797
0.074073315 0.046937741 0.33000001 4283921506
0.032334227 0.04975576 0.34200001 4280172075
0.033445042 0.04975576 0.34200001 4279054875
0.03455586 0.04975576 0.34200001 4279318812
0.035562389 0.049610276 0.34100002 4279581984
0.036669958 0.049610276 0.34100002 4279319326
0.037777528 0.049610276 0.34100002 4279582496
0.038771059 0.049464788 0.34 4279320094
0.039875381 0.049464788 0.34 4279254301
0.040859174 0.049319305 0.33900002 4279254814
0.041960247 0.049319305 0.33900002 4279123228
0.042934295 0.049173824 0.33800003 4279058459
0.044032123 0.049173824 0.33800003 4279058459
0.044996426 0.049028337 0.33700001 4278861080
0.046090998 0.049028337 0.33700001 4279058459
0.047185577 0.049028337 0.33700001 4278730007
0.04813689 0.048882853 0.33600003 4278795287
0.049228221 0.048882853 0.33600003 4278992666
0.050319545 0.048882853 0.33600003 4278400529
0.051410876 0.048882853 0.33600003 4278795287
0.052502207 0.048882853 0.33600003 4278663701
0.053434025 0.048737366 0.33500001 4278663701
0.054522108 0.048737366 0.33500001 4278861080
0.055610187 0.048737366 0.33500001 4278861080
0.056529019 0.048591882 0.33400002 4278663701
0.057613853 0.048591882 0.33400002 4278795287
0.058698688 0.048591882 0.33400002 4278663701
0.059783522 0.048591882 0.33400002 4278794517
0.060868353 0.048591882 0.33400002 4278860310
0.061953187 0.048591882 0.33400002 4278794517
0.063038021 0.048591882 0.33400002 4278663701
0.064122848 0.048591882 0.33400002 4278597908
0.065012448 0.048446395 0.333 4278597908
0.066094033 0.048446395 0.333 4278597906
0.067175612 0.048446395 0.333 4278729492
0.068052225 0.048300914 0.33200002 4278663699
0.069130562 0.048300914 0.33200002 4278597906
0.0702089 0.048300914 0.33200002 4278334736
0.071072519 0.048155431 0.33100003 4278531345
0.072147608 0.048155431 0.33100003 4278530578
0.073001474 0.048009943 0.33000001 4278199818
0.074073315 0.048009943 0.33000001 4284710256
0.036669958 0.050718222 0.34100002 4284447334
0.037777528 0.050718222 0.34100002 4283329367
0.038771059 0.050569486 0.34 4280698417
0.039875381 0.050569486 0.34 4279777313
0.040859174 0.050420754 0.33900002 4278923287
0.04183647 0.050272021 0.33800003 4279121179
0.042934295 0.050272021 0.33800003 4279581984
0.043901846 0.050123286 0.33700001 4279450396
0.044996426 0.050123286 0.33700001 4279581982
0.045954231 0.049974553 0.33600003 4279516703
0.047045562 0.049974553 0.33600003 4279451682
0.04813689 0.049974553 0.33600003 4279451680
0.049228221 0.049974553 0.33600003 4279385887
0.050319545 0.049974553 0.33600003 4279517473
0.051410876 0.049974553 0.33600003 4279320094
0.052345946 0.049825817 0.33500001 4279320607
0.053434025 0.049825817 0.33500001 4279320607
0.054522108 0.049825817 0.33500001 4279386400
0.055444192 0.049677085 0.33400002 4279189275
0.056529019 0.049677085 0.33400002 4279189275
0.057613853 0.049677085 0.33400002 4279189275
0.058698688 0.049677085 0.33400002 4279123482
0.059783522 0.049677085 0.33400002 4278860310
0.060868353 0.049677085 0.33400002 4278991896
0.061953187 0.049677085 0.33400002 4278860310
0.063038021 0.049677085 0.33400002 4278991896
0.064122848 0.049677085 0.33400002 4278861080
0.065207683 0.049677085 0.33400002 4278663701
0.066094033 0.049528349 0.333 4278597908
0.067175612 0.049528349 0.333 4278663701
0.068257198 0.049528349 0.333 4278597908
0.069130562 0.049379617 0.33200002 4278400529
0.0702089 0.049379617 0.33200002 4278728470
0.071287237 0.049379617 0.33200002 4278793752
0.072147608 0.049230885 0.33100003 4279186459
0.073001474 0.049082149 0.33000001 4282276679
0.044862907 0.05106625 0.33600003 4284973678
0.045954231 0.05106625 0.33600003 4284382057
0.047045562 0.05106625 0.33600003 4283264857
0.04813689 0.05106625 0.33600003 4282146376
0.049228221 0.05106625 0.33600003 4280830001
0.050319545 0.05106625 0.33600003 4279974692
0.051410876 0.05106625 0.33600003 4279251482
0.052345946 0.050914265 0.33500001 4279185689
0.053434025 0.050914265 0.33500001 4279318045
0.054522108 0.050914265 0.33500001 4279713570
0.055444192 0.050762285 0.33400002 4279581984
0.056529019 0.050762285 0.33400002 4279713570
0.057613853 0.050762285 0.33400002 4279647775
0.058698688 0.050762285 0.33400002 4279713568
0.059783522 0.050762285 0.33400002 4279451164
0.060868353 0.050762285 0.33400002 4279516957
0.061953187 0.050762285 0.33400002 4279648543
0.063038021 0.050762285 0.33400002 4279386141
0.064122848 0.050762285 0.33400002 4279254555
0.065207683 0.050762285 0.33400002 4279254555
0.066094033 0.050610296 0.333 4279320348
0.067175612 0.050610296 0.333 4279451934
0.068257198 0.050610296 0.333 4279320348
0.069130562 0.050458316 0.33200002 4278991129
0.0702089 0.050458316 0.33200002 4278727189
0.071287237 0.050458316 0.33200002 4278792468
0.057613853 0.051847484 0.33400002 4284250987
0.058698688 0.051847484 0.33400002 4283329115
0.059783522 0.051847484 0.33400002 4282210888
0.060868353 0.051847484 0.33400002 4280895028
0.061953187 0.051847484 0.33400002 4279843110
0.063038021 0.051847484 0.33400002 4279316766
0.064122848 0.051847484 0.33400002 4279054103
0.065207683 0.051847484 0.33400002 4278922517
0.066094033 0.051692251 0.333 4279251736
0.067175612 0.051692251 0.333 4279383322
0.068257198 0.051692251 0.333 4279185943
0.069338784 0.051692251 0.333 4278922771
0.0702089 0.051537022 0.33200002 4279843873
0.071287237 0.051537022 0.33200002 4281881921
0.057613853 0.052932683 0.33400002 4285170805
0.058698688 0.052932683 0.33400002 4285236598
0.059783522 0.052932683 0.33400002 4284973426
0.036744088 0.04159065 0.34611279 4294967295
0.036744088 0.04159065 0.34611279 4294901760
0.036744088 0.04159065 0.34661278 4294901760
0.036744088 0.04159065 0.34711277 4294901760
0.036744088 0.04159065 0.3476128 4294901760
0.036744088 0.04159065 0.34811279 4294901760
0.036744088 0.04159065 0.34861279 4294901760
