# .PCD v0.7 - Point Cloud Data file format
VERSION 0.7
FIELDS x y z rgb
SIZE 4 4 4 4
TYPE F F F U
COUNT 1 1 1 1
WIDTH 1076
HEIGHT 1
VIEWPOINT 0 0 0 1 0 0 0
POINTS 1076
DATA ascii
0.089331366 0.068822622 0.32700002 4279779613
0.09011703 0.068612151 0.32600001 4279516955
0.091175877 0.068612151 0.32600001 4279451162
0.092517667 0.068822622 0.32700002 4279319576
0.093579762 0.068822622 0.32700002 4279319576
0.094352432 0.068612151 0.32600001 4278991381
0.095411271 0.068612151 0.32600001 4278991381
0.096470118 0.068612151 0.32600001 4279057174
0.097528972 0.068612151 0.32600001 4278991381
0.098587818 0.068612151 0.32600001 4279057174
0.099341013 0.068401687 0.32500002 4279255064
0.10008769 0.068191215 0.324 4279255064
0.10082789 0.067980751 0.32300001 4279189525
0.10187699 0.067980751 0.32300001 4279188758
0.10260744 0.067770287 0.32200003 4279320859
0.10333139 0.067559816 0.32100001 4279451932
0.104374 0.067559816 0.32100001 4279648543
0.10508821 0.067349352 0.32000002 4280107815
0.10612758 0.067349352 0.32000002 4280369454
0.071501955 0.071167372 0.333 4280108326
0.072365575 0.07095366 0.33200002 4280042533
0.073443912 0.07095366 0.33200002 4279516189
0.074522242 0.07095366 0.33200002 4279973662
0.075372875 0.07073994 0.33100003 4279577369
0.076447964 0.07073994 0.33100003 4280236832
0.077523045 0.07073994 0.33100003 4280238116
0.078360677 0.070526227 0.33000001 4280172325
0.079432517 0.070526227 0.33000001 4279116816
0.080260411 0.070312507 0.32900003 4279378191
0.081329003 0.070312507 0.32900003 4280299295
0.082147136 0.070098795 0.32800001 4279773465
0.083212487 0.070098795 0.32800001 4279641365
0.084277831 0.070098795 0.32800001 4279312402
0.085082985 0.069885075 0.32700002 4279312402
0.086145088 0.069885075 0.32700002 4279180816
0.087207183 0.069885075 0.32700002 4278983949
0.088269278 0.069885075 0.32700002 4279184658
0.089058183 0.069671355 0.32600001 4279515160
0.09011703 0.069671355 0.32600001 4279713309
0.091175877 0.069671355 0.32600001 4279779615
0.092234731 0.069671355 0.32600001 4279648543
0.093293577 0.069671355 0.32600001 4279582750
0.094352432 0.069671355 0.32600001 4279582750
0.095411271 0.069671355 0.32600001 4279254555
0.096174203 0.069457643 0.32500002 4279057174
0.097229809 0.069457643 0.32500002 4279057174
0.097982988 0.069243923 0.324 4279057172
0.099035338 0.069243923 0.324 4278991892
0.099778786 0.06903021 0.32300001 4279123478
0.10051574 0.068816498 0.32200003 4279452443
0.10156158 0.068816498 0.32200003 4278926099
0.10228878 0.068602778 0.32100001 4279123478
0.10333139 0.068602778 0.32100001 4279189271
0.10404885 0.068389066 0.32000002 4279189271
0.10508821 0.068389066 0.32000002 4279255066
0.10579592 0.068175346 0.31900001 4279715106
0.10683203 0.068175346 0.31900001 4280370469
0.10786814 0.068175346 0.31900001 4280631844
0.10890425 0.068175346 0.31900001 4281616950
0.070631847 0.072466284 0.33400002 4282933834
0.071501955 0.072249316 0.333 4280697131
0.072583541 0.072249316 0.333 4280303657
0.073443912 0.072032355 0.33200002 4280633135
0.074522242 0.072032355 0.33200002 4280236582
0.075600579 0.072032355 0.33200002 4279973662
0.076447964 0.071815394 0.33100003 4280369186
0.077523045 0.071815394 0.33100003 4280304163
0.078360677 0.071598426 0.33000001 4280171301
0.079432517 0.071598426 0.33000001 4279312914
0.080260411 0.071381465 0.32900003 4279311887
0.081329003 0.071381465 0.32900003 4279378195
0.082397588 0.071381465 0.32900003 4279773463
0.083212487 0.071164496 0.32800001 4279576084
0.084277831 0.071164496 0.32800001 4280102428
0.085082985 0.070947535 0.32700002 4280036637
0.086145088 0.070947535 0.32700002 4279904026
0.087207183 0.070947535 0.32700002 4279706647
0.088269278 0.070947535 0.32700002 4279312400
0.089331366 0.070947535 0.32700002 4279443986
0.09011703 0.070730567 0.32600001 4278721799
0.091175877 0.070730567 0.32600001 4279644695
0.092234731 0.070730567 0.32600001 4279581723
0.093293577 0.070730567 0.32600001 4279384344
0.094063006 0.070513599 0.32500002 4279582234
0.095118605 0.070513599 0.32500002 4279516955
0.096174203 0.070513599 0.32500002 4279385369
0.096930631 0.07029663 0.324 4279516955
0.097982988 0.07029663 0.324 4279516953
0.098729677 0.070079669 0.32300001 4278990609
0.099469878 0.069862708 0.32200003 4278925586
0.10051574 0.069862708 0.32200003 4278859793
0.10124617 0.06964574 0.32100001 4279188758
0.10228878 0.06964574 0.32100001 4279188758
0.10300949 0.069428779 0.32000002 4279057426
0.10404885 0.069428779 0.32000002 4279189525
0.1047598 0.069211811 0.31900001 4279123732
0.10579592 0.069211811 0.31900001 4279123732
0.10683203 0.069211811 0.31900001 4279187988
0.10753 0.06899485 0.31800002 4279648539
0.10856286 0.06899485 0.31800002 4279976479
0.10959573 0.06899485 0.31800002 4280436262
0.073665127 0.073331274 0.333 4282867017
0.074522242 0.073111057 0.33200002 4280762411
0.075600579 0.073111057 0.33200002 4280763438
0.076447964 0.072890848 0.33100003 4280369704
0.077523045 0.072890848 0.33100003 4280304424
0.078360677 0.072670631 0.33000001 4280042022
0.079432517 0.072670631 0.33000001 4280303911
0.080260411 0.072450422 0.32900003 4279642647
0.081329003 0.072450422 0.32900003 4279312914
0.082397588 0.072450422 0.32900003 4279377680
0.083212487 0.072230205 0.32800001 4279640854
0.084277831 0.072230205 0.32800001 4279838231
0.085343175 0.072230205 0.32800001 4279509266
0.086145088 0.072009988 0.32700002 4279312400
0.087207183 0.072009988 0.32700002 4280891946
0.088269278 0.072009988 0.32700002 4280957739
0.089331366 0.072009988 0.32700002 4279378195
0.09011703 0.071789771 0.32600001 4279509268
0.091175877 0.071789771 0.32600001 4279377682
0.092234731 0.071789771 0.32600001 4279181328
0.093293577 0.071789771 0.32600001 4278721545
0.094063006 0.071569562 0.32500002 4279448854
0.095118605 0.071569562 0.32500002 4279779102
0.095878281 0.071349345 0.324 4279648029
0.096930631 0.071349345 0.324 4279779613
0.097680576 0.071129136 0.32300001 4279648027
0.098729677 0.071129136 0.32300001 4279648541
0.099469878 0.070908919 0.32200003 4279582746
0.10020357 0.070688702 0.32100001 4279386137
0.10124617 0.070688702 0.32100001 4279188758
0.10197013 0.070468493 0.32000002 4278925586
0.10300949 0.070468493 0.32000002 4279254551
0.10372369 0.070248276 0.31900001 4278925586
0.1047598 0.070248276 0.31900001 4279188758
0.10579592 0.070248276 0.31900001 4279188758
0.10649713 0.070028067 0.31800002 4279320344
0.10753 0.070028067 0.31800002 4279319574
0.10856286 0.070028067 0.31800002 4279386137
0.10959573 0.070028067 0.31800002 4279320344
0.1102807 0.069807842 0.317 4279845920
0.11131032 0.069807842 0.317 4279977506
0.076447964 0.073966302 0.33100003 4282341958
0.077523045 0.073966302 0.33100003 4280434475
0.078360677 0.073742829 0.33000001 4280303657
0.079432517 0.073742829 0.33000001 4280369704
0.080260411 0.073519371 0.32900003 4280238118
0.081329003 0.073519371 0.32900003 4280238118
0.082397588 0.073519371 0.32900003 4279972125
0.083212487 0.073295906 0.32800001 4279181328
0.084277831 0.073295906 0.32800001 4279640854
0.085343175 0.073295906 0.32800001 4279443473
0.086408526 0.073295906 0.32800001 4279509266
0.087207183 0.073072441 0.32700002 4279312402
0.088269278 0.073072441 0.32700002 4279377682
0.089331366 0.073072441 0.32700002 4279180303
0.090393469 0.073072441 0.32700002 4279772440
0.091455564 0.073072441 0.32700002 4279707160
0.092234731 0.072848976 0.32600001 4279772951
0.093293577 0.072848976 0.32600001 4279377680
0.094063006 0.072625518 0.32500002 4279510545
0.095118605 0.072625518 0.32500002 4279974176
0.095878281 0.072402053 0.324 4278922256
0.096930631 0.072402053 0.324 4279909151
0.097680576 0.072178587 0.32300001 4280107297
0.098729677 0.072178587 0.32300001 4279648029
0.099469878 0.07195513 0.32200003 4279779613
0.10020357 0.071731664 0.32100001 4279648027
0.10093077 0.071508206 0.32000002 4279254553
0.10197013 0.071508206 0.32000002 4279254551
0.10268757 0.071284734 0.31900001 4279386137
0.10372369 0.071284734 0.31900001 4279188758
0.1047598 0.071284734 0.31900001 4278991892
0.10546428 0.071061276 0.31800002 4278991892
0.10649713 0.071061276 0.31800002 4279057172
0.10753 0.071061276 0.31800002 4279319574
0.10856286 0.071061276 0.31800002 4279319574
0.10925108 0.070837811 0.317 4279319828
0.1102807 0.070837811 0.317 4279189012
0.11131032 0.070837811 0.317 4279386391
0.11233994 0.070837811 0.317 4279779613
0.11439916 0.070837811 0.317 4280566313
0.080260411 0.074588329 0.32900003 4280960557
0.081329003 0.074588329 0.32900003 4280500520
0.082397588 0.074588329 0.32900003 4280500520
0.083212487 0.074361615 0.32800001 4280434727
0.084277831 0.074361615 0.32800001 4280763178
0.085343175 0.074361615 0.32800001 4279774746
0.086408526 0.074361615 0.32800001 4279312400
0.087473869 0.074361615 0.32800001 4279443988
0.088269278 0.074134901 0.32700002 4279509268
0.089331366 0.074134901 0.32700002 4279443473
0.090393469 0.074134901 0.32700002 4280300577
0.091455564 0.074134901 0.32700002 4279840539
0.092517667 0.074134901 0.32700002 4279445270
0.093293577 0.073908187 0.32600001 4279509266
0.094352432 0.073908187 0.32600001 4280366624
0.095118605 0.073681481 0.32500002 4280303139
0.096174203 0.073681481 0.32500002 4280040737
0.096930631 0.07345476 0.324 4280172323
0.097680576 0.073228054 0.32300001 4279644695
0.098729677 0.073228054 0.32300001 4279053072
0.099469878 0.07300134 0.32200003 4279712285
0.10020357 0.072774626 0.32100001 4279778848
0.10124617 0.072774626 0.32100001 4279713055
0.10197013 0.07254792 0.32000002 4279713309
0.10268757 0.072321199 0.31900001 4279648027
0.10372369 0.072321199 0.31900001 4279713820
0.1047598 0.072321199 0.31900001 4279713820
0.10546428 0.072094493 0.31800002 4279187990
0.10649713 0.072094493 0.31800002 4279385369
0.10753 0.072094493 0.31800002 4279187988
0.10822146 0.071867779 0.317 4279320344
0.10925108 0.071867779 0.317 4279057172
0.1102807 0.071867779 0.317 4279255064
0.11131032 0.071867779 0.317 4279189271
0.11233994 0.071867779 0.317 4279188758
0.11301192 0.071641065 0.31600001 4279516953
0.11403829 0.071641065 0.31600001 4279582746
0.11506466 0.071641065 0.31600001 4279516955
0.11609103 0.071641065 0.31600001 4280369956
0.1171174 0.071641065 0.31600001 4280434977
0.081329003 0.075657278 0.32900003 4283393102
0.082397588 0.075657278 0.32900003 4281091376
0.083466187 0.075657278 0.32900003 4281157936
0.084277831 0.075427316 0.32800001 4280566311
0.085343175 0.075427316 0.32800001 4280303909
0.086408526 0.075427316 0.32800001 4280238116
0.087473869 0.075427316 0.32800001 4280434727
0.088539213 0.075427316 0.32800001 4279379988
0.089604549 0.075427316 0.32800001 4279378191
0.090393469 0.075197354 0.32700002 4279378191
0.091455564 0.075197354 0.32700002 4279378191
0.092517667 0.075197354 0.32700002 4279378193
0.093579762 0.075197354 0.32700002 4279246607
0.094352432 0.074967392 0.32600001 4280171553
0.095118605 0.074737437 0.32500002 4280173090
0.096174203 0.074737437 0.32500002 4279909918
0.096930631 0.074507467 0.324 4279580440
0.097982988 0.074507467 0.324 4279776535
0.098729677 0.074277513 0.32300001 4280105500
0.099469878 0.074047551 0.32200003 4280039453
0.10020357 0.073817588 0.32100001 4278592009
0.10124617 0.073817588 0.32100001 4279184660
0.10197013 0.073587626 0.32000002 4279909153
0.10300949 0.073587626 0.32000002 4279778850
0.10372369 0.073357664 0.31900001 4279778848
0.1047598 0.073357664 0.31900001 4279844895
0.10546428 0.073127702 0.31800002 4279648029
0.10649713 0.073127702 0.31800002 4279451160
0.10753 0.073127702 0.31800002 4279451160
0.10822146 0.07289774 0.317 4279187988
0.10925108 0.07289774 0.317 4278991379
0.1102807 0.07289774 0.317 4279123478
0.11131032 0.07289774 0.317 4279189271
0.11198556 0.072667778 0.31600001 4279255064
0.11301192 0.072667778 0.31600001 4279320344
0.11403829 0.072667778 0.31600001 4279057172
0.11506466 0.072667778 0.31600001 4279320344
0.11609103 0.072667778 0.31600001 4279516953
0.1171174 0.072667778 0.31600001 4279713818
0.11851764 0.07289774 0.317 4280370467
0.11954726 0.07289774 0.317 4280304676
0.12057687 0.07289774 0.317 4280171555
0.082397588 0.076726235 0.32900003 4283523666
0.084277831 0.076493025 0.32800001 4283459154
0.085343175 0.076493025 0.32800001 4280894764
0.086408526 0.076493025 0.32800001 4280829483
0.087473869 0.076493025 0.32800001 4280369702
0.088539213 0.076493025 0.32800001 4280303909
0.089604549 0.076493025 0.32800001 4280172836
0.0906699 0.076493025 0.32800001 4280500006
0.091735244 0.076493025 0.32800001 4279249426
0.092517667 0.076259814 0.32700002 4278983947
0.093579762 0.076259814 0.32700002 4280827173
0.094352432 0.076026604 0.32600001 4280040221
0.095411271 0.076026604 0.32600001 4279909405
0.096174203 0.075793393 0.32500002 4278986254
0.096930631 0.075560182 0.324 4279115533
0.097982988 0.075560182 0.324 4279443986
0.098729677 0.075326972 0.32300001 4279247121
0.099469878 0.075093761 0.32200003 4279578902
0.10051574 0.075093761 0.32200003 4280171553
0.10124617 0.07486055 0.32100001 4280171553
0.10228878 0.07486055 0.32100001 4279645209
0.10300949 0.07462734 0.32000002 4279382039
0.10404885 0.07462734 0.32000002 4279513625
0.1047598 0.074394129 0.31900001 4279777565
0.10579592 0.074394129 0.31900001 4279976481
0.10649713 0.074160919 0.31800002 4279648025
0.10753 0.074160919 0.31800002 4279648025
0.10822146 0.073927708 0.317 4279713818
0.10925108 0.073927708 0.317 4279516953
0.1102807 0.073927708 0.317 4279385367
0.11131032 0.073927708 0.317 4279319574
0.11198556 0.073694497 0.31600001 4279451160
0.11301192 0.073694497 0.31600001 4279516953
0.11403829 0.073694497 0.31600001 4279582746
0.11506466 0.073694497 0.31600001 4279516953
0.11609103 0.073694497 0.31600001 4279319574
0.1171174 0.073694497 0.31600001 4279516953
0.11814377 0.073694497 0.31600001 4279451162
0.11954726 0.073927708 0.317 4279582748
0.12057687 0.073927708 0.317 4279780127
0.12160648 0.073927708 0.317 4280108578
0.088539213 0.077558726 0.32800001 4280303141
0.089604549 0.077558726 0.32800001 4280369702
0.0906699 0.077558726 0.32800001 4281028145
0.091735244 0.077558726 0.32800001 4280172836
0.092800587 0.077558726 0.32800001 4280172577
0.093579762 0.077322267 0.32700002 4280171807
0.094641857 0.077322267 0.32700002 4278855433
0.095411271 0.077085808 0.32600001 4279644949
0.096174203 0.076849349 0.32500002 4279905819
0.097229809 0.076849349 0.32500002 4279443986
0.097982988 0.076612882 0.324 4279640852
0.098729677 0.076376431 0.32300001 4279640854
0.099778786 0.076376431 0.32300001 4279577621
0.10051574 0.076139972 0.32200003 4279578389
0.10156158 0.076139972 0.32200003 4279644949
0.10228878 0.075903513 0.32100001 4279776535
0.10333139 0.075903513 0.32100001 4279974428
0.10404885 0.075667053 0.32000002 4280040221
0.10508821 0.075667053 0.32000002 4279842588
0.10579592 0.075430587 0.31900001 4279118865
0.10683203 0.075430587 0.31900001 4279579156
0.10753 0.075194135 0.31800002 4279908633
0.10856286 0.075194135 0.31800002 4279778328
0.10925108 0.074957669 0.317 4279779098
0.1102807 0.074957669 0.317 4279713820
0.11131032 0.074957669 0.317 4279713820
0.11233994 0.074957669 0.317 4279648027
0.11301192 0.07472121 0.31600001 4279582232
0.11403829 0.07472121 0.31600001 4279582232
0.11506466 0.07472121 0.31600001 4279648025
0.11609103 0.07472121 0.31600001 4279582746
0.1171174 0.07472121 0.31600001 4279516953
0.11814377 0.07472121 0.31600001 4279451160
0.11954726 0.074957669 0.317 4279385369
0.12057687 0.074957669 0.317 4279188758
0.12122287 0.07472121 0.31600001 4279320344
0.12224924 0.07472121 0.31600001 4279582748
0.12327561 0.07472121 0.31600001 4279911199
0.12430198 0.07472121 0.31600001 4280435747
0.090946332 0.07886415 0.32900003 4281881407
0.091735244 0.078624435 0.32800001 4280236834
0.092800587 0.078624435 0.32800001 4280763944
0.093865931 0.078624435 0.32800001 4280434977
0.094641857 0.078384727 0.32700002 4280500770
0.095411271 0.078145012 0.32600001 4280566563
0.096470118 0.078145012 0.32600001 4280105246
0.097229809 0.077905312 0.32500002 4279709205
0.097982988 0.077665597 0.324 4280168475
0.099035338 0.077665597 0.324 4280498210
0.099778786 0.07742589 0.32300001 4280302625
0.10082789 0.07742589 0.32300001 4279776535
0.10156158 0.07718619 0.32200003 4280171291
0.10260744 0.07718619 0.32200003 4280237084
0.10333139 0.076946475 0.32100001 4279709975
0.104374 0.076946475 0.32100001 4280236832
0.10508821 0.076706767 0.32000002 4279974174
0.10612758 0.076706767 0.32000002 4279842588
0.10683203 0.076467052 0.31900001 4280039707
0.10786814 0.076467052 0.31900001 4279579156
0.10856286 0.076227352 0.31800002 4279250191
0.10959573 0.076227352 0.31800002 4279644695
0.1106286 0.076227352 0.31800002 4279777565
0.11131032 0.075987637 0.317 4279778078
0.11233994 0.075987637 0.317 4279844125
0.11336955 0.075987637 0.317 4280107295
0.11439916 0.075987637 0.317 4279909914
0.11542878 0.075987637 0.317 4279713305
0.1164584 0.075987637 0.317 4279450646
0.11748802 0.075987637 0.317 4279450646
0.11851764 0.075987637 0.317 4279516953
0.11954726 0.075987637 0.317 4279516953
0.12057687 0.075987637 0.317 4279451414
0.12122287 0.07574793 0.31600001 4279451414
0.12224924 0.07574793 0.31600001 4279385367
0.12327561 0.07574793 0.31600001 4279582746
0.12430198 0.07574793 0.31600001 4279648541
0.12493175 0.075508229 0.31500003 4279779613
0.12595485 0.075508229 0.31500003 4280304674
0.093865931 0.079690143 0.32800001 4282076988
0.094931282 0.079690143 0.32800001 4280237086
0.095703945 0.079447187 0.32700002 4280566311
0.096470118 0.079204224 0.32600001 4280566311
0.097229809 0.078961268 0.32500002 4280368932
0.098285407 0.078961268 0.32500002 4280303139
0.099035338 0.078718305 0.324 4279775768
0.10008769 0.078718305 0.324 4279117838
0.10082789 0.078475356 0.32300001 4280499745
0.10187699 0.078475356 0.32300001 4279842328
0.10260744 0.0782324 0.32200003 4279842074
0.1036533 0.0782324 0.32200003 4280302879
0.10469916 0.0782324 0.32200003 4279644949
0.10541661 0.077989437 0.32100001 4280105500
0.10645922 0.077989437 0.32100001 4280039453
0.10716692 0.077746481 0.32000002 4279644182
0.10820629 0.077746481 0.32000002 4280302112
0.10890425 0.077503517 0.31900001 4280302879
0.10994036 0.077503517 0.31900001 4280302879
0.1106286 0.077260569 0.31800002 4279579156
0.11166146 0.077260569 0.31800002 4279315984
0.11269433 0.077260569 0.31800002 4279842328
0.11336955 0.077017605 0.317 4280040221
0.11439916 0.077017605 0.317 4280106012
0.11542878 0.077017605 0.317 4280040989
0.1164584 0.077017605 0.317 4279976479
0.11748802 0.077017605 0.317 4279648027
0.11851764 0.077017605 0.317 4279451160
0.11954726 0.077017605 0.317 4279451160
0.12057687 0.077017605 0.317 4279451414
0.12160648 0.077017605 0.317 4279780379
0.12224924 0.076774649 0.31600001 4279648539
0.12327561 0.076774649 0.31600001 4279582746
0.12430198 0.076774649 0.31600001 4279516953
0.12493175 0.076531693 0.31500003 4279516953
0.12595485 0.076531693 0.31500003 4279516953
0.12697798 0.076531693 0.31500003 4279582746
0.12800111 0.076531693 0.31500003 4280042270
0.12902422 0.076531693 0.31500003 4280304159
0.095703945 0.08050964 0.32700002 4283459156
0.096470118 0.080263428 0.32600001 4281617204
0.097229809 0.080017224 0.32500002 4280631077
0.098285407 0.080017224 0.32500002 4280566311
0.099035338 0.079771012 0.324 4280434725
0.10008769 0.079771012 0.324 4280303139
0.10082789 0.079524808 0.32300001 4280434725
0.10187699 0.079524808 0.32300001 4279184658
0.10292609 0.079524808 0.32300001 4279578904
0.1036533 0.079278611 0.32200003 4280105246
0.10469916 0.079278611 0.32200003 4280236832
0.10574502 0.079278611 0.32200003 4279842074
0.10645922 0.079032399 0.32100001 4280039707
0.10750182 0.079032399 0.32100001 4279710229
0.10820629 0.078786194 0.32000002 4280038940
0.10924565 0.078786194 0.32000002 4279710742
0.10994036 0.078539982 0.31900001 4279908635
0.11097648 0.078539982 0.31900001 4279974428
0.11201259 0.078539982 0.31900001 4279974426
0.11269433 0.078293778 0.31800002 4280039705
0.11372718 0.078293778 0.31800002 4279644949
0.11476005 0.078293778 0.31800002 4279446803
0.11579292 0.078293778 0.31800002 4279841815
0.11682578 0.078293778 0.31800002 4280040219
0.11748802 0.078047566 0.317 4280040989
0.11851764 0.078047566 0.317 4279779100
0.11954726 0.078047566 0.317 4279648025
0.12057687 0.078047566 0.317 4279582232
0.12160648 0.078047566 0.317 4279648025
0.1226361 0.078047566 0.317 4279582232
0.12327561 0.077801362 0.31600001 4279648539
0.12430198 0.077801362 0.31600001 4279582746
0.12493175 0.077555157 0.31500003 4279648539
0.12595485 0.077555157 0.31500003 4279516953
0.12697798 0.077555157 0.31500003 4279451160
0.12800111 0.077555157 0.31500003 4279714072
0.12902422 0.077555157 0.31500003 4279647766
0.13004735 0.077555157 0.31500003 4279779100
0.13148656 0.077801362 0.31600001 4280173858
0.099035338 0.080823727 0.324 4280366883
0.10008769 0.080823727 0.324 4280828456
0.10082789 0.080574274 0.32300001 4280500258
0.10187699 0.080574274 0.32300001 4280500772
0.10292609 0.080574274 0.32300001 4280500772
0.1039752 0.080574274 0.32300001 4279974428
0.10502431 0.080574274 0.32300001 4279513363
0.10574502 0.080324821 0.32200003 4279710488
0.10679087 0.080324821 0.32200003 4280236319
0.10783672 0.080324821 0.32200003 4280302625
0.10854443 0.080075361 0.32100001 4280039967
0.10958704 0.080075361 0.32100001 4279578389
0.11028501 0.079825908 0.32000002 4279381012
0.11132438 0.079825908 0.32000002 4278920972
0.11201259 0.079576448 0.31900001 4280039453
0.11304871 0.079576448 0.31900001 4279908635
0.11408481 0.079576448 0.31900001 4280171807
0.11512093 0.079576448 0.31900001 4280040221
0.11615704 0.079576448 0.31900001 4279842842
0.11682578 0.079326995 0.31800002 4279644949
0.11785865 0.079326995 0.31800002 4279381777
0.11889151 0.079326995 0.31800002 4279580440
0.11992438 0.079326995 0.31800002 4279843612
0.12095724 0.079326995 0.31800002 4280040989
0.12160648 0.079077534 0.317 4279909403
0.1226361 0.079077534 0.317 4279844893
0.12366571 0.079077534 0.317 4279779613
0.12430198 0.078828081 0.31600001 4279187988
0.12532835 0.078828081 0.31600001 4279648793
0.12635471 0.078828081 0.31600001 4279648539
0.12738109 0.078828081 0.31600001 4279582748
0.12840745 0.078828081 0.31600001 4279516953
0.12943383 0.078828081 0.31600001 4279385367
0.13046019 0.078828081 0.31600001 4279582232
0.13148656 0.078828081 0.31600001 4279582232
0.13251293 0.078828081 0.31600001 4279779613
0.13353929 0.078828081 0.31600001 4280304159
0.10292609 0.081623733 0.32300001 4280565284
0.1039752 0.081623733 0.32300001 4280632358
0.10502431 0.081623733 0.32300001 4280369186
0.10574502 0.081371032 0.32200003 4280434979
0.10679087 0.081371032 0.32200003 4280105762
0.10783672 0.081371032 0.32200003 4279644184
0.10888258 0.081371032 0.32200003 4279776281
0.10958704 0.081118323 0.32100001 4279908381
0.11062965 0.081118323 0.32100001 4280039967
0.11167226 0.081118323 0.32100001 4279644443
0.11236374 0.080865614 0.32000002 4279381012
0.1134031 0.080865614 0.32000002 4280038170
0.11444245 0.080865614 0.32000002 4279578389
0.11548182 0.080865614 0.32000002 4279709975
0.11615704 0.080612905 0.31900001 4280104733
0.11719315 0.080612905 0.31900001 4280434465
0.11822927 0.080612905 0.31900001 4280106012
0.11926538 0.080612905 0.31900001 4279974426
0.1203015 0.080612905 0.31900001 4279644949
0.12095724 0.080360204 0.31800002 4279315730
0.12199011 0.080360204 0.31800002 4279907354
0.12302297 0.080360204 0.31800002 4279974428
0.12366571 0.080107495 0.317 4279909916
0.12469533 0.080107495 0.317 4279779098
0.12572496 0.080107495 0.317 4279647512
0.12635471 0.079854794 0.31600001 4279582746
0.12738109 0.079854794 0.31600001 4279451162
0.12840745 0.079854794 0.31600001 4279451934
0.12943383 0.079854794 0.31600001 4279845920
0.13046019 0.079854794 0.31600001 4279648025
0.13148656 0.079854794 0.31600001 4279648025
0.13251293 0.079854794 0.31600001 4279582232
0.13396187 0.080107495 0.317 4279713305
0.10607341 0.082673192 0.32300001 4280434213
0.10679087 0.082417242 0.32200003 4280631338
0.10783672 0.082417242 0.32200003 4280500006
0.10888258 0.082417242 0.32200003 4280500004
0.10992844 0.082417242 0.32200003 4279513109
0.11062965 0.082161285 0.32100001 4279578902
0.11167226 0.082161285 0.32100001 4279710488
0.11271487 0.082161285 0.32100001 4280171039
0.11375748 0.082161285 0.32100001 4280171293
0.11480008 0.082161285 0.32100001 4279710742
0.11584269 0.082161285 0.32100001 4280104733
0.11652118 0.081905335 0.32000002 4279511826
0.11756054 0.081905335 0.32000002 4279776535
0.1185999 0.081905335 0.32000002 4279579154
0.11963926 0.081905335 0.32000002 4279448084
0.1203015 0.08164937 0.31900001 4280303393
0.1213376 0.08164937 0.31900001 4280172577
0.12237372 0.08164937 0.31900001 4280368932
0.12302297 0.081393421 0.31800002 4279513111
0.12405583 0.081393421 0.31800002 4279644695
0.12508871 0.081393421 0.31800002 4279844641
0.12572496 0.081137463 0.317 4280042274
0.12675457 0.081137463 0.317 4279779100
0.12778418 0.081137463 0.317 4279976479
0.1288138 0.081137463 0.317 4279911199
0.12984341 0.081137463 0.317 4279516955
0.13087304 0.081137463 0.317 4279845920
0.13190265 0.081137463 0.317 4279845920
0.13293228 0.081137463 0.317 4279648541
0.13396187 0.081137463 0.317 4279647512
0.1349915 0.081137463 0.317 4279514645
0.10992844 0.083463453 0.32200003 4280566565
0.1109743 0.083463453 0.32200003 4280500772
0.11202016 0.083463453 0.32200003 4280303393
0.11306601 0.083463453 0.32200003 4279842842
0.11375748 0.083204247 0.32100001 4279578902
0.11480008 0.083204247 0.32100001 4279775768
0.11584269 0.083204247 0.32100001 4280366622
0.1168853 0.083204247 0.32100001 4280696354
0.11792791 0.083204247 0.32100001 4279973914
0.11897052 0.083204247 0.32100001 4279710742
0.12001313 0.083204247 0.32100001 4279710488
0.12067863 0.082945049 0.32000002 4279578902
0.12171797 0.082945049 0.32000002 4280040737
0.12275734 0.082945049 0.32000002 4280172836
0.12340983 0.082685843 0.31900001 4279974944
0.12444595 0.082685843 0.31900001 4279117840
0.12508871 0.082426637 0.31800002 4279711772
0.12612157 0.082426637 0.31800002 4279975711
0.12715442 0.082426637 0.31800002 4280173086
0.12778418 0.082167432 0.317 4280107293
0.1288138 0.082167432 0.317 4279976479
0.12984341 0.082167432 0.317 4279844895
0.13087304 0.082167432 0.317 4279779100
0.13190265 0.082167432 0.317 4279713820
0.13293228 0.082167432 0.317 4279779611
0.13396187 0.082167432 0.317 4279582232
0.1349915 0.082167432 0.317 4279778328
0.11202016 0.084509656 0.32200003 4280038942
0.11306601 0.084509656 0.32200003 4280696872
0.11411187 0.084509656 0.32200003 4280696870
0.11515772 0.084509656 0.32200003 4280565797
0.11620358 0.084509656 0.32200003 4280038940
0.11724944 0.084509656 0.32200003 4279578389
0.11829529 0.084509656 0.32200003 4279907354
0.11934115 0.084509656 0.32200003 4280105246
0.12001313 0.084247202 0.32100001 4279842076
0.12105574 0.084247202 0.32100001 4280105246
0.12209834 0.084247202 0.32100001 4280106012
0.12275734 0.083984755 0.32000002 4279975194
0.1237967 0.083984755 0.32000002 4279117838
0.12444595 0.083722293 0.31900001 4279709207
0.12548205 0.083722293 0.31900001 4280302879
0.12612157 0.083459847 0.31800002 4280303391
0.12715442 0.083459847 0.31800002 4279975709
0.12818728 0.083459847 0.31800002 4279909916
0.1288138 0.083197393 0.317 4279975709
0.12984341 0.083197393 0.317 4279975711
0.13087304 0.083197393 0.317 4280172575
0.13190265 0.083197393 0.317 4280173086
0.13293228 0.083197393 0.317 4279909914
0.13396187 0.083197393 0.317 4279712535
0.1349915 0.083197393 0.317 4279646742
0.11411187 0.085555874 0.32200003 4283523404
0.11515772 0.085555874 0.32200003 4280366622
0.11620358 0.085555874 0.32200003 4280893479
0.11724944 0.085555874 0.32200003 4280761893
0.11829529 0.085555874 0.32200003 4280499491
0.11934115 0.085555874 0.32200003 4280170526
0.12038701 0.085555874 0.32200003 4279446803
0.12143287 0.085555874 0.32200003 4279841561
0.12209834 0.085290164 0.32100001 4280368159
0.12314095 0.085290164 0.32100001 4279776022
0.1237967 0.085024469 0.32000002 4279445520
0.12483606 0.085024469 0.32000002 4280498721
0.12548205 0.084758759 0.31900001 4280171805
0.12651818 0.084758759 0.31900001 4279975196
0.12715442 0.084493063 0.31800002 4280040989
0.12818728 0.084493063 0.31800002 4280040989
0.1288138 0.084227361 0.317 4279975196
0.12984341 0.084227361 0.317 4279975196
0.13087304 0.084227361 0.317 4280238366
0.13190265 0.084227361 0.317 4280172827
0.13293228 0.084227361 0.317 4279975961
0.13353929 0.083961658 0.31600001 4280107547
0.13456567 0.083961658 0.31600001 4280107295
0.13516295 0.083695963 0.31500003 4279908635
0.13618606 0.083695963 0.31500003 4286681468
0.11934115 0.086602084 0.32200003 4280367137
0.12038701 0.086602084 0.32200003 4280827686
0.12143287 0.086602084 0.32200003 4280696100
0.12247872 0.086602084 0.32200003 4280958759
0.12314095 0.086333133 0.32100001 4280103704
0.12418356 0.086333133 0.32100001 4280368159
0.12483606 0.086064182 0.32000002 4280434465
0.12548205 0.085795231 0.31900001 4280171805
0.12651818 0.085795231 0.31900001 4280172575
0.12715442 0.08552628 0.31800002 4279975196
0.12818728 0.08552628 0.31800002 4280238368
0.1288138 0.085257329 0.317 4280040989
0.12984341 0.085257329 0.317 4280238368
0.13087304 0.085257329 0.317 4280040987
0.13190265 0.085257329 0.317 4280304159
0.13251293 0.084988378 0.31600001 4280107293
0.13353929 0.084988378 0.31600001 4280040987
0.13456567 0.084988378 0.31600001 4280369184
0.12143287 0.087648295 0.32200003 4282009400
0.12247872 0.087648295 0.32200003 4280498208
0.12314095 0.087376095 0.32100001 4280959524
0.12418356 0.087376095 0.32100001 4280697122
0.12483606 0.087103896 0.32000002 4280434463
0.12548205 0.086831696 0.31900001 4280434977
0.12651818 0.086831696 0.31900001 4280369184
0.12715442 0.086559497 0.31800002 4280369184
0.12818728 0.086559497 0.31800002 4280238368
0.1288138 0.08628729 0.317 4280238368
0.12984341 0.08628729 0.317 4279975709
0.13087304 0.08628729 0.317 4280238883
0.13148656 0.086015098 0.31600001 4280173088
0.13251293 0.086015098 0.31600001 4280173086
0.13353929 0.086015098 0.31600001 4279909916
0.13413982 0.085742898 0.31500003 4280631844
0.13516295 0.085742898 0.31500003 4284378965
0.12483606 0.088143609 0.32000002 4280431647
0.12651818 0.087868161 0.31900001 4280565797
0.12715442 0.087592714 0.31800002 4280434979
0.12778418 0.087317258 0.317 4280434979
0.1288138 0.087317258 0.317 4280500772
0.12984341 0.087317258 0.317 4280040991
0.13046019 0.087041818 0.31600001 4280369956
0.13148656 0.087041818 0.31600001 4280238368
0.13251293 0.087041818 0.31600001 4280566049
0.12548205 0.088904612 0.31900001 4286614908
0.12651818 0.088904612 0.31900001 4284114774
0.12715442 0.088625923 0.31800002 4282207544
0.1288138 0.088347219 0.317 4280500006
0.12984341 0.088347219 0.317 4280500006
0.13046019 0.088068523 0.31600001 4280170528
0.09966296 0.073434889 0.32366821 4294967295
0.09966296 0.073434889 0.32366821 4294901760
0.099794835 0.072960533 0.32358107 4294901760
0.099926718 0.072486177 0.32349393 4294901760
0.10005859 0.072011821 0.32340679 4294901760
0.10019047 0.071537465 0.32331964 4294901760
0.10032235 0.071063109 0.3232325 4294901760
0.10045423 0.070588745 0.32314536 4294901760
0.1005861 0.070114389 0.32305822 4294901760
0.10071798 0.069640033 0.32297108 4294901760
0.10084986 0.069165677 0.32288393 4294901760
0.10098174 0.068691321 0.32279679 4294901760
0.10111362 0.068216965 0.32270965 4294901760
0.10124549 0.067742608 0.32262251 4294901760
0.10137738 0.067268252 0.32253537 4294901760
0.10150925 0.066793896 0.32244822 4294901760
0.10164113 0.06631954 0.32236108 4294901760
0.10177301 0.065845177 0.32227394 4294901760
0.10190488 0.06537082 0.32218677 4294901760
0.10203676 0.064896464 0.32209963 4294901760
0.10216864 0.064422108 0.32201248 4294901760
0.10230052 0.063947752 0.32192534 4294901760
0.10243239 0.063473396 0.3218382 4294901760
0.10256428 0.06299904 0.32175106 4294901760
0.10269615 0.062524684 0.32166392 4294901760
0.10282803 0.062050328 0.32157677 4294901760
0.10295991 0.061575968 0.32148963 4294901760
0.10309178 0.061101612 0.32140249 4294901760
0.10322366 0.060627256 0.32131535 4294901760
0.10335554 0.060152899 0.32122821 4294901760
0.10348742 0.05967854 0.32114106 4294901760
0.10361929 0.059204184 0.32105392 4294901760
0.10375118 0.058729827 0.32096678 4294901760
0.10388305 0.058255471 0.32087964 4294901760
0.10401493 0.057781115 0.3207925 4294901760
0.10414681 0.057306759 0.32070535 4294901760
0.10427868 0.056832403 0.32061821 4294901760
0.10441057 0.056358043 0.32053107 4294901760
0.10454244 0.055883687 0.32044393 4294901760
0.10467432 0.055409331 0.32035679 4294901760
0.1048062 0.054934975 0.32026964 4294901760
0.10493807 0.054460615 0.3201825 4294901760
0.10506995 0.053986259 0.32009536 4294901760
0.10520183 0.053511903 0.32000822 4294901760
0.10533371 0.053037547 0.31992108 4294901760
0.10546558 0.05256319 0.31983393 4294901760
0.10559747 0.052088834 0.31974679 4294901760
0.10572934 0.051614475 0.31965965 4294901760
0.10586122 0.051140118 0.31957251 4294901760
0.1059931 0.050665762 0.31948537 4294901760
0.10612497 0.050191402 0.31939822 4294901760
0.10625686 0.049717046 0.31931108 4294901760
0.10638873 0.04924269 0.31922391 4294901760
0.10652061 0.048768334 0.31913677 4294901760
0.10665248 0.048293978 0.31904963 4294901760
0.10678437 0.047819622 0.31896248 4294901760
0.10691624 0.047345266 0.31887534 4294901760
0.10704812 0.04687091 0.3187882 4294901760
0.10718 0.046396554 0.31870106 4294901760
0.10731187 0.045922194 0.31861392 4294901760
0.10744376 0.045447838 0.31852677 4294901760
0.10757563 0.044973478 0.31843963 4294901760
0.10770751 0.044499122 0.31835249 4294901760
0.10783939 0.044024765 0.31826535 4294901760
0.10797127 0.043550409 0.31817821 4294901760
0.10810314 0.043076053 0.31809106 4294901760
0.10823502 0.042601697 0.31800392 4294901760
0.1083669 0.042127337 0.31791678 4294901760
0.10849878 0.041652981 0.31782964 4294901760
0.10863066 0.041178625 0.3177425 4294901760
0.10876253 0.040704269 0.31765535 4294901760
0.10889441 0.040229913 0.31756821 4294901760
0.10902629 0.039755557 0.31748107 4294901760
0.10915817 0.039281197 0.31739393 4294901760
0.10929005 0.038806841 0.31730679 4294901760
0.10942192 0.038332485 0.31721964 4294901760
0.1095538 0.037858129 0.3171325 4294901760
0.10968568 0.037383772 0.31704536 4294901760
0.10981756 0.036909416 0.31695822 4294901760
0.10994943 0.03643506 0.31687108 4294901760
0.11008132 0.0359607 0.31678393 4294901760
0.11021319 0.035486344 0.31669679 4294901760
0.11034507 0.035011988 0.31660965 4294901760
0.11047695 0.034537632 0.31652251 4294901760
0.11060882 0.034063272 0.31643537 4294901760
0.1107407 0.033588916 0.3163482 4294901760
0.11087258 0.03311456 0.31626105 4294901760
0.11100446 0.0326402 0.31617391 4294901760
0.11113633 0.032165844 0.31608677 4294901760
0.11126821 0.031691488 0.31599963 4294901760
0.11140009 0.031217132 0.31591249 4294901760
0.11153197 0.030742776 0.31582534 4294901760
0.11166385 0.030268416 0.3157382 4294901760
0.11179572 0.02979406 0.31565106 4294901760
0.11192761 0.029319704 0.31556392 4294901760
0.11205948 0.028845347 0.31547678 4294901760
0.11219136 0.028370991 0.31538963 4294901760
0.11232324 0.027896635 0.31530249 4294901760
0.11245511 0.027422275 0.31521535 4294901760
0.11258699 0.026947919 0.31512821 4294901760
0.11271887 0.026473563 0.31504107 4294901760
0.11285075 0.025999207 0.31495392 4294901760
0.09966296 0.073434889 0.32366821 4278255360
0.10012329 0.073585637 0.32354426 4278255360
0.10058364 0.073736392 0.32342032 4278255360
0.10104397 0.07388714 0.32329637 4278255360
0.1015043 0.074037895 0.32317239 4278255360
0.10196465 0.074188642 0.32304844 4278255360
0.10242498 0.074339397 0.32292449 4278255360
0.10288532 0.074490145 0.32280055 4278255360
0.10334565 0.0746409 0.3226766 4278255360
0.10380599 0.074791647 0.32255265 4278255360
0.10426633 0.074942403 0.3224287 4278255360
0.10472666 0.07509315 0.32230473 4278255360
0.105187 0.075243905 0.32218078 4278255360
0.10564734 0.075394653 0.32205683 4278255360
0.10610767 0.0755454 0.32193288 4278255360
0.10656801 0.075696155 0.32180893 4278255360
0.10702835 0.075846903 0.32168499 4278255360
0.10748868 0.075997658 0.32156101 4278255360
0.10794902 0.076148406 0.32143706 4278255360
0.10840936 0.076299161 0.32131311 4278255360
0.10886969 0.076449908 0.32118917 4278255360
0.10933003 0.076600663 0.32106522 4278255360
0.10979037 0.076751411 0.32094127 4278255360
0.1102507 0.076902166 0.32081732 4278255360
0.11071105 0.077052914 0.32069334 4278255360
0.11117138 0.077203661 0.3205694 4278255360
0.11163171 0.077354416 0.32044545 4278255360
0.11209206 0.077505164 0.3203215 4278255360
0.11255239 0.077655919 0.32019755 4278255360
0.11301272 0.077806666 0.3200736 4278255360
0.11347307 0.077957422 0.31994963 4278255360
0.1139334 0.078108169 0.31982568 4278255360
0.11439374 0.078258924 0.31970173 4278255360
0.11485408 0.078409672 0.31957778 4278255360
0.11531441 0.078560427 0.31945384 4278255360
0.11577475 0.078711174 0.31932989 4278255360
0.11623508 0.078861929 0.31920594 4278255360
0.11669542 0.079012677 0.31908196 4278255360
0.11715576 0.079163432 0.31895801 4278255360
0.11761609 0.07931418 0.31883407 4278255360
0.11807643 0.079464927 0.31871012 4278255360
0.11853677 0.079615682 0.31858617 4278255360
0.1189971 0.07976643 0.31846222 4278255360
0.11945744 0.079917185 0.31833827 4278255360
0.11991778 0.080067933 0.3182143 4278255360
0.12037811 0.080218688 0.31809035 4278255360
0.12083845 0.080369435 0.3179664 4278255360
0.12129879 0.08052019 0.31784245 4278255360
0.12175912 0.080670938 0.31771851 4278255360
0.12221947 0.080821693 0.31759456 4278255360
0.1226798 0.080972441 0.31747061 4278255360
0.12314013 0.081123188 0.31734663 4278255360
0.12360047 0.081273943 0.31722268 4278255360
0.12406081 0.081424691 0.31709874 4278255360
0.12452115 0.081575446 0.31697479 4278255360
0.12498149 0.081726193 0.31685084 4278255360
0.12544182 0.081876948 0.31672689 4278255360
0.12590216 0.082027696 0.31660292 4278255360
0.12636249 0.082178451 0.31647897 4278255360
0.12682283 0.082329199 0.31635502 4278255360
0.12728317 0.082479954 0.31623107 4278255360
0.12774351 0.082630701 0.31610712 4278255360
0.12820384 0.082781449 0.31598318 4278255360
0.12866418 0.082932204 0.31585923 4278255360
0.12912452 0.083082952 0.31573525 4278255360
0.12958485 0.083233707 0.3156113 4278255360
0.13004519 0.083384454 0.31548735 4278255360
0.13050553 0.083535209 0.31536341 4278255360
0.13096586 0.083685957 0.31523946 4278255360
0.1314262 0.083836712 0.31511551 4278255360
0.13188654 0.08398746 0.31499153 4278255360
0.13234687 0.084138215 0.31486759 4278255360
0.13280721 0.084288962 0.31474364 4278255360
0.13326755 0.084439717 0.31461969 4278255360
0.13372788 0.084590465 0.31449574 4278255360
0.13418822 0.08474122 0.31437179 4278255360
0.13464856 0.084891967 0.31424785 4278255360
0.13510889 0.085042715 0.31412387 4278255360
0.13556923 0.08519347 0.31399992 4278255360
0.13602957 0.085344218 0.31387597 4278255360
0.1364899 0.085494973 0.31375203 4278255360
0.13695024 0.08564572 0.31362808 4278255360
0.13741058 0.085796475 0.31350413 4278255360
0.13787091 0.085947223 0.31338018 4278255360
0.13833125 0.086097978 0.3132562 4278255360
0.13879159 0.086248726 0.31313226 4278255360
0.13925192 0.086399481 0.31300831 4278255360
0.13971226 0.086550228 0.31288436 4278255360
0.1401726 0.086700976 0.31276041 4278255360
0.14063293 0.086851731 0.31263646 4278255360
0.14109327 0.087002479 0.31251252 4278255360
0.14155361 0.087153234 0.31238854 4278255360
0.14201394 0.087303981 0.31226459 4278255360
0.14247428 0.087454736 0.31214064 4278255360
0.14293462 0.087605484 0.3120167 4278255360
0.14339495 0.087756239 0.31189275 4278255360
0.14385529 0.087906986 0.3117688 4278255360
0.14431563 0.088057742 0.31164482 4278255360
0.14477597 0.088208489 0.31152087 4278255360
0.1452363 0.088359237 0.31139693 4278255360
0.14569664 0.088509992 0.31127298 4278255360
0.09966296 0.073434889 0.32366821 4278190335
0.09980534 0.073386863 0.32414511 4278190335
0.099947728 0.073338844 0.32462198 4278190335
0.10009011 0.073290817 0.32509887 4278190335
0.1002325 0.073242798 0.32557577 4278190335
0.10037488 0.073194772 0.32605264 4278190335
0.10051726 0.073146753 0.32652953 4278190335
0.10065965 0.073098727 0.32700643 4278190335
0.10080203 0.073050708 0.3274833 4278190335
0.10094441 0.073002681 0.32796019 4278190335
0.1010868 0.072954662 0.32843709 4278190335
0.10122918 0.072906636 0.32891396 4278190335
0.10137156 0.072858617 0.32939085 4278190335
0.10151394 0.07281059 0.32986775 4278190335
0.10165633 0.072762571 0.33034462 4278190335
0.10179871 0.072714545 0.33082151 4278190335
0.10194109 0.072666526 0.33129841 4278190335
0.10208348 0.072618499 0.33177528 4278190335
0.10222586 0.07257048 0.33225217 4278190335
0.10236825 0.072522454 0.33272907 4278190335
0.10251063 0.072474435 0.33320594 4278190335
0.10265301 0.072426409 0.33368284 4278190335
0.1027954 0.07237839 0.33415973 4278190335
0.10293778 0.072330363 0.3346366 4278190335
0.10308017 0.072282344 0.3351135 4278190335
0.10322255 0.072234318 0.33559036 4278190335
0.10336493 0.072186291 0.33606726 4278190335
0.10350732 0.072138272 0.33654416 4278190335
0.1036497 0.072090246 0.33702102 4278190335
0.10379209 0.072042227 0.33749792 4278190335
0.10393447 0.0719942 0.33797482 4278190335
0.10407685 0.071946181 0.33845168 4278190335
0.10421924 0.071898155 0.33892858 4278190335
0.10436162 0.071850136 0.33940548 4278190335
0.104504 0.071802109 0.33988234 4278190335
0.10464638 0.07175409 0.34035924 4278190335
0.10478877 0.071706064 0.34083614 4278190335
0.10493115 0.071658045 0.341313 4278190335
0.10507353 0.071610019 0.3417899 4278190335
0.10521592 0.071562 0.3422668 4278190335
0.1053583 0.071513973 0.34274366 4278190335
0.10550068 0.071465954 0.34322056 4278190335
0.10564307 0.071417928 0.34369746 4278190335
0.10578545 0.071369909 0.34417433 4278190335
0.10592784 0.071321882 0.34465122 4278190335
0.10607022 0.071273863 0.34512812 4278190335
0.1062126 0.071225837 0.34560499 4278190335
0.10635499 0.071177818 0.34608188 4278190335
0.10649737 0.071129791 0.34655878 4278190335
0.10663976 0.071081772 0.34703565 4278190335
0.10678214 0.071033746 0.34751254 4278190335
0.10692452 0.07098572 0.34798944 4278190335
0.10706691 0.070937701 0.34846631 4278190335
0.10720929 0.070889674 0.3489432 4278190335
0.10735168 0.070841655 0.3494201 4278190335
0.10749406 0.070793629 0.34989697 4278190335
0.10763644 0.07074561 0.35037386 4278190335
0.10777882 0.070697583 0.35085076 4278190335
0.10792121 0.070649564 0.35132763 4278190335
0.10806359 0.070601538 0.35180452 4278190335
0.10820597 0.070553519 0.35228142 4278190335
0.10834835 0.070505492 0.35275829 4278190335
0.10849074 0.070457473 0.35323519 4278190335
0.10863312 0.070409447 0.35371208 4278190335
0.10877551 0.070361428 0.35418895 4278190335
0.10891789 0.070313402 0.35466585 4278190335
0.10906027 0.070265383 0.35514274 4278190335
0.10920266 0.070217356 0.35561961 4278190335
0.10934504 0.070169337 0.35609651 4278190335
0.10948743 0.070121311 0.3565734 4278190335
0.10962981 0.070073292 0.35705027 4278190335
0.10977219 0.070025265 0.35752717 4278190335
0.10991458 0.069977246 0.35800406 4278190335
0.11005696 0.06992922 0.35848093 4278190335
0.11019935 0.069881201 0.35895783 4278190335
0.11034173 0.069833174 0.35943472 4278190335
0.11048411 0.069785148 0.35991159 4278190335
0.1106265 0.069737129 0.36038849 4278190335
0.11076888 0.069689102 0.36086535 4278190335
0.11091127 0.069641083 0.36134225 4278190335
0.11105365 0.069593057 0.36181915 4278190335
0.11119603 0.069545038 0.36229604 4278190335
0.11133841 0.069497012 0.36277291 4278190335
0.11148079 0.069448993 0.36324981 4278190335
0.11162318 0.069400966 0.36372668 4278190335
0.11176556 0.069352947 0.36420357 4278190335
0.11190794 0.069304921 0.36468047 4278190335
0.11205033 0.069256902 0.36515734 4278190335
0.11219271 0.069208875 0.36563423 4278190335
0.1123351 0.069160856 0.36611113 4278190335
0.11247748 0.06911283 0.366588 4278190335
0.11261986 0.069064811 0.36706489 4278190335
0.11276225 0.069016784 0.36754179 4278190335
0.11290463 0.068968765 0.36801866 4278190335
0.11304702 0.068920739 0.36849555 4278190335
0.1131894 0.06887272 0.36897245 4278190335
0.11333178 0.068824694 0.36944932 4278190335
0.11347417 0.068776675 0.36992621 4278190335
0.11361655 0.068728648 0.37040311 4278190335
0.11375894 0.068680629 0.37087998 4278190335
0.11390132 0.068632603 0.37135687 4278190335
0.09966296 0.073434889 0.32366821 4294967295
0.098808661 0.073723026 0.32080689 4294967295
0.097954355 0.074011162 0.31794557 4294967295
0.097100057 0.074299298 0.31508425 4294967295
0.096245751 0.074587435 0.31222293 4294967295
0.095391452 0.074875578 0.30936161 4294967295
0.094537154 0.075163715 0.30650029 4294967295
0.093682848 0.075451851 0.30363896 4294967295
0.092828549 0.075739987 0.30077767 4294967295
0.091974244 0.076028123 0.29791635 4294967295
0.091119945 0.07631626 0.29505503 4294967295
0.090265647 0.076604396 0.29219371 4294967295
0.089411341 0.076892532 0.28933239 4294967295
0.088557042 0.077180669 0.28647107 4294967295
0.087702736 0.077468805 0.28360975 4294967295
0.086848438 0.077756941 0.28074843 4294967295
0.085994139 0.078045085 0.27788711 4294967295
0.085139833 0.078333221 0.27502578 4294967295
0.084285535 0.078621358 0.27216446 4294967295
0.083431229 0.078909494 0.26930314 4294967295
0.082576931 0.07919763 0.26644182 4294967295
0.081722632 0.079485767 0.2635805 4294967295
0.080868326 0.079773903 0.26071918 4294967295
0.080014028 0.080062039 0.25785786 4294967295
0.079159722 0.080350175 0.25499654 4294967295
0.078305423 0.080638319 0.25213522 4294967295
0.077451125 0.080926456 0.24927393 4294967295
0.076596819 0.081214592 0.24641259 4294967295
0.07574252 0.081502728 0.24355128 4294967295
0.074888214 0.081790864 0.24068996 4294967295
0.074033916 0.082079001 0.23782864 4294967295
0.073179618 0.082367137 0.23496732 4294967295
0.072325312 0.082655273 0.232106 4294967295
0.071471013 0.08294341 0.22924468 4294967295
0.070616707 0.083231546 0.22638336 4294967295
0.069762409 0.083519682 0.22352204 4294967295
0.06890811 0.083807826 0.22066072 4294967295
0.068053804 0.084095962 0.2177994 4294967295
0.067199506 0.084384099 0.21493807 4294967295
0.0663452 0.084672235 0.21207677 4294967295
0.065490901 0.084960371 0.20921543 4294967295
0.064636603 0.085248508 0.20635413 4294967295
0.063782305 0.085536644 0.20349282 4294967295
0.062927991 0.08582478 0.20063148 4294967295
0.062073696 0.086112916 0.19777016 4294967295
0.061219394 0.08640106 0.19490886 4294967295
0.060365092 0.086689197 0.19204752 4294967295
0.05951079 0.086977333 0.18918622 4294967295
0.058656491 0.087265469 0.18632489 4294967295
0.057802189 0.087553605 0.18346357 4294967295
0.056947887 0.087841742 0.18060225 4294967295
0.056093585 0.088129878 0.17774093 4294967295
0.055239286 0.088418014 0.17487963 4294967295
0.054384984 0.088706151 0.1720183 4294967295
0.053530678 0.088994294 0.16915697 4294967295
0.05267638 0.089282423 0.16629565 4294967295
0.051822077 0.089570567 0.16343434 4294967295
0.050967779 0.089858703 0.16057302 4294967295
0.050113477 0.09014684 0.1577117 4294967295
0.049259175 0.090434976 0.15485039 4294967295
0.048404869 0.090723112 0.15198906 4294967295
0.04755057 0.091011249 0.14912774 4294967295
0.046696268 0.091299385 0.14626642 4294967295
0.04584197 0.091587521 0.14340511 4294967295
0.044987667 0.091875657 0.14054379 4294967295
0.044133369 0.092163801 0.13768247 4294967295
0.043279063 0.092451937 0.13482113 4294967295
0.042424761 0.092740074 0.13195983 4294967295
0.041570459 0.09302821 0.1290985 4294967295
0.04071616 0.093316346 0.12623718 4294967295
0.039861858 0.093604483 0.12337588 4294967295
0.039007559 0.093892619 0.12051456 4294967295
0.038153253 0.094180755 0.11765322 4294967295
0.037298951 0.094468892 0.1147919 4294967295
0.036444649 0.094757035 0.11193059 4294967295
0.035590351 0.095045164 0.10906927 4294967295
0.034736052 0.095333308 0.10620795 4294967295
0.033881746 0.095621444 0.10334665 4294967295
0.033027448 0.095909581 0.10048532 4294967295
0.032173142 0.096197717 0.097623989 4294967295
0.031318843 0.096485853 0.094762668 4294967295
0.030464545 0.096773989 0.091901362 4294967295
0.029610239 0.097062126 0.089040041 4294967295
