# .PCD v0.7 - Point Cloud Data file format
VERSION 0.7
FIELDS x y z rgb
SIZE 4 4 4 4
TYPE F F F U
COUNT 1 1 1 1
WIDTH 1029
HEIGHT 1
VIEWPOINT 0 0 0 1 0 0 0
POINTS 1029
DATA ascii
-0.10593945 -0.027778462 0.52700001 4283503628
-0.10442553 -0.027831171 0.528 4282980366
-0.10290512 -0.027883884 0.52900004 4282520588
-0.10156948 -0.027989304 0.53100002 4281930504
-0.1474115 -0.026758645 0.54100001 4286747009
-0.14646202 -0.02690703 0.54400003 4286878595
-0.14442913 -0.02685757 0.54300004 4287798412
-0.14214 -0.026758645 0.54100001 4284100392
-0.13986386 -0.026659723 0.53900003 4285280554
-0.13785695 -0.026610263 0.53800005 4284359450
-0.13585651 -0.026560798 0.537 4283637013
-0.13411234 -0.026560798 0.537 4282717971
-0.13212167 -0.026511338 0.53600001 4281666053
-0.13013749 -0.026461877 0.53500003 4287531129
-0.12815982 -0.026412416 0.53400004 4287073658
-0.12642539 -0.026412416 0.53400004 4286811771
-0.12445745 -0.026362956 0.53300005 4286811771
-0.12226575 -0.02626403 0.53100002 4286745978
-0.12031405 -0.02621457 0.53000003 4286680955
-0.11836886 -0.026165109 0.52900004 4286680955
-0.11643014 -0.026115647 0.528 4287667080
-0.11449794 -0.026066184 0.52700001 4283248165
-0.11257223 -0.026016723 0.52600002 4284294173
-0.11086378 -0.026016723 0.52600002 4284358169
-0.10915533 -0.026016723 0.52600002 4284029974
-0.10744688 -0.026016723 0.52600002 4283307278
-0.10593945 -0.026066184 0.52700001 4282913290
-0.10422775 -0.026066184 0.52700001 4282389002
-0.10271058 -0.026115647 0.528 4282389774
-0.1013782 -0.02621457 0.53000003 4282062092
-0.14889294 -0.024954669 0.54000002 4286943873
-0.14713901 -0.024954669 0.54000002 4287075459
-0.14592357 -0.025047095 0.54200006 4287131496
-0.14389715 -0.025000881 0.54100001 4285875519
-0.14187726 -0.024954669 0.54000002 4285411625
-0.13986386 -0.024908457 0.53900003 4285411625
-0.13785695 -0.024862247 0.53800005 4283571733
-0.13610952 -0.024862247 0.53800005 4282914832
-0.13411234 -0.024816031 0.537 4281470218
-0.13212167 -0.02476982 0.53600001 4288188548
-0.13038073 -0.02476982 0.53600001 4286811771
-0.12839982 -0.024723608 0.53500003 4286877564
-0.12642539 -0.024677396 0.53400004 4286877564
-0.12445745 -0.024631184 0.53300005 4286877564
-0.12226575 -0.024538757 0.53100002 4286812287
-0.12031405 -0.024492547 0.53000003 4286614908
-0.11836886 -0.024446335 0.52900004 4286746494
-0.11643014 -0.024400121 0.528 4286615421
-0.11449794 -0.024353908 0.52700001 4282985252
-0.11257223 -0.024307696 0.52600002 4283638557
-0.11065301 -0.024261486 0.52500004 4283899931
-0.10894781 -0.024261486 0.52500004 4283703065
-0.10744688 -0.024307696 0.52600002 4282915086
-0.10573843 -0.024307696 0.52600002 4282651660
-0.10422775 -0.024353908 0.52700001 4282390287
-0.10251606 -0.024353908 0.52700001 4282324494
-0.10118692 -0.024446335 0.52900004 4282390287
-0.1503679 -0.023157192 0.53900003 4287074691
-0.14861722 -0.023157192 0.53900003 4287665025
-0.14713901 -0.023200154 0.54000002 4283906606
-0.14565432 -0.023243118 0.54100001 4288503380
-0.14363118 -0.023200154 0.54000002 4285870377
-0.14187726 -0.023200154 0.54000002 4285476389
-0.13986386 -0.023157192 0.53900003 4284096019
-0.13785695 -0.023114229 0.53800005 4282980879
-0.13610952 -0.023114229 0.53800005 4282192393
-0.13411234 -0.023071265 0.537 4287597694
-0.13236816 -0.023071265 0.537 4286745978
-0.13038073 -0.023028301 0.53600001 4286746494
-0.12839982 -0.022985339 0.53500003 4286746748
-0.12642539 -0.022942375 0.53400004 4286747261
-0.12445745 -0.022899413 0.53300005 4287536777
-0.12226575 -0.022813486 0.53100002 4287536010
-0.12031405 -0.022770522 0.53000003 4286878595
-0.11836886 -0.02272756 0.52900004 4286418296
-0.11620963 -0.022641633 0.52700001 4284637268
-0.11428068 -0.022598669 0.52600002 4283704864
-0.11235821 -0.022555707 0.52500004 4283637272
-0.11065301 -0.022555707 0.52500004 4283769110
-0.10894781 -0.022555707 0.52500004 4283177743
-0.10724261 -0.022555707 0.52500004 4282126600
-0.10553741 -0.022555707 0.52500004 4282325775
-0.10402998 -0.022598669 0.52600002 4282590231
-0.10251606 -0.022641633 0.52700001 4282063117
-0.10080436 -0.022641633 0.52700001 4282193676
-0.15211856 -0.021405926 0.53900003 4287074689
-0.1503679 -0.021405926 0.53900003 4287074689
-0.14861722 -0.021405926 0.53900003 4285486410
-0.14713901 -0.021445639 0.54000002 4285543726
-0.1453851 -0.021445639 0.54000002 4287648071
-0.14363118 -0.021445639 0.54000002 4286527537
-0.14161453 -0.021405926 0.53900003 4285015584
-0.13986386 -0.021405926 0.53900003 4283307278
-0.13785695 -0.021366213 0.53800005 4282192906
-0.13610952 -0.021366213 0.53800005 4281667849
-0.13411234 -0.021326497 0.537 4287992965
-0.13236816 -0.021326497 0.537 4287074430
-0.13038073 -0.021286784 0.53600001 4286615162
-0.12839982 -0.02124707 0.53500003 4287338631
-0.12642539 -0.021207355 0.53400004 4280955441
-0.12445745 -0.021167642 0.53300005 4279507997
-0.12226575 -0.021088213 0.53100002 4279639070
-0.12031405 -0.021048499 0.53000003 4279244312
-0.11814509 -0.020969069 0.528 4282926654
-0.11620963 -0.020929355 0.52700001 4283380010
-0.11428068 -0.020889642 0.52600002 4284228896
-0.11235821 -0.020849928 0.52500004 4284162585
-0.11065301 -0.020849928 0.52500004 4284096532
-0.10874029 -0.020810215 0.52400005 4283768081
-0.10724261 -0.020849928 0.52500004 4283577639
-0.10553741 -0.020849928 0.52500004 4282001941
-0.10383221 -0.020849928 0.52500004 4281871123
-0.10232154 -0.020889642 0.52600002 4281801480
-0.10080436 -0.020929355 0.52700001 4282785297
-0.15211856 -0.019654658 0.53900003 4287206277
-0.1503679 -0.019654658 0.53900003 4287469447
-0.14861722 -0.019654658 0.53900003 4284035112
-0.14686655 -0.019654658 0.53900003 4285411627
-0.1453851 -0.019691123 0.54000002 4285475619
-0.14336519 -0.019654658 0.53900003 4285474849
-0.14161453 -0.019654658 0.53900003 4283504143
-0.13986386 -0.019654658 0.53900003 4282717707
-0.13785695 -0.019618195 0.53800005 4281996299
-0.13610952 -0.019618195 0.53800005 4282062094
-0.13411234 -0.019581728 0.537 4282653979
-0.13236816 -0.019581728 0.537 4286668379
-0.13038073 -0.019545263 0.53600001 4286806379
-0.12839982 -0.019508798 0.53500003 4279637779
-0.12642539 -0.019472333 0.53400004 4281283891
-0.12445745 -0.01943587 0.53300005 4279507482
-0.12226575 -0.019362938 0.53100002 4279704093
-0.12031405 -0.019326473 0.53000003 4279836447
-0.11836886 -0.019290008 0.52900004 4279703319
-0.11620963 -0.019217078 0.52700001 4280292884
-0.11428068 -0.019180613 0.52600002 4283770909
-0.11235821 -0.019144148 0.52500004 4283834390
-0.11065301 -0.019144148 0.52500004 4283964946
-0.10874029 -0.019107683 0.52400005 4284425497
-0.10703834 -0.019107683 0.52400005 4281800199
-0.10553741 -0.019144148 0.52500004 4281936148
-0.10383221 -0.019144148 0.52500004 4281675027
-0.10212701 -0.019144148 0.52500004 4282067732
-0.10061309 -0.019180613 0.52600002 4282982674
-0.15211856 -0.017903393 0.53900003 4287008896
-0.1503679 -0.017903393 0.53900003 4287008896
-0.14861722 -0.017903393 0.53900003 4283773739
-0.14686655 -0.017903393 0.53900003 4284689447
-0.14511587 -0.017903393 0.53900003 4284489755
-0.14336519 -0.017903393 0.53900003 4283831825
-0.14161453 -0.017903393 0.53900003 4283176721
-0.13986386 -0.017903393 0.53900003 4282454797
-0.13785695 -0.017870177 0.53800005 4282127115
-0.13610952 -0.017870177 0.53800005 4282718739
-0.13411234 -0.01783696 0.537 4283702552
-0.13236816 -0.01783696 0.537 4283899931
-0.13038073 -0.017803743 0.53600001 4281145617
-0.12839982 -0.017770529 0.53500003 4282993217
-0.12642539 -0.017737314 0.53400004 4283125830
-0.12445745 -0.017704098 0.53300005 4280165145
-0.122496 -0.017670881 0.53200001 4281947211
-0.12031405 -0.01760445 0.53000003 4279970345
-0.11836886 -0.017571233 0.52900004 4279178768
-0.11620963 -0.0175048 0.52700001 4281678900
-0.11428068 -0.017471585 0.52600002 4281735185
-0.11235821 -0.017438369 0.52500004 4283179288
-0.11065301 -0.017438369 0.52500004 4283242514
-0.10874029 -0.017405154 0.52400005 4284163355
-0.10703834 -0.017405154 0.52400005 4282324233
-0.10553741 -0.017438369 0.52500004 4282263832
-0.10383221 -0.017438369 0.52500004 4281674775
-0.10212701 -0.017438369 0.52500004 4282069017
-0.10061309 -0.017471585 0.52600002 4283376149
-0.15211856 -0.016152127 0.53900003 4286943873
-0.1503679 -0.016152127 0.53900003 4286878080
-0.14861722 -0.016152127 0.53900003 4287266678
-0.14686655 -0.016152127 0.53900003 4283574057
-0.14511587 -0.016152127 0.53900003 4284032802
-0.14336519 -0.016152127 0.53900003 4284031519
-0.14161453 -0.016152127 0.53900003 4283045907
-0.13986386 -0.016152127 0.53900003 4282323981
-0.13785695 -0.01612216 0.53800005 4282323983
-0.13610952 -0.01612216 0.53800005 4283111698
-0.13411234 -0.016092192 0.537 4283833106
-0.13236816 -0.016092192 0.537 4283439632
-0.13038073 -0.016062226 0.53600001 4279634944
-0.12839982 -0.01603226 0.53500003 4281282852
-0.12642539 -0.016002294 0.53400004 4284047950
-0.12445745 -0.015972327 0.53300005 4282600758
-0.122496 -0.015942357 0.53200001 4286879613
-0.12031405 -0.015882425 0.53000003 4279838231
-0.11836886 -0.015852459 0.52900004 4280889384
-0.11643014 -0.015822491 0.528 4279047180
-0.11449794 -0.015792524 0.52700001 4279767557
-0.11257223 -0.015762558 0.52600002 4281735955
-0.11065301 -0.015732592 0.52500004 4281996814
-0.10894781 -0.015732592 0.52500004 4282981139
-0.10724261 -0.015732592 0.52500004 4283112465
-0.10553741 -0.015732592 0.52500004 4282722330
-0.10383221 -0.015732592 0.52500004 4281016847
-0.10212701 -0.015732592 0.52500004 4281214224
-0.10061309 -0.015762558 0.52600002 4283311380
-0.098716602 -0.015732592 0.52500004 4282784782
-0.1503679 -0.014400861 0.53900003 4286943875
-0.14861722 -0.014400861 0.53900003 4287206277
-0.14686655 -0.014400861 0.53900003 4284834649
-0.14511587 -0.014400861 0.53900003 4284166700
-0.14336519 -0.014400861 0.53900003 4284493353
-0.14161453 -0.014400861 0.53900003 4282980114
-0.13986386 -0.014400861 0.53900003 4282454797
-0.13785695 -0.014374144 0.53800005 4282323981
-0.13610952 -0.014374144 0.53800005 4283374872
-0.13411234 -0.014347425 0.537 4283833622
-0.13236816 -0.014347425 0.537 4282453768
-0.13038073 -0.014320708 0.53600001 4283584834
-0.12839982 -0.01429399 0.53500003 4283914826
-0.12642539 -0.014267272 0.53400004 4281939226
-0.12445745 -0.014240555 0.53300005 4289570951
-0.122496 -0.014213837 0.53200001 4282730543
-0.12054107 -0.014187119 0.53100002 4283389504
-0.11836886 -0.014133684 0.52900004 4282402105
-0.11643014 -0.014106966 0.528 4278981637
-0.11449794 -0.014080248 0.52700001 4280888094
-0.11257223 -0.01405353 0.52600002 4281477408
-0.11086378 -0.01405353 0.52600002 4281341710
-0.10894781 -0.014026813 0.52500004 4281340168
-0.10724261 -0.014026813 0.52500004 4283046672
-0.10553741 -0.014026813 0.52500004 4282129680
-0.10402998 -0.01405353 0.52600002 4280490503
-0.10232154 -0.01405353 0.52600002 4281016849
-0.10061309 -0.01405353 0.52600002 4283836700
-0.14861722 -0.012649595 0.53900003 4286943875
-0.14686655 -0.012649595 0.53900003 4286943875
-0.14511587 -0.012649595 0.53900003 4283579696
-0.14336519 -0.012649595 0.53900003 4284822831
-0.14161453 -0.012649595 0.53900003 4283243286
-0.13986386 -0.012649595 0.53900003 4282520590
-0.13785695 -0.012626126 0.53800005 4286077264
-0.13610952 -0.012626126 0.53800005 4287989624
-0.13411234 -0.012602656 0.537 4282920742
-0.13236816 -0.012602656 0.537 4281210896
-0.13038073 -0.012579188 0.53600001 4281809966
-0.12839982 -0.01255572 0.53500003 4282467378
-0.12642539 -0.012532252 0.53400004 4282399264
-0.12445745 -0.012508783 0.53300005 4282531104
-0.122496 -0.012485313 0.53200001 4283254313
-0.12054107 -0.012461845 0.53100002 4284046403
-0.11859261 -0.012438376 0.53000003 4280099348
-0.11665066 -0.012414908 0.52900004 4279374859
-0.1147152 -0.012391439 0.528 4282731070
-0.11278624 -0.01236797 0.52700001 4281281312
-0.11086378 -0.012344502 0.52600002 4281869340
-0.10915533 -0.012344502 0.52600002 4280749314
-0.10744688 -0.012344502 0.52600002 4283111952
-0.10573843 -0.012344502 0.52600002 4282324492
-0.10422775 -0.01236797 0.52700001 4280948488
-0.10251606 -0.01236797 0.52700001 4281736209
-0.10080436 -0.01236797 0.52700001 4285413935
-0.14686655 -0.010898329 0.53900003 4287075461
-0.14511587 -0.010898329 0.53900003 4288517511
-0.14336519 -0.010898329 0.53900003 4284562226
-0.14161453 -0.010898329 0.53900003 4283440665
-0.13960437 -0.010878109 0.53800005 4282849555
-0.13785695 -0.010878109 0.53800005 4284105786
-0.13610952 -0.010878109 0.53800005 4287204217
-0.13411234 -0.010857889 0.537 4286943357
-0.13212167 -0.010837669 0.53600001 4282796861
-0.13038073 -0.010837669 0.53600001 4283060037
-0.12839982 -0.01081745 0.53500003 4283389252
-0.12642539 -0.010797231 0.53400004 4282466853
-0.12445745 -0.010777012 0.53300005 4282400031
-0.12272626 -0.010777012 0.53300005 4283913016
-0.12076807 -0.010756792 0.53200001 4284507208
-0.11881637 -0.010736573 0.53100002 4281085727
-0.11687117 -0.010716353 0.53000003 4279769615
-0.11493248 -0.010696134 0.52900004 4279506191
-0.11300025 -0.010675914 0.528 4281610279
-0.11107454 -0.010655694 0.52700001 4281343509
-0.10936284 -0.010655694 0.52700001 4280354304
-0.10765115 -0.010655694 0.52700001 4283702034
-0.10593945 -0.010655694 0.52700001 4284951587
-0.10442553 -0.010675914 0.528 4285016351
-0.10271058 -0.010675914 0.528 4285279521
-0.10118692 -0.010696134 0.52900004 4284357904
-0.14686655 -0.009147062 0.53900003 4287141254
-0.14484663 -0.0091300923 0.53800005 4288125326
-0.14309922 -0.0091300923 0.53800005 4283972147
-0.1413518 -0.0091300923 0.53800005 4283834651
-0.13960437 -0.0091300923 0.53800005 4283375383
-0.13785695 -0.0091300923 0.53800005 4282065433
-0.13610952 -0.0091300923 0.53800005 4287072888
-0.13411234 -0.0091131208 0.537 4286483576
-0.13236816 -0.0091131208 0.537 4286154357
-0.13038073 -0.0090961503 0.53600001 4280954661
-0.12839982 -0.0090791807 0.53500003 4280757278
-0.12642539 -0.0090622101 0.53400004 4284046403
-0.12469095 -0.0090622101 0.53400004 4281217558
-0.12272626 -0.0090452395 0.53300005 4283915071
-0.12076807 -0.009028269 0.53200001 4280164877
-0.11904012 -0.009028269 0.53200001 4281546278
-0.11709168 -0.0090112984 0.53100002 4279178246
-0.11514974 -0.0089943279 0.53000003 4279375375
-0.11321428 -0.0089773582 0.52900004 4281873964
-0.11128531 -0.0089603867 0.528 4279830786
-0.10957036 -0.0089603867 0.528 4281866773
-0.10785542 -0.0089603867 0.528 4285409052
-0.10614047 -0.0089603867 0.528 4286529075
-0.10462331 -0.0089773582 0.52900004 4284816915
-0.10309964 -0.0089943279 0.53000003 4285144853
-0.1013782 -0.0089943279 0.53000003 4284553743
-0.14484663 -0.0073820753 0.53800005 4287206275
-0.14309922 -0.0073820753 0.53800005 4283054379
-0.1413518 -0.0073820753 0.53800005 4284557863
-0.13960437 -0.0073820753 0.53800005 4283834651
-0.13785695 -0.0073820753 0.53800005 4281930506
-0.13610952 -0.0073820753 0.53800005 4288057727
-0.13411234 -0.0073683532 0.537 4286878334
-0.13236816 -0.0073683532 0.537 4287601805
-0.13038073 -0.007354632 0.53600001 4281088048
-0.12839982 -0.0073409108 0.53500003 4282007865
-0.12666214 -0.0073409108 0.53500003 4281809196
-0.12469095 -0.0073271897 0.53400004 4282533171
-0.12295651 -0.0073271897 0.53400004 4283520836
-0.12099508 -0.0073134685 0.53300005 4282336562
-0.11904012 -0.0072997469 0.53200001 4281217061
-0.11731219 -0.0072997469 0.53200001 4279506445
-0.115367 -0.0072860257 0.53100002 4279374605
-0.11342829 -0.0072723045 0.53000003 4280294932
-0.11149608 -0.0072585833 0.52900004 4280423436
-0.10977789 -0.0072585833 0.52900004 4282983969
-0.1080597 -0.0072585833 0.52900004 4285080089
-0.1063415 -0.0072585833 0.52900004 4289685599
-0.10482109 -0.0072723045 0.53000003 4285276439
-0.10329417 -0.0072860257 0.53100002 4284619279
-0.10176076 -0.0072997469 0.53200001 4283963150
-0.14484663 -0.0056340583 0.53800005 4287141252
-0.14309922 -0.0056340583 0.53800005 4284899411
-0.1413518 -0.0056340583 0.53800005 4284951849
-0.13960437 -0.0056340583 0.53800005 4284228126
-0.13785695 -0.0056340583 0.53800005 4283770141
-0.13610952 -0.0056340583 0.53800005 4288908675
-0.13411234 -0.0056235855 0.537 4286878334
-0.13236816 -0.0056235855 0.537 4286878080
-0.13038073 -0.0056131133 0.53600001 4282996043
-0.1286398 -0.0056131133 0.53600001 4283258445
-0.12666214 -0.005602641 0.53500003 4281085995
-0.12492445 -0.005602641 0.53500003 4279965715
-0.12295651 -0.0055921692 0.53400004 4280493858
-0.12122209 -0.0055921692 0.53400004 4279309582
-0.11926389 -0.005581697 0.53300005 4282994240
-0.11731219 -0.0055712243 0.53200001 4279112455
-0.11558425 -0.0055712243 0.53200001 4280491798
-0.11364231 -0.005560752 0.53100002 4280293134
-0.11170685 -0.0055502802 0.53000003 4280751372
-0.1099854 -0.0055502802 0.53000003 4283442977
-0.10826397 -0.0055502802 0.53000003 4285277468
-0.10674354 -0.005560752 0.53100002 4284948246
-0.10521663 -0.0055712243 0.53200001 4284686101
-0.10368323 -0.005581697 0.53300005 4283963150
-0.1023346 -0.005602641 0.53500003 4283109899
-0.14484663 -0.0038860412 0.53800005 4287207558
-0.14309922 -0.0038860412 0.53800005 4287335805
-0.1413518 -0.0038860412 0.53800005 4285084205
-0.13960437 -0.0038860412 0.53800005 4284687904
-0.13785695 -0.0038860412 0.53800005 4284425245
-0.13610952 -0.0038860412 0.53800005 4283572762
-0.13411234 -0.0038788177 0.537 4287008635
-0.13236816 -0.0038788177 0.537 4287075713
-0.13038073 -0.0038715946 0.53600001 4287141765
-0.1286398 -0.0038715946 0.53600001 4281483058
-0.12666214 -0.0038643717 0.53500003 4281020970
-0.12492445 -0.0038643717 0.53500003 4281349165
-0.12318677 -0.0038643717 0.53500003 4283979858
-0.12122209 -0.0038571486 0.53400004 4282467900
-0.11926389 -0.0038499255 0.53300005 4282138931
-0.11753271 -0.0038499255 0.53300005 4279308805
-0.11558425 -0.0038427021 0.53200001 4281409818
-0.11385632 -0.0038427021 0.53200001 4281806113
-0.11191761 -0.003835479 0.53100002 4282790692
-0.11019292 -0.003835479 0.53100002 4283705116
-0.10846824 -0.003835479 0.53100002 4284490007
-0.10694457 -0.0038427021 0.53200001 4284226835
-0.10561219 -0.0038571486 0.53400004 4283767829
-0.10426681 -0.0038715946 0.53600001 4283242255
-0.10290845 -0.0038860412 0.53800005 4282651660
-0.14484663 -0.0021380242 0.53800005 4287273353
-0.14309922 -0.0021380242 0.53800005 4288520336
-0.1413518 -0.0021380242 0.53800005 4286070330
-0.13960437 -0.0021380242 0.53800005 4285081377
-0.13785695 -0.0021380242 0.53800005 4285145884
-0.13585651 -0.00213405 0.537 4284423447
-0.13411234 -0.00213405 0.537 4287990137
-0.13236816 -0.00213405 0.537 4286746746
-0.13038073 -0.0021300761 0.53600001 4286878595
-0.1286398 -0.0021300761 0.53600001 4287207562
-0.12689888 -0.0021300761 0.53600001 4286417533
-0.12492445 -0.0021261021 0.53500003 4280298530
-0.12318677 -0.0021261021 0.53500003 4279769365
-0.12122209 -0.0021221281 0.53400004 4279899411
-0.11948766 -0.0021221281 0.53400004 4281670162
-0.11753271 -0.0021181542 0.53300005 4283641126
-0.11580153 -0.0021181542 0.53300005 4282786330
-0.11385632 -0.00211418 0.53200001 4288385411
-0.11212838 -0.00211418 0.53200001 4284630068
-0.11040044 -0.00211418 0.53200001 4283834905
-0.10887679 -0.0021181542 0.53300005 4283637526
-0.10734662 -0.0021221281 0.53400004 4283572503
-0.10580996 -0.0021261021 0.53500003 4283309590
-0.10446133 -0.00213405 0.537 4282849553
-0.10309972 -0.0021419981 0.53900003 4282587664
-0.14484663 -0.0003900071 0.53800005 4287338633
-0.14309922 -0.0003900071 0.53800005 4285094993
-0.1413518 -0.0003900071 0.53800005 4286528825
-0.13934487 -0.00038928216 0.537 4288173902
-0.13760069 -0.00038928216 0.537 4285277468
-0.13585651 -0.00038928216 0.537 4285343004
-0.13411234 -0.00038928216 0.537 4284096278
-0.13236816 -0.00038928216 0.537 4289237122
-0.13038073 -0.00038855724 0.53600001 4287075713
-0.1286398 -0.00038855724 0.53600001 4286878593
-0.12689888 -0.00038855724 0.53600001 4286747009
-0.12492445 -0.00038783232 0.53500003 4286812802
-0.12318677 -0.00038783232 0.53500003 4283715653
-0.12122209 -0.0003871074 0.53400004 4283772458
-0.11948766 -0.0003871074 0.53400004 4284556318
-0.11753271 -0.00038638251 0.53300005 4284752925
-0.11580153 -0.00038638251 0.53300005 4283572503
-0.11407034 -0.00038638251 0.53300005 4288576626
-0.11233915 -0.00038638251 0.53300005 4283178518
-0.11060797 -0.00038638251 0.53300005 4282060037
-0.10908106 -0.0003871074 0.53400004 4283315752
-0.10754764 -0.00038783232 0.53500003 4283381545
-0.10620551 -0.00038928216 0.537 4283048987
-0.10465587 -0.0003900071 0.53800005 4282522643
-0.103291 -0.00039145691 0.54000002 4282654229
-0.14632158 0.0013554858 0.537 4287404426
-0.1445774 0.0013554858 0.537 4288717461
-0.14283322 0.0013554858 0.537 4284498745
-0.14108905 0.0013554858 0.537 4287185983
-0.13934487 0.0013554858 0.537 4285935400
-0.13760069 0.0013554858 0.537 4285802785
-0.13585651 0.0013554858 0.537 4285276439
-0.13411234 0.0013554858 0.537 4285934369
-0.13212167 0.0013529615 0.53600001 4284882455
-0.13038073 0.0013529615 0.53600001 4288055413
-0.1286398 0.0013529615 0.53600001 4287074682
-0.12666214 0.0013504374 0.53500003 4286944127
-0.12492445 0.0013504374 0.53500003 4287075713
-0.12295651 0.0013479133 0.53400004 4287596157
-0.12122209 0.0013479133 0.53400004 4284428589
-0.11948766 0.0013479133 0.53400004 4285081631
-0.11753271 0.0013453892 0.53300005 4285409824
-0.11580153 0.0013453892 0.53300005 4286069039
-0.11407034 0.0013453892 0.53300005 4284491038
-0.11254992 0.0013479133 0.53400004 4282192908
-0.11081549 0.0013479133 0.53400004 4288515966
-0.10928532 0.0013504374 0.53500003 4283256637
-0.10794969 0.0013554858 0.537 4282201385
-0.10660107 0.0013605342 0.53900003 4282327063
-0.1048504 0.0013605342 0.53900003 4282457877
-0.103291 0.0013630583 0.54000002 4282588949
-0.14632158 0.0031002534 0.537 4287207045
-0.1445774 0.0031002534 0.537 4288585102
-0.14283322 0.0031002534 0.537 4284300083
-0.14108905 0.0031002534 0.537 4285672744
-0.13934487 0.0031002534 0.537 4284948251
-0.13760069 0.0031002534 0.537 4285080091
-0.13585651 0.0031002534 0.537 4286856500
-0.1338626 0.0030944804 0.53600001 4286988086
-0.13212167 0.0030944804 0.53600001 4286330158
-0.13038073 0.0030944804 0.53600001 4285674281
-0.12839982 0.0030887071 0.53500003 4285939766
-0.12666214 0.0030887071 0.53500003 4288384895
-0.12492445 0.0030887071 0.53500003 4288321928
-0.12295651 0.0030829338 0.53400004 4288775290
-0.12122209 0.0030829338 0.53400004 4284886310
-0.11948766 0.0030829338 0.53400004 4285606433
-0.11753271 0.0030771606 0.53300005 4285671967
-0.11580153 0.0030771606 0.53300005 4285146652
-0.11428436 0.0030829338 0.53400004 4283108618
-0.11254992 0.0030829338 0.53400004 4287597694
-0.111023 0.0030887071 0.53500003 4286877564
-0.1094896 0.0030944804 0.53600001 4286812541
-0.10815072 0.0031060271 0.53800005 4282531633
-0.10679884 0.0031175734 0.54000002 4282524442
-0.10504492 0.0031175734 0.54000002 4282655256
-0.1460491 0.0048359991 0.53600001 4287207045
-0.14430816 0.0048359991 0.53600001 4288060301
-0.14256723 0.0048359991 0.53600001 4283382063
-0.14082631 0.0048359991 0.53600001 4284492068
-0.13908538 0.0048359991 0.53600001 4284228896
-0.13734446 0.0048359991 0.53600001 4283899931
-0.13560353 0.0048359991 0.53600001 4284162587
-0.1338626 0.0048359991 0.53600001 4284227099
-0.13212167 0.0048359991 0.53600001 4289160804
-0.13038073 0.0048359991 0.53600001 4286133545
-0.12839982 0.0048269765 0.53500003 4286066725
-0.12666214 0.0048269765 0.53500003 4286461744
-0.12469095 0.0048179543 0.53400004 4286463032
-0.12295651 0.0048179543 0.53400004 4286530106
-0.12122209 0.0048179543 0.53400004 4287186237
-0.11926389 0.0048089321 0.53300005 4286264106
-0.11753271 0.0048089321 0.53300005 4285343004
-0.11601879 0.0048179543 0.53400004 4282323983
-0.11428436 0.0048179543 0.53400004 4288188548
-0.11276069 0.0048269765 0.53500003 4286615421
-0.11123052 0.0048359991 0.53600001 4286681214
-0.10969386 0.0048450213 0.537 4286149996
-0.10835174 0.0048630661 0.53900003 4283051045
-0.10699661 0.004881111 0.54100001 4282721051
-0.1460491 0.0065775178 0.53600001 4287272838
-0.14430816 0.0065775178 0.53600001 4287272068
-0.14256723 0.0065775178 0.53600001 4285361761
-0.14082631 0.0065775178 0.53600001 4283838764
-0.13908538 0.0065775178 0.53600001 4284035112
-0.13734446 0.0065775178 0.53600001 4283639841
-0.13560353 0.0065775178 0.53600001 4283245598
-0.1338626 0.0065775178 0.53600001 4283511085
-0.13212167 0.0065775178 0.53600001 4287724655
-0.13013749 0.0065652463 0.53500003 4283967520
-0.12839982 0.0065652463 0.53500003 4285017382
-0.12666214 0.0065652463 0.53500003 4285606435
-0.12469095 0.0065529752 0.53400004 4286000934
-0.12295651 0.0065529752 0.53400004 4286328616
-0.12122209 0.0065529752 0.53400004 4287908681
-0.11926389 0.0065407036 0.53300005 4285343011
-0.11753271 0.0065407036 0.53300005 4284356884
-0.11601879 0.0065529752 0.53400004 4288643704
-0.11428436 0.0065529752 0.53400004 4287204474
-0.11276069 0.0065652463 0.53500003 4286878847
-0.11123052 0.0065775178 0.53600001 4284574042
-0.10969386 0.0065897889 0.537 4282984741
-0.10835174 0.0066143326 0.53900003 4282983971
-0.10699661 0.0066388752 0.54100001 4285951847
-0.14577661 0.0083035165 0.53500003 4287207047
-0.14403895 0.0083035165 0.53500003 4287272838
-0.14230126 0.0083035165 0.53500003 4287272322
-0.14082631 0.008319037 0.53600001 4287137656
-0.13908538 0.008319037 0.53600001 4283449401
-0.13734446 0.008319037 0.53600001 4283577389
-0.13560353 0.008319037 0.53600001 4283642669
-0.1338626 0.008319037 0.53600001 4282524190
-0.13187517 0.0083035165 0.53500003 4282129178
-0.13013749 0.0083035165 0.53500003 4287857532
-0.12839982 0.0083035165 0.53500003 4288518026
-0.12642539 0.0082879961 0.53400004 4288451970
-0.12469095 0.0082879961 0.53400004 4284099620
-0.12295651 0.0082879961 0.53400004 4286065959
-0.12099508 0.0082724756 0.53300005 4290277229
-0.11926389 0.0082724756 0.53300005 4285540388
-0.11775322 0.0082879961 0.53400004 4284883228
-0.11601879 0.0082879961 0.53400004 4283571479
-0.11428436 0.0082879961 0.53400004 4281929486
-0.11276069 0.0083035165 0.53500003 4281998359
-0.11123052 0.008319037 0.53600001 4282918176
-0.10969386 0.0083345566 0.537 4282918430
-0.10835174 0.0083655985 0.53900003 4284105788
-0.15098967 0.010041786 0.53500003 4287338633
-0.14925198 0.010041786 0.53500003 4287272840
-0.1475143 0.010041786 0.53500003 4287272840
-0.14577661 0.010041786 0.53500003 4287338633
-0.14403895 0.010041786 0.53500003 4287207045
-0.14230126 0.010041786 0.53500003 4287272838
-0.14056359 0.010041786 0.53500003 4287075459
-0.13882591 0.010041786 0.53500003 4287207045
-0.13708822 0.010041786 0.53500003 4287864205
-0.13535054 0.010041786 0.53500003 4287600774
-0.13361286 0.010041786 0.53500003 4286414449
-0.13187517 0.010041786 0.53500003 4284372300
-0.13013749 0.010041786 0.53500003 4282658604
-0.12839982 0.010041786 0.53500003 4282329127
-0.12642539 0.010023016 0.53400004 4284500292
-0.12469095 0.010023016 0.53400004 4285416765
-0.12295651 0.010023016 0.53400004 4285804330
-0.12122209 0.010023016 0.53400004 4285277216
-0.11948766 0.010023016 0.53400004 4284685849
-0.11775322 0.010023016 0.53400004 4284094995
-0.11601879 0.010023016 0.53400004 4283046418
-0.11428436 0.010023016 0.53400004 4282652948
-0.11276069 0.010041786 0.53500003 4282456598
-0.11123052 0.010060555 0.53600001 4283048989
-0.10969386 0.010079325 0.537 4282000412
-0.15098967 0.011780055 0.53500003 4287207047
-0.14925198 0.011780055 0.53500003 4287536012
-0.1475143 0.011780055 0.53500003 4287338633
-0.14577661 0.011780055 0.53500003 4287141254
-0.14376971 0.011758037 0.53400004 4287141254
-0.14203528 0.011758037 0.53400004 4287141254
-0.14056359 0.011780055 0.53500003 4287075461
-0.13882591 0.011780055 0.53500003 4287207045
-0.13708822 0.011780055 0.53500003 4287272838
-0.13535054 0.011780055 0.53500003 4287404424
-0.13361286 0.011780055 0.53500003 4287207045
-0.13187517 0.011780055 0.53500003 4287141252
-0.13013749 0.011780055 0.53500003 4287272838
-0.12839982 0.011780055 0.53500003 4287995791
-0.12642539 0.011758037 0.53400004 4284833364
-0.12469095 0.011758037 0.53400004 4284762181
-0.12295651 0.011758037 0.53400004 4285018414
-0.12122209 0.011758037 0.53400004 4284622884
-0.11948766 0.011758037 0.53400004 4283966237
-0.11775322 0.011758037 0.53400004 4283505686
-0.11601879 0.011758037 0.53400004 4282981139
-0.11428436 0.011758037 0.53400004 4282785045
-0.11276069 0.011780055 0.53500003 4282588951
-0.111023 0.011780055 0.53500003 4282655258
-0.15098967 0.013518325 0.53500003 4287207047
-0.14925198 0.013518325 0.53500003 4287207047
-0.14723858 0.013493057 0.53400004 4287141254
-0.14550415 0.013493057 0.53400004 4287338633
-0.14376971 0.013493057 0.53400004 4287272840
-0.14203528 0.013493057 0.53400004 4287272838
-0.14030086 0.013493057 0.53400004 4287141252
-0.13856642 0.013493057 0.53400004 4287207045
-0.13683198 0.013493057 0.53400004 4287207045
-0.13535054 0.013518325 0.53500003 4287272838
-0.13361286 0.013518325 0.53500003 4287404424
-0.13187517 0.013518325 0.53500003 4287338631
-0.13013749 0.013518325 0.53500003 4287273353
-0.12839982 0.013518325 0.53500003 4287141765
-0.12642539 0.013493057 0.53400004 4287141765
-0.12469095 0.013493057 0.53400004 4287865488
-0.12295651 0.013493057 0.53400004 4283052330
-0.12122209 0.013493057 0.53400004 4284101677
-0.11948766 0.013493057 0.53400004 4283376669
-0.11775322 0.013493057 0.53400004 4283113497
-0.11601879 0.013493057 0.53400004 4282917403
-0.11428436 0.013493057 0.53400004 4282983709
-0.11276069 0.013518325 0.53500003 4282852383
-0.111023 0.013518325 0.53500003 4284368960
-0.15098967 0.015256595 0.53500003 4287404426
-0.14925198 0.015256595 0.53500003 4287338633
-0.14723858 0.015228079 0.53400004 4287141254
-0.14550415 0.015228079 0.53400004 4287272840
-0.14376971 0.015228079 0.53400004 4287272840
-0.14203528 0.015228079 0.53400004 4287339146
-0.14030086 0.015228079 0.53400004 4287207558
-0.13856642 0.015228079 0.53400004 4287075972
-0.13683198 0.015228079 0.53400004 4287141767
-0.13509755 0.015228079 0.53400004 4287207560
-0.13361286 0.015256595 0.53500003 4287273353
-0.13187517 0.015256595 0.53500003 4287273353
-0.13013749 0.015256595 0.53500003 4287273353
-0.12839982 0.015256595 0.53500003 4287207560
-0.12666214 0.015256595 0.53500003 4287142281
-0.12469095 0.015228079 0.53400004 4287076488
-0.12295651 0.015228079 0.53400004 4287272068
-0.12122209 0.015228079 0.53400004 4284768854
-0.11948766 0.015228079 0.53400004 4283051817
-0.11775322 0.015228079 0.53400004 4282984741
-0.11601879 0.015228079 0.53400004 4282918178
-0.11428436 0.015228079 0.53400004 4282391834
-0.11276069 0.015256595 0.53500003 4284241229
-0.111023 0.015256595 0.53500003 4287337863
-0.14925198 0.016994866 0.53500003 4287338633
-0.14723858 0.0169631 0.53400004 4287338633
-0.14550415 0.0169631 0.53400004 4287404426
-0.14376971 0.0169631 0.53400004 4287338633
-0.14203528 0.0169631 0.53400004 4287338633
-0.14030086 0.0169631 0.53400004 4287207560
-0.13856642 0.0169631 0.53400004 4287339146
-0.13683198 0.0169631 0.53400004 4287207560
-0.13509755 0.0169631 0.53400004 4287207560
-0.13336313 0.0169631 0.53400004 4287339146
-0.13187517 0.016994866 0.53500003 4287339146
-0.13013749 0.016994866 0.53500003 4287273353
-0.12839982 0.016994866 0.53500003 4287273353
-0.12666214 0.016994866 0.53500003 4287273353
-0.12492445 0.016994866 0.53500003 4287142281
-0.12295651 0.0169631 0.53400004 4287076488
-0.12122209 0.0169631 0.53400004 4287076486
-0.11948766 0.0169631 0.53400004 4287601805
-0.11775322 0.0169631 0.53400004 4287666826
-0.11601879 0.0169631 0.53400004 4286943103
-0.11428436 0.0169631 0.53400004 4287403654
-0.11276069 0.016994866 0.53500003 4286747009
-0.111023 0.016994866 0.53500003 4286878595
-0.13187517 0.018733134 0.53500003 4287208074
-0.13013749 0.018733134 0.53500003 4287273353
-0.12839982 0.018733134 0.53500003 4287273353
-0.12666214 0.018733134 0.53500003 4287207560
-0.12492445 0.018733134 0.53500003 4287141767
-0.12295651 0.01869812 0.53400004 4287142281
-0.12122209 0.01869812 0.53400004 4287076488
-0.11948766 0.01869812 0.53400004 4287010695
-0.11775322 0.01869812 0.53400004 4286879109
-0.11601879 0.01869812 0.53400004 4286747521
-0.11428436 0.01869812 0.53400004 4286879109
-0.11276069 0.018733134 0.53500003 4286879111
-0.111023 0.018733134 0.53500003 4286747525
-0.12666214 0.020471403 0.53500003 4287208074
-0.12492445 0.020471403 0.53500003 4287142281
-0.12295651 0.020433141 0.53400004 4287142281
-0.12122209 0.020433141 0.53400004 4287142281
-0.11948766 0.020433141 0.53400004 4287142283
-0.11775322 0.020433141 0.53400004 4287010695
-0.11601879 0.020433141 0.53400004 4287010693
-0.11428436 0.020433141 0.53400004 4286944900
-0.11276069 0.020471403 0.53500003 4286944904
-0.111023 0.020471403 0.53500003 4286944904
-0.12265754 -0.013913042 0.53257126 4294967295
-0.12265754 -0.013913042 0.53257126 4294901760
-0.12265754 -0.014412792 0.53255546 4294901760
-0.12265754 -0.014912543 0.53253967 4294901760
-0.12265754 -0.015412293 0.53252387 4294901760
-0.12265754 -0.015912045 0.53250808 4294901760
-0.12265754 -0.016411794 0.53249228 4294901760
-0.12265754 -0.016911546 0.53247648 4294901760
-0.12265754 -0.017411295 0.53246069 4294901760
-0.12265754 -0.017911047 0.53244495 4294901760
-0.12265754 -0.018410798 0.53242916 4294901760
-0.12265754 -0.018910548 0.53241336 4294901760
-0.12265754 -0.019410299 0.53239757 4294901760
-0.12265754 -0.019910049 0.53238177 4294901760
-0.12265754 -0.0204098 0.53236598 4294901760
-0.12265754 -0.02090955 0.53235018 4294901760
-0.12265754 -0.021409301 0.53233439 4294901760
-0.12265754 -0.021909051 0.53231859 4294901760
-0.12265754 -0.022408802 0.5323028 4294901760
-0.12265754 -0.022908553 0.532287 4294901760
-0.12265754 -0.023408303 0.53227121 4294901760
-0.12265754 -0.023908054 0.53225541 4294901760
-0.12265754 -0.024407804 0.53223962 4294901760
-0.12265754 -0.024907555 0.53222388 4294901760
-0.12265754 -0.025407307 0.53220809 4294901760
-0.12265754 -0.025907056 0.53219229 4294901760
-0.12265754 -0.026406806 0.53217649 4294901760
-0.12265754 -0.026906557 0.5321607 4294901760
-0.12265754 -0.027406309 0.5321449 4294901760
-0.12265754 -0.027906058 0.53212911 4294901760
-0.12265754 -0.028405808 0.53211331 4294901760
-0.12265754 -0.028905559 0.53209752 4294901760
-0.12265754 -0.029405311 0.53208172 4294901760
-0.12265754 -0.029905062 0.53206593 4294901760
-0.12265754 -0.030404814 0.53205013 4294901760
-0.12265754 -0.030904561 0.53203434 4294901760
-0.12265754 -0.031404313 0.53201854 4294901760
-0.12265754 -0.031904064 0.53200281 4294901760
-0.12265754 -0.032403816 0.53198701 4294901760
-0.12265754 -0.032903563 0.53197122 4294901760
-0.12265754 -0.033403315 0.53195542 4294901760
-0.12265754 -0.033903066 0.53193963 4294901760
-0.12265754 -0.034402817 0.53192383 4294901760
-0.12265754 -0.034902565 0.53190804 4294901760
-0.12265754 -0.035402317 0.53189224 4294901760
-0.12265754 -0.035902068 0.53187644 4294901760
-0.12265754 -0.036401819 0.53186065 4294901760
-0.12265754 -0.036901571 0.53184485 4294901760
-0.12265754 -0.037401319 0.53182906 4294901760
-0.12265754 -0.03790107 0.53181326 4294901760
-0.12265754 -0.038400821 0.53179747 4294901760
-0.12265754 -0.038900573 0.53178167 4294901760
-0.12265754 -0.039400321 0.53176594 4294901760
-0.12265754 -0.039900072 0.53175014 4294901760
-0.12265754 -0.040399823 0.53173435 4294901760
-0.12265754 -0.040899575 0.53171855 4294901760
-0.12265754 -0.041399326 0.53170276 4294901760
-0.12265754 -0.041899074 0.53168696 4294901760
-0.12265754 -0.042398825 0.53167117 4294901760
-0.12265754 -0.042898577 0.53165537 4294901760
-0.12265754 -0.043398324 0.53163958 4294901760
-0.12265754 -0.04389808 0.53162378 4294901760
-0.12265754 -0.044397831 0.53160799 4294901760
-0.12265754 -0.044897579 0.53159219 4294901760
-0.12265754 -0.04539733 0.5315764 4294901760
-0.12265754 -0.045897081 0.5315606 4294901760
-0.12265754 -0.046396829 0.53154486 4294901760
-0.12265754 -0.046896584 0.53152907 4294901760
-0.12265754 -0.047396332 0.53151327 4294901760
-0.12265754 -0.047896083 0.53149748 4294901760
-0.12265754 -0.048395835 0.53148168 4294901760
-0.12265754 -0.048895583 0.53146589 4294901760
-0.12265754 -0.049395334 0.53145009 4294901760
-0.12265754 -0.049895089 0.5314343 4294901760
-0.12265754 -0.050394837 0.5314185 4294901760
-0.12265754 -0.050894588 0.53140271 4294901760
-0.12265754 -0.051394336 0.53138691 4294901760
-0.12265754 -0.051894087 0.53137112 4294901760
-0.12265754 -0.052393839 0.53135532 4294901760
-0.12265754 -0.052893586 0.53133953 4294901760
-0.12265754 -0.053393342 0.53132379 4294901760
-0.12265754 -0.053893093 0.531308 4294901760
-0.12265754 -0.054392841 0.5312922 4294901760
-0.12265754 -0.054892592 0.5312764 4294901760
-0.12265754 -0.055392344 0.53126061 4294901760
-0.12265754 -0.055892091 0.53124481 4294901760
-0.12265754 -0.056391846 0.53122902 4294901760
-0.12265754 -0.056891594 0.53121322 4294901760
-0.12265754 -0.057391346 0.53119743 4294901760
-0.12265754 -0.057891097 0.53118163 4294901760
-0.12265754 -0.058390845 0.53116584 4294901760
-0.12265754 -0.058890596 0.53115004 4294901760
-0.12265754 -0.059390347 0.53113425 4294901760
-0.12265754 -0.059890099 0.53111845 4294901760
-0.12265754 -0.06038985 0.53110272 4294901760
-0.12265754 -0.060889598 0.53108692 4294901760
-0.12265754 -0.061389349 0.53107113 4294901760
-0.12265754 -0.061889101 0.53105533 4294901760
-0.12265754 -0.062388852 0.53103954 4294901760
-0.12265754 -0.0628886 0.53102374 4294901760
-0.12265754 -0.063388348 0.53100795 4294901760
-0.12265754 -0.063888103 0.53099215 4294901760
-0.12265754 -0.013913042 0.53257126 4278255360
-0.12217998 -0.013908365 0.5324232 4278255360
-0.12170241 -0.013903687 0.5322752 4278255360
-0.12122485 -0.01389901 0.53212714 4278255360
-0.12074729 -0.013894333 0.53197914 4278255360
-0.12026972 -0.013889655 0.53183109 4278255360
-0.11979216 -0.013884977 0.53168309 4278255360
-0.1193146 -0.0138803 0.53153503 4278255360
-0.11883704 -0.013875622 0.53138703 4278255360
-0.11835948 -0.013870945 0.53123897 4278255360
-0.11788192 -0.013866268 0.53109097 4278255360
-0.11740436 -0.01386159 0.53094292 4278255360
-0.11692679 -0.013856913 0.53079492 4278255360
-0.11644923 -0.013852236 0.53064686 4278255360
-0.11597167 -0.013847558 0.53049886 4278255360
-0.1154941 -0.013842881 0.5303508 4278255360
-0.11501654 -0.013838204 0.53020281 4278255360
-0.11453898 -0.013833526 0.53005475 4278255360
-0.11406142 -0.013828848 0.52990675 4278255360
-0.11358386 -0.013824171 0.52975869 4278255360
-0.1131063 -0.013819493 0.52961069 4278255360
-0.11262873 -0.013814816 0.52946264 4278255360
-0.11215117 -0.013810139 0.52931464 4278255360
-0.11167361 -0.013805461 0.52916658 4278255360
-0.11119604 -0.013800784 0.52901858 4278255360
-0.11071848 -0.013796106 0.52887052 4278255360
-0.11024092 -0.013791429 0.52872252 4278255360
-0.10976335 -0.013786752 0.52857447 4278255360
-0.10928579 -0.013782074 0.52842647 4278255360
-0.10880823 -0.013777397 0.52827841 4278255360
-0.10833067 -0.01377272 0.52813041 4278255360
-0.10785311 -0.013768042 0.52798235 4278255360
-0.10737555 -0.013763364 0.52783436 4278255360
-0.10689798 -0.013758687 0.5276863 4278255360
-0.10642042 -0.013754009 0.5275383 4278255360
-0.10594286 -0.013749332 0.52739024 4278255360
-0.10546529 -0.013744655 0.52724224 4278255360
-0.10498773 -0.013739977 0.52709419 4278255360
-0.10451017 -0.0137353 0.52694619 4278255360
-0.10403261 -0.013730623 0.52679813 4278255360
-0.10355505 -0.013725945 0.52665013 4278255360
-0.10307749 -0.013721268 0.52650207 4278255360
-0.10259993 -0.013716591 0.52635407 4278255360
-0.10212236 -0.013711913 0.52620602 4278255360
-0.1016448 -0.013707235 0.52605802 4278255360
-0.10116724 -0.013702558 0.52590996 4278255360
-0.10068967 -0.01369788 0.52576196 4278255360
-0.10021211 -0.013693203 0.5256139 4278255360
-0.099734552 -0.013688526 0.52546591 4278255360
-0.099256985 -0.013683848 0.52531785 4278255360
-0.098779425 -0.013679171 0.52516985 4278255360
-0.098301865 -0.013674494 0.52502179 4278255360
-0.097824305 -0.013669816 0.52487373 4278255360
-0.097346738 -0.013665139 0.52472574 4278255360
-0.096869171 -0.013660462 0.52457768 4278255360
-0.096391611 -0.013655784 0.52442968 4278255360
-0.095914051 -0.013651107 0.52428162 4278255360
-0.095436491 -0.013646429 0.52413362 4278255360
-0.094958931 -0.013641751 0.52398556 4278255360
-0.094481364 -0.013637074 0.52383757 4278255360
-0.094003804 -0.013632397 0.52368951 4278255360
-0.093526244 -0.013627719 0.52354151 4278255360
-0.093048677 -0.013623042 0.52339345 4278255360
-0.092571117 -0.013618365 0.52324545 4278255360
-0.092093557 -0.013613687 0.5230974 4278255360
-0.09161599 -0.01360901 0.5229494 4278255360
-0.091138422 -0.013604333 0.52280134 4278255360
-0.09066087 -0.013599655 0.52265334 4278255360
-0.090183303 -0.013594978 0.52250528 4278255360
-0.089705743 -0.0135903 0.52235729 4278255360
-0.089228183 -0.013585622 0.52220923 4278255360
-0.088750616 -0.013580945 0.52206123 4278255360
-0.088273056 -0.013576267 0.52191317 4278255360
-0.087795496 -0.01357159 0.52176517 4278255360
-0.087317929 -0.013566913 0.52161711 4278255360
-0.086840369 -0.013562236 0.52146912 4278255360
-0.086362809 -0.013557558 0.52132106 4278255360
-0.085885242 -0.013552881 0.52117306 4278255360
-0.085407682 -0.013548203 0.521025 4278255360
-0.084930122 -0.013543526 0.520877 4278255360
-0.084452555 -0.013538849 0.52072895 4278255360
-0.083974995 -0.013534171 0.52058095 4278255360
-0.083497435 -0.013529493 0.52043289 4278255360
-0.083019868 -0.013524816 0.52028489 4278255360
-0.082542315 -0.013520138 0.52013683 4278255360
-0.082064748 -0.013515461 0.51998883 4278255360
-0.08158718 -0.013510784 0.51984078 4278255360
-0.081109621 -0.013506106 0.51969278 4278255360
-0.080632061 -0.013501429 0.51954472 4278255360
-0.080154493 -0.013496752 0.51939672 4278255360
-0.079676941 -0.013492074 0.51924866 4278255360
-0.079199374 -0.013487397 0.51910067 4278255360
-0.078721806 -0.01348272 0.51895261 4278255360
-0.078244247 -0.013478042 0.51880461 4278255360
-0.077766687 -0.013473365 0.51865655 4278255360
-0.077289119 -0.013468687 0.51850855 4278255360
-0.076811567 -0.013464009 0.5183605 4278255360
-0.076334 -0.013459332 0.5182125 4278255360
-0.075856432 -0.013454655 0.51806444 4278255360
-0.07537888 -0.013449977 0.51791644 4278255360
-0.074901313 -0.0134453 0.51776838 4278255360
-0.12265754 -0.013913042 0.53257126 4278190335
-0.12250943 -0.013928125 0.53304857 4278190335
-0.12236133 -0.013943207 0.53352588 4278190335
-0.12221323 -0.013958289 0.53400326 4278190335
-0.12206513 -0.013973372 0.53448057 4278190335
-0.12191702 -0.013988455 0.53495789 4278190335
-0.12176892 -0.014003538 0.5354352 4278190335
-0.12162082 -0.014018619 0.53591251 4278190335
-0.12147272 -0.014033702 0.53638983 4278190335
-0.12132461 -0.014048785 0.5368672 4278190335
-0.12117651 -0.014063867 0.53734452 4278190335
-0.12102841 -0.01407895 0.53782183 4278190335
-0.12088031 -0.014094032 0.53829914 4278190335
-0.1207322 -0.014109115 0.53877646 4278190335
-0.1205841 -0.014124198 0.53925377 4278190335
-0.120436 -0.01413928 0.53973114 4278190335
-0.1202879 -0.014154362 0.54020846 4278190335
-0.12013979 -0.014169445 0.54068577 4278190335
-0.1199917 -0.014184527 0.54116309 4278190335
-0.11984359 -0.01419961 0.5416404 4278190335
-0.11969549 -0.014214693 0.54211771 4278190335
-0.11954739 -0.014229775 0.54259509 4278190335
-0.11939929 -0.014244858 0.5430724 4278190335
-0.11925118 -0.01425994 0.54354972 4278190335
-0.11910308 -0.014275023 0.54402703 4278190335
-0.11895498 -0.014290106 0.54450434 4278190335
-0.11880688 -0.014305187 0.54498166 4278190335
-0.11865877 -0.01432027 0.54545903 4278190335
-0.11851067 -0.014335353 0.54593635 4278190335
-0.11836257 -0.014350436 0.54641366 4278190335
-0.11821447 -0.014365518 0.54689097 4278190335
-0.11806636 -0.0143806 0.54736829 4278190335
-0.11791826 -0.014395683 0.5478456 4278190335
-0.11777016 -0.014410766 0.54832298 4278190335
-0.11762206 -0.014425848 0.54880029 4278190335
-0.11747395 -0.01444093 0.5492776 4278190335
-0.11732585 -0.014456013 0.54975492 4278190335
-0.11717775 -0.014471096 0.55023223 4278190335
-0.11702964 -0.014486179 0.55070955 4278190335
-0.11688154 -0.014501261 0.55118692 4278190335
-0.11673344 -0.014516343 0.55166423 4278190335
-0.11658534 -0.014531426 0.55214155 4278190335
-0.11643723 -0.014546508 0.55261886 4278190335
-0.11628913 -0.014561591 0.55309618 4278190335
-0.11614103 -0.014576674 0.55357349 4278190335
-0.11599293 -0.014591756 0.55405086 4278190335
-0.11584482 -0.014606839 0.55452818 4278190335
-0.11569672 -0.014621921 0.55500549 4278190335
-0.11554862 -0.014637004 0.5554828 4278190335
-0.11540052 -0.014652086 0.55596012 4278190335
-0.11525242 -0.014667168 0.55643749 4278190335
-0.11510432 -0.014682251 0.55691481 4278190335
-0.11495622 -0.014697334 0.55739212 4278190335
-0.11480811 -0.014712417 0.55786943 4278190335
-0.11466001 -0.014727499 0.55834675 4278190335
-0.11451191 -0.014742581 0.55882406 4278190335
-0.1143638 -0.014757664 0.55930144 4278190335
-0.1142157 -0.014772747 0.55977875 4278190335
-0.1140676 -0.014787829 0.56025606 4278190335
-0.1139195 -0.014802911 0.56073338 4278190335
-0.11377139 -0.014817994 0.56121069 4278190335
-0.11362329 -0.014833077 0.56168801 4278190335
-0.11347519 -0.01484816 0.56216538 4278190335
-0.11332709 -0.014863241 0.56264269 4278190335
-0.11317898 -0.014878324 0.56312001 4278190335
-0.11303088 -0.014893407 0.56359732 4278190335
-0.11288278 -0.014908489 0.56407464 4278190335
-0.11273468 -0.014923572 0.56455195 4278190335
-0.11258657 -0.014938654 0.56502932 4278190335
-0.11243847 -0.014953737 0.56550664 4278190335
-0.11229037 -0.01496882 0.56598395 4278190335
-0.11214226 -0.014983902 0.56646127 4278190335
-0.11199416 -0.014998985 0.56693858 4278190335
-0.11184606 -0.015014067 0.56741589 4278190335
-0.11169796 -0.015029149 0.56789327 4278190335
-0.11154985 -0.015044232 0.56837058 4278190335
-0.11140175 -0.015059315 0.56884789 4278190335
-0.11125365 -0.015074397 0.56932521 4278190335
-0.11110555 -0.01508948 0.56980252 4278190335
-0.11095744 -0.015104562 0.57027984 4278190335
-0.11080934 -0.015119645 0.57075721 4278190335
-0.11066124 -0.015134728 0.57123452 4278190335
-0.11051314 -0.015149809 0.57171184 4278190335
-0.11036503 -0.015164892 0.57218915 4278190335
-0.11021694 -0.015179975 0.57266647 4278190335
-0.11006883 -0.015195058 0.57314384 4278190335
-0.10992073 -0.01521014 0.57362115 4278190335
-0.10977263 -0.015225222 0.57409847 4278190335
-0.10962453 -0.015240305 0.57457578 4278190335
-0.10947642 -0.015255388 0.5750531 4278190335
-0.10932832 -0.01527047 0.57553041 4278190335
-0.10918022 -0.015285552 0.57600772 4278190335
-0.10903212 -0.015300635 0.5764851 4278190335
-0.10888401 -0.015315718 0.57696241 4278190335
-0.10873591 -0.015330801 0.57743973 4278190335
-0.10858781 -0.015345883 0.57791704 4278190335
-0.10843971 -0.015360965 0.57839435 4278190335
-0.1082916 -0.015376048 0.57887173 4278190335
-0.1081435 -0.01539113 0.57934904 4278190335
-0.1079954 -0.015406213 0.57982635 4278190335
-0.1078473 -0.015421296 0.58030367 4278190335
-0.12265754 -0.013913042 0.53257126 4294967295
-0.12295374 -0.013882877 0.53161663 4294967295
-0.12324995 -0.013852712 0.53066194 4294967295
-0.12354615 -0.013822547 0.52970731 4294967295
-0.12384236 -0.013792382 0.52875268 4294967295
-0.12413856 -0.013762217 0.527798 4294967295
-0.12443477 -0.013732051 0.52684337 4294967295
-0.12473097 -0.013701887 0.52588874 4294967295
-0.12502718 -0.013671721 0.52493405 4294967295
-0.12532339 -0.013641557 0.52397943 4294967295
-0.12561959 -0.013611391 0.5230248 4294967295
-0.1259158 -0.013581227 0.52207011 4294967295
-0.126212 -0.013551061 0.52111548 4294967295
-0.12650821 -0.013520896 0.52016085 4294967295
-0.12680441 -0.013490731 0.51920617 4294967295
-0.12710062 -0.013460566 0.51825154 4294967295
-0.12739682 -0.013430401 0.51729691 4294967295
-0.12769303 -0.013400236 0.51634222 4294967295
-0.12798922 -0.013370071 0.51538759 4294967295
-0.12828542 -0.013339906 0.51443297 4294967295
-0.12858163 -0.01330974 0.51347828 4294967295
-0.12887783 -0.013279576 0.51252365 4294967295
-0.12917404 -0.01324941 0.51156902 4294967295
-0.12947024 -0.013219246 0.51061434 4294967295
-0.12976645 -0.01318908 0.50965971 4294967295
-0.13006265 -0.013158916 0.50870508 4294967295
