# .PCD v0.7 - Point Cloud Data file format
VERSION 0.7
FIELDS x y z rgb
SIZE 4 4 4 4
TYPE F F F U
COUNT 1 1 1 1
WIDTH 996
HEIGHT 1
VIEWPOINT 0 0 0 1 0 0 0
POINTS 996
DATA ascii
-0.017086387 -0.023889881 0.48300001 4284624158
-0.015549731 -0.023939343 0.48400003 4284755744
-0.014006577 -0.023988804 0.48500001 4285150502
-0.012456928 -0.024038266 0.48600003 4284228632
-0.0108784 -0.024038266 0.48600003 4283965460
-0.0092998706 -0.024038266 0.48600003 4283112204
-0.0077213412 -0.024038266 0.48600003 4284169769
-0.0061428128 -0.024038266 0.48600003 4284368431
-0.0045642839 -0.024038266 0.48600003 4284501812
-0.002985755 -0.024038266 0.48600003 4283449639
-0.0014043306 -0.023988804 0.48500001 4283579944
0.00017095027 -0.023988804 0.48500001 4283245848
0.0017462311 -0.023988804 0.48500001 4284030739
0.0033146634 -0.023939343 0.48400003 4284555287
0.0048866961 -0.023939343 0.48400003 4284160527
0.0064587295 -0.023939343 0.48400003 4286727485
0.0080141686 -0.023889881 0.48300001 4284621339
0.0095829545 -0.023889881 0.48300001 4284162071
-0.021747623 -0.022274353 0.48200002 4283580208
-0.020182086 -0.022274353 0.48200002 4284229148
-0.018655173 -0.022320565 0.48300001 4284556570
-0.017086387 -0.022320565 0.48300001 4286267186
-0.015549731 -0.022366779 0.48400003 4284622361
-0.014006577 -0.022412989 0.48500001 4284686871
-0.012431297 -0.022412989 0.48500001 4284556568
-0.0108784 -0.022459203 0.48600003 4285025078
-0.0092998706 -0.022459203 0.48600003 4283648301
-0.0077372286 -0.022505416 0.48700002 4283451692
-0.0061554522 -0.022505416 0.48700002 4283451692
-0.0045736753 -0.022505416 0.48700002 4283189034
-0.002985755 -0.022459203 0.48600003 4282991655
-0.0014072261 -0.022459203 0.48600003 4283649069
0.00017095027 -0.022412989 0.48500001 4283446559
0.0017462311 -0.022412989 0.48500001 4283767827
0.0033146634 -0.022366779 0.48400003 4284030226
0.0048866961 -0.022366779 0.48400003 4284555800
0.0064587295 -0.022366779 0.48400003 4284753179
0.0080141686 -0.022320565 0.48300001 4284030226
0.0095829545 -0.022320565 0.48300001 4283702036
0.011151739 -0.022320565 0.48300001 4283246881
-0.024878697 -0.020708287 0.48200002 4284841327
-0.023313159 -0.020708287 0.48200002 4282465070
-0.021747623 -0.020708287 0.48200002 4283643434
-0.020182086 -0.020708287 0.48200002 4284359450
-0.01861655 -0.020708287 0.48200002 4284752412
-0.017086387 -0.020751249 0.48300001 4284754722
-0.015517603 -0.020751249 0.48300001 4283898386
-0.013977698 -0.020794213 0.48400003 4284555285
-0.012431297 -0.020837177 0.48500001 4284226833
-0.0108784 -0.02088014 0.48600003 4285223738
-0.0092998706 -0.02088014 0.48600003 4283714090
-0.0077372286 -0.020923102 0.48700002 4283385129
-0.0061554522 -0.020923102 0.48700002 4283779374
-0.0045736753 -0.020923102 0.48700002 4284563755
-0.0029918985 -0.020923102 0.48700002 4283246098
-0.0014072261 -0.02088014 0.48600003 4284033817
0.00017130275 -0.02088014 0.48600003 4284032532
0.0017462311 -0.020837177 0.48500001 4284886046
0.0033215119 -0.020837177 0.48500001 4283635981
0.0048866961 -0.020794213 0.48400003 4283570448
0.0064587295 -0.020794213 0.48400003 4283570450
0.0080141686 -0.020751249 0.48300001 4283242768
0.0095829545 -0.020751249 0.48300001 4282782987
0.011128651 -0.020708287 0.48200002 4281996301
-0.024827082 -0.019102506 0.48100004 4285498741
-0.023264792 -0.019102506 0.48100004 4282989617
-0.021702504 -0.019102506 0.48100004 4283117090
-0.020182086 -0.01914222 0.48200002 4283965206
-0.01861655 -0.01914222 0.48200002 4284489753
-0.017086387 -0.019181933 0.48300001 4284292628
-0.015517603 -0.019181933 0.48300001 4284622363
-0.013977698 -0.019221649 0.48400003 4284226581
-0.012431297 -0.019261362 0.48500001 4283701007
-0.010856016 -0.019261362 0.48500001 4285546541
-0.0092998706 -0.019301075 0.48600003 4284166169
-0.0077372286 -0.019340791 0.48700002 4283376401
-0.0061554522 -0.019340791 0.48700002 4282718219
-0.0045736753 -0.019340791 0.48700002 4282915600
-0.0029918985 -0.019340791 0.48700002 4282586121
-0.0014072261 -0.019301075 0.48600003 4282717707
0.00017130275 -0.019301075 0.48600003 4282849291
0.0017462311 -0.019261362 0.48500001 4283242766
0.0033215119 -0.019261362 0.48500001 4283111950
0.0048866961 -0.019221649 0.48400003 4282915086
0.0064587295 -0.019221649 0.48400003 4282718221
0.0080141686 -0.019181933 0.48300001 4282390026
0.0095631136 -0.01914222 0.48200002 4281732355
0.011105563 -0.019102506 0.48100004 4286676851
-0.024775466 -0.017503221 0.48000002 4285827706
-0.023264792 -0.017539686 0.48100004 4283250477
-0.021702504 -0.017539686 0.48100004 4282852635
-0.020140216 -0.017539686 0.48100004 4283637524
-0.01861655 -0.017576151 0.48200002 4284030485
-0.017051013 -0.017576151 0.48200002 4284030226
-0.015517603 -0.017612616 0.48300001 4283964946
-0.013948818 -0.017612616 0.48300001 4283438862
-0.012405665 -0.017649081 0.48400003 4283504655
-0.010856016 -0.017685546 0.48500001 4283506192
-0.0092998706 -0.017722011 0.48600003 4282849291
-0.0077213412 -0.017722011 0.48600003 4282258699
-0.0061554522 -0.017758476 0.48700002 4281602052
-0.0045736753 -0.017758476 0.48700002 4281999377
-0.0029918985 -0.017758476 0.48700002 4282658844
-0.0014101216 -0.017758476 0.48700002 4282985502
0.00017130275 -0.017722011 0.48600003 4281799945
0.0017498316 -0.017722011 0.48600003 4282062605
0.0033215119 -0.017685546 0.48500001 4281996299
0.0048866961 -0.017649081 0.48400003 4282127885
0.0064587295 -0.017649081 0.48400003 4282720022
0.0079975771 -0.017576151 0.48200002 4282850836
0.0095432736 -0.017539686 0.48100004 4283641122
0.011082474 -0.017503221 0.48000002 4285364841
0.012536168 -0.017357361 0.47600001 4285366638
-0.02472385 -0.015910435 0.47900003 4285629814
-0.023168057 -0.015910435 0.47900003 4283115555
-0.021657383 -0.015943652 0.48000002 4282786330
-0.020098343 -0.015943652 0.48000002 4282720020
-0.018577926 -0.015976869 0.48100004 4282981393
-0.017051013 -0.016010083 0.48200002 4283440917
-0.015485475 -0.016010083 0.48200002 4283046159
-0.013948818 -0.0160433 0.48300001 4282520588
-0.012405665 -0.016076516 0.48400003 4282455565
-0.010856016 -0.016109731 0.48500001 4282062092
-0.0092807347 -0.016109731 0.48500001 4282327574
-0.0077213412 -0.016142948 0.48600003 4283517745
-0.0061554522 -0.016176164 0.48700002 4282860582
-0.0045736753 -0.016176164 0.48700002 4281742099
-0.0029918985 -0.016176164 0.48700002 4283321131
-0.0014101216 -0.016176164 0.48700002 4281342984
0.00017165522 -0.016176164 0.48700002 4281407242
0.0017498316 -0.016142948 0.48600003 4281669133
0.0033215119 -0.016109731 0.48500001 4281799949
0.0048967926 -0.016109731 0.48500001 4281734154
0.0064587295 -0.016076516 0.48400003 4281602568
0.0079975771 -0.016010083 0.48200002 4282259471
0.0095432736 -0.015976869 0.48100004 4283179288
0.011059386 -0.015910435 0.47900003 4283579696
0.012536168 -0.015810788 0.47600001 4285693290
-0.024672234 -0.014324149 0.47800002 4283390283
-0.02311969 -0.014324149 0.47800002 4283574050
-0.021612264 -0.014354116 0.47900003 4282456852
-0.020098343 -0.014384083 0.48000002 4281867793
-0.018539302 -0.014384083 0.48000002 4281931019
-0.017015638 -0.014414051 0.48100004 4282718737
-0.015485475 -0.014444017 0.48200002 4282587151
-0.013948818 -0.014473983 0.48300001 4282062605
-0.012405665 -0.014503951 0.48400003 4282524440
-0.010833632 -0.014503951 0.48400003 4281805591
-0.0092807347 -0.014533917 0.48500001 4283650868
-0.0077213412 -0.014563885 0.48600003 4284836925
-0.0061428128 -0.014563885 0.48600003 4284508215
-0.0045736753 -0.014593851 0.48700002 4283586608
-0.0029918985 -0.014593851 0.48700002 4283256108
-0.0014101216 -0.014593851 0.48700002 4281933586
0.00017165522 -0.014593851 0.48700002 4281931533
0.0017498316 -0.014563885 0.48600003 4282062094
0.0033283604 -0.014563885 0.48600003 4281996301
0.0048967926 -0.014533917 0.48500001 4281931535
0.0064587295 -0.014503951 0.48400003 4282063889
0.0080141686 -0.014473983 0.48300001 4281274886
0.0095432736 -0.014414051 0.48100004 4282063119
0.011059386 -0.014354116 0.47900003 4283046934
0.012536168 -0.014264216 0.47600001 4284366646
-0.026005326 -0.012664208 0.47400004 4285957755
-0.024569003 -0.012717643 0.47600001 4281740580
-0.023071323 -0.012744362 0.47700003 4283639069
-0.021567143 -0.012771078 0.47800002 4283906091
-0.020056473 -0.012797797 0.47900003 4282859301
-0.018539302 -0.012824515 0.48000002 4283447588
-0.017015638 -0.012851233 0.48100004 4283309844
-0.015485475 -0.01287795 0.48200002 4282390026
-0.013948818 -0.012904667 0.48300001 4281671697
-0.012405665 -0.012931386 0.48400003 4281871384
-0.010833632 -0.012931386 0.48400003 4283453998
-0.0092807347 -0.012958103 0.48500001 4282533923
-0.0077213412 -0.012984822 0.48600003 4282139419
-0.0061428128 -0.012984822 0.48600003 4281744661
-0.0045736753 -0.013011538 0.48700002 4281810200
-0.0029918985 -0.013011538 0.48700002 4281347859
-0.0014101216 -0.013011538 0.48700002 4282130193
0.00017165522 -0.013011538 0.48700002 4282325777
0.001753432 -0.013011538 0.48700002 4282717969
0.0033352089 -0.013011538 0.48700002 4282586383
0.0049068891 -0.012984822 0.48600003 4282259471
0.006472074 -0.012958103 0.48500001 4283117858
0.008030762 -0.012931386 0.48400003 4282397728
0.0095631136 -0.01287795 0.48200002 4281013767
0.011082474 -0.012824515 0.48000002 4281996299
0.012588841 -0.012771078 0.47800002 4283376669
-0.026005326 -0.011124133 0.47400004 4285955697
-0.024517387 -0.011147602 0.47500002 4282525984
-0.023022953 -0.01117107 0.47600001 4283181852
-0.021522025 -0.011194539 0.47700003 4283054627
-0.020014601 -0.011218008 0.47800002 4282991141
-0.01850068 -0.011241476 0.47900003 4282787346
-0.017015638 -0.011288414 0.48100004 4282849039
-0.015485475 -0.011311882 0.48200002 4281733125
-0.013948818 -0.011335351 0.48300001 4281610263
-0.012405665 -0.01135882 0.48400003 4282730025
-0.010856016 -0.011382288 0.48500001 4281546775
-0.0092807347 -0.011382288 0.48500001 4281678618
-0.0077213412 -0.011405757 0.48600003 4281415962
-0.0061554522 -0.011429225 0.48700002 4281547296
-0.0045736753 -0.011429225 0.48700002 4278783744
-0.0029918985 -0.011429225 0.48700002 4279241729
-0.0014130172 -0.011452694 0.48800004 4281280796
0.0001720077 -0.011452694 0.48800004 4279764993
0.0017570326 -0.011452694 0.48800004 4280814855
0.0033352089 -0.011429225 0.48700002 4282194453
0.0049169855 -0.011429225 0.48700002 4281997324
0.0064854184 -0.011405757 0.48600003 4282856996
0.0080473544 -0.011382288 0.48500001 4281742365
0.0096027954 -0.01135882 0.48400003 4282004767
0.011128651 -0.011311882 0.48200002 4281340681
0.012641515 -0.011264944 0.48000002 4282325779
0.017607281 -0.011452694 0.48800004 4286875254
0.019231634 -0.011476163 0.48900002 4283707944
0.020819908 -0.011476163 0.48900002 4285150763
0.02240818 -0.011476163 0.48900002 4284496433
-0.026005326 -0.009584059 0.47400004 4284306507
-0.024517387 -0.009604279 0.47500002 4283312161
-0.023022953 -0.009624498 0.47600001 4283448874
-0.021522025 -0.0096447179 0.47700003 4282727969
-0.020014601 -0.0096649369 0.47800002 4283052567
-0.01850068 -0.0096851569 0.47900003 4283573266
-0.017015638 -0.0097255958 0.48100004 4281996297
-0.015485475 -0.0097458148 0.48200002 4282066967
-0.013948818 -0.0097660348 0.48300001 4281677339
-0.012405665 -0.0097862547 0.48400003 4281151765
-0.010856016 -0.0098064737 0.48500001 4281020182
-0.0092998706 -0.0098266937 0.48600003 4282862386
-0.0077213412 -0.0098266937 0.48600003 4278915328
-0.0061554522 -0.0098469127 0.48700002 4278915076
-0.0045736753 -0.0098469127 0.48700002 4278915078
-0.0029980422 -0.0098671326 0.48800004 4278387712
-0.0014130172 -0.0098671326 0.48800004 4278257920
0.0001720077 -0.0098671326 0.48800004 4278455297
0.0017570326 -0.0098671326 0.48800004 4282731842
0.0033420573 -0.0098671326 0.48800004 4279240963
0.004927082 -0.0098671326 0.48800004 4280884493
0.0065121073 -0.0098671326 0.48800004 4282399525
0.0080805393 -0.0098469127 0.48700002 4281677339
0.0096424762 -0.0098266937 0.48600003 4281743132
0.011197916 -0.0098064737 0.48500001 4281870875
0.01274686 -0.0097862547 0.48400003 4281407244
0.014407647 -0.0098469127 0.48700002 4283047706
0.015989425 -0.0098469127 0.48700002 4283903528
0.017607281 -0.0098671326 0.48800004 4284560171
0.019231634 -0.0098873517 0.48900002 4284820255
0.020819908 -0.0098873517 0.48900002 4284950556
0.02240818 -0.0098873517 0.48900002 4285017119
0.023996454 -0.0098873517 0.48900002 4284433720
-0.027544878 -0.008043984 0.47400004 4285103983
-0.026005326 -0.008043984 0.47400004 4282655774
-0.024517387 -0.0080609545 0.47500002 4283311389
-0.023022953 -0.0080779251 0.47600001 4282530336
-0.021522025 -0.0080948956 0.47700003 4282596897
-0.020014601 -0.0081118653 0.47800002 4282983698
-0.018539302 -0.0081458064 0.48000002 4282455047
-0.017015638 -0.0081627769 0.48100004 4281473035
-0.015485475 -0.0081797475 0.48200002 4281937179
-0.013977698 -0.0082136886 0.48400003 4281283097
-0.012405665 -0.0082136886 0.48400003 4280954132
-0.010856016 -0.0082306582 0.48500001 4280690962
-0.0092998706 -0.0082476297 0.48600003 4278980352
-0.0077213412 -0.0082476297 0.48600003 4278915078
-0.0061554522 -0.0082645994 0.48700002 4278915078
-0.0045736753 -0.0082645994 0.48700002 4278454273
-0.0029980422 -0.0082815699 0.48800004 4278257666
-0.0014130172 -0.0082815699 0.48800004 4278521349
0.0001720077 -0.0082815699 0.48800004 4278455045
0.001760633 -0.0082985405 0.48900002 4278192135
0.0033489058 -0.0082985405 0.48900002 4278585861
0.0049371785 -0.0082985405 0.48900002 4280164116
0.0065254518 -0.0082985405 0.48900002 4281413663
0.0081137242 -0.0082985405 0.48900002 4281348890
0.0096821571 -0.0082815699 0.48800004 4281282327
0.011244093 -0.0082645994 0.48700002 4281610011
0.012799534 -0.0082476297 0.48600003 4280948490
0.014437232 -0.0082815699 0.48800004 4282127117
0.016022258 -0.0082815699 0.48800004 4284163616
0.017607281 -0.0082815699 0.48800004 4285806637
0.019192306 -0.0082815699 0.48800004 4286464567
0.020819908 -0.0082985405 0.48900002 4284094734
0.02240818 -0.0082985405 0.48900002 4284818457
0.023996454 -0.0082985405 0.48900002 4284230944
0.025584726 -0.0082985405 0.48900002 4284501825
-0.027602989 -0.0065176315 0.47500002 4284442971
-0.02606019 -0.0065176315 0.47500002 4283836450
-0.024569003 -0.0065313522 0.47600001 4283180571
-0.023022953 -0.0065313522 0.47600001 4282267932
-0.021567143 -0.006558795 0.47800002 4282860069
-0.020056473 -0.0065725166 0.47900003 4283375635
-0.018539302 -0.0065862378 0.48000002 4282323209
-0.017051013 -0.0066136806 0.48200002 4282463010
-0.015517603 -0.0066274018 0.48300001 4281083667
-0.013977698 -0.0066411234 0.48400003 4281085975
-0.012431297 -0.0066548446 0.48500001 4280691217
-0.0108784 -0.0066685658 0.48600003 4279440648
-0.0092998706 -0.0066685658 0.48600003 4278322944
-0.0077372286 -0.006682287 0.48700002 4278849033
-0.0061554522 -0.006682287 0.48700002 4278849033
-0.0045736753 -0.006682287 0.48700002 4284445286
-0.0029980422 -0.0066960086 0.48800004 4284577385
-0.0014130172 -0.0066960086 0.48800004 4282078021
0.00017236017 -0.0067097298 0.48900002 4283920479
0.001760633 -0.0067097298 0.48900002 4281745976
0.0033557541 -0.006723451 0.49000001 4279902491
0.0049472749 -0.006723451 0.49000001 4280298014
0.0065387962 -0.006723451 0.49000001 4278586112
0.0081303166 -0.006723451 0.49000001 4281677855
0.009701997 -0.0067097298 0.48900002 4281283097
0.011290271 -0.0067097298 0.48900002 4281151511
0.012852207 -0.0066960086 0.48800004 4280490505
0.014437232 -0.0066960086 0.48800004 4282062092
0.016022258 -0.0066960086 0.48800004 4283637526
0.017607281 -0.0066960086 0.48800004 4284621080
0.019192306 -0.0066960086 0.48800004 4284751896
0.020777332 -0.0066960086 0.48800004 4284752664
0.02240818 -0.0067097298 0.48900002 4284555285
0.023996454 -0.0067097298 0.48900002 4283899667
0.025584726 -0.0067097298 0.48900002 4282787612
-0.029391229 -0.0050161965 0.47900003 4286286460
-0.027719213 -0.004995252 0.47700003 4282789156
-0.026169917 -0.004995252 0.47700003 4285809978
-0.024620619 -0.004995252 0.47700003 4283443997
-0.02311969 -0.0050057243 0.47800002 4282267678
-0.021612264 -0.0050161965 0.47900003 4283253289
-0.020098343 -0.0050266688 0.48000002 4283573016
-0.018577926 -0.005037141 0.48100004 4281666562
-0.017051013 -0.0050476133 0.48200002 4282070049
-0.015517603 -0.0050580851 0.48300001 4280820495
-0.014006577 -0.0050790296 0.48500001 4280952851
-0.012431297 -0.0050790296 0.48500001 4280427020
-0.0108784 -0.0050895023 0.48600003 4278980099
-0.0093190055 -0.0050999741 0.48700002 4282666562
-0.0077372286 -0.0050999741 0.48700002 4278389512
-0.0061554522 -0.0050999741 0.48700002 4281088046
-0.0045736753 -0.0050999741 0.48700002 4282009913
-0.0029980422 -0.0051104468 0.48800004 4281218599
-0.0014130172 -0.0051104468 0.48800004 4280626464
0.00017236017 -0.0051209186 0.48900002 4280759333
0.001760633 -0.0051209186 0.48900002 4283853403
0.0033557541 -0.0051313909 0.49000001 4280365350
0.0049573714 -0.0051418631 0.49100003 4279508244
0.0065521407 -0.0051418631 0.49100003 4281350702
0.0081469091 -0.0051418631 0.49100003 4281480737
0.0097416788 -0.0051418631 0.49100003 4281151511
0.011313358 -0.0051313909 0.49000001 4280954134
0.012878543 -0.0051209186 0.48900002 4281743398
0.014466817 -0.0051209186 0.48900002 4281669133
0.016055088 -0.0051209186 0.48900002 4283046418
0.017607281 -0.0051104468 0.48800004 4283964433
0.019192306 -0.0051104468 0.48800004 4284292628
0.020777332 -0.0051104468 0.48800004 4284490007
0.02240818 -0.0051209186 0.48900002 4284555800
0.023996454 -0.0051209186 0.48900002 4283375124
0.025584726 -0.0051209186 0.48900002 4282195736
-0.031140845 -0.003481546 0.48200002 4284907120
-0.029452587 -0.0034670997 0.48000002 4283384123
-0.027835436 -0.0034598766 0.47900003 4284825400
-0.026224779 -0.0034526535 0.47800002 4284492320
-0.02472385 -0.0034598766 0.47900003 4285216810
-0.023168057 -0.0034598766 0.47900003 4283577632
-0.021657383 -0.0034670997 0.48000002 4283181077
-0.020140216 -0.0034743231 0.48100004 4283112465
-0.01861655 -0.003481546 0.48200002 4281732355
-0.017086387 -0.0034887691 0.48300001 4283315491
-0.015549731 -0.0034959924 0.48400003 4282459158
-0.014006577 -0.0035032153 0.48500001 4282786326
-0.012456928 -0.0035104386 0.48600003 4282788123
-0.0108784 -0.0035104386 0.48600003 4280361752
-0.0093190055 -0.0035176617 0.48700002 4279047434
-0.0077372286 -0.0035176617 0.48700002 4279639830
-0.0061554522 -0.0035176617 0.48700002 4281483058
-0.0045736753 -0.0035176617 0.48700002 4280625946
-0.0029980422 -0.0035248848 0.48800004 4287863676
-0.0014130172 -0.0035248848 0.48800004 4282598957
0.00017236017 -0.0035321079 0.48900002 4280493331
0.001760633 -0.0035321079 0.48900002 4280759846
0.0033557541 -0.0035393308 0.49000001 4282536771
0.0049573714 -0.0035465541 0.49100003 4279837979
0.0065521407 -0.0035465541 0.49100003 4280430370
0.0081469091 -0.0035465541 0.49100003 4279243523
0.0097416788 -0.0035465541 0.49100003 4281085720
0.011336448 -0.0035465541 0.49100003 4280954134
0.012904879 -0.0035393308 0.49000001 4283322430
0.0144964 -0.0035393308 0.49000001 4281209095
0.016055088 -0.0035321079 0.48900002 4282718737
0.01764336 -0.0035321079 0.48900002 4283176975
0.019231634 -0.0035321079 0.48900002 4283637013
0.020777332 -0.0035248848 0.48800004 4284031001
0.02240818 -0.0035321079 0.48900002 4284031771
0.023947382 -0.0035248848 0.48800004 4282522645
0.025584726 -0.0035321079 0.48900002 4283053873
-0.031140845 -0.0019154788 0.48200002 4285234802
-0.029513948 -0.0019115049 0.48100004 4284629564
-0.027893547 -0.0019075308 0.48000002 4284625964
-0.026334507 -0.0019075308 0.48000002 4284555285
-0.024775466 -0.0019075308 0.48000002 4284949273
-0.023216425 -0.0019075308 0.48000002 4285015834
-0.021702504 -0.0019115049 0.48100004 4284557081
-0.020182086 -0.0019154788 0.48200002 4282781963
-0.01861655 -0.0019154788 0.48200002 4282782733
-0.017086387 -0.0019194528 0.48300001 4283375124
-0.015549731 -0.0019234269 0.48400003 4283637524
-0.014006577 -0.0019274009 0.48500001 4283571731
-0.012456928 -0.001931375 0.48600003 4282718991
-0.0108784 -0.001931375 0.48600003 4281282599
-0.0093190055 -0.001935349 0.48700002 4278651652
-0.0077372286 -0.001935349 0.48700002 4281875763
-0.0061554522 -0.001935349 0.48700002 4280890149
-0.0045736753 -0.001935349 0.48700002 4280427795
-0.0029918985 -0.001935349 0.48700002 4280756753
-0.0014130172 -0.001939323 0.48800004 4280953614
0.0001720077 -0.001939323 0.48800004 4280953362
0.001760633 -0.001943297 0.48900002 4281284394
0.0033557541 -0.0019472709 0.49000001 4282141501
0.0049573714 -0.0019512451 0.49100003 4278522119
0.0065654851 -0.0019552191 0.49200001 4281613620
0.0081635015 -0.0019552191 0.49200001 4278782464
0.0097615188 -0.0019552191 0.49200001 4281085722
0.011336448 -0.0019512451 0.49100003 4280691221
0.012904879 -0.0019472709 0.49000001 4285823593
0.0144964 -0.0019472709 0.49000001 4281144072
0.016055088 -0.001943297 0.48900002 4282916116
0.01764336 -0.001943297 0.48900002 4283243538
0.019231634 -0.001943297 0.48900002 4282915086
0.020819908 -0.001943297 0.48900002 4282783760
0.02240818 -0.001943297 0.48900002 4282718737
0.023947382 -0.001939323 0.48800004 4281540121
-0.032842092 -0.0003508614 0.48400003 4285037936
-0.031205453 -0.00035013646 0.48300001 4282138935
-0.029575307 -0.00034941154 0.48200002 4284560943
-0.027951658 -0.00034868665 0.48100004 4284294943
-0.026389372 -0.00034868665 0.48100004 4285080091
-0.024827082 -0.00034868665 0.48100004 4289290843
-0.023264792 -0.00034868665 0.48100004 4285015064
-0.021702504 -0.00034868665 0.48100004 4284883478
-0.020182086 -0.00034941154 0.48200002 4283504657
-0.018655173 -0.00035013646 0.48300001 4282847756
-0.017121764 -0.0003508614 0.48400003 4283768597
-0.015549731 -0.0003508614 0.48400003 4283767827
-0.014006577 -0.00035158629 0.48500001 4284097562
-0.012456928 -0.00035231124 0.48600003 4283310358
-0.0108784 -0.00035231124 0.48600003 4279505934
-0.0093190055 -0.00035303616 0.48700002 4280758311
-0.0077372286 -0.00035303616 0.48700002 4279639571
-0.0061554522 -0.00035303616 0.48700002 4280824356
-0.0045736753 -0.00035303616 0.48700002 4280362002
-0.0029918985 -0.00035303616 0.48700002 4280625169
-0.0014130172 -0.00035376108 0.48800004 4281019155
0.0001720077 -0.00035376108 0.48800004 4280295434
0.001760633 -0.00035448599 0.48900002 4281350700
0.0033557541 -0.00035521091 0.49000001 4282931015
0.0049573714 -0.00035593583 0.49100003 4278982670
0.0065521407 -0.00035593583 0.49100003 4281088046
0.0081635015 -0.00035666075 0.49200001 4279045890
0.0097615188 -0.00035666075 0.49200001 4280888343
0.011336448 -0.00035593583 0.49100003 4279769865
0.012931216 -0.00035593583 0.49100003 4286285173
0.0144964 -0.00035521091 0.49000001 4281274375
0.016087921 -0.00035521091 0.49000001 4283244311
0.01764336 -0.00035448599 0.48900002 4282717707
0.019231634 -0.00035448599 0.48900002 4281798920
0.020819908 -0.00035448599 0.48900002 4282326293
0.02240818 -0.00035448599 0.48900002 4283445803
0.023947382 -0.00035376108 0.48800004 4284177489
-0.032842092 0.0012217042 0.48400003 4285234286
-0.031205453 0.0012191799 0.48300001 4282860344
-0.029636666 0.0012191799 0.48300001 4283704864
-0.028009769 0.0012166557 0.48200002 4284359966
-0.026444234 0.0012166557 0.48200002 4284751896
-0.024827082 0.0012141316 0.48100004 4287382846
-0.023264792 0.0012141316 0.48100004 4284949273
-0.021747623 0.0012166557 0.48200002 4284488722
-0.020182086 0.0012166557 0.48200002 4283504655
-0.018655173 0.0012191799 0.48300001 4282913803
-0.017086387 0.0012191799 0.48300001 4283702804
-0.015549731 0.0012217042 0.48400003 4283702034
-0.014006577 0.0012242283 0.48500001 4283702034
-0.012456928 0.0012267525 0.48600003 4282717705
-0.0108784 0.0012267525 0.48600003 4281083935
-0.0092998706 0.0012267525 0.48600003 4280494110
-0.0077372286 0.0012292766 0.48700002 4279112457
-0.0061554522 0.0012292766 0.48700002 4281350187
-0.0045736753 0.0012292766 0.48700002 4280691737
-0.0029918985 0.0012292766 0.48700002 4281151513
-0.0014130172 0.0012318009 0.48800004 4280756755
0.0001720077 0.0012318009 0.48800004 4280361997
0.001760633 0.001234325 0.48900002 4281350185
0.0033557541 0.0012368492 0.49000001 4278916107
0.0049573714 0.0012393735 0.49100003 4281285679
0.0065521407 0.0012393735 0.49100003 4279246096
0.0081635015 0.0012418976 0.49200001 4280756251
0.0097615188 0.0012418976 0.49200001 4280624917
0.011336448 0.0012393735 0.49100003 4280297497
0.012931216 0.0012393735 0.49100003 4286022775
0.0144964 0.0012368492 0.49000001 4282653459
0.016087921 0.0012368492 0.49000001 4283506456
0.017679442 0.0012368492 0.49000001 4283709227
0.019270962 0.0012368492 0.49000001 4286152558
0.020862482 0.0012368492 0.49000001 4280880907
0.02240818 0.001234325 0.48900002 4280750093
-0.032842092 0.0027942697 0.48400003 4285169263
-0.031270061 0.0027942697 0.48400003 4282795066
-0.029636666 0.0027884962 0.48300001 4283508255
-0.028009769 0.0027827229 0.48200002 4283900185
-0.026444234 0.0027827229 0.48200002 4284490007
-0.024827082 0.0027769499 0.48100004 4284621080
-0.023264792 0.0027769499 0.48100004 4284752666
-0.021747623 0.0027827229 0.48200002 4284094736
-0.020182086 0.0027827229 0.48200002 4283308046
-0.01861655 0.0027827229 0.48200002 4282913803
-0.017086387 0.0027884962 0.48300001 4283242255
-0.015549731 0.0027942697 0.48400003 4283308048
-0.014006577 0.0028000427 0.48500001 4283308048
-0.012431297 0.0028000427 0.48500001 4282980879
-0.0108784 0.0028058162 0.48600003 4279832071
-0.0092998706 0.0028058162 0.48600003 4279045637
-0.0077372286 0.0028115895 0.48700002 4278849031
-0.0061554522 0.0028115895 0.48700002 4278388480
-0.0045736753 0.0028115895 0.48700002 4281809966
-0.0029980422 0.0028173628 0.48800004 4281020702
-0.0014130172 0.0028173628 0.48800004 4280691737
0.00017236017 0.002823136 0.48900002 4281745197
0.001760633 0.002823136 0.48900002 4279705362
0.0033557541 0.0028289093 0.49000001 4282798146
0.0049573714 0.0028346826 0.49100003 4279838492
0.0065521407 0.0028346826 0.49100003 4278455556
0.0081469091 0.0028346826 0.49100003 4280427286
0.0097416788 0.0028346826 0.49100003 4280295954
0.011336448 0.0028346826 0.49100003 4285826421
0.012931216 0.0028346826 0.49100003 4283720016
0.014525985 0.0028346826 0.49100003 4283374870
0.016087921 0.0028289093 0.49000001 4283768858
0.017679442 0.0028289093 0.49000001 4286148963
0.019270962 0.0028289093 0.49000001 4286154870
0.020862482 0.0028289093 0.49000001 4280684814
0.022454005 0.0028289093 0.49000001 4285359199
-0.032909948 0.0043758573 0.48500001 4285169522
-0.031270061 0.0043668351 0.48400003 4283127883
-0.029636666 0.0043578125 0.48300001 4282853155
-0.028009769 0.0043487903 0.48200002 4283047706
-0.026444234 0.0043487903 0.48200002 4283702804
-0.024827082 0.0043397681 0.48100004 4283768597
-0.023264792 0.0043397681 0.48100004 4283702034
-0.021702504 0.0043397681 0.48100004 4283373069
-0.020140216 0.0043397681 0.48100004 4283373839
-0.018577926 0.0043397681 0.48100004 4283176460
-0.017051013 0.0043487903 0.48200002 4282980366
-0.015517603 0.0043578125 0.48300001 4282718221
-0.013977698 0.0043668351 0.48400003 4282457361
-0.012431297 0.0043758573 0.48500001 4282065170
-0.0108784 0.00438488 0.48600003 4280622866
-0.0092998706 0.00438488 0.48600003 4279045637
-0.0077372286 0.0043939021 0.48700002 4278914054
-0.0061554522 0.0043939021 0.48700002 4278783240
-0.0045736753 0.0043939021 0.48700002 4278783240
-0.0029980422 0.0044029248 0.48800004 4278388736
-0.0014130172 0.0044029248 0.48800004 4278257920
0.00017236017 0.004411947 0.48900002 4278322688
0.001760633 0.004411947 0.48900002 4278916107
0.0033557541 0.0044209692 0.49000001 4280298530
0.0049472749 0.0044209692 0.49000001 4278651906
0.0065521407 0.0044299918 0.49100003 4280226829
0.0081469091 0.0044299918 0.49100003 4281475865
0.0097416788 0.0044299918 0.49100003 4281743403
0.011336448 0.0044299918 0.49100003 4285102696
0.012931216 0.0044299918 0.49100003 4281609246
0.014525985 0.0044299918 0.49100003 4283899415
0.016120754 0.0044299918 0.49100003 4283373841
0.017715521 0.0044299918 0.49100003 4286350453
0.019310292 0.0044299918 0.49100003 4285430636
0.020905061 0.0044299918 0.49100003 4280620817
-0.031205453 0.0059271287 0.48300001 4285696636
-0.029636666 0.0059271287 0.48300001 4283121721
-0.028009769 0.0059148576 0.48200002 4282459426
-0.026389372 0.005902586 0.48100004 4282917403
-0.024827082 0.005902586 0.48100004 4283114010
-0.023264792 0.005902586 0.48100004 4282652946
-0.021657383 0.0058903145 0.48000002 4282455567
-0.020056473 0.0058780434 0.47900003 4283440915
-0.018539302 0.0058903145 0.48000002 4283571218
-0.017015638 0.005902586 0.48100004 4282849805
-0.015485475 0.0059148576 0.48200002 4282261779
-0.013948818 0.0059271287 0.48300001 4281083154
-0.012405665 0.0059394008 0.48400003 4280754702
-0.010856016 0.0059516719 0.48500001 4280558608
-0.0092998706 0.0059639434 0.48600003 4280624147
-0.0077213412 0.0059639434 0.48600003 4278980101
-0.0061554522 0.005976215 0.48700002 4278914054
-0.0045736753 0.005976215 0.48700002 4278717447
-0.0029980422 0.0059884866 0.48800004 4280758052
-0.0014130172 0.0059884866 0.48800004 4278192128
0.00017236017 0.0060007581 0.48900002 4282996043
0.001760633 0.0060007581 0.48900002 4279639830
0.0033557541 0.0060130293 0.49000001 4278586629
0.0049472749 0.0060130293 0.49000001 4281669394
0.0065387962 0.0060130293 0.49000001 4284692527
0.0081303166 0.0060130293 0.49000001 4283770909
0.0097416788 0.0060253008 0.49100003 4287528819
0.011336448 0.0060253008 0.49100003 4285887589
0.012931216 0.0060253008 0.49100003 4283048215
0.014525985 0.0060253008 0.49100003 4284227351
0.016120754 0.0060253008 0.49100003 4282914832
0.017715521 0.0060253008 0.49100003 4285365356
0.019310292 0.0060253008 0.49100003 4281349417
0.020905061 0.0060253008 0.49100003 4284703065
-0.031205453 0.0074964454 0.48300001 4284841327
-0.029636666 0.0074964454 0.48300001 4286154359
-0.028009769 0.0074809249 0.48200002 4283387201
-0.026389372 0.0074654045 0.48100004 4283052069
-0.024827082 0.0074654045 0.48100004 4282195990
-0.023216425 0.0074498835 0.48000002 4282194707
-0.021657383 0.0074498835 0.48000002 4282129684
-0.019972729 0.007403322 0.47700003 4282786580
-0.018462054 0.0074188425 0.47800002 4283441428
-0.016944887 0.0074343635 0.47900003 4283242766
-0.015453348 0.0074654045 0.48100004 4282654479
-0.013948818 0.0074964454 0.48300001 4281083665
-0.012405665 0.0075119659 0.48400003 4280623886
-0.010856016 0.0075274864 0.48500001 4280624399
-0.0092807347 0.0075274864 0.48500001 4280558606
-0.0077213412 0.0075430074 0.48600003 4280427540
-0.0061554522 0.0075585279 0.48700002 4279638029
-0.0045736753 0.0075585279 0.48700002 4278979847
-0.0029980422 0.0075740488 0.48800004 4278783238
-0.0014130172 0.0075740488 0.48800004 4278520836
0.00017236017 0.0075895688 0.48900002 4278652422
0.001760633 0.0075895688 0.48900002 4279569926
0.0033489058 0.0075895688 0.48900002 4281735957
0.0049472749 0.0076050893 0.49000001 4283900183
0.0065387962 0.0076050893 0.49000001 4284358937
0.0081303166 0.0076050893 0.49000001 4283898899
0.0097218379 0.0076050893 0.49000001 4285612086
0.011313358 0.0076050893 0.49000001 4284492322
0.012904879 0.0076050893 0.49000001 4284161558
0.014525985 0.0076206103 0.49100003 4284162071
0.016120754 0.0076206103 0.49100003 4287591786
0.017715521 0.0076206103 0.49100003 4286482293
0.019310292 0.0076206103 0.49100003 4281015573
0.020905061 0.0076206103 0.49100003 4286220152
-0.027951658 0.0090282224 0.48100004 4285432435
-0.026334507 0.0090094525 0.48000002 4282067748
-0.024775466 0.0090094525 0.48000002 4281933849
-0.023216425 0.0090094525 0.48000002 4281472783
-0.021612264 0.0089906836 0.47900003 4281211408
-0.019847116 0.0088968351 0.47400004 4281080589
-0.018346185 0.0089156041 0.47500002 4282721301
-0.016874135 0.0089531438 0.47700003 4283637524
-0.01542122 0.0090094525 0.48000002 4283505938
-0.013919939 0.0090469923 0.48200002 4281672461
-0.012380033 0.0090657622 0.48300001 4280820747
-0.010833632 0.009084532 0.48400003 4280098055
-0.0092807347 0.009103301 0.48500001 4280624401
-0.0077213412 0.0091220709 0.48600003 4280558608
-0.0061428128 0.0091220709 0.48600003 4280427792
-0.0045736753 0.0091408407 0.48700002 4280427792
-0.0029980422 0.0091596106 0.48800004 4280427795
-0.0014130172 0.0091596106 0.48800004 4280295957
0.0001720077 0.0091596106 0.48800004 4280230164
0.001760633 0.0091783805 0.48900002 4281933334
0.0033489058 0.0091783805 0.48900002 4283114008
0.0049371785 0.0091783805 0.48900002 4283898386
0.0065254518 0.0091783805 0.48900002 4284357908
0.0081137242 0.0091783805 0.48900002 4284949273
0.0097218379 0.0091971494 0.49000001 4285015066
0.011313358 0.0091971494 0.49000001 4284882712
0.012904879 0.0091971494 0.49000001 4284751896
0.014525985 0.0092159193 0.49100003 4282983709
0.016120754 0.0092159193 0.49100003 4285757546
0.017715521 0.0092159193 0.49100003 4282858801
0.019310292 0.0092159193 0.49100003 4281277201
-0.026334507 0.010569021 0.48000002 4284247391
-0.016768008 0.010436909 0.47400004 4283506708
-0.015389093 0.010547003 0.47900003 4283899413
-0.01389106 0.01059104 0.48100004 4283571218
-0.012354402 0.01061306 0.48200002 4282457613
-0.010833632 0.010657097 0.48400003 4280754954
-0.0092615997 0.010657097 0.48400003 4280427020
-0.0077054533 0.010679116 0.48500001 4280492813
-0.0061428128 0.010701135 0.48600003 4280558606
-0.0045736753 0.010723153 0.48700002 4280427020
-0.0029918985 0.010723153 0.48700002 4280492813
-0.0014130172 0.010745172 0.48800004 4280098830
0.0001720077 0.010745172 0.48800004 4280164623
0.001760633 0.010767191 0.48900002 4281146898
0.0033489058 0.010767191 0.48900002 4282523154
0.0049371785 0.010767191 0.48900002 4284030226
0.0065254518 0.010767191 0.48900002 4284751894
0.0081137242 0.010767191 0.48900002 4285014039
0.009701997 0.010767191 0.48900002 4284948244
0.011313358 0.010789209 0.49000001 4284816915
0.012904879 0.010789209 0.49000001 4284488720
0.014525985 0.010811228 0.49100003 4285944906
0.016120754 0.010811228 0.49100003 4286741615
0.017715521 0.010811228 0.49100003 4282326809
0.019310292 0.010811228 0.49100003 4285290574
-0.015389093 0.012103323 0.47900003 4283704087
-0.01389106 0.012153858 0.48100004 4284226835
-0.012354402 0.012179126 0.48200002 4284226835
-0.010811249 0.012204394 0.48300001 4282654733
-0.0092615997 0.012229662 0.48400003 4281211912
-0.0077054533 0.012254929 0.48500001 4280492300
-0.0061428128 0.012280198 0.48600003 4280361227
-0.0045642839 0.012280198 0.48600003 4280361229
-0.0029918985 0.012305466 0.48700002 4280163850
-0.0014101216 0.012305466 0.48700002 4279966987
0.0001720077 0.012330734 0.48800004 4279769610
0.0017570326 0.012330734 0.48800004 4280030729
0.0033420573 0.012330734 0.48800004 4281866510
0.0049371785 0.012356001 0.48900002 4284686871
0.0065254518 0.012356001 0.48900002 4285014039
0.0081137242 0.012356001 0.48900002 4285079060
0.009701997 0.012356001 0.48900002 4285210646
0.011313358 0.012381269 0.49000001 4287055419
0.012904879 0.012381269 0.49000001 4284227605
0.014525985 0.012406537 0.49100003 4284752925
0.016120754 0.012406537 0.49100003 4284163357
0.017715521 0.012406537 0.49100003 4282654490
-0.01542122 0.01368816 0.48000002 4281473296
-0.013919939 0.013745194 0.48200002 4284162837
-0.012380033 0.01377371 0.48300001 4284358419
-0.010811249 0.01377371 0.48300001 4284555285
-0.0092615997 0.013802228 0.48400003 4284096017
-0.0077054533 0.013830745 0.48500001 4282390537
-0.0061301733 0.013830745 0.48500001 4280879872
-0.0045642839 0.013859262 0.48600003 4280552448
-0.002985755 0.013859262 0.48600003 4280421632
-0.0014101216 0.013887779 0.48700002 4280750597
0.00017165522 0.013887779 0.48700002 4280750597
0.0017570326 0.013916296 0.48800004 4283837220
0.0033420573 0.013916296 0.48800004 4284031001
0.004927082 0.013916296 0.48800004 4284882453
0.0065254518 0.013944813 0.48900002 4285145625
0.0081137242 0.013944813 0.48900002 4285210133
0.009701997 0.013944813 0.48900002 4285210133
0.011313358 0.013973329 0.49000001 4287121727
0.012904879 0.013973329 0.49000001 4284425497
0.014525985 0.014001847 0.49100003 4284817687
0.016120754 0.014001847 0.49100003 4284292628
0.017715521 0.014001847 0.49100003 4283513133
-0.015485475 0.015311262 0.48200002 4279437827
-0.013919939 0.015311262 0.48200002 4282717453
-0.012380033 0.015343027 0.48300001 4283899667
-0.010833632 0.015374794 0.48400003 4284488720
-0.0092615997 0.015374794 0.48400003 4284883478
-0.0077054533 0.01540656 0.48500001 4284882710
-0.0061301733 0.01540656 0.48500001 4284751894
-0.0045642839 0.015438327 0.48600003 4284751896
-0.002985755 0.015438327 0.48600003 4284817689
-0.0014101216 0.015470092 0.48700002 4284620826
0.00017165522 0.015470092 0.48700002 4284620826
0.0017570326 0.015501859 0.48800004 4284555546
0.0033420573 0.015501859 0.48800004 4284489753
0.004927082 0.015501859 0.48800004 4285540642
0.0065254518 0.015533624 0.48900002 4285014296
0.0081137242 0.015533624 0.48900002 4284816917
0.009701997 0.015533624 0.48900002 4284882453
0.011313358 0.01556539 0.49000001 4284750867
0.012904879 0.01556539 0.49000001 4285079832
0.014525985 0.015597157 0.49100003 4284621078
0.016120754 0.015597157 0.49100003 4283898640
0.017715521 0.015597157 0.49100003 4282331172
-0.015517603 0.016912343 0.48300001 4282523158
-0.013948818 0.016912343 0.48300001 4283834644
-0.012405665 0.016947359 0.48400003 4284621591
-0.010833632 0.016947359 0.48400003 4285409049
-0.0092615997 0.016947359 0.48400003 4285145623
-0.0077054533 0.016982375 0.48500001 4285078549
-0.0061301733 0.016982375 0.48500001 4285144855
-0.0045642839 0.017017391 0.48600003 4285210646
-0.002985755 0.017017391 0.48600003 4285474588
-0.0014101216 0.017052405 0.48700002 4285145880
0.00017165522 0.017052405 0.48700002 4287317821
0.0017570326 0.01708742 0.48800004 4288375390
0.0033420573 0.01708742 0.48800004 4284362282
0.004927082 0.01708742 0.48800004 4282850327
0.0065254518 0.017122434 0.48900002 4282718741
0.0081137242 0.017122434 0.48900002 4283504655
0.009701997 0.017122434 0.48900002 4283898640
0.011313358 0.01715745 0.49000001 4284226322
0.012904879 0.01715745 0.49000001 4284226322
0.014525985 0.017192466 0.49100003 4283898640
0.016120754 0.017192466 0.49100003 4283242768
0.017715521 0.017192466 0.49100003 4283189826
-0.017157139 0.018558187 0.48500001 4282719252
-0.015549731 0.018519925 0.48400003 4283508253
-0.013977698 0.018519925 0.48400003 4284096532
-0.012431297 0.018558187 0.48500001 4284686101
-0.010856016 0.018558187 0.48500001 4285080089
-0.0092807347 0.018558187 0.48500001 4284750867
-0.0077054533 0.018558187 0.48500001 4284815890
-0.0061428128 0.018596454 0.48600003 4284487695
-0.0045642839 0.018596454 0.48600003 4283438087
-0.0029918985 0.018634716 0.48700002 4283045641
-0.0014101216 0.018634716 0.48700002 4282784012
0.0001720077 0.018672982 0.48800004 4284036395
0.0017570326 0.018672982 0.48800004 4284834388
0.0033420573 0.018672982 0.48800004 4284836444
0.004927082 0.018672982 0.48800004 4284114774
0.0065254518 0.018711247 0.48900002 4284900181
0.0081137242 0.018711247 0.48900002 4282784534
0.0097218379 0.018749509 0.49000001 4283112211
0.011313358 0.018749509 0.49000001 4283637526
0.012931216 0.018787775 0.49100003 4283243538
0.014525985 0.018787775 0.49100003 4282981139
0.016120754 0.018787775 0.49100003 4282457365
-0.020433316 0.020258544 0.48800004 4279178766
-0.018848291 0.020258544 0.48800004 4279440141
-0.017192515 0.020175517 0.48600003 4282788643
-0.015581857 0.020134002 0.48500001 4282917401
-0.014006577 0.020134002 0.48500001 4283833620
-0.012456928 0.020175517 0.48600003 4284161042
-0.0108784 0.020175517 0.48600003 4284160529
-0.0092998706 0.020175517 0.48600003 4284686871
-0.0077213412 0.020175517 0.48600003 4283963150
-0.0061428128 0.020175517 0.48600003 4283635468
-0.0045736753 0.020217029 0.48700002 4281865226
-0.0029918985 0.020217029 0.48700002 4280421894
-0.0014101216 0.020217029 0.48700002 4280489999
0.0001720077 0.020258544 0.48800004 4281873449
0.0017570326 0.020258544 0.48800004 4282863937
0.0033420573 0.020258544 0.48800004 4282599482
0.004927082 0.020258544 0.48800004 4280686095
0.0065254518 0.020300057 0.48900002 4281604630
0.0081303166 0.02034157 0.49000001 4282458910
0.0097218379 0.02034157 0.49000001 4282326039
0.011313358 0.02034157 0.49000001 4282588951
0.012931216 0.020383084 0.49100003 4282457365
0.014525985 0.020383084 0.49100003 4281604632
0.016120754 0.020383084 0.49100003 4285163362
-0.022063458 0.021888867 0.48900002 4279575322
-0.020475188 0.021888867 0.48900002 4279442453
-0.018848291 0.021844106 0.48800004 4279244561
-0.01722789 0.021799341 0.48700002 4283186996
-0.015613986 0.02175458 0.48600003 4282460445
-0.014035458 0.02175458 0.48600003 4283046418
-0.012456928 0.02175458 0.48600003 4283571220
-0.0108784 0.02175458 0.48600003 4283701520
-0.0092998706 0.02175458 0.48600003 4283833106
-0.0077372286 0.021799341 0.48700002 4283242253
-0.0061554522 0.021799341 0.48700002 4282782217
-0.0045736753 0.021799341 0.48700002 4281800465
-0.0029918985 0.021799341 0.48700002 4281012234
-0.0014130172 0.021844106 0.48800004 4280750605
0.0001720077 0.021844106 0.48800004 4280816911
0.0017570326 0.021844106 0.48800004 4280751888
0.0033489058 0.021888867 0.48900002 4280488716
0.0049371785 0.021888867 0.48900002 4280949267
0.0065254518 0.021888867 0.48900002 4281870369
0.0081303166 0.021933628 0.49000001 4281806373
0.0097218379 0.021933628 0.49000001 4282925367
0.011336448 0.021978391 0.49100003 4282860344
0.012931216 0.021978391 0.49100003 4284506711
0.014525985 0.021978391 0.49100003 4285563769
-0.02529162 0.023525691 0.49000001 4280102950
-0.023700099 0.023525691 0.49000001 4279970594
-0.022063458 0.023477679 0.48900002 4279444250
-0.020475188 0.023477679 0.48900002 4279443223
-0.018848291 0.023429668 0.48800004 4279377430
-0.017263265 0.023429668 0.48800004 4279440395
-0.015646113 0.023381656 0.48700002 4283386172
-0.014064336 0.023381656 0.48700002 4282524442
-0.012482559 0.023381656 0.48700002 4282456852
-0.010900783 0.023381656 0.48700002 4282718737
-0.0093190055 0.023381656 0.48700002 4282849553
-0.0077372286 0.023381656 0.48700002 4282587666
-0.0061554522 0.023381656 0.48700002 4283380264
-0.0045736753 0.023381656 0.48700002 4281735955
-0.0029980422 0.023429668 0.48800004 4281670162
-0.0014130172 0.023429668 0.48800004 4280949521
0.0001720077 0.023429668 0.48800004 4280621069
0.0017570326 0.023429668 0.48800004 4279768075
0.0033489058 0.023477679 0.48900002 4283256644
0.0049371785 0.023477679 0.48900002 4283918424
0.0065254518 0.023477679 0.48900002 4284247389
-0.02529162 0.025117749 0.49000001 4280169003
-0.023700099 0.025117749 0.49000001 4280036387
-0.022108579 0.025117749 0.49000001 4279641629
-0.020475188 0.025066489 0.48900002 4279641115
-0.018886914 0.025066489 0.48900002 4279311637
-0.017263265 0.025015229 0.48800004 4279573526
-0.015678242 0.025015229 0.48800004 4279572754
-0.014093217 0.025015229 0.48800004 4281279767
-0.012482559 0.024963968 0.48700002 4282330143
-0.010900783 0.024963968 0.48700002 4281933588
-0.0093190055 0.024963968 0.48700002 4282591518
-0.0077372286 0.024963968 0.48700002 4282527522
-0.0061680921 0.025015229 0.48800004 4280884239
-0.0045830673 0.025015229 0.48800004 4280162061
-0.0029980422 0.025015229 0.48800004 4279900174
-0.0014130172 0.025015229 0.48800004 4279900174
0.0001720077 0.025015229 0.48800004 4279769360
0.0017570326 0.025015229 0.48800004 4279638801
0.0033489058 0.025066489 0.48900002 4283391055
0.0049371785 0.025066489 0.48900002 4283590231
-0.02529162 0.02670981 0.49000001 4280101927
-0.023700099 0.02670981 0.49000001 4279970594
-0.022108579 0.02670981 0.49000001 4279904287
-0.020475188 0.026655301 0.48900002 4279641115
-0.018886914 0.026655301 0.48900002 4279443736
-0.017263265 0.026600791 0.48800004 4279508246
-0.015678242 0.026600791 0.48800004 4279507733
-0.014093217 0.026600791 0.48800004 4279770133
-0.012508191 0.026600791 0.48800004 4279835156
-0.010923167 0.026600791 0.48800004 4279965967
-0.0093381414 0.026600791 0.48800004 4279899661
-0.0077531165 0.026600791 0.48800004 4279835151
-0.0061680921 0.026600791 0.48800004 4279835153
-0.0045830673 0.026600791 0.48800004 4279573008
-0.0029980422 0.026600791 0.48800004 4279376399
-0.0014130172 0.026600791 0.48800004 4279376399
0.0001720077 0.026600791 0.48800004 4279442192
0.0017570326 0.026600791 0.48800004 4279639317
0.0033489058 0.026655301 0.48900002 4283851865
0.0049371785 0.026655301 0.48900002 4283721817
-0.02529162 0.028301869 0.49000001 4280365099
-0.023700099 0.028301869 0.49000001 4280167459
-0.022108579 0.028301869 0.49000001 4279904285
-0.020475188 0.028244112 0.48900002 4279772699
-0.018886914 0.028244112 0.48900002 4279641113
-0.017298641 0.028244112 0.48900002 4279443221
-0.015678242 0.028186353 0.48800004 4279442451
-0.014093217 0.028186353 0.48800004 4279574037
-0.012508191 0.028186353 0.48800004 4279376660
-0.010923167 0.028186353 0.48800004 4279310867
-0.0093381414 0.028186353 0.48800004 4279441940
-0.0077531165 0.028186353 0.48800004 4279376147
-0.0061680921 0.028186353 0.48800004 4279376147
-0.0045830673 0.028186353 0.48800004 4279244561
-0.0029980422 0.028186353 0.48800004 4279244559
-0.0014130172 0.028186353 0.48800004 4279376145
-0.020475188 0.029832922 0.48900002 4279772699
-0.018886914 0.029832922 0.48900002 4279641113
-0.017298641 0.029832922 0.48900002 4279575320
-0.015678242 0.029771915 0.48800004 4279443221
-0.014093217 0.029771915 0.48800004 4279509014
-0.012508191 0.029771915 0.48800004 4279443221
-0.010923167 0.029771915 0.48800004 4279443221
-0.0093381414 0.029771915 0.48800004 4279377428
-0.0077531165 0.029771915 0.48800004 4279311635
-0.0061680921 0.029771915 0.48800004 4279311635
-0.0045830673 0.029771915 0.48800004 4279311635
-0.018886914 0.031421736 0.48900002 4279641115
-0.017298641 0.031421736 0.48900002 4279772701
-0.015710369 0.031421736 0.48900002 4279377428
-0.014093217 0.031357478 0.48800004 4279311635
-0.012508191 0.031357478 0.48800004 4279443221
-0.010923167 0.031357478 0.48800004 4279311635
-0.0093381414 0.031357478 0.48800004 4279180051
-0.0077531165 0.031357478 0.48800004 4279180051
-0.0061680921 0.031357478 0.48800004 4279180051
-0.0031992197 -0.00094465911 0.48587134 4294967295
-0.0031992197 -0.00094465911 0.48587134 4294901760
-0.0031992197 -0.00094465911 0.48637134 4294901760
-0.0031992197 -0.00094465911 0.48687133 4294901760
-0.0031992197 -0.00094465911 0.48737136 4294901760
-0.0031992197 -0.00094465911 0.48787135 4294901760
-0.0031992197 -0.00094465911 0.48837134 4294901760
-0.0031992197 -0.00094465911 0.48887134 4294901760
-0.0031992197 -0.00094465911 0.48937133 4294901760
-0.0031992197 -0.00094465911 0.48987135 4294901760
-0.0031992197 -0.00094465911 0.49037135 4294901760
-0.0031992197 -0.00094465911 0.49087134 4294901760
-0.0031992197 -0.00094465911 0.49137133 4294901760
-0.0031992197 -0.00094465911 0.49187136 4294901760
-0.0031992197 -0.00094465911 0.49237135 4294901760
-0.0031992197 -0.00094465911 0.49287134 4294901760
-0.0031992197 -0.00094465911 0.49337134 4294901760
-0.0031992197 -0.00094465911 0.49387133 4294901760
-0.0031992197 -0.00094465911 0.49437135 4294901760
-0.0031992197 -0.00094465911 0.49487135 4294901760
-0.0031992197 -0.00094465911 0.49537134 4294901760
-0.0031992197 -0.00094465911 0.49587134 4294901760
-0.0031992197 -0.00094465911 0.49637133 4294901760
-0.0031992197 -0.00094465911 0.49687135 4294901760
-0.0031992197 -0.00094465911 0.49737135 4294901760
-0.0031992197 -0.00094465911 0.49787134 4294901760
-0.0031992197 -0.00094465911 0.49837133 4294901760
-0.0031992197 -0.00094465911 0.49887133 4294901760
-0.0031992197 -0.00094465911 0.49937135 4294901760
-0.0031992197 -0.00094465911 0.49987134 4294901760
-0.0031992197 -0.00094465911 0.50037134 4294901760
-0.0031992197 -0.00094465911 0.50087136 4294901760
-0.0031992197 -0.00094465911 0.50137132 4294901760
-0.0031992197 -0.00094465911 0.50187135 4294901760
-0.0031992197 -0.00094465911 0.50237131 4294901760
-0.0031992197 -0.00094465911 0.50287133 4294901760
-0.0031992197 -0.00094465911 0.50337136 4294901760
-0.0031992197 -0.00094465911 0.50387132 4294901760
-0.0031992197 -0.00094465911 0.50437135 4294901760
-0.0031992197 -0.00094465911 0.50487137 4294901760
-0.0031992197 -0.00094465911 0.50537133 4294901760
-0.0031992197 -0.00094465911 0.50587136 4294901760
