# .PCD v0.7 - Point Cloud Data file format
VERSION 0.7
FIELDS x y z rgb
SIZE 4 4 4 4
TYPE F F F U
COUNT 1 1 1 1
WIDTH 1052
HEIGHT 1
VIEWPOINT 0 0 0 1 0 0 0
POINTS 1052
DATA ascii
0.050158355 0.036270961 0.32100001 4278930462
0.05120096 0.036270961 0.32100001 4278600988
0.052080821 0.036157969 0.32000002 4284981622
0.053120185 0.036157969 0.32000002 4282546001
0.05399029 0.036044974 0.31900001 4279585316
0.055026405 0.036044974 0.31900001 4279452965
0.0047106021 0.041033693 0.35300002 4278533912
0.0058405544 0.040917452 0.35200003 4278264587
0.0069838511 0.040917452 0.35200003 4279843873
0.0081040589 0.040801208 0.35100001 4279649313
0.0092441076 0.040801208 0.35100001 4278330121
0.010354572 0.040684965 0.35000002 4279905821
0.01145854 0.040568721 0.34900001 4278328072
0.012556012 0.04045248 0.34800002 4279710238
0.013646987 0.040336236 0.347 4280039203
0.014731468 0.040219992 0.34600002 4278195204
0.015763627 0.039987508 0.34400001 4278920722
0.016831869 0.039871268 0.34300002 4278458890
0.017893611 0.03975502 0.34200001 4278920209
0.019004429 0.03975502 0.34200001 4279578652
0.020056428 0.03963878 0.34100002 4278721547
0.021101933 0.039522536 0.34 4279647775
0.022140941 0.039406296 0.33900002 4279058459
0.023242014 0.039406296 0.33900002 4278794517
0.024271278 0.039290052 0.33800003 4278198788
0.025294045 0.039173808 0.33700001 4278196992
0.026310319 0.039057568 0.33600003 4278860826
0.027320093 0.038941324 0.33500001 4279256351
0.028323375 0.03882508 0.33400002 4278992666
0.029320156 0.038708836 0.333 4279124765
0.030310445 0.038592596 0.33200002 4279124765
0.031294242 0.038476355 0.33100003 4278993179
0.032271534 0.038360108 0.33000001 4279255838
0.033242337 0.038243867 0.32900003 4279320861
0.034206636 0.038127623 0.32800001 4279255068
0.03527198 0.038127623 0.32800001 4279516703
0.036226545 0.038011383 0.32700002 4279516189
0.037174605 0.037895139 0.32600001 4278396427
0.038233455 0.037895139 0.32600001 4278198023
0.039171774 0.037778895 0.32500002 4278196481
0.040103596 0.037662651 0.324 4278197506
0.041155949 0.037662651 0.324 4278198274
0.042078033 0.037546411 0.32300001 4278660880
0.043127138 0.037546411 0.32300001 4278991383
0.044039473 0.037430171 0.32200003 4279190045
0.04508533 0.037430171 0.32200003 4278993945
0.046131186 0.037430171 0.32200003 4278797334
0.047177047 0.037430171 0.32200003 4278732054
0.048073135 0.037313923 0.32100001 4278797593
0.049115747 0.037313923 0.32100001 4278863386
0.050158355 0.037313923 0.32100001 4278731800
0.051041458 0.037197683 0.32000002 4279389730
0.052080821 0.037197683 0.32000002 4278600214
0.052954178 0.037081439 0.31900001 4279191840
0.05399029 0.037081439 0.31900001 4278994461
0.055026405 0.037081439 0.31900001 4279257121
0.056062516 0.037081439 0.31900001 4279387683
0.0024243612 0.042300116 0.354 4278797595
0.0035741536 0.042300116 0.354 4278797082
0.0047106021 0.042180628 0.35300002 4279126049
0.0058571463 0.042180628 0.35300002 4278197767
0.0069838511 0.042061135 0.35200003 4279514908
0.0081040589 0.041941643 0.35100001 4279582750
0.0092441076 0.041941643 0.35100001 4278330121
0.010354572 0.04182215 0.35000002 4278654986
0.01145854 0.041702658 0.34900001 4278786572
0.012556012 0.041583166 0.34800002 4278589709
0.013646987 0.041463673 0.347 4278458123
0.014688892 0.041224692 0.34500003 4278458123
0.015763627 0.0411052 0.34400001 4279050514
0.016831869 0.040985707 0.34300002 4278393097
0.017945932 0.040985707 0.34300002 4280105508
0.019004429 0.040866215 0.34200001 4279579934
0.020056428 0.040746726 0.34100002 4278655754
0.021101933 0.04062723 0.34 4279647516
0.022206252 0.04062723 0.34 4278860308
0.023242014 0.040507741 0.33900002 4278724107
0.024271278 0.040388249 0.33800003 4278656267
0.025294045 0.040268756 0.33700001 4278394380
0.026310319 0.040149264 0.33600003 4279581217
0.027320093 0.040029772 0.33500001 4278727441
0.028323375 0.039910283 0.33400002 4278990613
0.029320156 0.039790787 0.333 4278200843
0.030310445 0.039671298 0.33200002 4279058205
0.031294242 0.039551806 0.33100003 4278199300
0.032271534 0.039432313 0.33000001 4278859543
0.033242337 0.039312821 0.32900003 4278927132
0.034310929 0.039312821 0.32900003 4279124765
0.03527198 0.039193328 0.32800001 4278862363
0.036226545 0.03907384 0.32700002 4278862363
0.037174605 0.038954344 0.32600001 4279124765
0.038233455 0.038954344 0.32600001 4279124765
0.039171774 0.038834855 0.32500002 4279386400
0.040103596 0.038715359 0.324 4279517473
0.041155949 0.038715359 0.324 4279516703
0.042078033 0.03859587 0.32300001 4279318810
0.043127138 0.03859587 0.32300001 4278198788
0.044039473 0.038476381 0.32200003 4278198274
0.04508533 0.038476381 0.32200003 4278197504
0.046131186 0.038476381 0.32200003 4279385371
0.047030531 0.038356885 0.32100001 4278862359
0.048073135 0.038356885 0.32100001 4278862359
0.049115747 0.038356885 0.32100001 4278928666
0.050002102 0.038237397 0.32000002 4278731289
0.051041458 0.038237397 0.32000002 4278533908
0.052080821 0.038237397 0.32000002 4278402322
0.052954178 0.0381179 0.31900001 4278533908
0.05399029 0.0381179 0.31900001 4278665494
0.055026405 0.0381179 0.31900001 4279322910
0.055886775 0.037998412 0.31800002 4278992664
0.056919642 0.037998412 0.31800002 4279712805
0.0024243612 0.0434503 0.354 4278731802
0.0035741536 0.0434503 0.354 4278862875
0.0047106021 0.043327559 0.35300002 4278862361
0.0058571463 0.043327559 0.35300002 4279319324
0.0069838511 0.043204818 0.35200003 4279451680
0.0081040589 0.043082077 0.35100001 4279124252
0.0092441076 0.043082077 0.35100001 4278199815
0.010354572 0.042959336 0.35000002 4278786318
0.01145854 0.042836595 0.34900001 4278786318
0.012556012 0.042713854 0.34800002 4278917390
0.013607659 0.042468373 0.34600002 4278851597
0.014688892 0.042345632 0.34500003 4278851597
0.015763627 0.042222891 0.34400001 4278851597
0.016831869 0.04210015 0.34300002 4278720525
0.017945932 0.04210015 0.34300002 4278523916
0.019004429 0.041977406 0.34200001 4278590474
0.020056428 0.041854668 0.34100002 4278656267
0.021101933 0.041731924 0.34 4280108580
0.022206252 0.041731924 0.34 4279255068
0.023242014 0.041609187 0.33900002 4278458888
0.024271278 0.041486446 0.33800003 4278852365
0.025294045 0.041363701 0.33700001 4278918928
0.026310319 0.041240964 0.33600003 4279184408
0.027320093 0.041118219 0.33500001 4279187738
0.028323375 0.040995482 0.33400002 4279188762
0.029320156 0.040872738 0.333 4278200073
0.030310445 0.040750001 0.33200002 4278529810
0.031294242 0.04062726 0.33100003 4279780645
0.032271534 0.040504515 0.33000001 4279451680
0.033343375 0.040504515 0.33000001 4279452711
0.034310929 0.040381778 0.32900003 4279058720
0.03527198 0.040259033 0.32800001 4279124511
0.036226545 0.040136296 0.32700002 4278599191
0.037174605 0.040013552 0.32600001 4278796570
0.038233455 0.040013552 0.32600001 4278862363
0.039171774 0.039890811 0.32500002 4278797084
0.040103596 0.03976807 0.324 4278731291
0.041155949 0.03976807 0.324 4278993947
0.042078033 0.039645329 0.32300001 4279058970
0.043127138 0.039645329 0.32300001 4278993177
0.044039473 0.039522592 0.32200003 4278993177
0.04508533 0.039522592 0.32200003 4280042787
0.046131186 0.039522592 0.32200003 4278330886
0.047030531 0.039399847 0.32100001 4279058970
0.048073135 0.039399847 0.32100001 4278862359
0.049115747 0.039399847 0.32100001 4278993945
0.050002102 0.039277107 0.32000002 4278533908
0.051041458 0.039277107 0.32000002 4278468115
0.051918067 0.039154366 0.31900001 4278731287
0.052954178 0.039154366 0.31900001 4278731287
0.05399029 0.039154366 0.31900001 4278731287
0.054853909 0.039031625 0.31800002 4278928152
0.055886775 0.039031625 0.31800002 4278730007
0.056919642 0.039031625 0.31800002 4278791701
0.0012781691 0.044726476 0.35500002 4278928668
0.0024312097 0.044726476 0.35500002 4278928668
0.0035741536 0.044600483 0.354 4278797082
0.0047106021 0.044474494 0.35300002 4278599189
0.0058571463 0.044474494 0.35300002 4278595089
0.0069838511 0.044348504 0.35200003 4278266638
0.0081040589 0.044222515 0.35100001 4278664984
0.0092177708 0.044096526 0.35000002 4279388707
0.010354572 0.044096526 0.35000002 4279515937
0.01145854 0.043970533 0.34900001 4279251484
0.012556012 0.043844543 0.34800002 4278723343
0.013607659 0.043592565 0.34600002 4278589193
0.014688892 0.043466575 0.34500003 4278917644
0.015763627 0.043340582 0.34400001 4278851597
0.016880941 0.043340582 0.34400001 4278917390
0.017945932 0.043214593 0.34300002 4278917390
0.019004429 0.043088604 0.34200001 4278785804
0.020056428 0.042962614 0.34100002 4278720011
0.021101933 0.042836621 0.34 4278727187
0.022206252 0.042836621 0.34 4278993179
0.023242014 0.042710632 0.33900002 4278328072
0.024271278 0.042584646 0.33800003 4278852111
0.025294045 0.042458653 0.33700001 4278589709
0.026310319 0.042332664 0.33600003 4279711520
0.027320093 0.042206671 0.33500001 4278200329
0.028323375 0.042080685 0.33400002 4279320861
0.029320156 0.041954692 0.333 4278267408
0.03040174 0.041954692 0.333 4278266638
0.031388782 0.041828703 0.33200002 4278861080
0.032369327 0.041702714 0.33100003 4279386654
0.033343375 0.041576721 0.33000001 4279516705
0.034310929 0.041450735 0.32900003 4278200587
0.03527198 0.041324742 0.32800001 4278198792
0.036226545 0.041198753 0.32700002 4279581982
0.037174605 0.04107276 0.32600001 4278530832
0.038233455 0.04107276 0.32600001 4278199811
0.039171774 0.040946774 0.32500002 4278200841
0.040103596 0.040820781 0.324 4278927386
0.041155949 0.040820781 0.324 4278796568
0.042078033 0.040694792 0.32300001 4278862361
0.043127138 0.040694792 0.32300001 4278928154
0.044039473 0.040568803 0.32200003 4278862361
0.04508533 0.040568803 0.32200003 4279846692
0.046131186 0.040568803 0.32200003 4278199816
0.047030531 0.040442813 0.32100001 4279058968
0.048073135 0.040442813 0.32100001 4278862359
0.049115747 0.040442813 0.32100001 4278862359
0.050002102 0.040316824 0.32000002 4278664980
0.051041458 0.040316824 0.32000002 4278731289
0.051918067 0.040190831 0.31900001 4278336531
0.052954178 0.040190831 0.31900001 4278599189
0.053821042 0.040064842 0.31800002 4278599189
0.054853909 0.040064842 0.31800002 4278664212
0.055886775 0.040064842 0.31800002 4278795287
0.056919642 0.040064842 0.31800002 4279186972
0.00012548102 0.046009142 0.35600001 4278731289
0.0012781691 0.045879904 0.35500002 4278731291
0.0024312097 0.045879904 0.35500002 4278862877
0.0035741536 0.045750663 0.354 4278797084
0.0047239466 0.045750663 0.354 4278797084
0.0058571463 0.045621425 0.35300002 4279124765
0.0069838511 0.045492187 0.35200003 4279189791
0.0081040589 0.045362946 0.35100001 4279059488
0.0092177708 0.045233708 0.35000002 4278928156
0.010354572 0.045233708 0.35000002 4278928156
0.01145854 0.045104466 0.34900001 4279124765
0.012556012 0.044975229 0.34800002 4279124252
0.013646987 0.044845987 0.347 4279649826
0.014731468 0.044716749 0.34600002 4279516703
0.015809454 0.044587512 0.34500003 4279779363
0.016880941 0.04445827 0.34400001 4279317016
0.017945932 0.044329032 0.34300002 4278723341
0.019004429 0.044199791 0.34200001 4278195464
0.020056428 0.044070557 0.34100002 4278194181
0.021163998 0.044070557 0.34100002 4279581982
0.022206252 0.043941315 0.34 4278596371
0.023242014 0.043812077 0.33900002 4279449115
0.024271278 0.04368284 0.33800003 4279644957
0.025294045 0.043553598 0.33700001 4279711774
0.026310319 0.04342436 0.33600003 4279516189
0.027320093 0.043295119 0.33500001 4279649313
0.028323375 0.043165881 0.33400002 4278925336
0.029320156 0.04303664 0.333 4279056922
0.03040174 0.04303664 0.333 4279189021
0.031388782 0.042907402 0.33200002 4278200328
0.032369327 0.042778164 0.33100003 4278200329
0.033343375 0.042648923 0.33000001 4279385887
0.034310929 0.042519685 0.32900003 4278198274
0.03527198 0.042390443 0.32800001 4278791701
0.036226545 0.042261206 0.32700002 4278396173
0.037174605 0.042131964 0.32600001 4278923541
0.038233455 0.042131964 0.32600001 4279055640
0.039171774 0.04200273 0.32500002 4279121947
0.040103596 0.041873489 0.324 4278595087
0.041155949 0.041873489 0.324 4278200329
0.042078033 0.041744251 0.32300001 4278464015
0.043127138 0.041744251 0.32300001 4278927386
0.044039473 0.041615013 0.32200003 4278928154
0.04508533 0.041615013 0.32200003 4279451934
0.046131186 0.041615013 0.32200003 4278529294
0.047030531 0.041485772 0.32100001 4279058970
0.048073135 0.041485772 0.32100001 4278928154
0.049115747 0.041485772 0.32100001 4278731287
0.050002102 0.041356534 0.32000002 4278731287
0.051041458 0.041356534 0.32000002 4278731287
0.051918067 0.041227292 0.31900001 4278533910
0.052954178 0.041227292 0.31900001 4278664982
0.053821042 0.041098054 0.31800002 4278533396
0.054853909 0.041098054 0.31800002 4278664212
0.055886775 0.041098054 0.31800002 4278532113
0.056919642 0.041098054 0.31800002 4278791701
0.05777026 0.040968813 0.317 4285567101
0.00012548102 0.047165822 0.35600001 4279453215
0.0012817696 0.047165822 0.35600001 4279058970
0.0024312097 0.047033336 0.35500002 4278928154
0.0035741536 0.046900846 0.354 4278401812
0.0047239466 0.046900846 0.354 4278796570
0.0058571463 0.04676836 0.35300002 4278993949
0.0069838511 0.046635874 0.35200003 4278928156
0.0081040589 0.046503384 0.35100001 4278928156
0.0092177708 0.046370897 0.35000002 4278862363
0.010354572 0.046370897 0.35000002 4278928154
0.01145854 0.046238404 0.34900001 4278928154
0.012556012 0.046105918 0.34800002 4278731289
0.013646987 0.045973428 0.347 4278797084
0.014731468 0.045840941 0.34600002 4278993949
0.015809454 0.045708455 0.34500003 4279124765
0.016880941 0.045575965 0.34400001 4279190045
0.017945932 0.045443479 0.34300002 4279190045
0.019059997 0.045443479 0.34300002 4279255838
0.020115245 0.045310989 0.34200001 4279058205
0.021163998 0.045178503 0.34100002 4279715365
0.022206252 0.045046009 0.34 4279254814
0.023242014 0.044913523 0.33900002 4278198537
0.024271278 0.044781037 0.33800003 4278196996
0.025294045 0.044648547 0.33700001 4278196226
0.026310319 0.044516061 0.33600003 4278195457
0.027320093 0.044383571 0.33500001 4278725908
0.028323375 0.044251084 0.33400002 4279516191
0.029408207 0.044251084 0.33400002 4279451934
0.03040174 0.044118594 0.333 4279453217
0.031388782 0.043986108 0.33200002 4279584803
0.032369327 0.043853618 0.33100003 4279255838
0.033343375 0.043721128 0.33000001 4279058972
0.034310929 0.043588642 0.32900003 4278927386
0.03527198 0.043456152 0.32800001 4279254814
0.036226545 0.043323666 0.32700002 4278464017
0.037174605 0.043191176 0.32600001 4279976740
0.038233455 0.043191176 0.32600001 4278266636
0.039171774 0.04305869 0.32500002 4278858007
0.040103596 0.0429262 0.324 4278791955
0.041155949 0.0429262 0.324 4278594574
0.042078033 0.04279371 0.32300001 4278199045
0.043127138 0.04279371 0.32300001 4278859797
0.044039473 0.042661224 0.32200003 4279058970
0.04508533 0.042661224 0.32200003 4279121945
0.046131186 0.042661224 0.32200003 4279187226
0.047030531 0.042528734 0.32100001 4278993179
0.048073135 0.042528734 0.32100001 4278731291
0.048962738 0.042396247 0.32000002 4278533910
0.050002102 0.042396247 0.32000002 4278665496
0.050881952 0.042263757 0.31900001 4278468117
0.051918067 0.042263757 0.31900001 4278665496
0.052788179 0.042131271 0.31800002 4278599189
0.053821042 0.042131271 0.31800002 4278730005
0.054853909 0.042131271 0.31800002 4278598419
0.055711027 0.041998781 0.317 4278861078
0.056740645 0.041998781 0.317 4279121945
0.05777026 0.041998781 0.317 4285305208
0.0012817696 0.048322503 0.35600001 4280107547
0.0024312097 0.048186764 0.35500002 4279713305
0.0035741536 0.048051026 0.354 4279320346
0.0047239466 0.048051026 0.354 4279189273
0.0058571463 0.047915291 0.35300002 4279255838
0.0069838511 0.047779553 0.35200003 4279058459
0.0081040589 0.047643814 0.35100001 4279124763
0.0092177708 0.04750808 0.35000002 4278730005
0.010354572 0.04750808 0.35000002 4278664982
0.01145854 0.047372341 0.34900001 4278862361
0.012556012 0.047236603 0.34800002 4278797082
0.013646987 0.047100864 0.347 4278731289
0.014731468 0.04696513 0.34600002 4278665496
0.015855277 0.04696513 0.34600002 4278731289
0.016930014 0.046829391 0.34500003 4278731287
0.017998252 0.046693653 0.34400001 4278928152
0.019059997 0.046557918 0.34300002 4279059738
0.020115245 0.04642218 0.34200001 4278993945
0.021163998 0.046286441 0.34100002 4278993945
0.022206252 0.046150703 0.34 4279059740
0.023242014 0.046014968 0.33900002 4279058972
0.024271278 0.04587923 0.33800003 4279058972
0.025294045 0.045743492 0.33700001 4279452447
0.026310319 0.045607757 0.33600003 4279780645
0.027320093 0.045472018 0.33500001 4279713570
0.028408175 0.045472018 0.33500001 4278923541
0.029408207 0.04533628 0.33400002 4278197253
0.03040174 0.045200542 0.333 4278196482
0.031388782 0.045064807 0.33200002 4278197509
0.032369327 0.044929069 0.33100003 4278396173
0.033343375 0.04479333 0.33000001 4278924566
0.034310929 0.044657595 0.32900003 4279189275
0.03527198 0.044521853 0.32800001 4279124252
0.036226545 0.044386119 0.32700002 4278927386
0.037174605 0.04425038 0.32600001 4278927384
0.038116176 0.044114646 0.32500002 4278993177
0.039171774 0.044114646 0.32500002 4279255068
0.040103596 0.043978903 0.324 4279320094
0.041028924 0.043843169 0.32300001 4279253019
0.042078033 0.043843169 0.32300001 4278198789
0.043127138 0.043843169 0.32300001 4278661648
0.044039473 0.043707434 0.32200003 4279190043
0.04508533 0.043707434 0.32200003 4278266636
0.046131186 0.043707434 0.32200003 4278792468
0.047030531 0.043571692 0.32100001 4279124765
0.048073135 0.043571692 0.32100001 4278928156
0.048962738 0.043435957 0.32000002 4278796570
0.050002102 0.043435957 0.32000002 4278731291
0.050881952 0.043300219 0.31900001 4278731289
0.051918067 0.043300219 0.31900001 4278862359
0.052788179 0.043164484 0.31800002 4278927382
0.053821042 0.043164484 0.31800002 4278730003
0.054681409 0.043028742 0.317 4278927382
0.055711027 0.043028742 0.317 4279190556
0.056740645 0.043028742 0.317 4279187992
0.05777026 0.043028742 0.317 4284711788
0.0024312097 0.0493402 0.35500002 4279707660
0.0035741536 0.049201209 0.354 4279445772
0.0047106021 0.049062226 0.35300002 4279117320
0.0058571463 0.049062226 0.35300002 4279513875
0.0069838511 0.048923239 0.35200003 4279448850
0.0081040589 0.048784252 0.35100001 4279187474
0.0092177708 0.048645265 0.35000002 4279188760
0.010354572 0.048645265 0.35000002 4278992664
0.01145854 0.048506279 0.34900001 4278927384
0.012556012 0.048367295 0.34800002 4278795798
0.013686316 0.048367295 0.34800002 4278862361
0.014774044 0.048228305 0.347 4278796568
0.015855277 0.048089322 0.34600002 4278862361
0.016979085 0.048089322 0.34600002 4278599187
0.018050574 0.047950335 0.34500003 4278796566
0.019115565 0.047811348 0.34400001 4278797080
0.020174062 0.047672361 0.34300002 4278797080
0.021226062 0.047533374 0.34200001 4278928666
0.022271566 0.047394387 0.34100002 4278797082
0.023242014 0.047116414 0.33900002 4278862875
0.024271278 0.046977431 0.33800003 4278797082
0.025294045 0.04683844 0.33700001 4279059740
0.026310319 0.046699457 0.33600003 4278993947
0.027401647 0.046699457 0.33600003 4279124763
0.028408175 0.046560466 0.33500001 4278861080
0.029408207 0.046421483 0.33400002 4279189791
0.03040174 0.046282496 0.333 4279254814
0.031388782 0.046143509 0.33200002 4279187738
0.032369327 0.046004526 0.33100003 4279056152
0.033343375 0.045865536 0.33000001 4279516191
0.034310929 0.045726553 0.32900003 4278198019
0.03527198 0.045587562 0.32800001 4278196225
0.036226545 0.045448579 0.32700002 4278195456
0.037174605 0.045309588 0.32600001 4278197248
0.038116176 0.045170605 0.32500002 4278595089
0.039171774 0.045170605 0.32500002 4279582750
0.040103596 0.045031615 0.324 4279188762
0.041028924 0.044892631 0.32300001 4279123482
0.042078033 0.044892631 0.32300001 4279189275
0.04299362 0.044753648 0.32200003 4279255066
0.044039473 0.044753648 0.32200003 4279124248
0.04508533 0.044753648 0.32200003 4279187738
0.045987923 0.044614658 0.32100001 4279055640
0.047030531 0.044614658 0.32100001 4278862363
0.048073135 0.044614658 0.32100001 4278928156
0.048962738 0.044475675 0.32000002 4278993949
0.050002102 0.044475675 0.32000002 4278862363
0.050881952 0.044336684 0.31900001 4278468119
0.051918067 0.044336684 0.31900001 4278664982
0.052788179 0.044197701 0.31800002 4278795796
0.053821042 0.044197701 0.31800002 4278729490
0.054681409 0.04405871 0.317 4278795283
0.055711027 0.04405871 0.317 4278992664
0.056740645 0.04405871 0.317 4278793750
0.0035741536 0.050351396 0.354 4280625426
0.0047106021 0.050209161 0.35300002 4280428047
0.0058571463 0.050209161 0.35300002 4279640073
0.0069838511 0.050066926 0.35200003 4279377414
0.0081040589 0.04992469 0.35100001 4278917892
0.0092177708 0.049782455 0.35000002 4278392832
0.010354572 0.049782455 0.35000002 4278592007
0.01145854 0.049640216 0.34900001 4279251734
0.012592091 0.049640216 0.34900001 4279516955
0.013686316 0.049497984 0.34800002 4279188760
0.014816621 0.049497984 0.34800002 4279189273
0.015901102 0.049355745 0.347 4279255066
0.017028159 0.049355745 0.347 4278861078
0.018102894 0.049213514 0.34600002 4278861080
0.019171134 0.049071278 0.34500003 4278993177
0.020232879 0.048929039 0.34400001 4278993177
0.021288127 0.048786808 0.34300002 4278993947
0.022271566 0.048502333 0.34100002 4278797082
0.023310574 0.048360098 0.34 4278862875
0.024343086 0.048217863 0.33900002 4278731291
0.025369102 0.048075628 0.33800003 4278797084
0.026388623 0.047933392 0.33700001 4278928668
0.027401647 0.047791157 0.33600003 4278797082
0.028408175 0.047648918 0.33500001 4278862875
0.029408207 0.047506686 0.33400002 4278928154
0.03040174 0.047364447 0.333 4278928154
0.031388782 0.047222216 0.33200002 4278928154
0.032369327 0.04707998 0.33100003 4278927384
0.033242337 0.04679551 0.32900003 4278993177
0.034206636 0.046653271 0.32800001 4279058970
0.035164446 0.046511035 0.32700002 4279124252
0.036226545 0.046511035 0.32700002 4279386654
0.037174605 0.0463688 0.32600001 4279779875
0.038116176 0.046226565 0.32500002 4279450396
0.039051246 0.046084326 0.324 4278461707
0.040103596 0.046084326 0.324 4278196736
0.041028924 0.045942094 0.32300001 4278195969
0.042078033 0.045942094 0.32300001 4278197253
0.04299362 0.045799859 0.32200003 4278331915
0.044039473 0.045799859 0.32200003 4278990613
0.04508533 0.045799859 0.32200003 4278462990
0.045987923 0.04565762 0.32100001 4279383838
0.047030531 0.04565762 0.32100001 4278796570
0.048073135 0.04565762 0.32100001 4278796570
0.048962738 0.045515388 0.32000002 4278928154
0.050002102 0.045515388 0.32000002 4278928154
0.050881952 0.045373149 0.31900001 4278928154
0.051755317 0.045230918 0.31800002 4278796568
0.052788179 0.045230918 0.31800002 4278796568
0.053821042 0.045230918 0.31800002 4278795798
0.054681409 0.045088679 0.317 4278597906
0.055711027 0.045088679 0.317 4278795287
0.056740645 0.045088679 0.317 4279318558
0.0081040589 0.051065121 0.35100001 4279376649
0.0092177708 0.050919637 0.35000002 4279179270
0.010354572 0.050919637 0.35000002 4279048197
0.01145854 0.05077415 0.34900001 4278917640
0.012592091 0.05077415 0.34900001 4278655236
0.013686316 0.05062867 0.34800002 4278721799
0.014816621 0.05062867 0.34800002 4278723080
0.015946927 0.05062867 0.34800002 4279184912
0.017028159 0.050483182 0.347 4279449367
0.018155213 0.050483182 0.347 4279779102
0.019226702 0.050337698 0.34600002 4279319578
0.020291695 0.050192215 0.34500003 4279451934
0.02135019 0.050046727 0.34400001 4279321631
0.022336878 0.04975576 0.34200001 4279321377
0.023310574 0.049464788 0.34 4279190304
0.024343086 0.049319305 0.33900002 4279190304
0.025369102 0.049173824 0.33800003 4279124511
0.026388623 0.049028337 0.33700001 4279059488
0.027401647 0.048882853 0.33600003 4278928156
0.028408175 0.048737366 0.33500001 4278928154
0.029408207 0.048591882 0.33400002 4278993947
0.03040174 0.048446395 0.333 4278993947
0.031388782 0.048300914 0.33200002 4278862875
0.032369327 0.048155431 0.33100003 4278862875
0.033242337 0.047864459 0.32900003 4278797082
0.034206636 0.047718972 0.32800001 4278731289
0.035164446 0.047573492 0.32700002 4278731289
0.036115758 0.047428004 0.32600001 4278731289
0.037174605 0.047428004 0.32600001 4278796568
0.038116176 0.047282521 0.32500002 4278993947
0.039051246 0.047137033 0.324 4278993177
0.039979823 0.046991549 0.32300001 4279453217
0.041028924 0.046991549 0.32300001 4279516703
0.04194776 0.046846069 0.32200003 4279450910
0.04299362 0.046846069 0.32200003 4279647262
0.044039473 0.046846069 0.32200003 4278397197
0.044945311 0.046700582 0.32100001 4278397710
0.045987923 0.046700582 0.32100001 4279385887
0.047030531 0.046700582 0.32100001 4278731291
0.047923379 0.046555098 0.32000002 4278731291
0.048962738 0.046555098 0.32000002 4278797082
0.049845841 0.046409611 0.31900001 4278665496
0.050881952 0.046409611 0.31900001 4278665496
0.051755317 0.046264127 0.31800002 4278665496
0.052788179 0.046264127 0.31800002 4278664982
0.053821042 0.046264127 0.31800002 4278533396
0.054681409 0.046118639 0.317 4278664212
0.055711027 0.046118639 0.317 4278729494
0.056740645 0.046118639 0.317 4278790935
0.0092177708 0.052056827 0.35000002 4279375625
0.010354572 0.052056827 0.35000002 4279244041
0.01145854 0.051908091 0.34900001 4279309832
0.012592091 0.051908091 0.34900001 4279113223
0.013725644 0.051908091 0.34900001 4279113223
0.014859198 0.051908091 0.34900001 4279179016
0.015946927 0.051759358 0.34800002 4279179529
0.017077232 0.051759358 0.34800002 4279442955
0.018155213 0.051610623 0.347 4279707408
0.01928227 0.051610623 0.347 4280696870
0.020350512 0.05146189 0.34600002 4280302373
0.021412257 0.051313158 0.34500003 4281948484
0.022336878 0.050866954 0.34200001 4279975975
0.023379136 0.050718222 0.34100002 4279581730
0.024343086 0.050420754 0.33900002 4279648037
0.025369102 0.050272021 0.33800003 4279386148
0.026388623 0.050123286 0.33700001 4279452711
0.027401647 0.049974553 0.33600003 4279321379
0.028408175 0.049825817 0.33500001 4279452963
0.029496254 0.049825817 0.33500001 4279256351
0.030493038 0.049677085 0.33400002 4279125535
0.031483326 0.049528349 0.333 4279059740
0.032369327 0.049230885 0.33100003 4279059740
0.033242337 0.048933417 0.32900003 4278993949
0.034206636 0.048784681 0.32800001 4278731291
0.035164446 0.048635948 0.32700002 4278862623
0.036115758 0.048487213 0.32600001 4278862623
0.037060574 0.04833848 0.32500002 4278862877
0.037998892 0.048189744 0.324 4278797082
0.039051246 0.048189744 0.324 4278862361
0.039979823 0.048041012 0.32300001 4278928154
0.041028924 0.048041012 0.32300001 4278928154
0.04194776 0.04789228 0.32200003 4279124763
0.042860094 0.047743544 0.32100001 4279124252
0.043902703 0.047743544 0.32100001 4279124252
0.044945311 0.047743544 0.32100001 4278861080
0.045844659 0.047594812 0.32000002 4279124252
0.046884019 0.047594812 0.32000002 4278862361
0.047923379 0.047594812 0.32000002 4278468117
0.04880973 0.047446076 0.31900001 4278731289
0.049845841 0.047446076 0.31900001 4278731289
0.050881952 0.047446076 0.31900001 4278665496
0.051755317 0.047297344 0.31800002 4278665496
0.052788179 0.047297344 0.31800002 4278598419
0.053821042 0.047297344 0.31800002 4278663699
0.054681409 0.047148608 0.317 4278860308
0.055711027 0.047148608 0.317 4278793750
0.056740645 0.047148608 0.317 4280764212
0.01145854 0.053042024 0.34900001 4279309834
0.012592091 0.053042024 0.34900001 4279375627
0.013725644 0.053042024 0.34900001 4279309834
0.014859198 0.053042024 0.34900001 4279375625
0.015992749 0.053042024 0.34900001 4279179016
0.017077232 0.052890044 0.34800002 4279442188
0.018207535 0.052890044 0.34800002 4280165141
0.01933784 0.052890044 0.34800002 4281154602
0.020409327 0.052738059 0.347 4283326287
0.021412257 0.052434094 0.34500003 4286092161
0.022532815 0.052434094 0.34500003 4286158468
0.023653379 0.052434094 0.34500003 4286487433
0.024773939 0.052434094 0.34500003 4286026882
0.025894497 0.052434094 0.34500003 4284909171
0.02701506 0.052434094 0.34500003 4281685314
0.02813562 0.052434094 0.34500003 4279909414
0.028492976 0.05106625 0.33600003 4279120670
0.029496254 0.050914265 0.33500001 4279516453
0.030493038 0.050762285 0.33400002 4279385637
0.031483326 0.050610296 0.333 4279715367
0.032564908 0.050610296 0.333 4279649574
0.033141293 0.049850386 0.32800001 4279452963
0.034206636 0.049850386 0.32800001 4279453476
0.035164446 0.049698401 0.32700002 4279387683
0.036115758 0.049546417 0.32600001 4279190306
0.037060574 0.049394436 0.32500002 4279256097
0.037998892 0.049242452 0.324 4279256351
0.039051246 0.049242452 0.324 4279256349
0.039979823 0.049090471 0.32300001 4279124763
0.040901903 0.04893849 0.32200003 4279256349
0.04194776 0.04893849 0.32200003 4279190558
0.042860094 0.048786502 0.32100001 4279058972
0.043902703 0.048786502 0.32100001 4279124765
0.044805296 0.048634522 0.32000002 4279321631
0.045844659 0.048634522 0.32000002 4279124250
0.046884019 0.048634522 0.32000002 4279058970
0.047773615 0.048482537 0.31900001 4278795798
0.04880973 0.048482537 0.31900001 4278862875
0.049845841 0.048482537 0.31900001 4278665496
0.050881952 0.048482537 0.31900001 4278533910
0.051755317 0.048330557 0.31800002 4278664982
0.052788179 0.048330557 0.31800002 4278664212
0.053821042 0.048330557 0.31800002 4278597906
0.054853909 0.048330557 0.31800002 4278925590
0.055711027 0.048178572 0.317 4278923539
0.056740645 0.048178572 0.317 4283263062
0.012592091 0.054175962 0.34900001 4279375627
0.013725644 0.054175962 0.34900001 4279375625
0.014859198 0.054175962 0.34900001 4279375625
0.015992749 0.054175962 0.34900001 4279375625
0.017126303 0.054175962 0.34900001 4279507211
0.018207535 0.054020733 0.34800002 4280033555
0.01933784 0.054020733 0.34800002 4281088298
0.020468144 0.054020733 0.34800002 4283457361
0.021598449 0.054020733 0.34800002 4286091648
0.022728752 0.054020733 0.34800002 4286091907
0.023859059 0.054020733 0.34800002 4285894528
0.024989363 0.054020733 0.34800002 4286026114
0.026119666 0.054020733 0.34800002 4286026114
0.027249973 0.054020733 0.34800002 4286091907
0.028380277 0.054020733 0.34800002 4285697149
0.037998892 0.050295163 0.324 4279581984
0.038930718 0.050139934 0.32300001 4279649574
0.039979823 0.050139934 0.32300001 4279649572
0.040901903 0.049984701 0.32200003 4279452193
0.04194776 0.049984701 0.32200003 4279583779
0.042860094 0.049829468 0.32100001 4279583779
0.043765936 0.049674239 0.32000002 4279386400
0.044805296 0.049674239 0.32000002 4279386654
0.045844659 0.049674239 0.32000002 4279452447
0.046737507 0.049519002 0.31900001 4279320861
0.047773615 0.049519002 0.31900001 4279190045
0.04880973 0.049519002 0.31900001 4278993179
0.049845841 0.049519002 0.31900001 4278993177
0.05072245 0.049363773 0.31800002 4278795798
0.051755317 0.049363773 0.31800002 4279058970
0.052788179 0.049363773 0.31800002 4279058457
0.053821042 0.049363773 0.31800002 4278991896
0.054853909 0.049363773 0.31800002 4278858261
0.055711027 0.04920854 0.317 4279974692
0.042726576 0.050713949 0.32000002 4279712033
0.043765936 0.050713949 0.32000002 4279909412
0.044805296 0.050713949 0.32000002 4279383322
0.045701392 0.050555464 0.31900001 4279712287
0.046737507 0.050555464 0.31900001 4279844641
0.047773615 0.050555464 0.31900001 4279779361
0.048656721 0.050396986 0.31800002 4279649059
0.049689587 0.050396986 0.31800002 4279320094
0.05072245 0.050396986 0.31800002 4279386400
0.051755317 0.050396986 0.31800002 4279386400
0.052788179 0.050396986 0.31800002 4279254303
0.053821042 0.050396986 0.31800002 4278727189
0.054853909 0.050396986 0.31800002 4280039717
0.042726576 0.051753663 0.32000002 4285237366
0.043765936 0.051753663 0.32000002 4285237366
0.044805296 0.051753663 0.32000002 4285105778
0.045844659 0.051753663 0.32000002 4285565815
0.046884019 0.051753663 0.32000002 4285170544
0.047923379 0.051753663 0.32000002 4284710506
0.048656721 0.051430203 0.31800002 4283329367
0.049689587 0.051430203 0.31800002 4282080070
0.05072245 0.051430203 0.31800002 4281356345
0.051755317 0.051430203 0.31800002 4280764208
0.052788179 0.051430203 0.31800002 4281816126
0.053821042 0.051430203 0.31800002 4284184676
0.054853909 0.051430203 0.31800002 4284907370
0.048656721 0.052463412 0.31800002 4284907372
0.049689587 0.052463412 0.31800002 4284578407
0.05072245 0.052463412 0.31800002 4284578405
0.051755317 0.052463412 0.31800002 4284578405
0.029969014 0.043055508 0.3341364 4294967295
0.029969014 0.043055508 0.3341364 4294901760
0.029954735 0.042556308 0.33411199 4294901760
0.029940458 0.042057108 0.33408758 4294901760
0.029926181 0.041557908 0.33406317 4294901760
0.029911902 0.041058712 0.33403876 4294901760
0.029897623 0.040559512 0.33401433 4294901760
0.029883346 0.040060312 0.33398992 4294901760
0.029869068 0.039561111 0.33396551 4294901760
0.029854789 0.039061911 0.3339411 4294901760
0.02984051 0.038562711 0.33391669 4294901760
0.029826233 0.038063511 0.33389229 4294901760
0.029811956 0.037564315 0.33386788 4294901760
0.029797677 0.037065115 0.33384347 4294901760
0.029783398 0.036565915 0.33381903 4294901760
0.029769121 0.036066715 0.33379462 4294901760
0.029754842 0.035567515 0.33377022 4294901760
0.029740565 0.035068315 0.33374581 4294901760
0.029726285 0.034569114 0.3337214 4294901760
0.029712008 0.034069914 0.33369699 4294901760
0.029697731 0.033570714 0.33367258 4294901760
0.029683452 0.033071518 0.33364818 4294901760
0.029669173 0.032572318 0.33362374 4294901760
0.029654896 0.032073118 0.33359933 4294901760
0.029640619 0.031573918 0.33357492 4294901760
0.02962634 0.031074718 0.33355051 4294901760
0.029612061 0.030575518 0.3335261 4294901760
0.029597783 0.030076319 0.3335017 4294901760
0.029583504 0.029577117 0.33347729 4294901760
0.029569227 0.029077919 0.33345288 4294901760
0.029554948 0.028578721 0.33342847 4294901760
0.029540671 0.028079521 0.33340403 4294901760
0.029526394 0.027580321 0.33337963 4294901760
0.029512115 0.027081123 0.33335522 4294901760
0.029497836 0.026581921 0.33333081 4294901760
0.029483559 0.026082722 0.3333064 4294901760
0.029469281 0.025583522 0.33328199 4294901760
0.029455002 0.025084322 0.33325759 4294901760
0.029440723 0.024585122 0.33323318 4294901760
0.029426446 0.024085924 0.33320874 4294901760
0.029412169 0.023586726 0.33318433 4294901760
0.02939789 0.023087524 0.33315992 4294901760
0.029383611 0.022588326 0.33313552 4294901760
0.029369334 0.022089126 0.33311111 4294901760
0.029355057 0.021589926 0.3330867 4294901760
0.029340778 0.021090727 0.33306229 4294901760
0.029326499 0.020591527 0.33303788 4294901760
0.029312221 0.020092327 0.33301345 4294901760
0.029297944 0.019593127 0.33298904 4294901760
0.029283665 0.019093929 0.33296463 4294901760
0.029269386 0.018594727 0.33294022 4294901760
0.029255109 0.018095529 0.33291581 4294901760
0.029240832 0.01759633 0.3328914 4294901760
0.029226553 0.01709713 0.332867 4294901760
0.029212276 0.016597932 0.33284259 4294901760
0.029197996 0.016098728 0.33281818 4294901760
0.029183719 0.01559953 0.33279374 4294901760
0.02916944 0.01510033 0.33276933 4294901760
0.029155161 0.014601132 0.33274493 4294901760
0.029140884 0.014101934 0.33272052 4294901760
0.029126607 0.013602734 0.33269611 4294901760
0.029112328 0.013103532 0.3326717 4294901760
0.029098049 0.012604332 0.33264729 4294901760
0.029083772 0.012105133 0.33262289 4294901760
0.029069494 0.011605933 0.33259845 4294901760
0.029055215 0.011106737 0.33257404 4294901760
0.029040938 0.010607537 0.33254963 4294901760
0.029026659 0.010108333 0.33252522 4294901760
0.029012382 0.009609133 0.33250082 4294901760
0.028998103 0.0091099367 0.33247641 4294901760
0.028983824 0.0086107366 0.332452 4294901760
0.028969547 0.0081115365 0.33242759 4294901760
0.02895527 0.0076123402 0.33240315 4294901760
0.028940991 0.0071131364 0.33237875 4294901760
0.028926712 0.0066139363 0.33235434 4294901760
0.028912434 0.0061147362 0.33232993 4294901760
0.028898157 0.0056155398 0.33230552 4294901760
0.028883878 0.0051163398 0.33228111 4294901760
0.028869599 0.0046171397 0.3322567 4294901760
0.028855322 0.0041179433 0.3322323 4294901760
0.028841045 0.0036187395 0.33220789 4294901760
0.028826766 0.0031195395 0.33218345 4294901760
0.028812487 0.0026203394 0.33215904 4294901760
0.02879821 0.002121143 0.33213463 4294901760
0.028783932 0.001621943 0.33211023 4294901760
0.028769653 0.0011227429 0.33208582 4294901760
0.028755374 0.00062354282 0.33206141 4294901760
0.028741097 0.00012434274 0.332037 4294901760
0.02872682 -0.00037485734 0.33201259 4294901760
0.028712541 -0.00087405369 0.33198816 4294901760
0.028698262 -0.0013732538 0.33196375 4294901760
0.028683985 -0.0018724538 0.33193934 4294901760
0.028669707 -0.0023716576 0.33191493 4294901760
0.028655428 -0.002870854 0.33189052 4294901760
0.028641149 -0.0033700541 0.33186612 4294901760
0.028626872 -0.0038692541 0.33184171 4294901760
0.028612595 -0.0043684505 0.3318173 4294901760
0.028598316 -0.0048676506 0.33179286 4294901760
0.028584037 -0.0053668544 0.33176845 4294901760
0.02856976 -0.0058660544 0.33174405 4294901760
0.028555483 -0.0063652508 0.33171964 4294901760
0.028541204 -0.0068644509 0.33169523 4294901760
0.029969014 0.043055508 0.3341364 4278255360
0.0303638 0.043059219 0.33382958 4278255360
0.030758584 0.043062933 0.33352277 4278255360
0.03115337 0.043066643 0.33321598 4278255360
0.031548154 0.043070354 0.33290917 4278255360
0.031942941 0.043074068 0.33260235 4278255360
0.032337725 0.043077778 0.33229554 4278255360
0.032732509 0.043081488 0.33198875 4278255360
0.033127297 0.043085203 0.33168194 4278255360
0.033522081 0.043088913 0.33137512 4278255360
0.033916865 0.043092623 0.33106831 4278255360
0.034311652 0.043096337 0.33076152 4278255360
0.034706436 0.043100048 0.33045471 4278255360
0.03510122 0.043103762 0.33014789 4278255360
0.035496008 0.043107472 0.32984108 4278255360
0.035890792 0.043111183 0.32953429 4278255360
0.036285575 0.043114897 0.32922748 4278255360
0.036680363 0.043118607 0.32892066 4278255360
0.037075147 0.043122318 0.32861385 4278255360
0.037469931 0.043126032 0.32830706 4278255360
0.037864719 0.043129742 0.32800025 4278255360
0.038259503 0.043133453 0.32769343 4278255360
0.03865429 0.043137167 0.32738662 4278255360
0.039049074 0.043140877 0.32707983 4278255360
0.039443858 0.043144587 0.32677302 4278255360
0.039838642 0.043148302 0.3264662 4278255360
0.04023343 0.043152012 0.32615939 4278255360
0.040628213 0.043155722 0.32585257 4278255360
0.041023001 0.043159436 0.32554579 4278255360
0.041417785 0.043163147 0.32523897 4278255360
0.041812569 0.043166861 0.32493216 4278255360
0.042207353 0.043170571 0.32462534 4278255360
0.04260214 0.043174282 0.32431856 4278255360
0.042996924 0.043177996 0.32401174 4278255360
0.043391712 0.043181706 0.32370493 4278255360
0.043786496 0.043185417 0.32339811 4278255360
0.04418128 0.043189131 0.32309133 4278255360
0.044576067 0.043192841 0.32278451 4278255360
0.044970851 0.043196552 0.3224777 4278255360
0.045365635 0.043200266 0.32217088 4278255360
0.045760423 0.043203976 0.3218641 4278255360
0.046155207 0.043207686 0.32155728 4278255360
0.046549991 0.043211401 0.32125047 4278255360
0.046944775 0.043215111 0.32094365 4278255360
0.047339562 0.043218821 0.32063687 4278255360
0.047734346 0.043222535 0.32033005 4278255360
0.048129134 0.043226246 0.32002324 4278255360
0.048523918 0.043229956 0.31971642 4278255360
0.048918702 0.04323367 0.31940964 4278255360
0.049313489 0.043237381 0.31910282 4278255360
0.049708273 0.043241091 0.31879601 4278255360
0.050103057 0.043244805 0.31848919 4278255360
0.050497845 0.043248516 0.31818241 4278255360
0.050892629 0.04325223 0.31787559 4278255360
0.051287413 0.04325594 0.31756878 4278255360
0.0516822 0.04325965 0.31726196 4278255360
0.052076984 0.043263365 0.31695515 4278255360
0.052471772 0.043267075 0.31664836 4278255360
0.052866556 0.043270785 0.31634155 4278255360
0.05326134 0.043274499 0.31603473 4278255360
0.053656124 0.04327821 0.31572792 4278255360
0.054050911 0.04328192 0.31542113 4278255360
0.054445695 0.043285634 0.31511432 4278255360
0.054840483 0.043289345 0.3148075 4278255360
0.055235267 0.043293055 0.31450069 4278255360
0.055630051 0.043296769 0.3141939 4278255360
0.056024835 0.04330048 0.31388709 4278255360
0.056419622 0.04330419 0.31358027 4278255360
0.056814406 0.043307904 0.31327346 4278255360
0.057209194 0.043311615 0.31296667 4278255360
0.057603978 0.043315329 0.31265986 4278255360
0.057998762 0.043319039 0.31235304 4278255360
0.058393549 0.043322749 0.31204623 4278255360
0.058788333 0.043326464 0.31173944 4278255360
0.059183121 0.043330174 0.31143263 4278255360
0.059577905 0.043333884 0.31112581 4278255360
0.059972689 0.043337598 0.310819 4278255360
0.060367472 0.043341309 0.31051219 4278255360
0.060762256 0.043345019 0.3102054 4278255360
0.061157044 0.043348733 0.30989859 4278255360
0.061551828 0.043352444 0.30959177 4278255360
0.061946616 0.043356154 0.30928496 4278255360
0.062341399 0.043359868 0.30897817 4278255360
0.062736183 0.043363579 0.30867136 4278255360
0.063130967 0.043367289 0.30836454 4278255360
0.063525751 0.043371003 0.30805773 4278255360
0.063920543 0.043374714 0.30775094 4278255360
0.064315327 0.043378424 0.30744413 4278255360
0.06471011 0.043382138 0.30713731 4278255360
0.065104894 0.043385848 0.3068305 4278255360
0.065499678 0.043389559 0.30652371 4278255360
0.06589447 0.043393273 0.3062169 4278255360
0.066289246 0.043396983 0.30591008 4278255360
0.066684037 0.043400697 0.30560327 4278255360
0.067078821 0.043404408 0.30529648 4278255360
0.067473605 0.043408118 0.30498967 4278255360
0.067868389 0.043411832 0.30468285 4278255360
0.068263173 0.043415543 0.30437604 4278255360
0.068657964 0.043419253 0.30406922 4278255360
0.069052748 0.043422967 0.30376244 4278255360
0.069447532 0.043426678 0.30345562 4278255360
0.029969014 0.043055508 0.3341364 4278190335
0.030283494 0.043027554 0.3345241 4278190335
0.030597974 0.042999599 0.33491182 4278190335
0.030912451 0.042971645 0.33529952 4278190335
0.031226931 0.04294369 0.33568725 4278190335
0.031541411 0.042915735 0.33607495 4278190335
0.031855889 0.042887781 0.33646268 4278190335
0.03217037 0.042859826 0.33685037 4278190335
0.032484848 0.042831872 0.3372381 4278190335
0.03279933 0.042803917 0.3376258 4278190335
0.033113807 0.042775963 0.33801353 4278190335
0.033428289 0.042748008 0.33840123 4278190335
0.033742767 0.042720053 0.33878896 4278190335
0.034057245 0.042692099 0.33917665 4278190335
0.034371726 0.042664144 0.33956438 4278190335
0.034686204 0.04263619 0.33995208 4278190335
0.035000682 0.042608235 0.34033981 4278190335
0.035315163 0.042580284 0.34072751 4278190335
0.035629645 0.04255233 0.34111524 4278190335
0.035944123 0.042524375 0.34150293 4278190335
0.036258601 0.04249642 0.34189066 4278190335
0.036573082 0.042468466 0.34227836 4278190335
0.03688756 0.042440511 0.34266609 4278190335
0.037202038 0.042412557 0.34305379 4278190335
0.037516519 0.042384602 0.34344152 4278190335
0.037830997 0.042356648 0.34382921 4278190335
0.038145475 0.042328693 0.34421694 4278190335
0.038459957 0.042300738 0.34460464 4278190335
0.038774438 0.042272784 0.34499237 4278190335
0.039088916 0.042244829 0.34538007 4278190335
0.039403394 0.042216875 0.3457678 4278190335
0.039717875 0.04218892 0.34615549 4278190335
0.040032353 0.042160966 0.34654322 4278190335
0.040346835 0.042133011 0.34693092 4278190335
0.040661313 0.042105056 0.34731865 4278190335
0.04097579 0.042077102 0.34770635 4278190335
0.041290272 0.042049147 0.34809408 4278190335
0.04160475 0.042021193 0.34848177 4278190335
0.041919231 0.041993238 0.3488695 4278190335
0.042233709 0.041965283 0.3492572 4278190335
0.042548187 0.041937329 0.34964493 4278190335
0.042862669 0.041909374 0.35003263 4278190335
0.043177146 0.04188142 0.35042036 4278190335
0.043491628 0.041853465 0.35080805 4278190335
0.043806106 0.041825511 0.35119578 4278190335
0.044120584 0.041797556 0.35158348 4278190335
0.044435065 0.041769601 0.35197121 4278190335
0.044749543 0.041741647 0.35235891 4278190335
0.045064025 0.041713692 0.35274661 4278190335
0.045378502 0.041685738 0.35313433 4278190335
0.04569298 0.041657783 0.35352206 4278190335
0.046007462 0.041629832 0.35390976 4278190335
0.04632194 0.041601878 0.35429746 4278190335
0.046636418 0.041573923 0.35468519 4278190335
0.046950899 0.041545969 0.35507292 4278190335
0.047265381 0.041518014 0.35546061 4278190335
0.047579858 0.041490059 0.35584831 4278190335
0.047894336 0.041462105 0.35623604 4278190335
0.048208818 0.04143415 0.35662374 4278190335
0.048523296 0.041406196 0.35701147 4278190335
0.048837777 0.041378241 0.35739917 4278190335
0.049152255 0.041350286 0.35778689 4278190335
0.049466737 0.041322332 0.35817459 4278190335
0.049781214 0.041294377 0.35856232 4278190335
0.050095692 0.041266423 0.35895002 4278190335
0.050410174 0.041238468 0.35933775 4278190335
0.050724655 0.041210514 0.35972545 4278190335
0.051039129 0.041182559 0.36011317 4278190335
0.051353611 0.041154604 0.36050087 4278190335
0.051668093 0.04112665 0.3608886 4278190335
0.051982567 0.041098695 0.3612763 4278190335
0.052297048 0.041070741 0.36166403 4278190335
0.05261153 0.041042786 0.36205173 4278190335
0.052926008 0.041014832 0.36243945 4278190335
0.053240485 0.040986877 0.36282715 4278190335
0.053554967 0.040958922 0.36321488 4278190335
0.053869445 0.040930968 0.36360258 4278190335
0.054183923 0.040903013 0.36399031 4278190335
0.054498404 0.040875059 0.36437801 4278190335
0.054812886 0.040847104 0.36476573 4278190335
0.055127364 0.040819149 0.36515343 4278190335
0.055441841 0.040791195 0.36554116 4278190335
0.055756323 0.04076324 0.36592886 4278190335
0.056070801 0.040735289 0.36631659 4278190335
0.056385279 0.040707335 0.36670429 4278190335
0.05669976 0.04067938 0.36709201 4278190335
0.057014242 0.040651426 0.36747971 4278190335
0.057328716 0.040623471 0.36786744 4278190335
0.057643197 0.040595517 0.36825514 4278190335
0.057957679 0.040567562 0.36864287 4278190335
0.058272153 0.040539607 0.36903057 4278190335
0.058586635 0.040511653 0.36941829 4278190335
0.058901116 0.040483698 0.36980599 4278190335
0.059215594 0.040455744 0.37019372 4278190335
0.059530072 0.040427789 0.37058142 4278190335
0.059844553 0.040399835 0.37096912 4278190335
0.060159031 0.04037188 0.37135684 4278190335
0.060473513 0.040343925 0.37174457 4278190335
0.060787991 0.040315971 0.37213227 4278190335
0.061102472 0.040288016 0.37251997 4278190335
0.06141695 0.040260062 0.3729077 4278190335
0.029969014 0.043055508 0.3341364 4294967295
0.028082138 0.043223236 0.33181012 4294967295
0.026195262 0.043390963 0.32948384 4294967295
0.024308385 0.043558691 0.32715756 4294967295
0.022421509 0.043726414 0.32483128 4294967295
0.020534633 0.043894142 0.322505 4294967295
0.018647756 0.044061869 0.32017872 4294967295
0.01676088 0.044229597 0.31785244 4294967295
0.014874005 0.044397324 0.31552619 4294967295
0.012987128 0.044565052 0.31319991 4294967295
0.011100251 0.044732776 0.31087363 4294967295
0.0092133768 0.044900503 0.30854735 4294967295
0.0073265005 0.04506823 0.30622107 4294967295
0.0054396242 0.045235958 0.30389479 4294967295
0.003552746 0.045403685 0.30156851 4294967295
0.0016658697 0.045571413 0.29924223 4294967295
-0.00022100471 0.045739137 0.29691595 4294967295
-0.002107881 0.045906864 0.29458967 4294967295
-0.0039947592 0.046074592 0.29226339 4294967295
-0.0058816336 0.046242319 0.28993714 4294967295
-0.0077685118 0.046410047 0.28761083 4294967295
-0.0096553862 0.046577774 0.28528458 4294967295
-0.011542261 0.046745501 0.2829583 4294967295
-0.013429139 0.046913225 0.28063202 4294967295
-0.015316013 0.047080953 0.27830574 4294967295
-0.017202891 0.04724868 0.27597946 4294967295
-0.019089766 0.047416408 0.27365318 4294967295
-0.020976648 0.047584135 0.2713269 4294967295
-0.022863522 0.047751859 0.26900062 4294967295
-0.024750393 0.047919586 0.26667434 4294967295
-0.026637275 0.048087314 0.26434806 4294967295
-0.028524149 0.048255041 0.26202178 4294967295
-0.030411024 0.048422769 0.25969553 4294967295
-0.032297906 0.048590496 0.25736922 4294967295
-0.034184776 0.048758224 0.25504297 4294967295
-0.036071651 0.048925947 0.25271669 4294967295
-0.037958533 0.049093675 0.25039041 4294967295
-0.039845407 0.049261402 0.24806413 4294967295
-0.041732281 0.04942913 0.24573785 4294967295
-0.043619156 0.049596857 0.24341157 4294967295
-0.045506038 0.049764585 0.24108529 4294967295
-0.047392912 0.049932308 0.23875901 4294967295
-0.049279787 0.050100036 0.23643273 4294967295
-0.051166669 0.050267763 0.23410645 4294967295
