# .PCD v0.7 - Point Cloud Data file format
VERSION 0.7
FIELDS x y z rgb
SIZE 4 4 4 4
TYPE F F F U
COUNT 1 1 1 1
WIDTH 1090
HEIGHT 1
VIEWPOINT 0 0 0 1 0 0 0
POINTS 1090
DATA ascii
0.12475027 0.075585499 0.30700001 4282126600
0.12574741 0.075585499 0.30700001 4281863430
0.12674455 0.075585499 0.30700001 4281995014
0.12774169 0.075585499 0.30700001 4282323463
0.12915818 0.075831711 0.30800003 4283046159
0.13015856 0.075831711 0.30800003 4283243538
0.13115893 0.075831711 0.30800003 4283571220
0.13215932 0.075831711 0.30800003 4283899415
0.13359204 0.076077916 0.30900002 4283047702
0.13459568 0.076077916 0.30900002 4286936934
0.085280634 0.07433787 0.29800001 4280688134
0.086248539 0.07433787 0.29800001 4281540877
0.086923771 0.074088417 0.29700002 4283573266
0.087888427 0.074088417 0.29700002 4285013267
0.088853084 0.074088417 0.29700002 4284946191
0.08981774 0.074088417 0.29700002 4285339152
0.090476729 0.073838957 0.296 4285273613
0.091438144 0.073838957 0.296 4285338893
0.092087395 0.073589511 0.29500002 4285470479
0.093045548 0.073589511 0.29500002 4285535502
0.094003707 0.073589511 0.29500002 4285798674
0.094961874 0.073589511 0.29500002 4285734164
0.095920034 0.073589511 0.29500002 4285605404
0.096878193 0.073589511 0.29500002 4281602056
0.09783636 0.073589511 0.29500002 4280289792
0.098794512 0.073589511 0.29500002 4280552448
0.099752672 0.073589511 0.29500002 4282918426
0.10071083 0.073589511 0.29500002 4283964692
0.101669 0.073589511 0.29500002 4284751896
0.10227926 0.073340051 0.294 4285011986
0.1100686 0.076084062 0.30500001 4286679422
0.11105924 0.076084062 0.30500001 4283516995
0.11204989 0.076084062 0.30500001 4282917928
0.11341116 0.076333523 0.30600002 4282523168
0.11440504 0.076333523 0.30600002 4282653979
0.11577605 0.076582976 0.30700001 4283047965
0.11677318 0.076582976 0.30700001 4283176725
0.11777031 0.076582976 0.30700001 4283503891
0.11876746 0.076582976 0.30700001 4283765778
0.12015472 0.076832436 0.30800003 4283765778
0.1211551 0.076832436 0.30800003 4283634446
0.12215549 0.076832436 0.30800003 4283437067
0.12315586 0.076832436 0.30800003 4282979081
0.12415624 0.076832436 0.30800003 4282520326
0.12515663 0.076832436 0.30800003 4281929734
0.12615702 0.076832436 0.30800003 4281666562
0.12715741 0.076832436 0.30800003 4281732355
0.12815779 0.076832436 0.30800003 4281995014
0.12915818 0.076832436 0.30800003 4282915086
0.13058114 0.077081889 0.30900002 4283111952
0.13158478 0.077081889 0.30900002 4283375385
0.13258842 0.077081889 0.30900002 4285219904
0.13402438 0.077331342 0.31 4286085220
0.13503125 0.077331342 0.31 4285888614
0.085280634 0.075306103 0.29800001 4281015816
0.085959122 0.075053401 0.29700002 4282653709
0.086923771 0.075053401 0.29700002 4283768079
0.087888427 0.075053401 0.29700002 4284617996
0.088853084 0.075053401 0.29700002 4284814605
0.089515321 0.074800692 0.296 4285142543
0.090476729 0.074800692 0.296 4285208336
0.091438144 0.074800692 0.296 4285405199
0.092087395 0.074547991 0.29500002 4285470479
0.093045548 0.074547991 0.29500002 4285798674
0.094003707 0.074547991 0.29500002 4285798674
0.094639964 0.074295282 0.294 4285864467
0.095594876 0.074295282 0.294 4285799444
0.096549787 0.074295282 0.294 4285210646
0.09783636 0.074547991 0.29500002 4282780680
0.098794512 0.074547991 0.29500002 4282981139
0.099752672 0.074547991 0.29500002 4283440917
0.10071083 0.074547991 0.29500002 4284488722
0.101669 0.074547991 0.29500002 4284751119
0.10227926 0.074295282 0.294 4285406996
0.10872033 0.076822333 0.30400002 4284896331
0.10970772 0.076822333 0.30400002 4282133291
0.11105924 0.077075042 0.30500001 4283053110
0.11204989 0.077075042 0.30500001 4280947734
0.11341116 0.077327751 0.30600002 4280422157
0.11440504 0.077327751 0.30600002 4280487435
0.11577605 0.077580452 0.30700001 4281012747
0.11677318 0.077580452 0.30700001 4282389004
0.11777031 0.077580452 0.30700001 4283176208
0.11876746 0.077580452 0.30700001 4283700237
0.12015472 0.077833161 0.30800003 4283765517
0.1211551 0.077833161 0.30800003 4284028173
0.12215549 0.077833161 0.30800003 4283699724
0.12315586 0.077833161 0.30800003 4283569423
0.12415624 0.077833161 0.30800003 4283242768
0.12515663 0.077833161 0.30800003 4282258186
0.12615702 0.077833161 0.30800003 4281863430
0.12757024 0.078085862 0.30900002 4281928453
0.12857388 0.078085862 0.30900002 4282257416
0.12957752 0.078085862 0.30900002 4282388488
0.13058114 0.078085862 0.30900002 4283505686
0.13201061 0.078338563 0.31 4282389774
0.1330175 0.078338563 0.31 4286871656
0.13402438 0.078338563 0.31 4286020970
0.13546684 0.078591272 0.31100002 4285889132
0.084994465 0.076018386 0.29700002 4281015816
0.085959122 0.076018386 0.29700002 4283047184
0.086923771 0.076018386 0.29700002 4283898640
0.087888427 0.076018386 0.29700002 4284355339
0.088853084 0.076018386 0.29700002 4284684304
0.089515321 0.075762428 0.296 4284814605
0.090476729 0.075762428 0.296 4284945421
0.091129236 0.075506479 0.29500002 4285339406
0.092087395 0.075506479 0.29500002 4285405199
0.092730135 0.075250521 0.294 4285602065
0.093685046 0.075250521 0.294 4285799444
0.094639964 0.075250521 0.294 4285799444
0.095594876 0.075250521 0.294 4285799444
0.096549787 0.075250521 0.294 4285931030
0.097504705 0.075250521 0.294 4285668117
0.098794512 0.075506479 0.29500002 4284618513
0.099752672 0.075506479 0.29500002 4284619283
0.10071083 0.075506479 0.29500002 4284750097
0.101669 0.075506479 0.29500002 4285077777
0.10227926 0.075250521 0.294 4284947215
0.10604327 0.077298157 0.30200002 4284357134
0.10737855 0.077554107 0.303 4283443227
0.10872033 0.077810064 0.30400002 4283711282
0.10970772 0.077810064 0.30400002 4278911233
0.11105924 0.078066014 0.30500001 4279634956
0.11204989 0.078066014 0.30500001 4279175688
0.11304052 0.078066014 0.30500001 4279044100
0.11440504 0.078321978 0.30600002 4278978561
0.11539894 0.078321978 0.30600002 4279306756
0.11677318 0.078577928 0.30700001 4279895809
0.11777031 0.078577928 0.30700001 4281208582
0.11876746 0.078577928 0.30700001 4283372809
0.12015472 0.078833885 0.30800003 4283897357
0.1211551 0.078833885 0.30800003 4283896587
0.12215549 0.078833885 0.30800003 4283831564
0.12315586 0.078833885 0.30800003 4283307278
0.12415624 0.078833885 0.30800003 4283773221
0.12556298 0.079089835 0.30900002 4284433722
0.12656662 0.079089835 0.30900002 4281798150
0.12757024 0.079089835 0.30900002 4281928451
0.12857388 0.079089835 0.30900002 4282125316
0.12999685 0.079345785 0.31 4282387205
0.13100372 0.079345785 0.31 4283242001
0.13201061 0.079345785 0.31 4283178004
0.13344659 0.079601742 0.31100002 4287199334
0.13445672 0.079601742 0.31100002 4286086765
0.13546684 0.079601742 0.31100002 4285889132
0.084029801 0.07698337 0.29700002 4281344779
0.084994465 0.07698337 0.29700002 4281343498
0.085959122 0.07698337 0.29700002 4283177745
0.086923771 0.07698337 0.29700002 4283964692
0.087888427 0.07698337 0.29700002 4284357138
0.088553913 0.076724164 0.296 4284422159
0.089515321 0.076724164 0.296 4284552718
0.090476729 0.076724164 0.296 4284815377
0.091129236 0.076464966 0.29500002 4285077261
0.092087395 0.076464966 0.29500002 4285142797
0.092730135 0.07620576 0.294 4285668371
0.093685046 0.07620576 0.294 4286523678
0.094639964 0.07620576 0.294 4288041021
0.095594876 0.07620576 0.294 4285865748
0.096549787 0.07620576 0.294 4286126867
0.097504705 0.07620576 0.294 4286061076
0.098794512 0.076464966 0.29500002 4285667858
0.099752672 0.076464966 0.29500002 4285668371
0.10071083 0.076464966 0.29500002 4285208593
0.101669 0.076464966 0.29500002 4284880398
0.10506238 0.078279383 0.30200002 4284291341
0.10604327 0.078279383 0.30200002 4283439886
0.10737855 0.078538589 0.303 4282855719
0.10836269 0.078538589 0.303 4279897864
0.10970772 0.078797795 0.30400002 4279965202
0.11069512 0.078797795 0.30400002 4278978822
0.11204989 0.079056993 0.30500001 4278716677
0.11304052 0.079056993 0.30500001 4278585091
0.11440504 0.079316199 0.30600002 4278782211
0.11539894 0.079316199 0.30600002 4278782211
0.11639281 0.079316199 0.30600002 4278913281
0.11777031 0.079575405 0.30700001 4279832583
0.11876746 0.079575405 0.30700001 4282126600
0.12015472 0.07983461 0.30800003 4283373071
0.1211551 0.07983461 0.30800003 4283766030
0.12215549 0.07983461 0.30800003 4283174665
0.12315586 0.07983461 0.30800003 4287070832
0.12455935 0.080093808 0.30900002 4286086763
0.12556298 0.080093808 0.30900002 4286217324
0.12656662 0.080093808 0.30900002 4280881931
0.12757024 0.080093808 0.30900002 4281732357
0.12898998 0.080353007 0.31 4281928453
0.12999685 0.080353007 0.31 4282322182
0.13100372 0.080353007 0.31 4282914573
0.13243645 0.08061222 0.31100002 4284032282
0.13344659 0.08061222 0.31100002 4287724135
0.13488905 0.080871418 0.31200001 4286020972
0.13590243 0.080871418 0.31200001 4286020718
0.13735464 0.081130624 0.31300002 4285692525
0.084029801 0.077948347 0.29700002 4281476880
0.084994465 0.077948347 0.29700002 4281540877
0.085959122 0.077948347 0.29700002 4282981393
0.086923771 0.077948347 0.29700002 4283637011
0.087888427 0.077948347 0.29700002 4284094995
0.088553913 0.077685893 0.296 4284226322
0.089515321 0.077685893 0.296 4284356366
0.090171069 0.077423446 0.29500002 4284421902
0.091129236 0.077423446 0.29500002 4284814605
0.091775231 0.077160984 0.294 4285011211
0.092730135 0.077160984 0.294 4285602317
0.093685046 0.077160984 0.294 4285931282
0.094639964 0.077160984 0.294 4291396469
0.095594876 0.077160984 0.294 4285604895
0.096549787 0.077160984 0.294 4285996053
0.097504705 0.077160984 0.294 4286061076
0.098794512 0.077423446 0.29500002 4285798674
0.10009081 0.077685893 0.296 4285996053
0.10105222 0.077685893 0.296 4286130465
0.10373684 0.078998163 0.30100003 4284552716
0.10471449 0.078998163 0.30100003 4283240971
0.10604327 0.07926061 0.30200002 4282852373
0.10737855 0.079523057 0.303 4279766276
0.10836269 0.079523057 0.303 4280623386
0.10934684 0.079523057 0.303 4279966485
0.11069512 0.079785518 0.30400002 4278913797
0.11168251 0.079785518 0.30400002 4278585091
0.11304052 0.080047965 0.30500001 4278716677
0.11403117 0.080047965 0.30500001 4278782470
0.11539894 0.080310419 0.30600002 4278716675
0.11639281 0.080310419 0.30600002 4280164375
0.11777031 0.080572866 0.30700001 4279966737
0.11876746 0.080572866 0.30700001 4280290308
0.1197646 0.080572866 0.30700001 4282520590
0.1211551 0.080835328 0.30800003 4282321666
0.12215549 0.080835328 0.30800003 4288185202
0.12315586 0.080835328 0.30800003 4286284144
0.12455935 0.081097774 0.30900002 4286218351
0.12556298 0.081097774 0.30900002 4286020718
0.12656662 0.081097774 0.30900002 4282265642
0.12757024 0.081097774 0.30900002 4281733129
0.12898998 0.081360221 0.31 4281798152
0.12999685 0.081360221 0.31 4282125832
0.13100372 0.081360221 0.31 4282586121
0.13243645 0.081622683 0.31100002 4283834390
0.13344659 0.081622683 0.31100002 4286406479
0.13488905 0.081885129 0.31200001 4286086765
0.13590243 0.081885129 0.31200001 4286020718
0.13735464 0.082147583 0.31300002 4285889904
0.13837127 0.082147583 0.31300002 4286021490
0.084029801 0.078913331 0.29700002 4281675029
0.084994465 0.078913331 0.29700002 4281343757
0.085959122 0.078913331 0.29700002 4282718737
0.086923771 0.078913331 0.29700002 4283177491
0.087888427 0.078913331 0.29700002 4283373841
0.088553913 0.078647628 0.296 4283833106
0.089515321 0.078647628 0.296 4284094736
0.090171069 0.078381933 0.29500002 4284093964
0.091129236 0.078381933 0.29500002 4284683789
0.091775231 0.078116223 0.294 4284880398
0.092730135 0.078116223 0.294 4285339404
0.093366392 0.077850528 0.29300001 4285602063
0.094318062 0.077850528 0.29300001 4285932318
0.095594876 0.078116223 0.294 4291265667
0.096549787 0.078116223 0.294 4285930778
0.09783636 0.078381933 0.29500002 4285864213
0.098794512 0.078381933 0.29500002 4285863443
0.10009081 0.078647628 0.296 4285535248
0.10139362 0.078913331 0.29700002 4285142543
0.1033922 0.079710439 0.30000001 4284092167
0.10471449 0.079976141 0.30100003 4282062605
0.10604327 0.080241837 0.30200002 4280028419
0.10702417 0.080241837 0.30200002 4279439110
0.10836269 0.080507539 0.303 4279440141
0.10934684 0.080507539 0.303 4281546544
0.11069512 0.080773242 0.30400002 4278979847
0.11168251 0.080773242 0.30400002 4278848263
0.11266991 0.080773242 0.30400002 4279045642
0.11403117 0.081038944 0.30500001 4278914056
0.11502181 0.081038944 0.30500001 4278782470
0.11639281 0.081304647 0.30600002 4278980101
0.11738671 0.081304647 0.30600002 4279638029
0.11876746 0.08157035 0.30700001 4279635719
0.1197646 0.08157035 0.30700001 4280157954
0.12076173 0.08157035 0.30700001 4287465336
0.12215549 0.081836052 0.30800003 4286283115
0.12315586 0.081836052 0.30800003 4286218097
0.12415624 0.081836052 0.30800003 4286218099
0.12556298 0.082101747 0.30900002 4286218099
0.12656662 0.082101747 0.30900002 4283649094
0.12757024 0.082101747 0.30900002 4281732877
0.12898998 0.08236745 0.31 4281798152
0.12999685 0.08236745 0.31 4282585869
0.13100372 0.08236745 0.31 4282717707
0.13243645 0.082633153 0.31100002 4283635729
0.13344659 0.082633153 0.31100002 4284889906
0.13445672 0.082633153 0.31100002 4286020200
0.13546684 0.082633153 0.31100002 4286086511
0.13735464 0.083164558 0.31300002 4286020718
0.13837127 0.083164558 0.31300002 4285955695
0.083344825 0.080147266 0.29800001 4280820747
0.08431273 0.080147266 0.29800001 4281083152
0.085280634 0.080147266 0.29800001 4281212941
0.085959122 0.079878323 0.29700002 4282390287
0.086923771 0.079878323 0.29700002 4282783760
0.087888427 0.079878323 0.29700002 4282980366
0.088553913 0.079609364 0.296 4283242768
0.089515321 0.079609364 0.296 4283570448
0.090171069 0.079340421 0.29500002 4283635468
0.091129236 0.079340421 0.29500002 4284290316
0.091775231 0.079071462 0.294 4284486410
0.092730135 0.079071462 0.294 4284879882
0.093366392 0.078802519 0.29300001 4285142797
0.094318062 0.078802519 0.29300001 4285865496
0.095594876 0.079071462 0.294 4285602328
0.096549787 0.079071462 0.294 4286522917
0.09783636 0.079340421 0.29500002 4286061592
0.099129401 0.079609364 0.296 4285930006
0.10042896 0.079878323 0.29700002 4285207053
0.10173501 0.080147266 0.29800001 4284551435
0.1033922 0.080685169 0.30000001 4283436552
0.10471449 0.080954127 0.30100003 4280421894
0.10604327 0.081223071 0.30200002 4280358929
0.10702417 0.081223071 0.30200002 4281743405
0.10836269 0.081492022 0.303 4279045637
0.10934684 0.081492022 0.303 4279374605
0.11033098 0.081492022 0.303 4280822051
0.11168251 0.081760973 0.30400002 4280295961
0.11266991 0.081760973 0.30400002 4280164375
0.1136573 0.081760973 0.30400002 4279900692
0.11502181 0.082029924 0.30500001 4279834901
0.11601244 0.082029924 0.30500001 4279506188
0.11738671 0.082298875 0.30600002 4280295957
0.1183806 0.082298875 0.30600002 4280426518
0.1197646 0.082567826 0.30700001 4279700997
0.12076173 0.082567826 0.30700001 4286349167
0.12175887 0.082567826 0.30700001 4286218097
0.12315586 0.082836777 0.30800003 4286152306
0.12415624 0.082836777 0.30800003 4286087285
0.12515663 0.082836777 0.30800003 4286021492
0.12656662 0.083105728 0.30900002 4284505686
0.12757024 0.083105728 0.30900002 4281996049
0.12857388 0.083105728 0.30900002 4281995018
0.12999685 0.083374672 0.31 4282454283
0.13100372 0.083374672 0.31 4282717194
0.13201061 0.083374672 0.31 4283964692
0.1330175 0.083374672 0.31 4283966491
0.13445672 0.08364363 0.31100002 4286283115
0.13546684 0.08364363 0.31100002 4286020718
0.13735464 0.084181532 0.31300002 4285889134
0.13837127 0.084181532 0.31300002 4285889134
0.083344825 0.081115499 0.29800001 4281083919
0.08431273 0.081115499 0.29800001 4281280531
0.085280634 0.081115499 0.29800001 4281279247
0.085959122 0.080843307 0.29700002 4282194189
0.086923771 0.080843307 0.29700002 4282258699
0.087888427 0.080843307 0.29700002 4282586381
0.088853084 0.080843307 0.29700002 4282717707
0.089515321 0.0805711 0.296 4283111180
0.090171069 0.080298908 0.29500002 4283241483
0.091129236 0.080298908 0.29500002 4283699978
0.091775231 0.080026701 0.294 4283962378
0.092730135 0.080026701 0.294 4284290314
0.093366392 0.079754502 0.29300001 4284421130
0.094318062 0.079754502 0.29300001 4285011214
0.095594876 0.080026701 0.294 4285471508
0.096549787 0.080026701 0.294 4285602324
0.09783636 0.080298908 0.29500002 4285997082
0.099129401 0.0805711 0.296 4285733910
0.10076711 0.081115499 0.29800001 4285010959
0.1020764 0.081387706 0.29900002 4283961610
0.1033922 0.081659898 0.30000001 4282124803
0.10471449 0.081932105 0.30100003 4279568899
0.10604327 0.082204305 0.30200002 4282334513
0.10702417 0.082204305 0.30200002 4279506188
0.10836269 0.082476497 0.303 4279374602
0.10934684 0.082476497 0.303 4281940786
0.11033098 0.082476497 0.303 4280756258
0.11131513 0.082476497 0.303 4280755483
0.11266991 0.082748704 0.30400002 4287992713
0.1136573 0.082748704 0.30400002 4284309334
0.11464469 0.082748704 0.30400002 4282796865
0.11601244 0.083020896 0.30500001 4281085475
0.11700308 0.083020896 0.30500001 4280427286
0.1183806 0.083293103 0.30600002 4280887837
0.11937448 0.083293103 0.30600002 4278979072
0.12036838 0.083293103 0.30600002 4286612085
0.12175887 0.083565302 0.30700001 4286218099
0.122756 0.083565302 0.30700001 4285955699
0.12375314 0.083565302 0.30700001 4285889906
0.12515663 0.083837502 0.30800003 4285758320
0.12615702 0.083837502 0.30800003 4284374100
0.12757024 0.084109701 0.30900002 4282192658
0.12857388 0.084109701 0.30900002 4282586385
0.12957752 0.084109701 0.30900002 4282454283
0.13058114 0.084109701 0.30900002 4282716170
0.13201061 0.084381893 0.31 4283699726
0.1330175 0.084381893 0.31 4283635729
0.13402438 0.084381893 0.31 4286216554
0.13503125 0.084381893 0.31 4286283120
0.13559932 0.084109701 0.30900002 4286217329
0.13660294 0.084109701 0.30900002 4286151536
0.083344825 0.082083732 0.29800001 4280819980
0.08431273 0.082083732 0.29800001 4280885773
0.085280634 0.082083732 0.29800001 4281148945
0.086248539 0.082083732 0.29800001 4281867021
0.086923771 0.081808291 0.29700002 4282128396
0.087888427 0.081808291 0.29700002 4282258699
0.088853084 0.081808291 0.29700002 4282192906
0.089515321 0.081532836 0.296 4282651914
0.090171069 0.081257388 0.29500002 4282717194
0.091129236 0.081257388 0.29500002 4283240969
0.091775231 0.08098194 0.294 4283306249
0.092730135 0.08098194 0.294 4284028173
0.093366392 0.080706492 0.29300001 4284224780
0.094318062 0.080706492 0.29300001 4284421130
0.095594876 0.08098194 0.294 4284880398
0.096549787 0.08098194 0.294 4285142797
0.09783636 0.081257388 0.29500002 4285602578
0.099464305 0.081808291 0.29700002 4285273359
0.10076711 0.082083732 0.29800001 4284945166
0.1020764 0.082359187 0.29900002 4282846725
0.10373684 0.082910091 0.30100003 4280550400
0.10471449 0.082910091 0.30100003 4279702282
0.10604327 0.083185531 0.30200002 4279242244
0.10702417 0.083185531 0.30200002 4278715904
0.10800506 0.083185531 0.30200002 4282532921
0.10934684 0.083460979 0.303 4281085223
0.11033098 0.083460979 0.303 4279835156
0.11131513 0.083460979 0.303 4282662967
0.11229927 0.083460979 0.303 4287466371
0.11328342 0.083460979 0.303 4280886817
0.11464469 0.083736435 0.30400002 4280427293
0.11563208 0.083736435 0.30400002 4280690460
0.11700308 0.084011875 0.30500001 4280756253
0.11799373 0.084011875 0.30500001 4279900946
0.11898436 0.084011875 0.30500001 4279440395
0.12036838 0.084287331 0.30600002 4286809464
0.12136227 0.084287331 0.30600002 4286020720
0.12235615 0.084287331 0.30600002 4286020722
0.12375314 0.084562778 0.30700001 4286087285
0.12475027 0.084562778 0.30700001 4285758320
0.12615702 0.084838226 0.30800003 4283715403
0.12715741 0.084838226 0.30800003 4282322961
0.12857388 0.085113674 0.30900002 4282585871
0.12957752 0.085113674 0.30900002 4282651149
0.13058114 0.085113674 0.30900002 4282781963
0.13158478 0.085113674 0.30900002 4283962898
0.13258842 0.085113674 0.30900002 4284688931
0.13359204 0.085113674 0.30900002 4286479472
0.13459568 0.085113674 0.30900002 4286283122
0.13559932 0.085113674 0.30900002 4286217329
0.13660294 0.085113674 0.30900002 4286151536
0.08431273 0.083051965 0.29800001 4280820495
0.085280634 0.083051965 0.29800001 4280885775
0.086248539 0.083051965 0.29800001 4281999379
0.086923771 0.082773268 0.29700002 4281865738
0.087888427 0.082773268 0.29700002 4282192393
0.088853084 0.082773268 0.29700002 4281995014
0.089515321 0.082494564 0.296 4282257416
0.090476729 0.082494564 0.296 4282389002
0.091129236 0.082215868 0.29500002 4282650631
0.091775231 0.081937164 0.294 4283109899
0.092730135 0.081937164 0.294 4283634444
0.093685046 0.081937164 0.294 4283832077
0.094639964 0.081937164 0.294 4284093966
0.095594876 0.081937164 0.294 4284356368
0.096878193 0.082215868 0.29500002 4284617228
0.098168001 0.082494564 0.296 4285077009
0.099464305 0.082773268 0.29700002 4284879630
0.10110525 0.083330661 0.29900002 4284420619
0.1024178 0.083609357 0.30000001 4281601543
0.10373684 0.083888061 0.30100003 4280224774
0.10471449 0.083888061 0.30100003 4279900176
0.10604327 0.084166758 0.30200002 4281018657
0.10702417 0.084166758 0.30200002 4281216806
0.10800506 0.084166758 0.30200002 4282269494
0.10898596 0.084166758 0.30200002 4280624674
0.10996686 0.084166758 0.30200002 4284111698
0.11131513 0.084445447 0.303 4283651395
0.11229927 0.084445447 0.303 4282333482
0.11328342 0.084445447 0.303 4283451452
0.11426757 0.084445447 0.303 4282464555
0.11563208 0.084724151 0.30400002 4280688659
0.11661947 0.084724151 0.30400002 4280952860
0.11799373 0.085002847 0.30500001 4281019682
0.11898436 0.085002847 0.30500001 4280230166
0.11997501 0.085002847 0.30500001 4286021492
0.12096565 0.085002847 0.30500001 4285955699
0.12195628 0.085002847 0.30500001 4286021492
0.12335004 0.085281551 0.30600002 4286021238
0.12475027 0.08556024 0.30700001 4286020722
0.12574741 0.08556024 0.30700001 4283319616
0.12715741 0.085838944 0.30800003 4282651412
0.12815779 0.085838944 0.30800003 4282520076
0.12957752 0.08611764 0.30900002 4282585354
0.13058114 0.08611764 0.30900002 4283176208
0.13158478 0.08611764 0.30900002 4283766802
0.13258842 0.08611764 0.30900002 4284031519
0.13359204 0.08611764 0.30900002 4285888616
0.13459568 0.08611764 0.30900002 4286086513
0.13559932 0.08611764 0.30900002 4286020722
0.13660294 0.08611764 0.30900002 4286086515
0.085280634 0.084020197 0.29800001 4280623888
0.086248539 0.084020197 0.29800001 4282066969
0.087216437 0.084020197 0.29800001 4282128398
0.087888427 0.083738253 0.29700002 4281995016
0.088853084 0.083738253 0.29700002 4282192395
0.089515321 0.0834563 0.296 4282257416
0.090476729 0.0834563 0.296 4282323209
0.091129236 0.083174355 0.29500002 4282651914
0.092087395 0.083174355 0.29500002 4282782987
0.092730135 0.082892403 0.294 4283110667
0.093685046 0.082892403 0.294 4283373069
0.094639964 0.082892403 0.294 4283831823
0.095594876 0.082892403 0.294 4284226581
0.096878193 0.083174355 0.29500002 4284226322
0.098168001 0.0834563 0.296 4284357138
0.099799193 0.084020197 0.29800001 4283897355
0.10110525 0.08430215 0.29900002 4283043331
0.1024178 0.084584087 0.30000001 4280683269
0.10373684 0.084866039 0.30100003 4280424724
0.10471449 0.084866039 0.30100003 4282928451
0.10604327 0.085147984 0.30200002 4284771423
0.10702417 0.085147984 0.30200002 4281348647
0.10800506 0.085147984 0.30200002 4280822303
0.10898596 0.085147984 0.30200002 4281019682
0.10996686 0.085147984 0.30200002 4282664505
0.11094776 0.085147984 0.30200002 4282004517
0.11192866 0.085147984 0.30200002 4281608214
0.11328342 0.085429929 0.303 4284305966
0.11426757 0.085429929 0.303 4283451424
0.11525171 0.085429929 0.303 4282267426
0.11661947 0.085711882 0.30400002 4280821267
0.11760686 0.085711882 0.30400002 4280361493
0.11859426 0.085711882 0.30400002 4279243016
0.11958165 0.085711882 0.30400002 4285889906
0.12056905 0.085711882 0.30400002 4285759603
0.12195628 0.085993826 0.30500001 4286021751
0.12294693 0.085993826 0.30500001 4285956212
0.12434392 0.086275779 0.30600002 4285758318
0.12574741 0.086557716 0.30700001 4281607714
0.12715741 0.086839668 0.30800003 4283178008
0.12815779 0.086839668 0.30800003 4282651401
0.12915818 0.086839668 0.30800003 4282913288
0.13015856 0.086839668 0.30800003 4283240969
0.13158478 0.087121613 0.30900002 4284029202
0.13258842 0.087121613 0.30900002 4284358685
0.13359204 0.087121613 0.30900002 4286544234
0.13459568 0.087121613 0.30900002 4285889132
0.13559932 0.087121613 0.30900002 4286086513
0.13660294 0.087121613 0.30900002 4285889134
0.087216437 0.08498843 0.29800001 4281866510
0.087888427 0.084703237 0.29700002 4282323981
0.088853084 0.084703237 0.29700002 4282454795
0.08981774 0.084703237 0.29700002 4282323209
0.090476729 0.084418036 0.296 4282454795
0.091438144 0.084418036 0.296 4282454795
0.092087395 0.084132843 0.29500002 4282717967
0.093045548 0.084132843 0.29500002 4282717453
0.093685046 0.083847642 0.294 4283045135
0.094639964 0.083847642 0.294 4283569936
0.095920034 0.084132843 0.29500002 4283701522
0.096878193 0.084132843 0.29500002 4283833106
0.098168001 0.084418036 0.296 4283767054
0.099799193 0.08498843 0.29800001 4283307530
0.1014434 0.085558824 0.30000001 4282191109
0.1024178 0.085558824 0.30000001 4280028169
0.10373684 0.085844025 0.30100003 4282005552
0.10506238 0.086129218 0.30200002 4284376667
0.10604327 0.086129218 0.30200002 4280361500
0.10702417 0.086129218 0.30200002 4280887841
0.10800506 0.086129218 0.30200002 4280755483
0.10898596 0.086129218 0.30200002 4280493079
0.10996686 0.086129218 0.30200002 4282203951
0.11094776 0.086129218 0.30200002 4280885523
0.11192866 0.086129218 0.30200002 4282002459
0.11290955 0.086129218 0.30200002 4283120149
0.11426757 0.086414412 0.303 4285620793
0.11525171 0.086414412 0.303 4280819980
0.11623584 0.086414412 0.303 4280426509
0.11721999 0.086414412 0.303 4280492563
0.11820414 0.086414412 0.303 4279110656
0.11918829 0.086414412 0.303 4286021490
0.12056905 0.086699612 0.30400002 4286087285
0.12155643 0.086699612 0.30400002 4286087544
0.12254383 0.086699612 0.30400002 4286087798
0.12393757 0.086984806 0.30500001 4286283122
0.12574741 0.087555192 0.30700001 4281014292
0.12674455 0.087555192 0.30700001 4282978831
0.12815779 0.087840393 0.30800003 4283109899
0.12915818 0.087840393 0.30800003 4283437835
0.13015856 0.087840393 0.30800003 4283437835
0.13158478 0.088125587 0.30900002 4284226068
0.13258842 0.088125587 0.30900002 4284817435
0.13359204 0.088125587 0.30900002 4284295974
0.13459568 0.088125587 0.30900002 4286936682
0.13559932 0.088125587 0.30900002 4285626732
0.13660294 0.088125587 0.30900002 4285955699
0.087216437 0.085956663 0.29800001 4282065433
0.087888427 0.085668221 0.29700002 4282258188
0.088853084 0.085668221 0.29700002 4282389772
0.08981774 0.085668221 0.29700002 4282323979
0.090476729 0.085379772 0.296 4281995018
0.091438144 0.085379772 0.296 4283643182
0.092087395 0.08509133 0.29500002 4282655258
0.093045548 0.08509133 0.29500002 4282521873
0.094003707 0.08509133 0.29500002 4282849553
0.094961874 0.08509133 0.29500002 4282913803
0.095920034 0.08509133 0.29500002 4283045389
0.096878193 0.08509133 0.29500002 4283045389
0.098168001 0.085379772 0.296 4283571218
0.1001341 0.086245112 0.29900002 4283110669
0.1014434 0.086533554 0.30000001 4281929221
0.10275919 0.086822003 0.30100003 4279503622
0.10373684 0.086822003 0.30100003 4279966739
0.10506238 0.087110445 0.30200002 4280230938
0.10604327 0.087110445 0.30200002 4279966996
0.10702417 0.087110445 0.30200002 4280887839
0.10800506 0.087110445 0.30200002 4280822046
0.10898596 0.087110445 0.30200002 4281544997
0.10996686 0.087110445 0.30200002 4281808939
0.11094776 0.087110445 0.30200002 4280622866
0.11192866 0.087110445 0.30200002 4280556812
0.11290955 0.087110445 0.30200002 4281344011
0.11389045 0.087110445 0.30200002 4281541388
0.11525171 0.087398887 0.303 4281017613
0.11623584 0.087398887 0.303 4280360714
0.11721999 0.087398887 0.303 4280097805
0.11820414 0.087398887 0.303 4282202931
0.11918829 0.087398887 0.303 4286217327
0.12017243 0.087398887 0.303 4286218101
0.12115657 0.087398887 0.303 4286087285
0.12214071 0.087398887 0.303 4286021492
0.12393757 0.087975778 0.30500001 4287531651
0.12574741 0.088552669 0.30700001 4282721317
0.12674455 0.088552669 0.30700001 4283634192
0.12815779 0.088841125 0.30800003 4283634446
0.12915818 0.088841125 0.30800003 4283699978
0.13015856 0.088841125 0.30800003 4283699978
0.13158478 0.08912956 0.30900002 4284553488
0.13258842 0.08912956 0.30900002 4285078549
0.13359204 0.08912956 0.30900002 4285407514
0.13459568 0.08912956 0.30900002 4285675312
0.13559932 0.08912956 0.30900002 4286019950
0.13660294 0.08912956 0.30900002 4286021490
0.088184342 0.086924888 0.29800001 4282324494
0.088853084 0.086633198 0.29700002 4282587153
0.08981774 0.086633198 0.29700002 4282323981
0.090782404 0.086633198 0.29700002 4282917403
0.091438144 0.0863415 0.296 4286480499
0.092399552 0.0863415 0.296 4286547316
0.093045548 0.08604981 0.29500002 4286281580
0.094003707 0.08604981 0.29500002 4282002720
0.094961874 0.08604981 0.29500002 4282719250
0.095920034 0.08604981 0.29500002 4282454795
0.097206593 0.0863415 0.296 4282782987
0.098168001 0.0863415 0.296 4283308561
0.1001341 0.087216586 0.29900002 4284429609
0.1014434 0.087508276 0.30000001 4281803031
0.10275919 0.087799981 0.30100003 4279767305
0.10373684 0.087799981 0.30100003 4280098582
0.10506238 0.088091671 0.30200002 4280756512
0.10604327 0.088091671 0.30200002 4280162835
0.10702417 0.088091671 0.30200002 4281743146
0.10800506 0.088091671 0.30200002 4280887067
0.10898596 0.088091671 0.30200002 4280623895
0.10996686 0.088091671 0.30200002 4281939755
0.11094776 0.088091671 0.30200002 4280623888
0.11192866 0.088091671 0.30200002 4281214738
0.11290955 0.088091671 0.30200002 4281212425
0.11389045 0.088091671 0.30200002 4280884230
0.11487134 0.088091671 0.30200002 4280688648
0.11585224 0.088091671 0.30200002 4280623114
0.11683314 0.088091671 0.30200002 4280163337
0.11781403 0.088091671 0.30200002 4286414701
0.11879493 0.088091671 0.30200002 4286152304
0.11977582 0.088091671 0.30200002 4286349685
0.12115657 0.088383362 0.303 4286152308
0.12214071 0.088383362 0.303 4286086515
0.12393757 0.08896675 0.30500001 4286278504
0.12574741 0.089550138 0.30700001 4283242782
0.12674455 0.089550138 0.30700001 4283831058
0.12815779 0.089841835 0.30800003 4283896335
0.12915818 0.089841835 0.30800003 4283962126
0.13015856 0.089841835 0.30800003 4284092942
0.13158478 0.090133525 0.30900002 4284552718
0.13258842 0.090133525 0.30900002 4285275158
0.13359204 0.090133525 0.30900002 4285603351
0.13459568 0.090133525 0.30900002 4285669144
0.13559932 0.090133525 0.30900002 4286539611
0.13660294 0.090133525 0.30900002 4286020202
0.088184342 0.087893121 0.29800001 4282455567
0.088853084 0.087598182 0.29700002 4282455565
0.08981774 0.087598182 0.29700002 4282849041
0.090782404 0.087598182 0.29700002 4282983196
0.091438144 0.087303236 0.296 4286087281
0.092399552 0.087303236 0.296 4286482554
0.093360953 0.087303236 0.296 4286416761
0.094003707 0.087008297 0.29500002 4286087285
0.094961874 0.087008297 0.29500002 4282129945
0.096245185 0.087303236 0.296 4282061324
0.097206593 0.087303236 0.296 4282717967
0.098499656 0.087598182 0.29700002 4283833620
0.1014434 0.088483013 0.30000001 4286676853
0.10275919 0.088777959 0.30100003 4279569928
0.10373684 0.088777959 0.30100003 4279045637
0.10506238 0.089072898 0.30200002 4280098328
0.10604327 0.089072898 0.30200002 4278848004
0.10702417 0.089072898 0.30200002 4281018653
0.10800506 0.089072898 0.30200002 4280557589
0.10898596 0.089072898 0.30200002 4280886808
0.10996686 0.089072898 0.30200002 4282795318
0.11094776 0.089072898 0.30200002 4281084437
0.11192866 0.089072898 0.30200002 4282069015
0.11290955 0.089072898 0.30200002 4283383842
0.11389045 0.089072898 0.30200002 4281936400
0.11487134 0.089072898 0.30200002 4280753927
0.11585224 0.089072898 0.30200002 4280688394
0.11683314 0.089072898 0.30200002 4278913536
0.11781403 0.089072898 0.30200002 4286087535
0.11879493 0.089072898 0.30200002 4285955695
0.11977582 0.089072898 0.30200002 4286283892
0.12075672 0.089072898 0.30200002 4286283894
0.12173761 0.089072898 0.30200002 4286218101
0.12393757 0.089957729 0.30500001 4282851106
0.12574741 0.090547614 0.30700001 4283832604
0.12674455 0.090547614 0.30700001 4284092942
0.12815779 0.090842567 0.30800003 4284092942
0.12915818 0.090842567 0.30800003 4284224271
0.13015856 0.090842567 0.30800003 4284487697
0.13158478 0.091137506 0.30900002 4285275158
0.13258842 0.091137506 0.30900002 4285603353
0.13359204 0.091137506 0.30900002 4285733910
0.13459568 0.091137506 0.30900002 4285799703
0.13559932 0.091137506 0.30900002 4283704089
0.13660294 0.091137506 0.30900002 4286346342
0.090782404 0.088563167 0.29700002 4283641124
0.09174706 0.088563167 0.29700002 4286285175
0.092399552 0.088264972 0.296 4286416763
0.093360953 0.088264972 0.296 4286416763
0.094322361 0.088264972 0.296 4286218617
0.095283769 0.088264972 0.296 4281342492
0.096245185 0.088264972 0.296 4281997076
0.097534999 0.088563167 0.29700002 4282717453
0.098831296 0.088861361 0.29800001 4283898901
0.1014434 0.089457743 0.30000001 4287072636
0.10275919 0.089755945 0.30100003 4278715650
0.10408148 0.090054132 0.30200002 4280493083
0.10506238 0.090054132 0.30200002 4280888866
0.10604327 0.090054132 0.30200002 4279308809
0.10737855 0.090352319 0.303 4281479206
0.10836269 0.090352319 0.303 4281216034
0.10934684 0.090352319 0.303 4280820761
0.11033098 0.090352319 0.303 4281280796
0.11131513 0.090352319 0.303 4281084185
0.11229927 0.090352319 0.303 4280821013
0.11328342 0.090352319 0.303 4282069015
0.11426757 0.090352319 0.303 4282069015
0.11525171 0.090352319 0.303 4281083154
0.11623584 0.090352319 0.303 4279833350
0.11721999 0.090352319 0.303 4284506961
0.11781403 0.090054132 0.30200002 4286086765
0.11879493 0.090054132 0.30200002 4286021490
0.11977582 0.090054132 0.30200002 4286087285
0.12075672 0.090054132 0.30200002 4286087285
0.12173761 0.090054132 0.30200002 4287073410
0.12393757 0.090948708 0.30500001 4283702302
0.12574741 0.09154509 0.30700001 4283962898
0.12674455 0.09154509 0.30700001 4284224780
0.12815779 0.091843292 0.30800003 4284224780
0.12915818 0.091843292 0.30800003 4284224523
0.13015856 0.091843292 0.30800003 4284618509
0.13158478 0.092141479 0.30900002 4285209363
0.13258842 0.092141479 0.30900002 4292119433
0.13359204 0.092141479 0.30900002 4285405976
0.13459568 0.092141479 0.30900002 4285733910
0.13559932 0.092141479 0.30900002 4284818459
0.13660294 0.092141479 0.30900002 4287460711
0.092399552 0.089226708 0.296 4286416763
0.093360953 0.089226708 0.296 4286416763
0.094322361 0.089226708 0.296 4286877314
0.095283769 0.089226708 0.296 4282527020
0.096245185 0.089226708 0.296 4281931799
0.097534999 0.089528158 0.29700002 4282717967
0.098831296 0.089829594 0.29800001 4283504403
0.1014434 0.09043248 0.30000001 4286678902
0.10275919 0.090733923 0.30100003 4279440143
0.10408148 0.091035359 0.30200002 4279506188
0.10506238 0.091035359 0.30200002 4281019684
0.10639441 0.091336802 0.303 4279374605
0.10737855 0.091336802 0.303 4279439623
0.10836269 0.091336802 0.303 4281677612
0.10934684 0.091336802 0.303 4281743148
0.11033098 0.091336802 0.303 4280492311
0.11131513 0.091336802 0.303 4282400306
0.11229927 0.091336802 0.303 4281018657
0.11328342 0.091336802 0.303 4280361493
0.11426757 0.091336802 0.303 4280821528
0.11525171 0.091336802 0.303 4279635719
0.11623584 0.091336802 0.303 4279504905
0.11721999 0.091336802 0.303 4286349937
0.11820414 0.091336802 0.303 4286218351
0.11918829 0.091336802 0.303 4285955697
0.11977582 0.091035359 0.30200002 4285956212
0.12075672 0.091035359 0.30200002 4285889906
0.12173761 0.091035359 0.30200002 4282265642
0.12393757 0.091939688 0.30500001 4284160025
0.12574741 0.092542566 0.30700001 4284093196
0.12674455 0.092542566 0.30700001 4284224523
0.12815779 0.092844017 0.30800003 4284421902
0.12915818 0.092844017 0.30800003 4284421132
0.13015856 0.092844017 0.30800003 4284617996
0.13158478 0.093145452 0.30900002 4285405715
0.13258842 0.093145452 0.30900002 4285208340
0.13359204 0.093145452 0.30900002 4286984756
0.13459568 0.093145452 0.30900002 4285932061
0.13559932 0.093145452 0.30900002 4285014298
0.13660294 0.093145452 0.30900002 4288247145
0.092399552 0.090188436 0.296 4286547834
0.093360953 0.090188436 0.296 4286285177
0.094322361 0.090188436 0.296 4286350716
0.095283769 0.090188436 0.296 4282197541
0.096570343 0.090493135 0.29700002 4282194455
0.097534999 0.090493135 0.29700002 4282783762
0.1014434 0.091407202 0.30000001 4286349685
0.10275919 0.091711894 0.30100003 4283387978
0.10408148 0.092016585 0.30200002 4279176199
0.10506238 0.092016585 0.30200002 4279309066
0.10639441 0.092321269 0.303 4280230938
0.10737855 0.092321269 0.303 4278848258
0.10836269 0.092321269 0.303 4278650880
0.10934684 0.092321269 0.303 4279769615
0.11033098 0.092321269 0.303 4281019684
0.11131513 0.092321269 0.303 4279242762
0.11229927 0.092321269 0.303 4279374602
0.11328342 0.092321269 0.303 4279703822
0.11426757 0.092321269 0.303 4279703565
0.11525171 0.092321269 0.303 4278913281
0.11623584 0.092321269 0.303 4286414706
0.11721999 0.092321269 0.303 4286348913
0.11820414 0.092321269 0.303 4286283120
0.11918829 0.092321269 0.303 4285889136
0.12017243 0.092321269 0.303 4286087285
0.12075672 0.092016585 0.30200002 4287070328
0.12173761 0.092016585 0.30200002 4282653725
0.12393757 0.092930652 0.30500001 4284553495
0.12574741 0.093540035 0.30700001 4284421650
0.12674455 0.093540035 0.30700001 4284552720
0.12815779 0.093844734 0.30800003 4284618511
0.12915818 0.093844734 0.30800003 4284552718
0.13015856 0.093844734 0.30800003 4284750097
0.13158478 0.094149418 0.30900002 4284880400
0.13258842 0.094149418 0.30900002 4285405974
0.13359204 0.094149418 0.30900002 4285733912
0.13459568 0.094149418 0.30900002 4285932061
0.13559932 0.094149418 0.30900002 4285079837
0.13660294 0.094149418 0.30900002 4288444013
0.093360953 0.091150172 0.296 4286547836
0.094322361 0.091150172 0.296 4286153337
0.095283769 0.091150172 0.296 4281935912
0.096570343 0.091458119 0.29700002 4281931799
0.097534999 0.091458119 0.29700002 4282717457
0.1014434 0.092381932 0.30000001 4286416500
0.1024178 0.092381932 0.30000001 4287271305
0.10373684 0.092689879 0.30100003 4279308555
0.10506238 0.092997812 0.30200002 4281085220
0.10639441 0.093305752 0.303 4279506445
0.10737855 0.093305752 0.303 4279243273
0.10836269 0.093305752 0.303 4281085475
0.10934684 0.093305752 0.303 4278913799
0.11033098 0.093305752 0.303 4278848006
0.11131513 0.093305752 0.303 4279308555
0.11229927 0.093305752 0.303 4280624669
0.11328342 0.093305752 0.303 4279374602
0.11426757 0.093305752 0.303 4279900946
0.11525171 0.093305752 0.303 4284902239
0.11623584 0.093305752 0.303 4285823593
0.11721999 0.093305752 0.303 4286086511
0.11820414 0.093305752 0.303 4286086515
0.11918829 0.093305752 0.303 4286152054
0.12017243 0.093305752 0.303 4286020722
0.12115657 0.093305752 0.303 4285550929
0.12214071 0.093305752 0.303 4284293157
0.12393757 0.093921632 0.30500001 4284815892
0.12574741 0.094537511 0.30700001 4284683791
0.12674455 0.094537511 0.30700001 4284814607
0.12815779 0.094845459 0.30800003 4284749584
0.12915818 0.094845459 0.30800003 4284749584
0.13015856 0.094845459 0.30800003 4284683791
0.13158478 0.095153391 0.30900002 4284486414
0.13258842 0.095153391 0.30900002 4284683793
0.13359204 0.095153391 0.30900002 4285011216
0.13459568 0.095153391 0.30900002 4285405974
0.13559932 0.095153391 0.30900002 4284161560
0.13660294 0.095153391 0.30900002 4287723885
0.093676366 0.092423104 0.29700002 4286416763
0.094641022 0.092423104 0.29700002 4286350970
0.095605679 0.092423104 0.29700002 4283253309
0.096570343 0.092423104 0.29700002 4281866519
0.097534999 0.092423104 0.29700002 4282980627
0.10110525 0.093045481 0.29900002 4286416246
0.1024178 0.093356669 0.30000001 4286154361
0.10373684 0.093667857 0.30100003 4284179034
0.10506238 0.093979046 0.30200002 4280097040
0.10604327 0.093979046 0.30200002 4279703565
0.10737855 0.094290234 0.303 4280427545
0.10836269 0.094290234 0.303 4280756510
0.10934684 0.094290234 0.303 4279110406
0.11033098 0.094290234 0.303 4282466871
0.11131513 0.094290234 0.303 4282664250
0.11229927 0.094290234 0.303 4278979074
0.11328342 0.094290234 0.303 4280492313
0.11426757 0.094290234 0.303 4284242510
0.11525171 0.094290234 0.303 4285889132
0.11623584 0.094290234 0.303 4286086513
0.11721999 0.094290234 0.303 4286283892
0.11820414 0.094290234 0.303 4286152306
0.11918829 0.094290234 0.303 4286086515
0.12017243 0.094290234 0.303 4286545269
0.12115657 0.094290234 0.303 4284556075
0.12214071 0.094290234 0.303 4284750365
0.12393757 0.094912611 0.30500001 4284881172
0.12574741 0.095534988 0.30700001 4284880400
0.12674455 0.095534988 0.30700001 4284879630
0.12815779 0.095846184 0.30800003 4285011216
0.12915818 0.095846184 0.30800003 4285077777
0.13015856 0.095846184 0.30800003 4284552716
0.13158478 0.096157365 0.30900002 4284158989
0.13258842 0.096157365 0.30900002 4284685849
0.13359204 0.096157365 0.30900002 4284816665
0.13459568 0.096157365 0.30900002 4284750615
0.13559932 0.096157365 0.30900002 4284168495
0.13660294 0.096157365 0.30900002 4286412389
0.093676366 0.093388088 0.29700002 4286416763
0.094641022 0.093388088 0.29700002 4286416509
0.095605679 0.093388088 0.29700002 4284767575
0.096570343 0.093388088 0.29700002 4281735703
0.097534999 0.093388088 0.29700002 4282849041
0.10110525 0.094016962 0.29900002 4286612087
0.1024178 0.094331399 0.30000001 4286285177
0.10373684 0.094645843 0.30100003 4286285177
0.10471449 0.094645843 0.30100003 4284046678
0.10604327 0.09496028 0.30200002 4279241731
0.10737855 0.095274709 0.303 4279965967
0.10836269 0.095274709 0.303 4280624665
0.10934684 0.095274709 0.303 4279242244
0.11033098 0.095274709 0.303 4278913280
0.11131513 0.095274709 0.303 4278914051
0.11229927 0.095274709 0.303 4279240709
0.11525171 0.095274709 0.303 4286086765
0.092711717 0.094353072 0.29700002 4286548086
0.093676366 0.094353072 0.29700002 4286548347
0.094641022 0.094353072 0.29700002 4286482556
0.095605679 0.094353072 0.29700002 4286939773
0.096570343 0.094353072 0.29700002 4281604632
0.097534999 0.094353072 0.29700002 4282586383
0.099799193 0.094670758 0.29800001 4284367929
0.10076711 0.094670758 0.29800001 4286874230
0.1020764 0.09498845 0.29900002 4286678652
0.1033922 0.095306136 0.30000001 4286547836
0.10471449 0.095623821 0.30100003 4286218617
0.10604327 0.095941506 0.30200002 4281085220
0.10737855 0.096259192 0.303 4280029448
0.10836269 0.096259192 0.303 4279503106
0.10934684 0.096259192 0.303 4279764995
0.11033098 0.096259192 0.303 4279830018
0.1141106 0.095306136 0.30000001 4286019945
0.092711717 0.095318049 0.29700002 4286612337
0.093676366 0.095318049 0.29700002 4286350970
0.094641022 0.095318049 0.29700002 4286416509
0.095605679 0.095318049 0.29700002 4286414456
0.096570343 0.095318049 0.29700002 4281015575
0.097534999 0.095318049 0.29700002 4282454795
0.098499656 0.095318049 0.29700002 4283570450
0.099464305 0.095318049 0.29700002 4282850838
0.10076711 0.095638983 0.29800001 4287070326
0.1020764 0.095959924 0.29900002 4286743675
0.10304756 0.095959924 0.29900002 4286482043
0.1043666 0.096280858 0.30000001 4286482043
0.10569214 0.096601799 0.30100003 4284967010
0.10702417 0.096922733 0.30200002 4281868056
0.1141106 0.096280858 0.30000001 4286413418
0.092711717 0.096283033 0.29700002 4286864983
0.093676366 0.096283033 0.29700002 4286941052
0.094641022 0.096283033 0.29700002 4286350457
0.095605679 0.096283033 0.29700002 4286350203
0.096570343 0.096283033 0.29700002 4285425505
0.097534999 0.096283033 0.29700002 4282782735
0.098499656 0.096283033 0.29700002 4283504143
0.10173501 0.096607216 0.29800001 4286612859
0.10304756 0.096931405 0.29900002 4286613629
0.10401872 0.096931405 0.29900002 4286416248
0.105341 0.097255588 0.30000001 4286546812
0.10702417 0.097903959 0.30200002 4281603601
0.098499656 0.097248018 0.29700002 4284093966
0.10173501 0.097575448 0.29800001 4286612087
0.10270292 0.097575448 0.29800001 4286350457
0.10401872 0.097902894 0.29900002 4286482043
0.10498987 0.097902894 0.29900002 4286218871
0.10270292 0.098543689 0.29800001 4286348658
0.10367082 0.098543689 0.29800001 4286087285
0.10463873 0.098543689 0.29800001 4286021238
0.10367082 0.099511914 0.29800001 4286473832
0.10463873 0.099511914 0.29800001 4286609525
0.10737855 0.10118157 0.303 4287004537
0.10836269 0.10118157 0.303 4282063385
0.10332294 0.10496788 0.29700002 4286151538
0.10428759 0.10496788 0.29700002 4285889136
0.10737855 0.10708845 0.303 4287003760
0.10836269 0.10708845 0.303 4286013783
0.10332294 0.10593287 0.29700002 4282921786
0.10428759 0.10593287 0.29700002 4281936174
0.10737855 0.10807292 0.303 4282133040
0.10836269 0.10807292 0.303 4282330672
0.10934684 0.10807292 0.303 4282592809
0.11033098 0.10807292 0.303 4283447088
0.11377084 0.084520534 0.30187917 4294967295
0.11377084 0.084520534 0.30187917 4294901760
0.11377084 0.084520534 0.30237916 4294901760
0.11377084 0.084520534 0.30287915 4294901760
0.11377084 0.084520534 0.30337918 4294901760
0.11377084 0.084520534 0.30387917 4294901760
0.11377084 0.084520534 0.30437917 4294901760
0.11377084 0.084520534 0.30487916 4294901760
0.11377084 0.084520534 0.30537918 4294901760
0.11377084 0.084520534 0.30587918 4294901760
0.11377084 0.084520534 0.30637917 4294901760
0.11377084 0.084520534 0.30687916 4294901760
0.11377084 0.084520534 0.30737916 4294901760
0.11377084 0.084520534 0.30787918 4294901760
0.11377084 0.084520534 0.30837917 4294901760
0.11377084 0.084520534 0.30887917 4294901760
0.11377084 0.084520534 0.30937916 4294901760
0.11377084 0.084520534 0.30987918 4294901760
0.11377084 0.084520534 0.31037918 4294901760
0.11377084 0.084520534 0.31087917 4294901760
0.11377084 0.084520534 0.31137916 4294901760
0.11377084 0.084520534 0.31187916 4294901760
0.11377084 0.084520534 0.31237918 4294901760
0.11377084 0.084520534 0.31287917 4294901760
0.11377084 0.084520534 0.31337917 4294901760
0.11377084 0.084520534 0.31387916 4294901760
0.11377084 0.084520534 0.31437916 4294901760
0.11377084 0.084520534 0.31487918 4294901760
0.11377084 0.084520534 0.31537917 4294901760
0.11377084 0.084520534 0.31587917 4294901760
0.11377084 0.084520534 0.31637916 4294901760
0.11377084 0.084520534 0.31687918 4294901760
0.11377084 0.084520534 0.31737918 4294901760
0.11377084 0.084520534 0.31787917 4294901760
0.11377084 0.084520534 0.31837916 4294901760
0.11377084 0.084520534 0.31887919 4294901760
0.11377084 0.084520534 0.31937918 4294901760
0.11377084 0.084520534 0.31987917 4294901760
0.11377084 0.084520534 0.32037917 4294901760
0.11377084 0.084520534 0.32087916 4294901760
0.11377084 0.084520534 0.32137918 4294901760
0.11377084 0.084520534 0.32187918 4294901760
0.11377084 0.084520534 0.32237917 4294901760
0.11377084 0.084520534 0.32287917 4294901760
0.11377084 0.084520534 0.32337916 4294901760
0.11377084 0.084520534 0.32387918 4294901760
0.11377084 0.084520534 0.32437918 4294901760
0.11377084 0.084520534 0.32487917 4294901760
0.11377084 0.084520534 0.32537916 4294901760
0.11377084 0.084520534 0.32587919 4294901760
0.11377084 0.084520534 0.32637918 4294901760
0.11377084 0.084520534 0.32687917 4294901760
0.11377084 0.084520534 0.32737917 4294901760
0.11377084 0.084520534 0.32787916 4294901760
0.11377084 0.084520534 0.32837918 4294901760
0.11377084 0.084520534 0.32887918 4294901760
0.11377084 0.084520534 0.32937917 4294901760
0.11377084 0.084520534 0.32987916 4294901760
0.11377084 0.084520534 0.33037919 4294901760
0.11377084 0.084520534 0.33087918 4294901760
0.11377084 0.084520534 0.33137918 4294901760
0.11377084 0.084520534 0.33187917 4294901760
0.11377084 0.084520534 0.33237916 4294901760
0.11377084 0.084520534 0.33287919 4294901760
0.11377084 0.084520534 0.33337918 4294901760
0.11377084 0.084520534 0.33387917 4294901760
0.11377084 0.084520534 0.33437917 4294901760
0.11377084 0.084520534 0.33487919 4294901760
0.11377084 0.084520534 0.33537918 4294901760
0.11377084 0.084520534 0.33587918 4294901760
0.11377084 0.084520534 0.33637917 4294901760
0.11377084 0.084520534 0.33687916 4294901760
0.11377084 0.084520534 0.33737919 4294901760
0.11377084 0.084520534 0.33787918 4294901760
0.11377084 0.084520534 0.33837917 4294901760
0.11377084 0.084520534 0.33887917 4294901760
0.11377084 0.084520534 0.33937919 4294901760
0.11377084 0.084520534 0.33987918 4294901760
