# .PCD v0.7 - Point Cloud Data file format
VERSION 0.7
FIELDS x y z rgb
SIZE 4 4 4 4
TYPE F F F U
COUNT 1 1 1 1
WIDTH 909
HEIGHT 1
VIEWPOINT 0 0 0 1 0 0 0
POINTS 909
DATA ascii
0.077634484 -0.076435283 0.42600003 4281686075
0.079018138 -0.076435283 0.42600003 4280173867
0.074691445 -0.074874982 0.42500001 4282016075
0.076071844 -0.074874982 0.42500001 4281360960
0.077452242 -0.074874982 0.42500001 4280178483
0.079018138 -0.075051166 0.42600003 4279915311
0.080401786 -0.075051166 0.42600003 4279650855
0.073138542 -0.073321193 0.42400002 4281426503
0.0745157 -0.073321193 0.42400002 4281033280
0.076071844 -0.073494121 0.42500001 4279654189
0.077452242 -0.073494121 0.42500001 4279785775
0.078832641 -0.073494121 0.42500001 4279588396
0.080213048 -0.073494121 0.42500001 4279849772
0.071592137 -0.071773894 0.42300001 4280900159
0.072966047 -0.071773894 0.42300001 4280705594
0.074339949 -0.071773894 0.42300001 4279917359
0.075892851 -0.071943574 0.42400002 4279654957
0.077270001 -0.071943574 0.42400002 4279457578
0.078832641 -0.072113246 0.42500001 4279654187
0.080213048 -0.072113246 0.42500001 4281359161
0.069886245 -0.070066668 0.42100003 4280768053
0.07142289 -0.070233099 0.42200002 4280375862
0.072793551 -0.070233099 0.42200002 4279785775
0.074339949 -0.070399523 0.42300001 4279654959
0.075713858 -0.070399523 0.42300001 4279523369
0.077270001 -0.070565954 0.42400002 4279654955
0.078647159 -0.070565954 0.42400002 4281425470
0.080213048 -0.070732385 0.42500001 4284777065
0.06699191 -0.068535611 0.42000002 4283331933
0.068356074 -0.068535611 0.42000002 4281162813
0.069886245 -0.068698794 0.42100003 4280246326
0.071253642 -0.068698794 0.42100003 4279786543
0.072793551 -0.068861976 0.42200002 4279523885
0.074164212 -0.068861976 0.42200002 4279523885
0.075713858 -0.069025151 0.42300001 4279194406
0.07708776 -0.069025151 0.42300001 4281363011
0.078647159 -0.069188334 0.42400002 4282015810
0.063957579 -0.066851124 0.41800001 4288397742
0.065315239 -0.066851124 0.41800001 4282279507
0.066832408 -0.067011058 0.41900003 4280638522
0.068193324 -0.067011058 0.41900003 4280312119
0.069720238 -0.067170985 0.42000002 4279458607
0.071253642 -0.067330919 0.42100003 4279196203
0.072621055 -0.067330919 0.42100003 4278998822
0.074164212 -0.067490846 0.42200002 4278997025
0.075534865 -0.067490846 0.42200002 4281230907
0.076905519 -0.067490846 0.42200002 4281427518
0.078461662 -0.06765078 0.42300001 4285171561
0.062300388 -0.065179639 0.41600001 4288528045
0.063804567 -0.065336324 0.41700003 4282148943
0.065158986 -0.065336324 0.41700003 4280902208
0.066672906 -0.065493003 0.41800001 4279655219
0.068030566 -0.065493003 0.41800001 4279524400
0.06955424 -0.065649688 0.41900003 4279327789
0.071084395 -0.065806367 0.42000002 4279393582
0.072621055 -0.065963052 0.42100003 4279391785
0.073988467 -0.065963052 0.42100003 4281494597
0.075534865 -0.06611973 0.42200002 4280505133
0.076905519 -0.06611973 0.42200002 4282148675
0.062000871 -0.063521147 0.41400003 4281161278
0.063498549 -0.063674577 0.41500002 4280573241
0.065002732 -0.063828006 0.41600001 4279983154
0.066353895 -0.063828006 0.41600001 4279327791
0.067867815 -0.063981444 0.41700003 4279064619
0.069388233 -0.064134873 0.41800001 4278999337
0.070915148 -0.064288311 0.41900003 4280708159
0.072448559 -0.064441741 0.42000002 4281033792
0.073988467 -0.064595178 0.42100003 4281558339
0.07535588 -0.064595178 0.42100003 4281886021
0.076905519 -0.064748608 0.42200002 4283266390
0.060363177 -0.061875656 0.41200003 4280571705
0.061851107 -0.062025838 0.41300002 4280112692
0.063345544 -0.062176023 0.41400003 4279851566
0.064690217 -0.062176023 0.41400003 4279655471
0.066194393 -0.062326204 0.41500002 4279064617
0.067542315 -0.062326204 0.41500002 4278998824
0.069056235 -0.062476385 0.41600001 4280640571
0.070915148 -0.062926941 0.41900003 4280836667
0.072448559 -0.063077122 0.42000002 4281623103
0.073988467 -0.063227311 0.42100003 4281293368
0.07535588 -0.063227311 0.42100003 4281884226
0.057266768 -0.060096215 0.40900001 4286292107
0.058738466 -0.060243152 0.41000003 4281227069
0.060216662 -0.060390085 0.41100001 4280114740
0.061551586 -0.060390085 0.41100001 4279852334
0.063039526 -0.060537022 0.41200003 4279458603
0.064377703 -0.060537022 0.41200003 4279327271
0.065875381 -0.060683955 0.41300002 4279261478
0.067379564 -0.060830891 0.41400003 4280905024
0.068724237 -0.060830891 0.41400003 4280574008
0.056986734 -0.058479965 0.40700001 4281557571
0.058451939 -0.058623653 0.40800002 4280244276
0.059923634 -0.058767337 0.40900001 4279458603
0.061252065 -0.058767337 0.40900001 4279328041
0.062733509 -0.058911026 0.41000003 4279328041
0.064221449 -0.059054706 0.41100001 4278867490
0.06555637 -0.059054706 0.41100001 4280574776
0.067054056 -0.059198394 0.41200003 4280507700
0.068558231 -0.059342079 0.41300002 4281558593
0.055391259 -0.056876708 0.40500003 4281490245
0.056846719 -0.057017144 0.40600002 4280377147
0.058165409 -0.057017144 0.40600002 4279326254
0.05963061 -0.057157576 0.40700001 4279394095
0.061102305 -0.057298016 0.40800002 4278999335
0.062427491 -0.057298016 0.40800002 4279458603
0.063908935 -0.057438452 0.40900001 4280838461
0.065237358 -0.057438452 0.40900001 4280770874
0.066728555 -0.057578888 0.41000003 4281558591
0.068226233 -0.057719324 0.41100001 4281425722
0.053808782 -0.055286452 0.40300003 4281032510
0.055254489 -0.055423636 0.40400001 4279521838
0.056566685 -0.055423636 0.40400001 4279262257
0.058022145 -0.055560827 0.40500003 4279131695
0.05933759 -0.055560827 0.40500003 4279000109
0.060802784 -0.055698011 0.40600002 4279591476
0.062274482 -0.055835195 0.40700001 4280574776
0.06359642 -0.055835195 0.40700001 4280376114
0.065077856 -0.055972386 0.40800002 4281427005
0.066403046 -0.055972386 0.40800002 4281096759
0.068060234 -0.056246761 0.41000003 4281884478
0.052239291 -0.053709183 0.40100002 4281097536
0.05367526 -0.053843118 0.40200001 4279917107
0.054980952 -0.053843118 0.40200001 4279392299
0.05642667 -0.053977061 0.40300003 4279197486
0.057878878 -0.054110996 0.40400001 4279000107
0.059191074 -0.054110996 0.40400001 4279590191
0.060653023 -0.054244936 0.40500003 4280641852
0.061968468 -0.054244936 0.40500003 4280375602
0.063440166 -0.054378871 0.40600002 4281228858
0.064758852 -0.054378871 0.40600002 4281030966
0.066240288 -0.05451281 0.40700001 4281358907
0.068060234 -0.054914627 0.41000003 4284644711
0.050682791 -0.052144911 0.39900002 4280310071
0.052109014 -0.052275598 0.40000001 4279851314
0.053541742 -0.052406289 0.40100002 4279458607
0.054980952 -0.052536976 0.40200001 4279196203
0.056286652 -0.052536976 0.40200001 4278868521
0.057735614 -0.05266767 0.40300003 4279591472
0.059044562 -0.05266767 0.40300003 4281233217
0.060503263 -0.052798357 0.40400001 4280310319
0.061968468 -0.052929047 0.40500003 4281688894
0.063283913 -0.052929047 0.40500003 4281819710
0.064758852 -0.053059734 0.40600002 4281095221
0.066077538 -0.053059734 0.40600002 4284120166
0.068060234 -0.053582493 0.41000003 4286157950
0.049263064 -0.050721087 0.39800003 4280769338
0.050682791 -0.050848521 0.39900002 4278931496
0.051978745 -0.050848521 0.39900002 4279327021
0.053408217 -0.05097596 0.40000001 4279525170
0.054844186 -0.051103402 0.40100002 4279130925
0.056286652 -0.05123084 0.40200001 4279919158
0.057592351 -0.05123084 0.40200001 4280904256
0.059044562 -0.051358283 0.40300003 4280045865
0.060353503 -0.051358283 0.40300003 4281689405
0.061815456 -0.051485721 0.40400001 4281292850
0.063283913 -0.051613163 0.40500003 4281819194
0.06459935 -0.051613163 0.40500003 4283659865
0.066077538 -0.051740602 0.40600002 4286158464
0.068060234 -0.052250363 0.41000003 4286157437
0.04784983 -0.049303748 0.39700001 4280770622
0.049139284 -0.049303748 0.39700001 4279983152
0.050555769 -0.049427941 0.39800003 4279196203
0.051978745 -0.049552131 0.39900002 4279328302
0.053274699 -0.049552131 0.39900002 4279130923
0.054707415 -0.049676321 0.40000001 4279721779
0.056146637 -0.049800515 0.40100002 4280837180
0.057592351 -0.049924701 0.40200001 4280638774
0.058898047 -0.049924701 0.40200001 4280965686
0.060353503 -0.050048895 0.40300003 4281688896
0.061815456 -0.050173085 0.40400001 4281950271
0.063127652 -0.050173085 0.40400001 4283462227
0.06459935 -0.050297279 0.40500003 4286026618
0.066077538 -0.050421465 0.40600002 4286026618
0.068060234 -0.050918233 0.41000003 4286223484
0.04504285 -0.047771972 0.39500001 4282017870
0.046325814 -0.047771972 0.39500001 4280309303
0.047729302 -0.047892917 0.39600003 4279590193
0.049139284 -0.048013855 0.39700001 4279130412
0.050428741 -0.048013855 0.39700001 4279000107
0.051848475 -0.0481348 0.39800003 4279000107
0.053274699 -0.048255742 0.39900002 4279787059
0.054707415 -0.048376679 0.40000001 4280574776
0.056146637 -0.048497625 0.40100002 4279584803
0.057449088 -0.048497625 0.40100002 4281622849
0.058898047 -0.048618563 0.40200001 4281621054
0.060353503 -0.048739508 0.40300003 4281423675
0.06166245 -0.048739508 0.40300003 4283395412
0.063127652 -0.048860449 0.40400001 4286289536
0.06459935 -0.048981391 0.40500003 4286157950
0.066077538 -0.049102332 0.40600002 4286223743
0.068060234 -0.049586099 0.41000003 4286157691
0.043538321 -0.046253193 0.39300001 4281950542
0.044928819 -0.046370886 0.39400002 4280376893
0.046325814 -0.046488576 0.39500001 4279457326
0.04760877 -0.046488576 0.39500001 4279130410
0.049015511 -0.046606272 0.39600003 4279130923
0.050428741 -0.046723962 0.39700001 4278736935
0.051848475 -0.046841659 0.39800003 4279590191
0.053274699 -0.046959348 0.39900002 4280837178
0.054570649 -0.046959348 0.39900002 4279846690
0.056006618 -0.047077041 0.40000001 4281291317
0.057449088 -0.047194734 0.40100002 4280567594
0.058898047 -0.047312424 0.40200001 4281751870
0.060353503 -0.04743012 0.40300003 4283067730
0.06166245 -0.04743012 0.40300003 4286289790
0.063127652 -0.04754781 0.40400001 4286223484
0.06459935 -0.047665507 0.40500003 4286223230
0.066077538 -0.047783196 0.40600002 4286157437
0.068060234 -0.048253968 0.41000003 4286157437
0.04215432 -0.044861849 0.39200002 4282016071
0.043427538 -0.044861849 0.39200002 4280638268
0.044814784 -0.04497629 0.39300001 4279260976
0.046208534 -0.045090739 0.39400002 4279130158
0.04760877 -0.04520518 0.39500001 4279131693
0.048891731 -0.04520518 0.39500001 4278671142
0.050301719 -0.045319624 0.39600003 4279983924
0.051718198 -0.045434065 0.39700001 4280706364
0.05314118 -0.045548514 0.39800003 4279648029
0.054570649 -0.045662954 0.39900002 4280962093
0.056006618 -0.045777395 0.40000001 4282541384
0.057449088 -0.04589184 0.40100002 4281357112
0.058898047 -0.046006285 0.40200001 4282541386
0.060203739 -0.046006285 0.40200001 4285698167
0.06166245 -0.046120729 0.40300003 4286092411
0.063127652 -0.04623517 0.40400001 4286289790
0.06459935 -0.046349615 0.40500003 4286355583
0.066077538 -0.04646406 0.40600002 4286157691
0.068060234 -0.046921834 0.41000003 4286223230
0.040672526 -0.043365814 0.39000002 4282015812
0.042046785 -0.04347701 0.39100003 4280178483
0.043427538 -0.043588202 0.39200002 4279523119
0.044700753 -0.043588202 0.39200002 4279064878
0.046091251 -0.043699395 0.39300001 4279131695
0.047488246 -0.043810591 0.39400002 4278408484
0.048891731 -0.043921784 0.39500001 4279984949
0.050301719 -0.04403298 0.39600003 4281297731
0.051718198 -0.044144172 0.39700001 4279452447
0.05314118 -0.044255368 0.39800003 4280830255
0.054570649 -0.044366561 0.39900002 4280501290
0.056006618 -0.044477757 0.40000001 4281817661
0.05730582 -0.044477757 0.40000001 4283199316
0.058751538 -0.044588953 0.40100002 4286487429
0.039304767 -0.04199072 0.38900003 4281884999
0.04056824 -0.04199072 0.38900003 4281031995
0.041939247 -0.042098664 0.39000002 4279523373
0.043316755 -0.042206611 0.39100003 4279525168
0.044700753 -0.042314555 0.39200002 4279394863
0.046091251 -0.0424225 0.39300001 4278868519
0.047367714 -0.0424225 0.39300001 4280510264
0.048767958 -0.042530444 0.39400002 4281692485
0.050174691 -0.042638388 0.39500001 4280042281
0.051587928 -0.042746335 0.39600003 4281554237
0.053007659 -0.042854279 0.39700001 4281290554
0.054433882 -0.042962227 0.39800003 4282408517
0.055866603 -0.043070171 0.39900002 4283460689
0.05730582 -0.043178115 0.40000001 4286092411
0.037943501 -0.040622123 0.38800001 4282345036
0.039203726 -0.040622123 0.38800001 4280310069
0.04056824 -0.040726818 0.38900003 4279654189
0.041939247 -0.040831514 0.39000002 4279064619
0.043205969 -0.040831514 0.39000002 4279000107
0.044586722 -0.040936213 0.39100003 4278999335
0.045973971 -0.041040905 0.39200002 4280511291
0.047367714 -0.0411456 0.39300001 4280574778
0.048767958 -0.0412503 0.39400002 4279451682
0.050174691 -0.041354995 0.39500001 4280633907
0.051587928 -0.041459691 0.39600003 4280830518
0.053007659 -0.041564386 0.39700001 4281882689
0.054433882 -0.041669086 0.39800003 4283725147
0.055866603 -0.041773781 0.39900002 4286289536
0.03014724 -0.039057128 0.38500002 4279590709
0.031397719 -0.039057128 0.38500002 4279260722
0.032733001 -0.039158575 0.38600001 4279654969
0.033986729 -0.039158575 0.38600001 4281494606
0.035240456 -0.039158575 0.38600001 4281427784
0.036588732 -0.039260022 0.38700002 4280244278
0.037845708 -0.039260022 0.38700002 4280048180
0.039203726 -0.039361469 0.38800001 4279589680
0.04056824 -0.039462917 0.38900003 4279261228
0.041831709 -0.039462917 0.38900003 4279328300
0.043205969 -0.039564364 0.39000002 4279591472
0.044586722 -0.039665814 0.39100003 4280707645
0.045973971 -0.039767258 0.39200002 4279983152
0.047367714 -0.039868705 0.39300001 4281227839
0.048767958 -0.039970152 0.39400002 4280106793
0.050174691 -0.040071599 0.39500001 4280435245
0.051587928 -0.040173046 0.39600003 4282146376
0.053007659 -0.040274493 0.39700001 4283462234
0.054297112 -0.040274493 0.39700001 4286092671
0.03014724 -0.037806224 0.38500002 4278999335
0.031397719 -0.037806224 0.38500002 4279131693
0.032733001 -0.037904423 0.38600001 4278539558
0.033986729 -0.037904423 0.38600001 4278866986
0.035240456 -0.037904423 0.38600001 4279459123
0.036588732 -0.038002621 0.38700002 4279524146
0.037845708 -0.038002621 0.38700002 4279327537
0.039203726 -0.038100816 0.38800001 4279196203
0.04056824 -0.038199019 0.38900003 4279854133
0.041831709 -0.038199019 0.38900003 4279393580
0.043205969 -0.038297214 0.39000002 4280182326
0.044586722 -0.038395412 0.39100003 4281166915
0.045973971 -0.038493611 0.39200002 4280835899
0.047367714 -0.038591806 0.39300001 4280568879
0.048644178 -0.038591806 0.39300001 4281159220
0.05004767 -0.038690008 0.39400002 4282343755
0.03014724 -0.03655532 0.38500002 4278669087
0.031397719 -0.03655532 0.38500002 4278539554
0.032733001 -0.03665027 0.38600001 4279131693
0.033986729 -0.03665027 0.38600001 4284196473
0.035240456 -0.03665027 0.38600001 4282090327
0.036588732 -0.03674522 0.38700002 4281432395
0.037943501 -0.036840167 0.38800001 4279460658
0.039203726 -0.036840167 0.38800001 4279461172
0.04056824 -0.036935117 0.38900003 4279000619
0.041939247 -0.037030064 0.39000002 4280181299
0.043205969 -0.037030064 0.39000002 4280837946
0.044586722 -0.037125014 0.39100003 4280637491
0.045973971 -0.037219964 0.39200002 4282280779
0.047367714 -0.03731491 0.39300001 4280172584
0.048644178 -0.03731491 0.39300001 4282278214
0.03014724 -0.035304416 0.38500002 4278535193
0.031397719 -0.035304416 0.38500002 4278733853
0.032733001 -0.035396114 0.38600001 4278734880
0.03407478 -0.035487816 0.38700002 4279130921
0.035331756 -0.035487816 0.38700002 4278934312
0.036683276 -0.035579514 0.38800001 4278737449
0.037943501 -0.035579514 0.38800001 4278868521
0.039304767 -0.035671216 0.38900003 4279459886
0.04056824 -0.035671216 0.38900003 4280116020
0.041939247 -0.035762914 0.39000002 4280640567
0.043316755 -0.035854615 0.39100003 4281231421
0.044700753 -0.035946317 0.39200002 4279912996
0.045973971 -0.035946317 0.39200002 4280438577
0.047367714 -0.036038015 0.39300001 4282015560
0.031086894 -0.035114922 0.39700001 4278664984
0.031479269 -0.034141961 0.38600001 4278205969
0.032817803 -0.034230415 0.38700002 4278996255
0.03407478 -0.034230415 0.38700002 4278867236
0.035423048 -0.034318864 0.38800001 4278735650
0.036683276 -0.034318864 0.38800001 4280512576
0.038041294 -0.034407318 0.38900003 4279590191
0.039405808 -0.034495767 0.39000002 4279787057
0.040672526 -0.034495767 0.39000002 4280510266
0.042046785 -0.034584217 0.39100003 4280837948
0.043427538 -0.034672666 0.39200002 4281363009
0.044700753 -0.034672666 0.39200002 4281162813
0.046091251 -0.034761116 0.39300001 4282214988
0.047367714 -0.034761116 0.39300001 4283856994
0.031086894 -0.033825029 0.39700001 4278599191
0.032987405 -0.033143416 0.38900003 4278929949
0.034162827 -0.033058211 0.38800001 4279391013
0.035514347 -0.033143416 0.38900003 4279391783
0.036872365 -0.033228617 0.39000002 4279984436
0.038139086 -0.033228617 0.39000002 4279194922
0.039506849 -0.033313818 0.39100003 4280378682
0.040776815 -0.033313818 0.39100003 4280640830
0.04215432 -0.033399019 0.39200002 4280837950
0.043538321 -0.033484221 0.39300001 4280310069
0.044814784 -0.033484221 0.39300001 4282016839
0.046091251 -0.033484221 0.39300001 4283858016
0.047488246 -0.033569422 0.39400002 4286157952
0.031968586 -0.032125372 0.39200002 4278731802
0.033072203 -0.031961467 0.39000002 4279193121
0.034250874 -0.031879514 0.38900003 4279325220
0.035696942 -0.03204342 0.39100003 4280838461
0.036966912 -0.03204342 0.39100003 4279852336
0.038334671 -0.032125372 0.39200002 4280247094
0.03960789 -0.032125372 0.39200002 4280641084
0.040881105 -0.032125372 0.39200002 4280837950
0.042261854 -0.032207321 0.39300001 4281166145
0.043538321 -0.032207321 0.39300001 4280507188
0.044928819 -0.032289278 0.39400002 4284186211
0.046208534 -0.032289278 0.39400002 4285764730
0.047488246 -0.032289278 0.39400002 4286092925
0.030773675 -0.030930424 0.39300001 4278928156
0.031968586 -0.030851722 0.39200002 4279191840
0.033157006 -0.030773019 0.39100003 4279390502
0.034338925 -0.030694313 0.39000002 4279193636
0.035788238 -0.030851722 0.39200002 4280377910
0.037155997 -0.030930424 0.39300001 4279983922
0.03843246 -0.030930424 0.39300001 4280247094
0.039809968 -0.031009128 0.39400002 4281101120
0.040985391 -0.030930424 0.39300001 4281231936
0.042369392 -0.031009128 0.39400002 4282019142
0.043649107 -0.031009128 0.39400002 4284253285
0.044928819 -0.031009128 0.39400002 4285896316
0.046208534 -0.031009128 0.39400002 4286092925
0.047488246 -0.031009128 0.39400002 4286092671
0.030851981 -0.029728983 0.39400002 4278467605
0.032050136 -0.029653527 0.39300001 4279258146
0.033326603 -0.029653527 0.39300001 4279389732
0.034779165 -0.029804435 0.39500001 4280114740
0.035970829 -0.029728983 0.39400002 4279918131
0.037250545 -0.029728983 0.39400002 4280773440
0.038628045 -0.029804435 0.39500001 4280247096
0.039911009 -0.029804435 0.39500001 4281034559
0.04108968 -0.029728983 0.39400002 4281625669
0.042369392 -0.029728983 0.39400002 4284450151
0.043649107 -0.029728983 0.39400002 4286225281
0.044928819 -0.029728983 0.39400002 4286225281
0.046208534 -0.029728983 0.39400002 4285962109
0.047488246 -0.029728983 0.39400002 4286224511
0.028364362 -0.02852104 0.39500001 4278795033
0.029647322 -0.02852104 0.39500001 4278862363
0.030851981 -0.028448837 0.39400002 4279059742
0.032131691 -0.028448837 0.39400002 4279192355
0.033411406 -0.028448837 0.39400002 4279522090
0.034779165 -0.02852104 0.39500001 4279917361
0.036062125 -0.02852104 0.39500001 4279852338
0.037439633 -0.028593246 0.39600003 4280115770
0.038725842 -0.028593246 0.39600003 4280641084
0.040113091 -0.028665451 0.39700001 4282149960
0.041506838 -0.028737657 0.39800003 4284384871
0.04279954 -0.028737657 0.39800003 4285765243
0.044092245 -0.028737657 0.39800003 4286291074
0.045384951 -0.028737657 0.39800003 4286092925
0.046677656 -0.028737657 0.39800003 4286092925
0.047970362 -0.028737657 0.39800003 4286487169
0.027081402 -0.027237644 0.39500001 4278991642
0.028364362 -0.027237644 0.39500001 4278730007
0.029647322 -0.027237644 0.39500001 4278599189
0.030930284 -0.027237644 0.39500001 4279125533
0.032213245 -0.027237644 0.39500001 4279193123
0.033496205 -0.027237644 0.39500001 4279523371
0.034867216 -0.027306603 0.39600003 4279787059
0.036153425 -0.027306603 0.39600003 4279984438
0.037534177 -0.027375558 0.39700001 4280510782
0.038921427 -0.027444515 0.39800003 4281101122
0.040214133 -0.027444515 0.39800003 4284253287
0.04171541 -0.027582426 0.40000001 4285765243
0.043014612 -0.027582426 0.40000001 4286224511
0.044313814 -0.027582426 0.40000001 4286289790
0.045613013 -0.027582426 0.40000001 4286487169
0.046912216 -0.027582426 0.40000001 4286487169
0.048211414 -0.027582426 0.40000001 4286552962
0.02087588 -0.026217079 0.39900002 4286487429
0.02579844 -0.02595425 0.39500001 4279582236
0.027081402 -0.02595425 0.39500001 4279189275
0.028364362 -0.02595425 0.39500001 4278927386
0.029647322 -0.02595425 0.39500001 4279059740
0.030930284 -0.02595425 0.39500001 4279322910
0.032213245 -0.02595425 0.39500001 4279127328
0.033496205 -0.02595425 0.39500001 4279589678
0.034867216 -0.026019959 0.39600003 4279787572
0.036244716 -0.026085664 0.39700001 4279787572
0.037628721 -0.026151372 0.39800003 4280771133
0.038921427 -0.026151372 0.39800003 4284057705
0.040315174 -0.026217079 0.39900002 4286027648
0.04171541 -0.026282785 0.40000001 4286027648
0.043014612 -0.026282785 0.40000001 4286289790
0.044313814 -0.026282785 0.40000001 4286289790
0.045613013 -0.026282785 0.40000001 4286684294
0.046912216 -0.026282785 0.40000001 4286486915
0.048211414 -0.026282785 0.40000001 4286355583
0.0209282 -0.024983143 0.40000001 4286356097
0.02579844 -0.024670856 0.39500001 4279513875
0.027081402 -0.024670856 0.39500001 4279254555
0.028364362 -0.024670856 0.39500001 4279190043
0.029647322 -0.024670856 0.39500001 4279257119
0.030930284 -0.024670856 0.39500001 4279586596
0.032213245 -0.024670856 0.39500001 4279456293
0.033581007 -0.024733314 0.39600003 4280247092
0.034955263 -0.024795771 0.39700001 4279392301
0.036244716 -0.024795771 0.39700001 4279982641
0.037628721 -0.024858231 0.39800003 4284910704
0.03901922 -0.024920687 0.39900002 4285764989
0.040315174 -0.024920687 0.39900002 4286158718
0.04171541 -0.024983143 0.40000001 4286750341
0.043014612 -0.024983143 0.40000001 4286552449
0.044313814 -0.024983143 0.40000001 4286684035
0.045613013 -0.024983143 0.40000001 4286354816
0.046912216 -0.024983143 0.40000001 4286552195
0.048211414 -0.024983143 0.40000001 4286354816
0.0209282 -0.023683503 0.40000001 4286421636
0.02579844 -0.02338746 0.39500001 4286816386
0.027081402 -0.02338746 0.39500001 4286158202
0.028364362 -0.02338746 0.39500001 4281486899
0.029647322 -0.02338746 0.39500001 4279516703
0.030930284 -0.02338746 0.39500001 4279781412
0.032294799 -0.02344667 0.39600003 4280177451
0.033581007 -0.02344667 0.39600003 4280046635
0.034955263 -0.023505878 0.39700001 4283266129
0.036336016 -0.023565087 0.39800003 4286356349
0.037628721 -0.023565087 0.39800003 4286289790
0.03901922 -0.023624295 0.39900002 4286552960
0.040315174 -0.023624295 0.39900002 4286552447
0.04171541 -0.023683503 0.40000001 4286420861
0.043014612 -0.023683503 0.40000001 4286355070
0.044313814 -0.023683503 0.40000001 4286552449
0.045613013 -0.023683503 0.40000001 4286355070
0.046912216 -0.023683503 0.40000001 4286552449
0.048211414 -0.023683503 0.40000001 4286289790
0.027081402 -0.022104066 0.39500001 4286487421
0.028364362 -0.022104066 0.39500001 4286224249
0.029647322 -0.022104066 0.39500001 4286684800
0.030930284 -0.022104066 0.39500001 4286487935
0.032294799 -0.022160025 0.39600003 4286619521
0.033581007 -0.022160025 0.39600003 4286356349
0.034955263 -0.022215985 0.39700001 4286158970
0.036336016 -0.022271946 0.39800003 4286355835
0.037628721 -0.022271946 0.39800003 4286355581
0.03901922 -0.022327904 0.39900002 4286487167
0.040416211 -0.022383863 0.40000001 4286487167
0.04171541 -0.022383863 0.40000001 4286487167
0.050416604 -0.043857645 0.400879 4294967295
0.050416604 -0.043857645 0.400879 4294901760
0.050761018 -0.043496445 0.40090925 4294901760
0.051105432 -0.043135248 0.40093946 4294901760
0.051449846 -0.042774048 0.40096971 4294901760
0.051794261 -0.042412851 0.40099993 4294901760
0.052138675 -0.042051651 0.40103018 4294901760
0.052483089 -0.041690454 0.4010604 4294901760
0.052827507 -0.041329253 0.40109065 4294901760
0.053171922 -0.040968057 0.40112087 4294901760
0.053516336 -0.040606856 0.40115112 4294901760
0.05386075 -0.04024566 0.40118134 4294901760
0.054205164 -0.039884459 0.40121159 4294901760
0.054549579 -0.039523263 0.40124181 4294901760
0.054893993 -0.039162062 0.40127206 4294901760
0.055238407 -0.038800865 0.40130228 4294901760
0.055582821 -0.038439665 0.40133253 4294901760
0.055927236 -0.038078465 0.40136275 4294901760
0.05627165 -0.037717268 0.401393 4294901760
0.056616068 -0.037356067 0.40142322 4294901760
0.056960478 -0.036994871 0.40145347 4294901760
0.057304896 -0.03663367 0.40148368 4294901760
0.057649311 -0.036272474 0.40151393 4294901760
0.057993725 -0.035911273 0.40154415 4294901760
0.058338139 -0.035550077 0.4015744 4294901760
0.058682553 -0.035188876 0.40160462 4294901760
0.059026968 -0.034827679 0.40163487 4294901760
0.059371382 -0.034466479 0.40166512 4294901760
0.059715796 -0.034105279 0.40169534 4294901760
0.060060211 -0.033744082 0.40172559 4294901760
0.060404625 -0.033382885 0.40175581 4294901760
0.060749039 -0.033021685 0.40178606 4294901760
0.061093457 -0.032660484 0.40181628 4294901760
0.061437868 -0.032299288 0.40184653 4294901760
0.061782286 -0.031938091 0.40187675 4294901760
0.0621267 -0.03157689 0.401907 4294901760
0.062471114 -0.031215692 0.40193722 4294901760
0.062815532 -0.030854493 0.40196747 4294901760
0.063159943 -0.030493293 0.40199769 4294901760
0.063504353 -0.030132096 0.40202793 4294901760
0.063848771 -0.029770898 0.40205815 4294901760
0.064193189 -0.029409699 0.4020884 4294901760
0.0645376 -0.029048499 0.40211862 4294901760
0.064882018 -0.028687302 0.40214887 4294901760
0.065226428 -0.028326102 0.40217909 4294901760
0.065570846 -0.027964903 0.40220934 4294901760
0.065915257 -0.027603706 0.40223956 4294901760
0.066259675 -0.027242506 0.40226981 4294901760
0.066604085 -0.026881307 0.40230003 4294901760
0.066948503 -0.026520109 0.40233028 4294901760
0.067292914 -0.02615891 0.4023605 4294901760
0.067637332 -0.025797712 0.40239075 4294901760
0.06798175 -0.025436513 0.402421 4294901760
0.06832616 -0.025075315 0.40245122 4294901760
0.068670571 -0.024714116 0.40248147 4294901760
0.069014989 -0.024352916 0.40251169 4294901760
0.069359407 -0.023991717 0.40254194 4294901760
0.069703817 -0.02363052 0.40257215 4294901760
0.070048235 -0.023269322 0.4026024 4294901760
0.070392646 -0.022908123 0.40263262 4294901760
0.070737064 -0.022546925 0.40266287 4294901760
0.071081474 -0.022185724 0.40269309 4294901760
0.071425892 -0.021824526 0.40272334 4294901760
0.07177031 -0.021463327 0.40275356 4294901760
0.072114721 -0.021102129 0.40278381 4294901760
0.072459131 -0.02074093 0.40281403 4294901760
0.072803549 -0.020379733 0.40284428 4294901760
0.073147967 -0.020018533 0.4028745 4294901760
0.073492378 -0.019657334 0.40290475 4294901760
0.073836796 -0.019296136 0.40293497 4294901760
0.074181207 -0.018934937 0.40296522 4294901760
0.074525625 -0.018573739 0.40299544 4294901760
0.074870035 -0.01821254 0.40302569 4294901760
0.075214453 -0.01785134 0.40305591 4294901760
0.075558871 -0.017490141 0.40308616 4294901760
0.075903282 -0.017128943 0.40311638 4294901760
0.076247692 -0.016767744 0.40314662 4294901760
0.07659211 -0.016406547 0.40317687 4294901760
0.076936528 -0.016045349 0.40320709 4294901760
0.077280939 -0.01568415 0.40323734 4294901760
0.077625357 -0.01532295 0.40326756 4294901760
0.077969767 -0.014961751 0.40329781 4294901760
0.078314185 -0.014600553 0.40332803 4294901760
0.078658596 -0.014239354 0.40335828 4294901760
0.079003014 -0.013878155 0.4033885 4294901760
0.079347424 -0.013516957 0.40341875 4294901760
0.079691842 -0.013155757 0.40344897 4294901760
0.080036253 -0.01279456 0.40347922 4294901760
0.080380671 -0.012433361 0.40350944 4294901760
0.080725089 -0.012072161 0.40353969 4294901760
0.081069499 -0.011710964 0.40356991 4294901760
0.08141391 -0.011349767 0.40360016 4294901760
0.081758335 -0.010988567 0.40363038 4294901760
0.082102746 -0.010627367 0.40366063 4294901760
0.082447156 -0.01026617 0.40369084 4294901760
0.082791567 -0.0099049695 0.40372109 4294901760
0.083135985 -0.0095437728 0.40375131 4294901760
0.083480403 -0.0091825724 0.40378156 4294901760
0.083824813 -0.0088213719 0.40381178 4294901760
0.084169231 -0.0084601752 0.40384203 4294901760
0.084513649 -0.0080989748 0.40387225 4294901760
0.08485806 -0.0077377781 0.4039025 4294901760
0.050416604 -0.043857645 0.400879 4278255360
0.050101612 -0.043538745 0.40065745 4278255360
0.04978662 -0.043219846 0.40043589 4278255360
0.049471628 -0.042900946 0.40021434 4278255360
0.04915664 -0.042582046 0.39999279 4278255360
0.048841648 -0.042263146 0.39977124 4278255360
0.048526656 -0.041944247 0.39954972 4278255360
0.048211664 -0.041625347 0.39932817 4278255360
0.047896672 -0.041306447 0.39910662 4278255360
0.04758168 -0.040987547 0.39888507 4278255360
0.047266688 -0.040668648 0.39866352 4278255360
0.046951696 -0.040349748 0.39844197 4278255360
0.046636708 -0.040030848 0.39822042 4278255360
0.046321716 -0.039711948 0.39799887 4278255360
0.046006724 -0.039393049 0.39777732 4278255360
0.045691732 -0.039074149 0.39755577 4278255360
0.04537674 -0.038755249 0.39733422 4278255360
0.045061748 -0.038436349 0.3971127 4278255360
0.044746757 -0.03811745 0.39689115 4278255360
0.044431768 -0.03779855 0.3966696 4278255360
0.044116776 -0.03747965 0.39644805 4278255360
0.043801785 -0.03716075 0.3962265 4278255360
0.043486793 -0.036841851 0.39600495 4278255360
0.043171801 -0.036522951 0.39578339 4278255360
0.042856809 -0.036204051 0.39556184 4278255360
0.042541817 -0.035885151 0.39534029 4278255360
0.042226829 -0.035566252 0.39511874 4278255360
0.041911833 -0.035247352 0.39489719 4278255360
0.041596845 -0.034928452 0.39467567 4278255360
0.041281853 -0.034609552 0.39445412 4278255360
0.040966861 -0.034290653 0.39423257 4278255360
0.040651869 -0.033971753 0.39401102 4278255360
0.040336877 -0.033652857 0.39378947 4278255360
0.040021885 -0.033333953 0.39356792 4278255360
0.039706893 -0.033015054 0.39334637 4278255360
0.039391905 -0.032696158 0.39312482 4278255360
0.039076909 -0.032377254 0.39290327 4278255360
0.038761921 -0.032058354 0.39268172 4278255360
0.038446929 -0.031739458 0.39246017 4278255360
0.038131937 -0.031420559 0.39223865 4278255360
0.037816945 -0.031101655 0.3920171 4278255360
0.037501954 -0.030782757 0.39179555 4278255360
0.037186965 -0.030463858 0.391574 4278255360
0.03687197 -0.030144956 0.39135244 4278255360
0.036556982 -0.029826058 0.39113089 4278255360
0.03624199 -0.029507158 0.39090934 4278255360
0.035926998 -0.029188259 0.39068779 4278255360
0.035612006 -0.028869359 0.39046624 4278255360
0.035297014 -0.028550459 0.39024469 4278255360
0.034982022 -0.028231559 0.39002314 4278255360
0.03466703 -0.02791266 0.38980162 4278255360
0.034352042 -0.02759376 0.38958007 4278255360
0.03403705 -0.02727486 0.38935852 4278255360
0.033722058 -0.026955962 0.38913697 4278255360
0.033407066 -0.026637061 0.38891542 4278255360
0.033092074 -0.026318161 0.38869387 4278255360
0.032777086 -0.025999261 0.38847232 4278255360
0.03246209 -0.025680361 0.38825077 4278255360
0.032147102 -0.025361462 0.38802922 4278255360
0.03183211 -0.025042564 0.38780767 4278255360
0.031517118 -0.024723662 0.38758612 4278255360
0.031202126 -0.024404762 0.38736457 4278255360
0.030887134 -0.024085863 0.38714305 4278255360
0.030572142 -0.023766963 0.3869215 4278255360
0.030257152 -0.023448065 0.38669994 4278255360
0.02994216 -0.023129165 0.38647839 4278255360
0.029627169 -0.022810264 0.38625684 4278255360
0.029312177 -0.022491364 0.38603529 4278255360
0.028997187 -0.022172464 0.38581374 4278255360
0.028682195 -0.021853564 0.38559219 4278255360
0.028367203 -0.021534666 0.38537064 4278255360
0.028052213 -0.021215767 0.38514909 4278255360
0.027737219 -0.020896865 0.38492754 4278255360
0.027422229 -0.020577965 0.38470602 4278255360
0.027107237 -0.020259066 0.38448447 4278255360
0.026792247 -0.019940168 0.38426292 4278255360
0.026477255 -0.019621268 0.38404137 4278255360
0.026162263 -0.019302368 0.38381982 4278255360
0.025847273 -0.018983468 0.38359827 4278255360
0.025532279 -0.018664567 0.38337672 4278255360
0.025217289 -0.018345667 0.38315517 4278255360
0.024902297 -0.018026769 0.38293362 4278255360
0.024587305 -0.017707869 0.38271207 4278255360
0.024272315 -0.01738897 0.38249052 4278255360
0.023957323 -0.01707007 0.382269 4278255360
0.023642331 -0.016751168 0.38204744 4278255360
0.023327339 -0.016432269 0.38182589 4278255360
0.023012349 -0.016113371 0.38160434 4278255360
0.022697357 -0.015794471 0.38138279 4278255360
0.022382366 -0.015475571 0.38116124 4278255360
0.022067375 -0.015156671 0.38093969 4278255360
0.021752382 -0.01483777 0.38071814 4278255360
0.021437392 -0.014518872 0.38049659 4278255360
0.0211224 -0.014199972 0.38027504 4278255360
0.020807408 -0.013881072 0.38005349 4278255360
0.020492418 -0.013562173 0.37983197 4278255360
0.020177426 -0.013243273 0.37961042 4278255360
0.019862434 -0.012924371 0.37938887 4278255360
0.019547442 -0.012605473 0.37916732 4278255360
0.019232452 -0.012286574 0.37894577 4278255360
0.01891746 -0.011967674 0.37872422 4278255360
0.050416604 -0.043857645 0.400879 4278190335
0.050189085 -0.043674678 0.4012849 4278190335
0.049961567 -0.043491706 0.40169081 4278190335
0.049734049 -0.043308739 0.40209672 4278190335
0.04950653 -0.043125767 0.4025026 4278190335
0.049279012 -0.0429428 0.4029085 4278190335
0.04905149 -0.042759832 0.40331441 4278190335
0.048823971 -0.042576861 0.40372032 4278190335
0.048596453 -0.042393893 0.40412623 4278190335
0.048368935 -0.042210922 0.40453213 4278190335
0.048141416 -0.042027954 0.40493804 4278190335
0.047913898 -0.041844983 0.40534392 4278190335
0.047686379 -0.041662015 0.40574983 4278190335
0.047458861 -0.041479047 0.40615574 4278190335
0.047231343 -0.041296076 0.40656164 4278190335
0.047003824 -0.041113108 0.40696755 4278190335
0.046776302 -0.040930137 0.40737346 4278190335
0.046548784 -0.040747169 0.40777937 4278190335
0.046321265 -0.040564202 0.40818524 4278190335
0.046093747 -0.04038123 0.40859115 4278190335
0.045866229 -0.040198263 0.40899706 4278190335
0.04563871 -0.040015291 0.40940297 4278190335
0.045411192 -0.039832324 0.40980887 4278190335
0.045183674 -0.039649352 0.41021478 4278190335
0.044956155 -0.039466385 0.41062069 4278190335
0.044728637 -0.039283417 0.4110266 4278190335
0.044501118 -0.039100446 0.41143247 4278190335
0.044273596 -0.038917478 0.41183838 4278190335
0.044046078 -0.038734507 0.41224429 4278190335
0.043818559 -0.038551539 0.4126502 4278190335
0.043591041 -0.038368568 0.41305611 4278190335
0.043363523 -0.0381856 0.41346201 4278190335
0.043136004 -0.038002633 0.41386789 4278190335
0.042908486 -0.037819661 0.4142738 4278190335
0.042680968 -0.037636694 0.41467971 4278190335
0.042453449 -0.037453726 0.41508561 4278190335
0.042225927 -0.037270755 0.41549152 4278190335
0.041998409 -0.037087787 0.41589743 4278190335
0.04177089 -0.036904816 0.41630334 4278190335
0.041543372 -0.036721848 0.41670924 4278190335
0.041315854 -0.036538877 0.41711512 4278190335
0.041088335 -0.036355909 0.41752103 4278190335
0.040860817 -0.036172941 0.41792694 4278190335
0.040633298 -0.03598997 0.41833284 4278190335
0.04040578 -0.035807002 0.41873875 4278190335
0.040178262 -0.035624035 0.41914466 4278190335
0.039950743 -0.035441063 0.41955057 4278190335
0.039723225 -0.035258092 0.41995645 4278190335
0.039495707 -0.035075124 0.42036235 4278190335
0.039268184 -0.034892157 0.42076826 4278190335
0.039040666 -0.034709185 0.42117417 4278190335
0.038813148 -0.034526218 0.42158008 4278190335
0.038585629 -0.03434325 0.42198598 4278190335
0.038358111 -0.034160279 0.42239189 4278190335
0.038130593 -0.033977307 0.4227978 4278190335
0.037903074 -0.03379434 0.42320368 4278190335
0.037675556 -0.033611372 0.42360958 4278190335
0.037448037 -0.033428401 0.42401549 4278190335
0.037220515 -0.033245433 0.4244214 4278190335
0.036992997 -0.033062465 0.42482731 4278190335
0.036765479 -0.032879494 0.42523322 4278190335
0.03653796 -0.032696523 0.42563909 4278190335
0.036310442 -0.032513555 0.426045 4278190335
0.036082923 -0.032330588 0.42645091 4278190335
0.035855405 -0.032147616 0.42685682 4278190335
0.035627887 -0.031964649 0.42726272 4278190335
0.035400368 -0.031781681 0.42766863 4278190335
0.03517285 -0.03159871 0.42807454 4278190335
0.034945332 -0.031415742 0.42848045 4278190335
0.034717813 -0.031232772 0.42888632 4278190335
0.034490295 -0.031049803 0.42929223 4278190335
0.034262776 -0.030866835 0.42969814 4278190335
0.034035254 -0.030683864 0.43010405 4278190335
0.033807736 -0.030500894 0.43050995 4278190335
0.033580218 -0.030317925 0.43091586 4278190335
0.033352699 -0.030134957 0.43132174 4278190335
0.033125181 -0.029951988 0.43172765 4278190335
0.032897662 -0.029769018 0.43213356 4278190335
0.032670144 -0.029586051 0.43253946 4278190335
0.032442622 -0.029403079 0.43294537 4278190335
0.032215104 -0.029220112 0.43335128 4278190335
0.031987585 -0.02903714 0.43375719 4278190335
0.031760067 -0.028854173 0.43416309 4278190335
0.031532548 -0.028671205 0.43456897 4278190335
0.03130503 -0.028488234 0.43497488 4278190335
0.031077512 -0.028305264 0.43538079 4278190335
0.030849991 -0.028122295 0.43578669 4278190335
0.030622473 -0.027939327 0.4361926 4278190335
0.030394955 -0.027756358 0.43659851 4278190335
0.030167436 -0.027573388 0.43700439 4278190335
0.029939918 -0.02739042 0.4374103 4278190335
0.029712398 -0.027207449 0.4378162 4278190335
0.029484879 -0.02702448 0.43822211 4278190335
0.029257361 -0.026841512 0.43862802 4278190335
0.029029842 -0.026658542 0.43903393 4278190335
0.028802324 -0.026475573 0.43943983 4278190335
0.028574806 -0.026292605 0.43984574 4278190335
0.028347285 -0.026109634 0.44025165 4278190335
0.028119767 -0.025926664 0.44065753 4278190335
0.027892249 -0.025743697 0.44106343 4278190335
0.02766473 -0.025560727 0.44146934 4278190335
0.050416604 -0.043857645 0.400879 4294967295
0.051781718 -0.044955458 0.39844358 4294967295
0.053146828 -0.046053275 0.39600816 4294967295
0.054511942 -0.047151089 0.39357275 4294967295
0.055877052 -0.048248906 0.3911373 4294967295
0.057242166 -0.049346719 0.38870189 4294967295
0.058607277 -0.050444536 0.38626647 4294967295
0.059972391 -0.051542349 0.38383105 4294967295
0.061337501 -0.052640166 0.38139564 4294967295
0.062702619 -0.053737983 0.37896022 4294967295
0.064067729 -0.054835796 0.37652481 4294967295
0.065432839 -0.05593361 0.37408936 4294967295
0.066797949 -0.057031427 0.37165394 4294967295
0.068163067 -0.05812924 0.36921853 4294967295
0.069528177 -0.059227057 0.36678311 4294967295
0.070893288 -0.06032487 0.3643477 4294967295
0.072258398 -0.061422683 0.36191228 4294967295
0.073623516 -0.062520504 0.35947686 4294967295
0.074988626 -0.063618317 0.35704142 4294967295
0.076353736 -0.06471613 0.354606 4294967295
0.077718854 -0.065813944 0.35217059 4294967295
0.079083964 -0.066911757 0.34973517 4294967295
0.080449075 -0.068009578 0.34729975 4294967295
0.081814185 -0.069107391 0.34486434 4294967295
0.083179295 -0.070205204 0.34242892 4294967295
0.084544413 -0.071303025 0.33999348 4294967295
0.085909523 -0.072400838 0.33755809 4294967295
0.087274641 -0.073498651 0.33512264 4294967295
0.088639751 -0.074596465 0.33268723 4294967295
0.090004861 -0.075694278 0.33025181 4294967295
0.091369972 -0.076792099 0.3278164 4294967295
0.092735082 -0.077889912 0.32538098 4294967295
0.0941002 -0.078987725 0.32294554 4294967295
0.095465317 -0.080085546 0.32051012 4294967295
0.096830428 -0.081183359 0.3180747 4294967295
0.098195538 -0.082281172 0.31563929 4294967295
0.099560648 -0.083378986 0.31320387 4294967295
0.10092576 -0.084476799 0.31076846 4294967295
0.10229087 -0.085574612 0.30833304 4294967295
0.10365598 -0.086672425 0.30589762 4294967295
0.1050211 -0.087770246 0.30346218 4294967295
0.10638621 -0.088868067 0.30102676 4294967295
0.10775132 -0.08996588 0.29859135 4294967295
0.10911644 -0.091063693 0.29615593 4294967295
0.11048155 -0.092161506 0.29372051 4294967295
0.11184666 -0.09325932 0.2912851 4294967295
0.11321177 -0.094357133 0.28884965 4294967295
0.11457688 -0.095454954 0.28641427 4294967295
0.11594199 -0.096552767 0.28397882 4294967295
0.11730711 -0.097650588 0.2815434 4294967295
0.11867222 -0.098748401 0.27910799 4294967295
0.12003733 -0.099846214 0.27667257 4294967295
0.12140244 -0.10094403 0.27423716 4294967295
0.12276755 -0.10204184 0.27180174 4294967295
0.12413268 -0.10313966 0.26936632 4294967295
0.12549779 -0.10423747 0.26693088 4294967295
0.1268629 -0.10533529 0.26449546 4294967295
0.12822801 -0.10643311 0.26206005 4294967295
0.12959312 -0.10753092 0.25962463 4294967295
0.13095823 -0.10862873 0.25718921 4294967295
0.13232335 -0.10972655 0.25475377 4294967295
0.13368845 -0.11082436 0.25231838 4294967295
0.13505358 -0.11192217 0.24988295 4294967295
0.13641869 -0.11301999 0.24744752 4294967295
0.1377838 -0.1141178 0.2450121 4294967295
0.13914891 -0.11521561 0.24257669 4294967295
0.14051402 -0.11631344 0.24014126 4294967295
0.14187914 -0.11741126 0.23770584 4294967295
0.14324424 -0.11850907 0.23527043 4294967295
0.14460936 -0.11960688 0.23283501 4294967295
0.14597446 -0.1207047 0.23039959 4294967295
0.14733958 -0.12180251 0.22796416 4294967295
0.14870471 -0.12290034 0.22552873 4294967295
0.1500698 -0.12399815 0.22309332 4294967295
0.15143493 -0.12509596 0.2206579 4294967295
0.15280002 -0.12619378 0.21822248 4294967295
0.15416515 -0.12729159 0.21578707 4294967295
0.15553024 -0.1283894 0.21335165 4294967295
0.15689537 -0.12948722 0.21091624 4294967295
0.15826049 -0.13058503 0.20848081 4294967295
0.15962559 -0.13168284 0.20604537 4294967295
0.16099072 -0.13278066 0.20360996 4294967295
0.16235581 -0.13387848 0.20117454 4294967295
0.16372094 -0.1349763 0.19873913 4294967295
0.16508603 -0.13607411 0.19630371 4294967295
0.16645116 -0.13717192 0.19386828 4294967295
0.16781627 -0.13826974 0.19143286 4294967295
0.16918138 -0.13936755 0.18899745 4294967295
0.1705465 -0.14046536 0.18656202 4294967295
0.1719116 -0.14156318 0.1841266 4294967295
0.17327672 -0.14266099 0.18169118 4294967295
0.17464183 -0.14375882 0.17925575 4294967295
0.17600694 -0.14485663 0.17682034 4294967295
0.17737205 -0.14595445 0.17438492 4294967295
0.17873716 -0.14705226 0.17194951 4294967295
0.18010227 -0.14815007 0.16951409 4294967295
0.18146738 -0.14924788 0.16707866 4294967295
0.18283251 -0.15034571 0.16464323 4294967295
0.18419762 -0.15144353 0.16220781 4294967295
0.18556273 -0.15254134 0.1597724 4294967295
0.18692784 -0.15363915 0.15733698 4294967295
