# .PCD v0.7 - Point Cloud Data file format
VERSION 0.7
FIELDS x y z rgb
SIZE 4 4 4 4
TYPE F F F U
COUNT 1 1 1 1
WIDTH 1042
HEIGHT 1
VIEWPOINT 0 0 0 1 0 0 0
POINTS 1042
DATA ascii
-0.0010394942 0.035899013 0.35900003 4278924566
0.00012653845 0.035899013 0.35900003 4278859797
0.0012925711 0.035899013 0.35900003 4278663699
0.0024517551 0.035799015 0.35800001 4278597906
0.0036145397 0.035799015 0.35800001 4278597906
0.0047773244 0.035799015 0.35800001 4278597906
0.0059401086 0.035799015 0.35800001 4278532113
0.0071028937 0.035799015 0.35800001 4278597906
0.0082656788 0.035799015 0.35800001 4278532113
0.0094284629 0.035799015 0.35800001 4278597906
0.010591248 0.035799015 0.35800001 4278532626
0.011754032 0.035799015 0.35800001 4278663699
0.012916816 0.035799015 0.35800001 4278729492
0.014079601 0.035799015 0.35800001 4278663699
0.015242386 0.035799015 0.35800001 4278925590
0.016405171 0.035799015 0.35800001 4278199045
0.017567955 0.035799015 0.35800001 4278923793
0.018730739 0.035799015 0.35800001 4278859797
0.019893523 0.035799015 0.35800001 4278924820
0.021056309 0.035799015 0.35800001 4278197504
0.022219094 0.035799015 0.35800001 4278195969
0.023381878 0.035799015 0.35800001 4278262792
0.024613226 0.035899013 0.35900003 4278196228
0.025779257 0.035899013 0.35900003 4278195970
0.026945289 0.035899013 0.35900003 4278197764
0.028189626 0.035999011 0.36000001 4278395914
0.029358907 0.035999011 0.36000001 4278462990
0.03061299 0.036099009 0.36100003 4278792468
0.031785518 0.036099009 0.36100003 4278727189
0.033049341 0.036199003 0.36200002 4278596373
0.034225117 0.036199003 0.36200002 4278860056
0.035400894 0.036199003 0.36200002 4278532115
0.036576673 0.036199003 0.36200002 4278400529
0.037856735 0.036299001 0.36300001 4278532115
0.03903576 0.036299001 0.36300001 4278400529
0.040214784 0.036299001 0.36300001 4278400529
0.041393809 0.036299001 0.36300001 4278466835
0.042572834 0.036299001 0.36300001 4278466835
0.043751858 0.036299001 0.36300001 4278466835
0.044930883 0.036299001 0.36300001 4278664214
0.05200503 0.036299001 0.36300001 4278599191
0.053330574 0.036398999 0.36400002 4278599191
0.05451284 0.036398999 0.36400002 4278599189
0.057033643 0.036498994 0.36500001 4278664982
0.058219161 0.036498994 0.36500001 4278796568
-0.018942907 0.03789141 0.36700001 4280233504
-0.01779926 0.037994657 0.36800003 4280298530
-0.016649114 0.038097903 0.36900002 4280430118
-0.015450601 0.038097903 0.36900002 4280627497
-0.014252089 0.038097903 0.36900002 4281088559
-0.013053576 0.038097903 0.36900002 4281220145
-0.011855063 0.038097903 0.36900002 4279837979
-0.010627672 0.037994657 0.36800003 4279771416
-0.0094067743 0.03789141 0.36700001 4279903002
-0.0081923753 0.037788164 0.36600003 4279903002
-0.0069844704 0.037684917 0.36500001 4279771416
-0.005783062 0.037581671 0.36400002 4279509266
-0.004575511 0.037375178 0.36200002 4279576084
-0.0033903427 0.037271935 0.36100003 4278856978
-0.0022116704 0.037168685 0.36000001 4279121433
-0.0010394942 0.037065443 0.35900003 4278859797
0.00012653845 0.037065443 0.35900003 4278662931
0.0012925711 0.037065443 0.35900003 4278729494
0.0024517551 0.036962193 0.35800001 4278400529
0.0036145397 0.036962193 0.35800001 4278532115
0.0047773244 0.036962193 0.35800001 4278532115
0.0059401086 0.036962193 0.35800001 4278532115
0.0071028937 0.036962193 0.35800001 4278663701
0.0082656788 0.036962193 0.35800001 4278532115
0.0094284629 0.036962193 0.35800001 4278597908
0.010591248 0.036962193 0.35800001 4278663701
0.011754032 0.036962193 0.35800001 4278597908
0.012916816 0.036962193 0.35800001 4278532115
0.014079601 0.036962193 0.35800001 4278597908
0.015242386 0.036962193 0.35800001 4278726675
0.016405171 0.036962193 0.35800001 4278262281
0.017567955 0.036962193 0.35800001 4278330634
0.018730739 0.036962193 0.35800001 4278924566
0.019893523 0.036962193 0.35800001 4278328583
0.021056309 0.036962193 0.35800001 4278523398
0.022281159 0.037065443 0.35900003 4278522632
0.023447191 0.037065443 0.35900003 4278522632
0.024613226 0.037065443 0.35900003 4278720011
0.025779257 0.037065443 0.35900003 4278522632
0.027020345 0.037168685 0.36000001 4278654218
0.028189626 0.037168685 0.36000001 4278522632
0.029440459 0.037271935 0.36100003 4278654218
0.03061299 0.037271935 0.36100003 4278523146
0.031873565 0.037375178 0.36200002 4278194951
0.033049341 0.037375178 0.36200002 4278260998
0.034225117 0.037375178 0.36200002 4278195713
0.035498686 0.037478425 0.36300001 4278923287
0.036677711 0.037478425 0.36300001 4278195712
0.037856735 0.037478425 0.36300001 4278195713
0.03903576 0.037478425 0.36300001 4278196227
0.040214784 0.037478425 0.36300001 4278196227
0.041393809 0.037478425 0.36300001 4278199561
0.042572834 0.037478425 0.36300001 4278330634
0.04387239 0.037581671 0.36400002 4278397710
0.045054659 0.037581671 0.36400002 4278464017
0.046236932 0.037581671 0.36400002 4278661396
0.047419205 0.037581671 0.36400002 4278727959
0.048601482 0.037581671 0.36400002 4278793750
0.049783751 0.037581671 0.36400002 4278531091
0.050966024 0.037581671 0.36400002 4278531861
0.052148297 0.037581671 0.36400002 4278466581
0.053330574 0.037581671 0.36400002 4278532628
0.0546626 0.037684917 0.36500001 4278598421
0.056001134 0.037788164 0.36600003 4278532628
0.057189904 0.037788164 0.36600003 4278532628
0.058538172 0.03789141 0.36700001 4278598421
0.060055695 0.038097903 0.36900002 4278730007
0.06142021 0.03820115 0.37 4278664214
0.062791213 0.038304396 0.37100002 4278533396
0.064168721 0.038407642 0.37200001 4278862359
0.065376982 0.038407642 0.37200001 4278796566
0.068704695 0.038923874 0.377 4278928152
0.06992919 0.038923874 0.377 4278862873
0.071342431 0.039027121 0.37800002 4278862873
0.072570167 0.039027121 0.37800002 4278862877
-0.020134924 0.039083831 0.36700001 4279838233
-0.018994525 0.03919033 0.36800003 4280298014
-0.01779926 0.03919033 0.36800003 4280298530
-0.016649114 0.039296821 0.36900002 4280232737
-0.015450601 0.039296821 0.36900002 4280759596
-0.013053576 0.039296821 0.36900002 4281089073
-0.011855063 0.039296821 0.36900002 4279903774
-0.010627672 0.03919033 0.36800003 4279837209
-0.0094067743 0.039083831 0.36700001 4279837209
-0.0081923753 0.038977336 0.36600003 4280034588
-0.0069844704 0.038870838 0.36500001 4279903002
-0.0057671745 0.038657848 0.36300001 4279509268
-0.004575511 0.038551353 0.36200002 4279510293
-0.0033903427 0.038444858 0.36100003 4278988564
-0.0022116704 0.038338363 0.36000001 4279253017
-0.0010394942 0.038231868 0.35900003 4278859797
0.00012653845 0.038231868 0.35900003 4278728724
0.0012925711 0.038231868 0.35900003 4278795287
0.0024586036 0.038231868 0.35900003 4278597908
0.0036145397 0.03812537 0.35800001 4278598421
0.0047773244 0.03812537 0.35800001 4278532628
0.0059401086 0.03812537 0.35800001 4278664214
0.0071028937 0.03812537 0.35800001 4278532628
0.0082656788 0.03812537 0.35800001 4278466835
0.0094284629 0.03812537 0.35800001 4278664214
0.010591248 0.03812537 0.35800001 4278466835
0.011754032 0.03812537 0.35800001 4278598421
0.012916816 0.03812537 0.35800001 4278598421
0.014079601 0.03812537 0.35800001 4278532628
0.015242386 0.03812537 0.35800001 4278727187
0.016405171 0.03812537 0.35800001 4278195715
0.017567955 0.03812537 0.35800001 4278858261
0.018730739 0.03812537 0.35800001 4278727187
0.019949093 0.038231868 0.35900003 4278260994
0.021115126 0.038231868 0.35900003 4278720265
0.022281159 0.038231868 0.35900003 4278720011
0.023447191 0.038231868 0.35900003 4278654218
0.024681784 0.038338363 0.36000001 4278522632
0.025851065 0.038338363 0.36000001 4278522632
0.027020345 0.038338363 0.36000001 4278785804
0.028267931 0.038444858 0.36100003 4278654218
0.029440459 0.038444858 0.36100003 4278654218
0.030697789 0.038551353 0.36200002 4278654218
0.031873565 0.038551353 0.36200002 4278587914
0.033049341 0.038551353 0.36200002 4278522634
0.034319662 0.038657848 0.36300001 4278194945
0.035498686 0.038657848 0.36300001 4279054873
0.036677711 0.038657848 0.36300001 4278858521
0.037856735 0.038657848 0.36300001 4278858521
0.03903576 0.038657848 0.36300001 4278858775
0.040325571 0.038764346 0.36400002 4279318812
0.041507844 0.038764346 0.36400002 4279121433
0.042690117 0.038764346 0.36400002 4278989847
0.04387239 0.038764346 0.36400002 4279185689
0.045054659 0.038764346 0.36400002 4278988310
0.046363954 0.038870838 0.36500001 4278790418
0.047549479 0.038870838 0.36500001 4278197767
0.048735 0.038870838 0.36500001 4278195716
0.049920518 0.038870838 0.36500001 4278195200
0.051106039 0.038870838 0.36500001 4278194176
0.052291561 0.038870838 0.36500001 4278194945
0.053477082 0.038870838 0.36500001 4278194176
0.054812364 0.038977336 0.36600003 4278196738
0.056001134 0.038977336 0.36600003 4278197765
0.057346158 0.039083831 0.36700001 4278265357
0.058697678 0.03919033 0.36800003 4278595089
0.060055695 0.039296821 0.36900002 4278397708
0.06142021 0.039403316 0.37 4278595601
0.062791213 0.039509814 0.37100002 4278727187
0.064168721 0.039616309 0.37200001 4278268941
0.065552726 0.039722804 0.37300003 4278533396
0.067122221 0.039935797 0.37500003 4278401810
0.068704695 0.040148783 0.377 4278204431
0.06992919 0.040148783 0.377 4278401810
0.071342431 0.040255282 0.37800002 4278928154
0.072570167 0.040255282 0.37800002 4278336533
0.073797919 0.040255282 0.37800002 4278797084
0.075224139 0.040361777 0.37900001 4279516455
-0.022457598 0.040166508 0.36600003 4280496424
-0.021326941 0.040276252 0.36700001 4279904287
-0.020134924 0.040276252 0.36700001 4279969565
-0.018994525 0.040385999 0.36800003 4280232737
-0.017847626 0.040495742 0.36900002 4280430116
-0.016649114 0.040495742 0.36900002 4280627497
-0.015450601 0.040495742 0.36900002 4280825389
-0.014290712 0.040605485 0.37 4281023282
-0.013053576 0.040495742 0.36900002 4280825903
-0.011855063 0.040495742 0.36900002 4279837981
-0.010627672 0.040385999 0.36800003 4279903004
-0.0094067743 0.040276252 0.36700001 4279903004
-0.008169991 0.040056761 0.36500001 4280034588
-0.006965335 0.039947018 0.36400002 4279903002
-0.0057671745 0.039837271 0.36300001 4279641367
-0.004575511 0.039727528 0.36200002 4279445270
-0.0033903427 0.039617784 0.36100003 4279185941
-0.0022116704 0.039508041 0.36000001 4278792466
-0.0010394942 0.039398298 0.35900003 4278728211
0.00012653845 0.039398298 0.35900003 4278859797
0.0012925711 0.039398298 0.35900003 4278795287
0.0024586036 0.039398298 0.35900003 4278663701
0.0036246362 0.039398298 0.35900003 4278663701
0.0047906693 0.039398298 0.35900003 4278598421
0.0059567015 0.039398298 0.35900003 4278598421
0.0071227346 0.039398298 0.35900003 4278532628
0.0082887672 0.039398298 0.35900003 4278598421
0.0094547998 0.039398298 0.35900003 4278335249
0.010591248 0.039288551 0.35800001 4278532115
0.011754032 0.039288551 0.35800001 4278663701
0.012916816 0.039288551 0.35800001 4278597908
0.014079601 0.039288551 0.35800001 4278663701
0.015284963 0.039398298 0.35900003 4279384092
0.016450996 0.039398298 0.35900003 4278196228
0.017617028 0.039398298 0.35900003 4278989847
0.018783061 0.039398298 0.35900003 4278924566
0.019949093 0.039398298 0.35900003 4278590474
0.021115126 0.039398298 0.35900003 4279115537
0.022281159 0.039398298 0.35900003 4279049744
0.023512503 0.039508041 0.36000001 4278983951
0.024681784 0.039508041 0.36000001 4278655756
0.025851065 0.039508041 0.36000001 4278655756
0.027095402 0.039617784 0.36100003 4278721549
0.028267931 0.039617784 0.36100003 4279708955
0.029522011 0.039727528 0.36200002 4278853133
0.030697789 0.039727528 0.36200002 4279116307
0.031873565 0.039727528 0.36200002 4279510295
0.033140637 0.039837271 0.36300001 4278523146
0.034319662 0.039837271 0.36300001 4278788623
0.035498686 0.039837271 0.36300001 4279055640
0.036778755 0.039947018 0.36400002 4278793752
0.037961025 0.039947018 0.36400002 4278464787
0.039143298 0.039947018 0.36400002 4278199818
0.040325571 0.039947018 0.36400002 4278989847
0.041507844 0.039947018 0.36400002 4278858773
0.042807397 0.040056761 0.36500001 4278727187
0.043992914 0.040056761 0.36500001 4279121945
0.045178436 0.040056761 0.36500001 4278990359
0.046363954 0.040056761 0.36500001 4278596371
0.047549479 0.040056761 0.36500001 4278727957
0.048868522 0.040166508 0.36600003 4278858775
0.050057288 0.040166508 0.36600003 4279056154
0.051246058 0.040166508 0.36600003 4279055640
0.052434828 0.040166508 0.36600003 4278792468
0.053623598 0.040166508 0.36600003 4279120920
0.054962121 0.040276252 0.36700001 4278923541
0.056154139 0.040276252 0.36700001 4279383838
0.057502419 0.040385999 0.36800003 4279120666
0.05885718 0.040495742 0.36900002 4278988310
0.060218446 0.040605485 0.37 4278922004
0.061586212 0.040715229 0.37100002 4278593039
0.062960461 0.040824972 0.37200001 4278395660
0.064341217 0.040934719 0.37300003 4278196996
0.065728471 0.041044462 0.37400001 4278596371
0.067122221 0.04115421 0.37500003 4278597908
0.068704695 0.041373696 0.377 4278532115
0.06992919 0.041373696 0.377 4278597908
0.071342431 0.041483443 0.37800002 4278597908
0.072570167 0.041483443 0.37800002 4278532628
0.073797919 0.041483443 0.37800002 4278598421
0.075224139 0.041593187 0.37900001 4278857494
-0.011822936 0.041581668 0.36800003 4279969567
-0.010598792 0.041468672 0.36700001 4280428835
-0.0093811434 0.041355681 0.36600003 4280495141
-0.008169991 0.041242685 0.36500001 4280297760
-0.006965335 0.04112969 0.36400002 4280034588
-0.0057512871 0.040903702 0.36200002 4279707160
-0.0045628715 0.040790711 0.36100003 4279511576
-0.0033903427 0.040790711 0.36100003 4279317016
-0.0022116704 0.040677715 0.36000001 4279187224
-0.0010394942 0.040564723 0.35900003 4278859543
0.00012653845 0.040564723 0.35900003 4278859797
0.0012925711 0.040564723 0.35900003 4278730007
0.0024586036 0.040564723 0.35900003 4278532628
0.0036246362 0.040564723 0.35900003 4278466835
0.0047906693 0.040564723 0.35900003 4278532628
0.0059567015 0.040564723 0.35900003 4278532628
0.0071227346 0.040564723 0.35900003 4278598421
0.0082887672 0.040564723 0.35900003 4278664214
0.0094547998 0.040564723 0.35900003 4278598421
0.010620832 0.040564723 0.35900003 4278663701
0.011786866 0.040564723 0.35900003 4278597908
0.012952897 0.040564723 0.35900003 4278532115
0.01411893 0.040564723 0.35900003 4278597908
0.015284963 0.040564723 0.35900003 4279054357
0.016450996 0.040564723 0.35900003 4278262792
0.017617028 0.040564723 0.35900003 4278924568
0.018783061 0.040564723 0.35900003 4278924568
0.019949093 0.040564723 0.35900003 4278391814
0.021115126 0.040564723 0.35900003 4279511065
0.022343224 0.040677715 0.36000001 4278590476
0.023512503 0.040677715 0.36000001 4279116820
0.024681784 0.040677715 0.36000001 4279314967
0.025922874 0.040790711 0.36100003 4278195459
0.027095402 0.040790711 0.36100003 4278458890
0.028267931 0.040790711 0.36100003 4278194944
0.029522011 0.040903702 0.36200002 4278391814
0.030697789 0.040903702 0.36200002 4278984721
0.031961612 0.041016694 0.36300001 4278722830
0.033140637 0.041016694 0.36300001 4278393097
0.034319662 0.041016694 0.36300001 4278789136
0.035596479 0.04112969 0.36400002 4278989847
0.036778755 0.04112969 0.36400002 4278397456
0.037961025 0.04112969 0.36400002 4278197767
0.039143298 0.04112969 0.36400002 4278524170
0.040436354 0.041242685 0.36500001 4278722830
0.041621875 0.041242685 0.36500001 4278265611
0.042807397 0.041242685 0.36500001 4278726162
0.043992914 0.041242685 0.36500001 4278265357
0.045302216 0.041355681 0.36600003 4278923541
0.046490982 0.041355681 0.36600003 4278199303
0.047679752 0.041355681 0.36600003 4278198021
0.048868522 0.041355681 0.36600003 4278661396
0.050057288 0.041355681 0.36600003 4278793752
0.051386073 0.041468672 0.36700001 4278727957
0.052578092 0.041468672 0.36700001 4278859543
0.05377011 0.041468672 0.36700001 4278662677
0.055111885 0.041581668 0.36800003 4278465298
0.056307152 0.041581668 0.36800003 4278465298
0.057658672 0.04169466 0.36900002 4278531091
0.059016682 0.041807652 0.37 4278662677
0.0603812 0.041920647 0.37100002 4278794263
0.061752211 0.042033639 0.37200001 4278727957
0.063129716 0.042146634 0.37300003 4278727957
0.064513713 0.042259626 0.37400001 4278527246
0.065728471 0.042259626 0.37400001 4278857748
0.067301206 0.042485613 0.37600002 4278465298
0.068522453 0.042485613 0.37600002 4278728470
0.06992919 0.042598605 0.377 4278729240
0.071342431 0.042711601 0.37800002 4278400275
0.072570167 0.042711601 0.37800002 4278531861
0.073797919 0.042711601 0.37800002 4278925849
0.075025663 0.042711601 0.37800002 4278660115
-0.017847626 0.042893577 0.36900002 4280101405
-0.016694233 0.043009818 0.37 4285564021
-0.015492473 0.043009818 0.37 4285037936
-0.011822936 0.042777337 0.36800003 4279443997
-0.010598792 0.042661093 0.36700001 4280034337
-0.0093555115 0.042428605 0.36500001 4279968797
-0.0081476076 0.042312365 0.36400002 4280100635
-0.0069461991 0.042196121 0.36300001 4279837463
-0.0057512871 0.042079877 0.36200002 4279576086
-0.0045628715 0.041963637 0.36100003 4279380760
-0.003380951 0.041847393 0.36000001 4279317527
-0.0022116704 0.041847393 0.36000001 4279187224
-0.0010394942 0.041731153 0.35900003 4278727957
0.00012653845 0.041731153 0.35900003 4278728470
0.0012925711 0.041731153 0.35900003 4278927132
0.0024586036 0.041731153 0.35900003 4278598167
0.0036246362 0.041731153 0.35900003 4278532628
0.0047906693 0.041731153 0.35900003 4278532628
0.0059567015 0.041731153 0.35900003 4278532628
0.0071227346 0.041731153 0.35900003 4278532628
0.0082887672 0.041731153 0.35900003 4278466835
0.0094547998 0.041731153 0.35900003 4278466835
0.010620832 0.041731153 0.35900003 4278598421
0.011786866 0.041731153 0.35900003 4278663701
0.012952897 0.041731153 0.35900003 4278795287
0.01411893 0.041731153 0.35900003 4278532115
0.015284963 0.041731153 0.35900003 4278329097
0.016450996 0.041731153 0.35900003 4278393867
0.017617028 0.041731153 0.35900003 4278792468
0.018783061 0.041731153 0.35900003 4279056154
0.019949093 0.041731153 0.35900003 4278654986
0.021173943 0.041847393 0.36000001 4278720265
0.022343224 0.041847393 0.36000001 4278720265
0.023512503 0.041847393 0.36000001 4278654986
0.024750346 0.041963637 0.36100003 4278589963
0.025922874 0.041963637 0.36100003 4278392584
0.027095402 0.041963637 0.36100003 4278720779
0.028346235 0.042079877 0.36200002 4278523400
0.029522011 0.042079877 0.36200002 4278721549
0.03078259 0.042196121 0.36300001 4279183381
0.031961612 0.042196121 0.36300001 4279841824
0.033140637 0.042196121 0.36300001 4278195205
0.034414209 0.042312365 0.36400002 4279316762
0.035596479 0.042312365 0.36400002 4278990361
0.036778755 0.042312365 0.36400002 4278196997
0.038065314 0.042428605 0.36500001 4278589193
0.039250832 0.042428605 0.36500001 4278786318
0.040436354 0.042428605 0.36500001 4278524170
0.041621875 0.042428605 0.36500001 4278396427
0.04292468 0.042544849 0.36600003 4278989845
0.044113446 0.042544849 0.36600003 4279252506
0.045302216 0.042544849 0.36600003 4278593806
0.046490982 0.042544849 0.36600003 4278989593
0.047810022 0.042661093 0.36700001 4278858007
0.04900204 0.042661093 0.36700001 4278198279
0.050194055 0.042661093 0.36700001 4278198279
0.051386073 0.042661093 0.36700001 4278594576
0.052721359 0.042777337 0.36800003 4278265611
0.053916626 0.042777337 0.36800003 4278200074
0.055111885 0.042777337 0.36800003 4278200588
0.056460157 0.042893577 0.36900002 4278198789
0.057814926 0.043009818 0.37 4278595603
0.059176192 0.043126062 0.37100002 4278266636
0.060543951 0.043242306 0.37200001 4278398222
0.061752211 0.043242306 0.37200001 4278531091
0.063129716 0.043358549 0.37300003 4278728470
0.064513713 0.04347479 0.37400001 4278195970
0.065904215 0.043591034 0.37500003 4279317529
0.067301206 0.043707278 0.37600002 4278859797
0.068704695 0.043823518 0.377 4278662931
0.06992919 0.043823518 0.377 4278663701
0.071342431 0.043939762 0.37800002 4278532115
0.072570167 0.043939762 0.37800002 4278729240
0.073797919 0.043939762 0.37800002 4278860056
0.075025663 0.043939762 0.37800002 4278397458
-0.018089464 0.044689953 0.37400001 4281088298
-0.01687471 0.044689953 0.37400001 4284972397
-0.01565996 0.044689953 0.37400001 4285038708
-0.014445206 0.044689953 0.37400001 4284972915
-0.013053576 0.044092495 0.36900002 4284709743
-0.011822936 0.043973006 0.36800003 4284972915
-0.010569912 0.043734021 0.36600003 4284840306
-0.0093555115 0.043614529 0.36500001 4280036904
-0.0081252242 0.043375544 0.36300001 4280101151
-0.0069270642 0.043256052 0.36200002 4279904026
-0.0057353997 0.043136563 0.36100003 4279511576
-0.0045628715 0.043136563 0.36100003 4279512857
-0.003380951 0.043017067 0.36000001 4279317529
-0.0022116704 0.043017067 0.36000001 4278990359
-0.0010394942 0.042897578 0.35900003 4278859543
0.00012653845 0.042897578 0.35900003 4278860056
0.0012925711 0.042897578 0.35900003 4278729753
0.0024586036 0.042897578 0.35900003 4278664214
0.0036246362 0.042897578 0.35900003 4278532628
0.0047906693 0.042897578 0.35900003 4278532628
0.0059567015 0.042897578 0.35900003 4278598421
0.0071227346 0.042897578 0.35900003 4278532628
0.0082887672 0.042897578 0.35900003 4278598421
0.0094547998 0.042897578 0.35900003 4278664214
0.010620832 0.042897578 0.35900003 4278532628
0.011786866 0.042897578 0.35900003 4278466835
0.012952897 0.042897578 0.35900003 4278532628
0.01411893 0.042897578 0.35900003 4278597908
0.015284963 0.042897578 0.35900003 4278262794
0.016450996 0.042897578 0.35900003 4279249689
0.017617028 0.042897578 0.35900003 4278924568
0.018783061 0.042897578 0.35900003 4278727189
0.020004662 0.043017067 0.36000001 4278851336
0.021173943 0.043017067 0.36000001 4278851084
0.022343224 0.043017067 0.36000001 4278850314
0.023512503 0.043017067 0.36000001 4278785291
0.024750346 0.043136563 0.36100003 4278785291
0.025922874 0.043136563 0.36100003 4278719498
0.027095402 0.043136563 0.36100003 4278587912
0.028346235 0.043256052 0.36200002 4278587912
0.029522011 0.043256052 0.36200002 4278522632
0.03078259 0.043375544 0.36300001 4278523146
0.031961612 0.043375544 0.36300001 4278194951
0.033231933 0.043495037 0.36400002 4278458123
0.034414209 0.043495037 0.36400002 4279252252
0.035596479 0.043495037 0.36400002 4278661396
0.036879793 0.043614529 0.36500001 4278459658
0.038065314 0.043614529 0.36500001 4278720265
0.039250832 0.043614529 0.36500001 4278654732
0.040436354 0.043614529 0.36500001 4279314197
0.04173591 0.043734021 0.36600003 4278198535
0.04292468 0.043734021 0.36600003 4279053844
0.044113446 0.043734021 0.36600003 4278198275
0.045425989 0.04385351 0.36700001 4278856978
0.046618003 0.04385351 0.36700001 4278726162
0.047810022 0.04385351 0.36700001 4278529296
0.049135566 0.043973006 0.36800003 4278529296
0.050330825 0.043973006 0.36800003 4278660115
0.051526092 0.043973006 0.36800003 4278460683
0.052721359 0.043973006 0.36800003 4278526478
0.054063134 0.044092495 0.36900002 4278725140
0.055261642 0.044092495 0.36900002 4278725138
0.056613166 0.044211987 0.37 4279054873
0.057814926 0.044211987 0.37 4278594322
0.059176192 0.04433148 0.37100002 4278725138
0.060543951 0.044450969 0.37200001 4278593552
0.061918214 0.044570465 0.37300003 4278727957
0.063298963 0.044689953 0.37400001 4278531091
0.064513713 0.044689953 0.37400001 4278196480
0.065904215 0.044809449 0.37500003 4278858261
0.067301206 0.044928938 0.37600002 4278860310
0.068704695 0.045048431 0.377 4278728724
0.06992919 0.045048431 0.377 4278663701
0.071342431 0.045167923 0.37800002 4278532115
0.072570167 0.045167923 0.37800002 4278531345
0.073797919 0.045167923 0.37800002 4278860310
0.075025663 0.045167923 0.37800002 4279120666
0.076455131 0.045287412 0.37900001 4285106550
-0.018234566 0.04627334 0.377 4282865738
-0.017010069 0.04627334 0.377 4284841327
-0.015785573 0.04627334 0.377 4285038708
-0.014561077 0.04627334 0.377 4284907122
-0.010541032 0.044800449 0.36500001 4284512364
-0.0093298806 0.044677708 0.36400002 4284249192
-0.0081028407 0.044432227 0.36200002 4284380008
-0.0069270642 0.044432227 0.36200002 4279445272
-0.0057353997 0.044309489 0.36100003 4279381273
-0.0045502316 0.044186745 0.36000001 4279052820
-0.003380951 0.044186745 0.36000001 4279318299
-0.0022055269 0.044064008 0.35900003 4279056154
-0.0010394942 0.044064008 0.35900003 4278925849
0.00012653845 0.044064008 0.35900003 4278795033
0.0012925711 0.044064008 0.35900003 4278729494
0.0024586036 0.044064008 0.35900003 4278730007
0.0036246362 0.044064008 0.35900003 4278664214
0.0047906693 0.044064008 0.35900003 4278598421
0.0059567015 0.044064008 0.35900003 4278598421
0.0071227346 0.044064008 0.35900003 4278532628
0.0082887672 0.044064008 0.35900003 4278532628
0.0094547998 0.044064008 0.35900003 4278466835
0.010591248 0.043941263 0.35800001 4278664214
0.011754032 0.043941263 0.35800001 4278598421
0.012916816 0.043941263 0.35800001 4278598421
0.01411893 0.044064008 0.35900003 4278268689
0.015284963 0.044064008 0.35900003 4278397456
0.016450996 0.044064008 0.35900003 4278527759
0.017617028 0.044064008 0.35900003 4278793752
0.018783061 0.044064008 0.35900003 4278859545
0.020004662 0.044186745 0.36000001 4278987029
0.021173943 0.044186745 0.36000001 4278524170
0.022343224 0.044186745 0.36000001 4278523400
0.023577817 0.044309489 0.36100003 4278325767
0.024750346 0.044309489 0.36100003 4278522632
0.025922874 0.044309489 0.36100003 4278785804
0.027170457 0.044432227 0.36200002 4278851084
0.028346235 0.044432227 0.36200002 4278785291
0.029603563 0.044554967 0.36300001 4278785291
0.03078259 0.044554967 0.36300001 4278720011
0.031961612 0.044554967 0.36300001 4278654218
0.033231933 0.044677708 0.36400002 4278588939
0.034414209 0.044677708 0.36400002 4279383838
0.035596479 0.044677708 0.36400002 4278990361
0.036879793 0.044800449 0.36500001 4279514654
0.038065314 0.044800449 0.36500001 4279512857
0.039250832 0.044800449 0.36500001 4279315480
0.04054714 0.044923194 0.36600003 4279250971
0.04173591 0.044923194 0.36600003 4278923287
0.04292468 0.044923194 0.36600003 4279120666
0.044233974 0.045045931 0.36700001 4278989847
0.045425989 0.045045931 0.36700001 4279253019
0.046618003 0.045045931 0.36700001 4278726675
0.047940299 0.045168675 0.36800003 4278660369
0.049135566 0.045168675 0.36800003 4278792468
0.050330825 0.045168675 0.36800003 4278858261
0.051666107 0.045291413 0.36900002 4278923541
0.052864619 0.045291413 0.36900002 4278726162
0.054063134 0.045291413 0.36900002 4278857494
0.055411402 0.045414153 0.37 4278198022
0.056613166 0.045414153 0.37 4278197509
0.057971187 0.045536898 0.37100002 4279712033
0.059335694 0.045659635 0.37200001 4278198023
0.060706709 0.04578238 0.37300003 4278197512
0.061918214 0.04578238 0.37300003 4278661394
0.063298963 0.045905117 0.37400001 4278925336
0.064686216 0.046027862 0.37500003 4278197508
0.065904215 0.046027862 0.37500003 4278858775
0.067301206 0.046150602 0.37600002 4278662931
0.068704695 0.04627334 0.377 4278728724
0.06992919 0.04627334 0.377 4278663701
0.071342431 0.046396084 0.37800002 4278597908
0.072570167 0.046396084 0.37800002 4278532115
0.073797919 0.046396084 0.37800002 4278991896
0.075025663 0.046396084 0.37800002 4278790931
-0.018476404 0.048128206 0.38200003 4284839274
-0.017235668 0.048128206 0.38200003 4284841327
-0.015994933 0.048128206 0.38200003 4285170294
-0.014754196 0.048128206 0.38200003 4284841329
-0.013513459 0.048128206 0.38200003 4284841329
-0.012272721 0.048128206 0.38200003 4284841329
-0.011031985 0.048128206 0.38200003 4284775536
-0.0097912485 0.048128206 0.38200003 4284249192
-0.0081028407 0.045608405 0.36200002 4283920227
-0.0069079287 0.045482416 0.36100003 4283788123
-0.0057195118 0.045356423 0.36000001 4278854418
-0.0045502316 0.045356423 0.36000001 4279512861
-0.003380951 0.045356423 0.36000001 4279186713
-0.0022055269 0.045230437 0.35900003 4279121433
-0.0010394942 0.045230437 0.35900003 4278991129
0.00012653845 0.045230437 0.35900003 4278991642
0.0012925711 0.045230437 0.35900003 4278860826
0.0024586036 0.045230437 0.35900003 4278729240
0.0036246362 0.045230437 0.35900003 4278795800
0.0047906693 0.045230437 0.35900003 4278664214
0.0059567015 0.045230437 0.35900003 4278532628
0.0071227346 0.045230437 0.35900003 4278598421
0.0082887672 0.045230437 0.35900003 4278466835
0.0094547998 0.045230437 0.35900003 4278598421
0.010591248 0.045104444 0.35800001 4278598421
0.011754032 0.045104444 0.35800001 4278598421
0.012916816 0.045104444 0.35800001 4278532628
0.01411893 0.045230437 0.35900003 4278268943
0.015284963 0.045230437 0.35900003 4278594576
0.016450996 0.045230437 0.35900003 4278396943
0.017617028 0.045230437 0.35900003 4278859543
0.018835381 0.045356423 0.36000001 4278991129
0.020004662 0.045356423 0.36000001 4278860056
0.021173943 0.045356423 0.36000001 4278859543
0.022405289 0.045482416 0.36100003 4278859543
0.023577817 0.045482416 0.36100003 4279254301
0.024750346 0.045482416 0.36100003 4278924568
0.025994683 0.045608405 0.36200002 4278989847
0.027170457 0.045608405 0.36200002 4279384092
0.028346235 0.045608405 0.36200002 4279317529
0.029603563 0.045734394 0.36300001 4279382555
0.03078259 0.045734394 0.36300001 4279250969
0.032049663 0.045860387 0.36400002 4279184408
0.033231933 0.045860387 0.36400002 4279118615
0.034414209 0.045860387 0.36400002 4279054875
0.035694271 0.045986373 0.36500001 4278198282
0.036879793 0.045986373 0.36500001 4278195714
0.038065314 0.045986373 0.36500001 4278195457
0.03935837 0.046112366 0.36600003 4278195971
0.04054714 0.046112366 0.36600003 4278194176
0.04173591 0.046112366 0.36600003 4278195459
0.043041959 0.046238355 0.36700001 4278195202
0.044233974 0.046238355 0.36700001 4278196227
0.045425989 0.046238355 0.36700001 4278198026
0.046745032 0.046364348 0.36800003 4278197766
0.047940299 0.046364348 0.36800003 4278725392
0.049135566 0.046364348 0.36800003 4278660369
0.050467592 0.046490334 0.36900002 4278791955
0.051666107 0.046490334 0.36900002 4278660882
0.052864619 0.046490334 0.36900002 4278858261
0.054209646 0.046616323 0.37 4279055640
0.055411402 0.046616323 0.37 4278924568
0.056766175 0.046742316 0.37100002 4278924568
0.057971187 0.046742316 0.37100002 4278858775
0.059335694 0.046868306 0.37200001 4278858775
0.060706709 0.046994295 0.37300003 4278727189
0.062084213 0.047120284 0.37400001 4278530580
0.063298963 0.047120284 0.37400001 4278596373
0.064686216 0.047246277 0.37500003 4278197766
0.066079959 0.047372267 0.37600002 4278858775
0.067301206 0.047372267 0.37600002 4278531091
0.068704695 0.047498256 0.377 4278663447
0.06992919 0.047498256 0.377 4278400275
0.071342431 0.047624245 0.37800002 4278729494
0.072570167 0.047624245 0.37800002 4278794517
0.073797919 0.047624245 0.37800002 4278926103
0.075224139 0.047750235 0.37900001 4279908901
-0.018476404 0.049369361 0.38200003 4285497974
-0.017235668 0.049369361 0.38200003 4284841327
-0.015994933 0.049369361 0.38200003 4284907120
-0.014754196 0.049369361 0.38200003 4284907120
-0.013513459 0.049369361 0.38200003 4284775536
-0.012272721 0.049369361 0.38200003 4284775536
-0.011031985 0.049369361 0.38200003 4284577904
-0.0097912485 0.049369361 0.38200003 4284380525
-0.0080804573 0.046655338 0.36100003 4284051813
-0.0069079287 0.046655338 0.36100003 4283854432
-0.0057195118 0.046526097 0.36000001 4283394394
-0.0045502316 0.046526097 0.36000001 4282670673
-0.0033715598 0.046396859 0.35900003 4278855961
-0.0022055269 0.046396859 0.35900003 4279712037
-0.0010394942 0.046396859 0.35900003 4279187486
0.00012653845 0.046396859 0.35900003 4279319842
0.0012925711 0.046396859 0.35900003 4279057953
0.0024586036 0.046396859 0.35900003 4278795294
0.0036246362 0.046396859 0.35900003 4278598169
0.0047906693 0.046396859 0.35900003 4278663447
0.0059567015 0.046396859 0.35900003 4278729240
0.0071227346 0.046396859 0.35900003 4278663447
0.0082887672 0.046396859 0.35900003 4278663447
0.0094284629 0.046267621 0.35800001 4278663447
0.010591248 0.046267621 0.35800001 4278597654
0.011754032 0.046267621 0.35800001 4278663447
0.012916816 0.046267621 0.35800001 4278663447
0.01411893 0.046396859 0.35900003 4278729240
0.015284963 0.046396859 0.35900003 4279056922
0.016450996 0.046396859 0.35900003 4279056922
0.017666101 0.046526097 0.36000001 4278794263
0.018835381 0.046526097 0.36000001 4278794263
0.020004662 0.046526097 0.36000001 4278794263
0.02123276 0.046655338 0.36100003 4278728470
0.022405289 0.046655338 0.36100003 4278728470
0.023577817 0.046655338 0.36100003 4278794263
0.024818907 0.046784576 0.36200002 4278794263
0.025994683 0.046784576 0.36200002 4278925849
0.027170457 0.046784576 0.36200002 4278860056
0.028424539 0.046913814 0.36300001 4278860056
0.029603563 0.046913814 0.36300001 4278794263
0.03078259 0.046913814 0.36300001 4278793750
0.032049663 0.047043055 0.36400002 4278925336
0.033231933 0.047043055 0.36400002 4278990359
0.03450875 0.047172293 0.36500001 4278990359
0.035694271 0.047172293 0.36500001 4279056152
0.036879793 0.047172293 0.36500001 4278924566
0.038169604 0.047301535 0.36600003 4278727187
0.03935837 0.047301535 0.36600003 4278924566
0.04054714 0.047301535 0.36600003 4279187226
0.041849941 0.047430772 0.36700001 4279186459
0.043041959 0.047430772 0.36700001 4279252252
0.044233974 0.047430772 0.36700001 4279054103
0.045549769 0.047560014 0.36800003 4279251482
0.046745032 0.047560014 0.36800003 4279317275
0.047940299 0.047560014 0.36800003 4279251482
0.049269084 0.047689252 0.36900002 4278922004
0.050467592 0.047689252 0.36900002 4278987797
0.051666107 0.047689252 0.36900002 4278395662
0.052864619 0.047689252 0.36900002 4278593041
0.054209646 0.047818489 0.37 4278195459
0.055411402 0.047818489 0.37 4278195462
0.056766175 0.047947731 0.37100002 4278194691
0.058127441 0.048076969 0.37200001 4278194432
0.059335694 0.048076969 0.37200001 4278194176
0.060706709 0.04820621 0.37300003 4278195714
0.062084213 0.048335448 0.37400001 4278197769
0.06346821 0.048464689 0.37500003 4278198026
0.064686216 0.048464689 0.37500003 4278857494
0.066079959 0.048593923 0.37600002 4278924568
0.067480199 0.048723161 0.377 4278728470
0.068704695 0.048723161 0.377 4278728470
0.07011468 0.048852403 0.37800002 4278795033
0.071342431 0.048852403 0.37800002 4278663447
0.072570167 0.048852403 0.37800002 4278794263
0.073993146 0.04898164 0.37900001 4278925338
0.075224139 0.04898164 0.37900001 4285302645
-0.018476404 0.05061052 0.38200003 4280694055
-0.017280787 0.050743006 0.38300002 4285103983
-0.016036803 0.050743006 0.38300002 4285038706
-0.014792819 0.050743006 0.38300002 4284907122
-0.013548833 0.050743006 0.38300002 4284907122
-0.012304849 0.050743006 0.38300002 4284775536
-0.011060865 0.050743006 0.38300002 4284578157
-0.0098168794 0.050743006 0.38300002 4284249705
-0.0057195118 0.047695778 0.36000001 4283789154
-0.0045375922 0.047563292 0.35900003 4284249705
-0.0033715598 0.047563292 0.35900003 4284644463
-0.0022055269 0.047563292 0.35900003 4284512877
-0.0010394942 0.047563292 0.35900003 4280698678
0.00012653845 0.047563292 0.35900003 4278923037
0.0012925711 0.047563292 0.35900003 4279121697
0.0024586036 0.047563292 0.35900003 4279188260
0.0036246362 0.047563292 0.35900003 4279254562
0.0047906693 0.047563292 0.35900003 4279122976
0.0059567015 0.047563292 0.35900003 4279188769
0.0071227346 0.047563292 0.35900003 4279188769
0.0082887672 0.047563292 0.35900003 4279123230
0.0094284629 0.047430802 0.35800001 4279189023
0.010591248 0.047430802 0.35800001 4279189023
0.011754032 0.047430802 0.35800001 4278991644
0.012916816 0.047430802 0.35800001 4278860828
0.01411893 0.047563292 0.35900003 4278729242
0.015284963 0.047563292 0.35900003 4278925851
0.016450996 0.047563292 0.35900003 4278991644
0.017666101 0.047695778 0.36000001 4278925851
0.018835381 0.047695778 0.36000001 4279189023
0.02006023 0.047828268 0.36100003 4278925851
0.02123276 0.047828268 0.36100003 4278794263
0.022405289 0.047828268 0.36100003 4278860056
0.023643129 0.047960754 0.36200002 4278794263
0.024818907 0.047960754 0.36200002 4278794263
0.025994683 0.047960754 0.36200002 4278794263
0.027170457 0.047960754 0.36200002 4278794263
0.028424539 0.048093241 0.36300001 4278794263
0.029603563 0.048093241 0.36300001 4278662677
0.03086739 0.048225731 0.36400002 4278860056
0.032049663 0.048225731 0.36400002 4278662677
0.033323228 0.048358217 0.36500001 4278728470
0.03450875 0.048358217 0.36500001 4278728470
0.035694271 0.048358217 0.36500001 4278794263
0.036980834 0.048490711 0.36600003 4278860056
0.038169604 0.048490711 0.36600003 4278662677
0.03935837 0.048490711 0.36600003 4278860056
0.040657923 0.048623197 0.36700001 4278794263
0.041849941 0.048623197 0.36700001 4278728470
0.043041959 0.048623197 0.36700001 4278728470
0.044354506 0.048755687 0.36800003 4278860056
0.045549769 0.048755687 0.36800003 4278728470
0.046745032 0.048755687 0.36800003 4278794263
0.048070569 0.048888173 0.36900002 4278794263
0.049269084 0.048888173 0.36900002 4278925336
0.050467592 0.048888173 0.36900002 4278793750
0.051806122 0.049020659 0.37 4278925336
0.053007882 0.049020659 0.37 4278924566
0.054209646 0.049020659 0.37 4278858773
0.055561166 0.049153149 0.37100002 4279187224
0.056766175 0.049153149 0.37100002 4279121433
0.058127441 0.049285635 0.37200001 4279055640
0.059495199 0.049418125 0.37300003 4279318812
0.060706709 0.049418125 0.37300003 4279515937
0.062084213 0.049550612 0.37400001 4279450144
0.06346821 0.049683105 0.37500003 4279120666
0.064858705 0.049815591 0.37600002 4279121945
0.066079959 0.049815591 0.37600002 4278925590
0.067480199 0.049948078 0.377 4278794517
0.068704695 0.049948078 0.377 4278794517
0.07011468 0.050080568 0.37800002 4278926103
0.071342431 0.050080568 0.37800002 4278794517
0.072570167 0.050080568 0.37800002 4279056922
0.073993146 0.050213054 0.37900001 4279515937
-0.017280787 0.05198741 0.38300002 4285432183
-0.016036803 0.05198741 0.38300002 4284972915
-0.014792819 0.05198741 0.38300002 4285038708
-0.013548833 0.05198741 0.38300002 4285038708
-0.012304849 0.05198741 0.38300002 4284775536
-0.011060865 0.05198741 0.38300002 4284446571
-0.0098168794 0.05198741 0.38300002 4284249192
-0.0045375922 0.048729714 0.35900003 4284183912
-0.0033715598 0.048729714 0.35900003 4284512877
-0.0022055269 0.048729714 0.35900003 4284710256
-0.0010394942 0.048729714 0.35900003 4284644977
0.00012653845 0.048729714 0.35900003 4284776563
0.0012925711 0.048729714 0.35900003 4285171321
0.0024586036 0.048729714 0.35900003 4284974712
0.0036246362 0.048729714 0.35900003 4283988328
0.0047906693 0.048729714 0.35900003 4282475859
0.0059567015 0.048729714 0.35900003 4280962620
0.0071227346 0.048729714 0.35900003 4279844139
0.0082887672 0.048729714 0.35900003 4279252002
0.0094284629 0.048593976 0.35800001 4278791451
0.010591248 0.048593976 0.35800001 4278726171
0.011754032 0.048593976 0.35800001 4278791964
0.012952897 0.048729714 0.35900003 4278727455
0.01411893 0.048729714 0.35900003 4278924834
0.015284963 0.048729714 0.35900003 4279318560
0.016450996 0.048729714 0.35900003 4279515937
0.017666101 0.048865452 0.36000001 4279187486
0.018835381 0.048865452 0.36000001 4279056670
0.02006023 0.049001191 0.36100003 4278991392
0.02123276 0.049001191 0.36100003 4278925597
0.022405289 0.049001191 0.36100003 4279189023
0.023643129 0.049136925 0.36200002 4279189023
0.024818907 0.049136925 0.36200002 4279189021
0.025994683 0.049136925 0.36200002 4279056922
0.027170457 0.049136925 0.36200002 4279188508
0.028424539 0.049272664 0.36300001 4279385887
0.029603563 0.049272664 0.36300001 4278925849
0.03086739 0.049408402 0.36400002 4278925849
0.032049663 0.049408402 0.36400002 4278794263
0.033323228 0.049544137 0.36500001 4278860056
0.03450875 0.049544137 0.36500001 4278860056
0.035792064 0.049679875 0.36600003 4278925849
0.036980834 0.049679875 0.36600003 4278728470
0.038169604 0.049679875 0.36600003 4278728470
0.03935837 0.049679875 0.36600003 4278860056
0.040657923 0.049815614 0.36700001 4278860056
0.041849941 0.049815614 0.36700001 4278465298
0.043159239 0.049951352 0.36800003 4278728470
0.044354506 0.049951352 0.36800003 4278860310
0.045549769 0.049951352 0.36800003 4278794517
0.046872053 0.050087087 0.36900002 4278728724
0.048070569 0.050087087 0.36900002 4278860310
0.049269084 0.050087087 0.36900002 4278662931
0.050604358 0.050222825 0.37 4278991383
0.051806122 0.050222825 0.37 4278991383
0.053007882 0.050222825 0.37 4278925590
0.054356162 0.050358564 0.37100002 4278925590
0.055561166 0.050358564 0.37100002 4278925590
0.056919184 0.050494298 0.37200001 4278991383
0.058127441 0.050494298 0.37200001 4279057176
0.059495199 0.050630037 0.37300003 4278793750
0.060869459 0.050765775 0.37400001 4278991129
0.062084213 0.050765775 0.37400001 4278859543
0.06346821 0.050901514 0.37500003 4278925336
0.064858705 0.051037248 0.37600002 4279057176
0.066079959 0.051037248 0.37600002 4278859797
0.067480199 0.051172987 0.377 4278794004
0.068886936 0.051308725 0.37800002 4278925590
0.07011468 0.051308725 0.37800002 4278991383
0.071342431 0.051308725 0.37800002 4279057176
0.072762154 0.05144446 0.37900001 4279055386
0.073993146 0.05144446 0.37900001 4284711020
-0.017280787 0.05323182 0.38300002 4286023550
-0.016036803 0.05323182 0.38300002 4284906869
-0.014792819 0.05323182 0.38300002 4284972662
-0.013548833 0.05323182 0.38300002 4284907122
0.012952897 0.049896147 0.35900003 4285435261
0.01411893 0.049896147 0.35900003 4285041016
0.015284963 0.049896147 0.35900003 4284778616
0.01649682 0.05003513 0.36000001 4284515442
0.017666101 0.05003513 0.36000001 4283988328
0.018835381 0.05003513 0.36000001 4282540882
0.02006023 0.050174121 0.36100003 4280897340
0.02123276 0.050174121 0.36100003 4280042031
0.022405289 0.050174121 0.36100003 4279646244
0.023643129 0.050313104 0.36200002 4279185691
0.024818907 0.050313104 0.36200002 4278726423
0.025994683 0.050313104 0.36200002 4279055388
0.027170457 0.050313104 0.36200002 4278792214
0.028424539 0.050452087 0.36300001 4279186972
0.029603563 0.050452087 0.36300001 4278989593
0.03086739 0.050591078 0.36400002 4279187486
0.032049663 0.050591078 0.36400002 4279187486
0.033323228 0.050730061 0.36500001 4279450658
0.034603298 0.050869051 0.36600003 4279384865
0.035792064 0.050869051 0.36600003 4279121947
0.036980834 0.050869051 0.36600003 4278924568
0.038169604 0.050869051 0.36600003 4279187740
0.039465904 0.051008034 0.36700001 4279187740
0.040657923 0.051008034 0.36700001 4279385117
0.041849941 0.051008034 0.36700001 4279056922
0.043159239 0.051147025 0.36800003 4279056922
0.044354506 0.051147025 0.36800003 4278991129
0.045673542 0.051286008 0.36900002 4279188508
0.046872053 0.051286008 0.36900002 4278991129
0.048070569 0.051286008 0.36900002 4279056922
0.049402602 0.051424995 0.37 4279254301
0.050604358 0.051424995 0.37 4279121945
0.051806122 0.051424995 0.37 4279319324
0.053151149 0.051563982 0.37100002 4279187738
0.054356162 0.051563982 0.37100002 4279187738
0.055561166 0.051563982 0.37100002 4279187738
0.056919184 0.051702969 0.37200001 4279320094
0.058283698 0.051841956 0.37300003 4279056922
0.059495199 0.051841956 0.37300003 4278991131
0.060869459 0.051980942 0.37400001 4279056924
0.062250216 0.052119929 0.37500003 4278925336
0.06346821 0.052119929 0.37500003 4278991129
0.064858705 0.052258916 0.37600002 4279056922
0.066255704 0.052397899 0.377 4279056922
0.067480199 0.052397899 0.377 4279254303
0.068886936 0.052536886 0.37800002 4279188510
0.07011468 0.052536886 0.37800002 4279319326
0.071342431 0.052536886 0.37800002 4279515424
0.072762154 0.052675873 0.37900001 4285105012
-0.017280787 0.054476228 0.38300002 4286089341
0.02006023 0.051347047 0.36100003 4284842354
0.02123276 0.051347047 0.36100003 4284842354
0.022467352 0.051489282 0.36200002 4285237112
0.023643129 0.051489282 0.36200002 4285171573
0.024818907 0.051489282 0.36200002 4285039987
0.025994683 0.051489282 0.36200002 4285171573
0.027170457 0.051489282 0.36200002 4285105526
0.028424539 0.051631514 0.36300001 4285302905
0.034603298 0.052058224 0.36600003 4283396445
0.035792064 0.052058224 0.36600003 4282738261
0.036980834 0.052058224 0.36600003 4281685827
0.038169604 0.052058224 0.36600003 4281225276
0.039465904 0.052200459 0.36700001 4280698932
0.040657923 0.052200459 0.36700001 4280369967
0.041963976 0.052342698 0.36800003 4279909414
0.043159239 0.052342698 0.36800003 4280172586
0.044354506 0.052342698 0.36800003 4279844393
0.045673542 0.05248493 0.36900002 4279976492
0.046872053 0.05248493 0.36900002 4279581221
0.048070569 0.05248493 0.36900002 4279581221
0.049402602 0.052627165 0.37 4280172588
0.050604358 0.052627165 0.37 4280172588
0.051806122 0.052627165 0.37 4280172588
0.053151149 0.052769404 0.37100002 4280633139
0.054356162 0.052769404 0.37100002 4280369454
0.055710923 0.052911635 0.37200001 4280303661
0.056919184 0.052911635 0.37200001 4280632626
0.058283698 0.053053875 0.37300003 4280303661
0.059495199 0.053053875 0.37300003 4280764210
0.060869459 0.053196106 0.37400001 4280961589
0.062250216 0.053338345 0.37500003 4280896309
0.06346821 0.053338345 0.37500003 4281225274
0.064858705 0.05348058 0.37600002 4281487163
0.066255704 0.053622812 0.377 4281816898
0.067480199 0.053622812 0.377 4282343755
0.068886936 0.053765051 0.37800002 4283199064
0.07011468 0.053765051 0.37800002 4285302391
0.071342431 0.053765051 0.37800002 4285236600
0.067659192 0.054993208 0.37800002 4284974194
0.068886936 0.054993208 0.37800002 4285039733
0.022217067 0.041102421 0.36512008 4294967295
0.022217067 0.041102421 0.36512008 4294901760
0.022290358 0.040623382 0.364997 4294901760
0.02236365 0.040144339 0.36487392 4294901760
0.022436941 0.0396653 0.36475083 4294901760
0.022510232 0.039186258 0.36462778 4294901760
0.022583524 0.038707219 0.36450469 4294901760
0.022656815 0.038228177 0.36438161 4294901760
0.022730108 0.037749138 0.36425853 4294901760
0.0228034 0.037270095 0.36413544 4294901760
0.022876691 0.036791056 0.36401236 4294901760
0.022949982 0.036312014 0.36388928 4294901760
0.023023274 0.035832975 0.36376622 4294901760
0.023096565 0.035353936 0.36364314 4294901760
0.023169857 0.034874894 0.36352006 4294901760
0.023243148 0.034395851 0.36339697 4294901760
0.023316439 0.033916812 0.36327389 4294901760
0.023389731 0.033437774 0.36315081 4294901760
0.023463022 0.032958731 0.36302772 4294901760
0.023536313 0.032479692 0.36290467 4294901760
0.023609605 0.03200065 0.36278158 4294901760
0.023682898 0.031521611 0.3626585 4294901760
0.023756189 0.03104257 0.36253542 4294901760
0.023829481 0.03056353 0.36241233 4294901760
0.023902772 0.030084487 0.36228925 4294901760
0.023976063 0.029605448 0.36216617 4294901760
0.024049355 0.029126408 0.36204308 4294901760
0.024122646 0.028647367 0.36192003 4294901760
0.024195937 0.028168326 0.36179695 4294901760
0.024269229 0.027689286 0.36167386 4294901760
0.02434252 0.027210247 0.36155078 4294901760
0.024415813 0.026731204 0.36142769 4294901760
0.024489105 0.026252165 0.36130461 4294901760
0.024562396 0.025773123 0.36118153 4294901760
0.024635687 0.025294082 0.36105847 4294901760
0.024708979 0.024815043 0.36093539 4294901760
0.02478227 0.024336003 0.36081231 4294901760
0.024855562 0.023856962 0.36068922 4294901760
0.024928853 0.023377921 0.36056614 4294901760
0.025002144 0.022898881 0.36044306 4294901760
0.025075436 0.02241984 0.36031997 4294901760
0.025148727 0.021940799 0.36019692 4294901760
0.025222018 0.021461759 0.36007383 4294901760
0.02529531 0.02098272 0.35995075 4294901760
0.025368601 0.020503677 0.35982767 4294901760
0.025441892 0.020024639 0.35970458 4294901760
0.025515184 0.019545598 0.3595815 4294901760
0.025588477 0.019066555 0.35945842 4294901760
0.025661768 0.018587517 0.35933536 4294901760
0.02573506 0.018108476 0.35921228 4294901760
0.025808351 0.017629435 0.3590892 4294901760
0.025881642 0.017150395 0.35896611 4294901760
0.025954934 0.016671354 0.35884303 4294901760
0.026028225 0.016192315 0.35871994 4294901760
0.026101517 0.015713274 0.35859686 4294901760
0.02617481 0.015234232 0.35847381 4294901760
0.026248101 0.014755191 0.35835072 4294901760
0.026321393 0.014276151 0.35822764 4294901760
0.026394684 0.013797112 0.35810456 4294901760
0.026467975 0.013318071 0.35798147 4294901760
0.026541267 0.01283903 0.35785839 4294901760
0.026614558 0.012359988 0.35773531 4294901760
0.026687849 0.011880949 0.35761225 4294901760
0.026761141 0.011401908 0.35748917 4294901760
0.026834432 0.010922868 0.35736609 4294901760
0.026907723 0.010443827 0.357243 4294901760
0.026981015 0.0099647883 0.35711992 4294901760
0.027054306 0.0094857439 0.35699683 4294901760
0.027127597 0.0090067051 0.35687375 4294901760
