# .PCD v0.7 - Point Cloud Data file format
VERSION 0.7
FIELDS x y z rgb
SIZE 4 4 4 4
TYPE F F F U
COUNT 1 1 1 1
WIDTH 1053
HEIGHT 1
VIEWPOINT 0 0 0 1 0 0 0
POINTS 1053
DATA ascii
0.045396984 0.038417842 0.34 4279255066
0.046364535 0.03830485 0.33900002 4279255068
0.047465611 0.03830485 0.33900002 4279517727
0.048423421 0.038191859 0.33800003 4279649313
0.049374733 0.038078863 0.33700001 4279844641
0.050469305 0.038078863 0.33700001 4279514906
0.051410876 0.037965868 0.33600003 4278659086
0.052345946 0.037852872 0.33500001 4278196480
0.053274523 0.03773988 0.33400002 4278195456
0.054359358 0.03773988 0.33400002 4278197251
0.055444192 0.03773988 0.33400002 4278196480
0.056529019 0.03773988 0.33400002 4278397449
0.057613853 0.03773988 0.33400002 4278924820
0.058698688 0.03773988 0.33400002 4278925590
0.059783522 0.03773988 0.33400002 4278926101
0.060868353 0.03773988 0.33400002 4279124250
0.062138673 0.037852872 0.33500001 4278730003
0.063226752 0.037852872 0.33500001 4278927382
0.064314827 0.037852872 0.33500001 4278664980
0.06540291 0.037852872 0.33500001 4278796566
0.066689476 0.037965868 0.33600003 4278599187
0.067579068 0.037852872 0.33500001 4278468115
0.068667151 0.037852872 0.33500001 4278468369
0.069755234 0.037852872 0.33500001 4278665748
0.070843317 0.037852872 0.33500001 4278863127
0.071716674 0.03773988 0.33400002 4278863127
0.072583541 0.037626885 0.333 4279256349
-0.0022731056 0.043009818 0.37 4280690967
-0.0010684495 0.042893577 0.36900002 4282401837
0.0001300632 0.042893577 0.36900002 4279705612
0.0013249754 0.042777337 0.36800003 4281554489
0.0025202399 0.042777337 0.36800003 4279386654
0.003705408 0.042661093 0.36700001 4278862361
0.004897425 0.042661093 0.36700001 4278862361
0.006072849 0.042544849 0.36600003 4278928154
0.0072417771 0.042428605 0.36500001 4278731289
0.0084042093 0.042312365 0.36400002 4278665496
0.0094547998 0.041731153 0.35900003 4278402324
0.010591248 0.041614905 0.35800001 4278533908
0.0117212 0.041498665 0.35700002 4278468115
0.012844655 0.041382421 0.35600001 4278599187
0.014000944 0.041382421 0.35600001 4278467603
0.015114657 0.041266181 0.35500002 4278524679
0.016267698 0.041266181 0.35500002 4278590472
0.017371666 0.041149933 0.354 4278530832
0.018521456 0.041149933 0.354 4278266890
0.019615682 0.041033693 0.35300002 4278786058
0.020762227 0.041033693 0.35300002 4278523400
0.021846708 0.040917452 0.35200003 4278720265
0.022990003 0.040917452 0.35200003 4278524170
0.02406474 0.040801208 0.35100001 4278589963
0.02513298 0.040684965 0.35000002 4278458377
0.02626978 0.040684965 0.35000002 4278853135
0.027328275 0.040568721 0.34900001 4278458377
0.028461827 0.040568721 0.34900001 4279181328
0.029510582 0.04045248 0.34800002 4279643932
0.030640885 0.04045248 0.34800002 4278526476
0.031679891 0.040336236 0.347 4278327302
0.032806948 0.040336236 0.347 4278657802
0.033836212 0.040219992 0.34600002 4278925590
0.034960024 0.040219992 0.34600002 4278530578
0.035979543 0.040103752 0.34500003 4278197767
0.037100103 0.040103752 0.34500003 4278393867
0.03810988 0.039987508 0.34400001 4278393097
0.03911316 0.039871268 0.34300002 4278265611
0.040227227 0.039871268 0.34300002 4278200072
0.041220758 0.03975502 0.34200001 4278990099
0.042331576 0.03975502 0.34200001 4278198785
0.04331537 0.03963878 0.34100002 4278990613
0.044422939 0.03963878 0.34100002 4278727441
0.045396984 0.039522536 0.34 4278199298
0.046501301 0.039522536 0.34 4278990359
0.047465611 0.039406296 0.33900002 4279255066
0.048423421 0.039290052 0.33800003 4279190043
0.049521249 0.039290052 0.33800003 4278992664
0.050469305 0.039173808 0.33700001 4279189273
0.051410876 0.039057568 0.33600003 4279189275
0.052345946 0.038941324 0.33500001 4279189275
0.053434025 0.038941324 0.33500001 4279187992
0.054522108 0.038941324 0.33500001 4279055638
0.055444192 0.03882508 0.33400002 4279187224
0.056529019 0.03882508 0.33400002 4279121431
0.057613853 0.03882508 0.33400002 4278988564
0.058698688 0.03882508 0.33400002 4278791185
0.059783522 0.03882508 0.33400002 4278197251
0.060868353 0.03882508 0.33400002 4278195712
0.062138673 0.038941324 0.33500001 4278198787
0.063226752 0.038941324 0.33500001 4278729492
0.064314827 0.038941324 0.33500001 4278664212
0.06540291 0.038941324 0.33500001 4278927382
0.066490993 0.038941324 0.33500001 4278993175
0.067579068 0.038941324 0.33500001 4278795796
0.068667151 0.038941324 0.33500001 4278927382
0.069547012 0.03882508 0.33400002 4278533394
0.070631847 0.03882508 0.33400002 4278599187
0.071501955 0.038708836 0.333 4278796566
0.072583541 0.038708836 0.333 4278993175
0.073443912 0.038592596 0.33200002 4278992664
-0.0010684495 0.044092495 0.36900002 4280756757
0.00012971072 0.043973006 0.36800003 4280362256
0.0013249754 0.043973006 0.36800003 4281028145
0.0025202399 0.043973006 0.36800003 4279320861
0.003705408 0.04385351 0.36700001 4278665496
0.0048840805 0.043734021 0.36600003 4278731289
0.006072849 0.043734021 0.36600003 4278533910
0.0072417771 0.043614529 0.36500001 4278665496
0.0084272977 0.043614529 0.36500001 4278468117
0.0094547998 0.042897578 0.35900003 4278665496
0.010591248 0.042778086 0.35800001 4278336531
0.0117212 0.042658594 0.35700002 4278468115
0.012844655 0.042539101 0.35600001 4278533394
0.014000944 0.042539101 0.35600001 4278598417
0.015114657 0.042419609 0.35500002 4279252504
0.016267698 0.042419609 0.35500002 4279251734
0.017371666 0.042300116 0.354 4278860310
0.018521456 0.042300116 0.354 4278728211
0.019615682 0.042180628 0.35300002 4278917642
0.020762227 0.042180628 0.35300002 4278851851
0.021846708 0.042061135 0.35200003 4278786058
0.02292469 0.041941643 0.35100001 4278786058
0.02406474 0.041941643 0.35100001 4278654472
0.02513298 0.04182215 0.35000002 4278785545
0.02626978 0.04182215 0.35000002 4278719498
0.027328275 0.041702658 0.34900001 4278719498
0.028380277 0.041583166 0.34800002 4278654472
0.029510582 0.041583166 0.34800002 4278195203
0.030640885 0.041583166 0.34800002 4278195458
0.031679891 0.041463673 0.347 4278524681
0.032806948 0.041463673 0.347 4278658062
0.033836212 0.041344184 0.34600002 4278924820
0.034960024 0.041344184 0.34600002 4278197763
0.035979543 0.041224692 0.34500003 4278590474
0.037100103 0.041224692 0.34500003 4278786318
0.03810988 0.0411052 0.34400001 4278786318
0.03911316 0.040985707 0.34300002 4278789650
0.040227227 0.040985707 0.34300002 4278660115
0.041220758 0.040866215 0.34200001 4279057176
0.042331576 0.040866215 0.34200001 4279319578
0.04331537 0.040746726 0.34100002 4279448861
0.044422939 0.040746726 0.34100002 4278396173
0.045396984 0.04062723 0.34 4279121431
0.046501301 0.04062723 0.34 4278199815
0.047465611 0.040507741 0.33900002 4279320096
0.048423421 0.040388249 0.33800003 4278925849
0.049521249 0.040388249 0.33800003 4279189273
0.050469305 0.040268756 0.33700001 4278926101
0.051410876 0.040149264 0.33600003 4278795285
0.052502207 0.040149264 0.33600003 4278795285
0.053434025 0.040029772 0.33500001 4278992664
0.054522108 0.040029772 0.33500001 4278729492
0.055610187 0.040029772 0.33500001 4278992664
0.056698266 0.040029772 0.33500001 4278861078
0.057786349 0.040029772 0.33500001 4278992664
0.058874432 0.040029772 0.33500001 4279189273
0.059962511 0.040029772 0.33500001 4279188760
0.06105059 0.040029772 0.33500001 4279187990
0.062138673 0.040029772 0.33500001 4278263558
0.063226752 0.040029772 0.33500001 4279121433
0.064314827 0.040029772 0.33500001 4278795285
0.06540291 0.040029772 0.33500001 4278730005
0.066490993 0.040029772 0.33500001 4278795798
0.067377344 0.039910283 0.33400002 4278532626
0.068462178 0.039910283 0.33400002 4278730003
0.069547012 0.039910283 0.33400002 4278598417
0.07042037 0.039790787 0.333 4278598417
0.071501955 0.039790787 0.333 4278598417
0.072583541 0.039790787 0.333 4278597904
0.073443912 0.039671298 0.33200002 4278926101
0.00012971072 0.045168675 0.36800003 4280296461
0.0013213749 0.045045931 0.36700001 4281159218
0.0025133914 0.045045931 0.36700001 4278991896
0.003705408 0.045045931 0.36700001 4278928154
0.0048840805 0.044923194 0.36600003 4278993947
0.0060562561 0.044800449 0.36500001 4278731289
0.0072219367 0.044677708 0.36400002 4278665496
0.008334944 0.044309489 0.36100003 4278665496
0.0094547998 0.044064008 0.35900003 4278336531
0.010591248 0.043941263 0.35800001 4278402324
0.0117212 0.043818522 0.35700002 4278336531
0.012844655 0.043695781 0.35600001 4278599187
0.014000944 0.043695781 0.35600001 4278202889
0.015114657 0.043573041 0.35500002 4278331404
0.016267698 0.043573041 0.35500002 4278199047
0.017371666 0.0434503 0.354 4278729494
0.018521456 0.0434503 0.354 4278663701
0.019615682 0.043327559 0.35300002 4279647777
0.020762227 0.043327559 0.35300002 4279118613
0.021846708 0.043204818 0.35200003 4278656267
0.02292469 0.043082077 0.35100001 4278524168
0.02399618 0.042959336 0.35000002 4278720265
0.02513298 0.042959336 0.35000002 4278720265
0.026194721 0.042836595 0.34900001 4278851597
0.027328275 0.042836595 0.34900001 4278851597
0.028380277 0.042713854 0.34800002 4278851084
0.029510582 0.042713854 0.34800002 4278719498
0.030552836 0.04259111 0.347 4278785291
0.031679891 0.04259111 0.347 4278785804
0.032712407 0.042468373 0.34600002 4278922258
0.033836212 0.042468373 0.34600002 4278925590
0.034960024 0.042468373 0.34600002 4279253019
0.035979543 0.042345632 0.34500003 4278393867
0.037100103 0.042345632 0.34500003 4278720011
0.03810988 0.042222891 0.34400001 4278391814
0.03911316 0.04210015 0.34300002 4279382809
0.040227227 0.04210015 0.34300002 4278396427
0.041220758 0.041977406 0.34200001 4278990359
0.042331576 0.041977406 0.34200001 4278397708
0.04331537 0.041854668 0.34100002 4279514908
0.044422939 0.041854668 0.34100002 4278988564
0.045396984 0.041731924 0.34 4279187992
0.046501301 0.041731924 0.34 4279121945
0.047465611 0.041609187 0.33900002 4279054357
0.048566684 0.041609187 0.33900002 4278196992
0.049521249 0.041486446 0.33800003 4278265357
0.050469305 0.041363701 0.33700001 4278791955
0.051563885 0.041363701 0.33700001 4278198532
0.052502207 0.041240964 0.33600003 4278398224
0.053593531 0.041240964 0.33600003 4278197504
0.054522108 0.041118219 0.33500001 4278397710
0.055610187 0.041118219 0.33500001 4278991896
0.056698266 0.041118219 0.33500001 4278728724
0.057786349 0.041118219 0.33500001 4279123482
0.058874432 0.041118219 0.33500001 4278992666
0.059962511 0.041118219 0.33500001 4278861078
0.06105059 0.041118219 0.33500001 4278991894
0.062138673 0.041118219 0.33500001 4278195712
0.063226752 0.041118219 0.33500001 4279383838
0.064314827 0.041118219 0.33500001 4278927384
0.065207683 0.040995482 0.33400002 4278993177
0.066292517 0.040995482 0.33400002 4278795798
0.067377344 0.040995482 0.33400002 4278664212
0.068462178 0.040995482 0.33400002 4278795798
0.069338784 0.040872738 0.333 4278664210
0.07042037 0.040872738 0.333 4278532624
0.071501955 0.040872738 0.333 4278597904
0.072365575 0.040750001 0.33200002 4278596623
0.073443912 0.040750001 0.33200002 4278794004
0.074522242 0.040750001 0.33200002 4279053592
0.00012971072 0.046364348 0.36800003 4280230668
0.0025133914 0.046238355 0.36700001 4279646746
0.0036953117 0.046112366 0.36600003 4278992662
0.0048840805 0.046112366 0.36600003 4278992662
0.0060562561 0.045986373 0.36500001 4278795796
0.0072020958 0.045734394 0.36300001 4278927382
0.008334944 0.045482416 0.36100003 4278532624
0.0094547998 0.045230437 0.35900003 4278664210
0.010591248 0.045104444 0.35800001 4278598417
0.0117212 0.044978455 0.35700002 4278467601
0.012844655 0.044852462 0.35600001 4278401808
0.014000944 0.044852462 0.35600001 4278664212
0.015114657 0.044726476 0.35500002 4278728724
0.016267698 0.044726476 0.35500002 4278727957
0.017371666 0.044600483 0.354 4278795287
0.018521456 0.044600483 0.354 4278664214
0.019615682 0.044474494 0.35300002 4278664214
0.020703411 0.044348504 0.35200003 4279124252
0.021846708 0.044348504 0.35200003 4278991896
0.02292469 0.044222515 0.35100001 4279057176
0.02399618 0.044096526 0.35000002 4279121945
0.02506117 0.043970533 0.34900001 4279055638
0.026194721 0.043970533 0.34900001 4279646494
0.027249973 0.043844543 0.34800002 4279119383
0.028380277 0.043844543 0.34800002 4278854929
0.029425781 0.04371855 0.347 4278195459
0.030552836 0.04371855 0.347 4278523146
0.031588595 0.043592565 0.34600002 4278654986
0.032712407 0.043592565 0.34600002 4279316762
0.033836212 0.043592565 0.34600002 4278727189
0.034858983 0.043466575 0.34500003 4278660882
0.035979543 0.043466575 0.34500003 4279579934
0.036992565 0.043340582 0.34400001 4279183892
0.03810988 0.043340582 0.34400001 4279249685
0.03911316 0.043214593 0.34300002 4279253017
0.040227227 0.043214593 0.34300002 4278924566
0.041220758 0.043088604 0.34200001 4279121433
0.042331576 0.043088604 0.34200001 4279253019
0.04331537 0.042962614 0.34100002 4279319324
0.044422939 0.042962614 0.34100002 4278266122
0.045396984 0.042836621 0.34 4278199044
0.046501301 0.042836621 0.34 4278265611
0.047465611 0.042710632 0.33900002 4279910947
0.048566684 0.042710632 0.33900002 4278331915
0.049521249 0.042584646 0.33800003 4278790418
0.050619069 0.042584646 0.33800003 4278329867
0.051563885 0.042458653 0.33700001 4278593806
0.052658461 0.042458653 0.33700001 4278196992
0.053593531 0.042332664 0.33600003 4279515678
0.054684862 0.042332664 0.33600003 4279055127
0.055776194 0.042332664 0.33600003 4279053844
0.056698266 0.042206671 0.33500001 4278461705
0.057786349 0.042206671 0.33500001 4278791183
0.058874432 0.042206671 0.33500001 4278266122
0.059962511 0.042206671 0.33500001 4279189525
0.06105059 0.042206671 0.33500001 4278992146
0.062138673 0.042206671 0.33500001 4278195456
0.063226752 0.042206671 0.33500001 4279383322
0.064122848 0.042080685 0.33400002 4278795798
0.065207683 0.042080685 0.33400002 4278795798
0.066292517 0.042080685 0.33400002 4278927386
0.067377344 0.042080685 0.33400002 4278795798
0.068462178 0.042080685 0.33400002 4278795285
0.069338784 0.041954692 0.333 4278663699
0.07042037 0.041954692 0.333 4278268941
0.071287237 0.041828703 0.33200002 4278532113
0.072365575 0.041828703 0.33200002 4278399759
0.073443912 0.041828703 0.33200002 4278991383
0.074297786 0.041702714 0.33100003 4279054105
0.0013213749 0.047430772 0.36700001 4280100624
0.0025133914 0.047430772 0.36700001 4279772940
0.004870736 0.047172293 0.36500001 4279647512
0.0060562561 0.047172293 0.36500001 4278859793
0.0072020958 0.046913814 0.36300001 4279188758
0.008334944 0.046655338 0.36100003 4278794000
0.0094547998 0.046396859 0.35900003 4278925586
0.010591248 0.046267621 0.35800001 4278794515
0.0117212 0.046138383 0.35700002 4278728722
0.012844655 0.046009142 0.35600001 4278729492
0.014000944 0.046009142 0.35600001 4278730005
0.015114657 0.045879904 0.35500002 4278598419
0.016267698 0.045879904 0.35500002 4278795798
0.017371666 0.045750663 0.354 4278795798
0.018521456 0.045750663 0.354 4278730005
0.019615682 0.045621425 0.35300002 4278927384
0.020703411 0.045492187 0.35200003 4278730005
0.021846708 0.045492187 0.35200003 4278795798
0.02292469 0.045362946 0.35100001 4278664210
0.02399618 0.045233708 0.35000002 4278730003
0.02506117 0.045104466 0.34900001 4278795285
0.026119666 0.044975229 0.34800002 4278795287
0.027249973 0.044975229 0.34800002 4278861080
0.028298723 0.044845987 0.347 4278860310
0.029425781 0.044845987 0.347 4278728211
0.030464789 0.044716749 0.34600002 4278990359
0.031588595 0.044716749 0.34600002 4279121945
0.032712407 0.044716749 0.34600002 4279319326
0.033738423 0.044587512 0.34500003 4278858261
0.034858983 0.044587512 0.34500003 4278593039
0.035979543 0.044587512 0.34500003 4278196740
0.036992565 0.04445827 0.34400001 4278195200
0.03810988 0.04445827 0.34400001 4278195456
0.03911316 0.044329032 0.34300002 4278195456
0.040227227 0.044329032 0.34300002 4278329867
0.041220758 0.044199791 0.34200001 4279055127
0.042331576 0.044199791 0.34200001 4279187224
0.04331537 0.044070557 0.34100002 4278727187
0.044422939 0.044070557 0.34100002 4279187738
0.045396984 0.043941315 0.34 4279319324
0.046501301 0.043941315 0.34 4279121945
0.047465611 0.043812077 0.33900002 4278925590
0.048566684 0.043812077 0.33900002 4278991383
0.049521249 0.04368284 0.33800003 4278990613
0.050619069 0.04368284 0.33800003 4279187224
0.051563885 0.043553598 0.33700001 4279120920
0.052658461 0.043553598 0.33700001 4278857748
0.053593531 0.04342436 0.33600003 4278199561
0.054684862 0.04342436 0.33600003 4278264587
0.055776194 0.04342436 0.33600003 4279645211
0.056698266 0.043295119 0.33500001 4278987281
0.057786349 0.043295119 0.33500001 4278659086
0.058874432 0.043295119 0.33500001 4278462220
0.059962511 0.043295119 0.33500001 4278991379
0.06105059 0.043295119 0.33500001 4278925586
0.062138673 0.043295119 0.33500001 4278195968
0.063226752 0.043295119 0.33500001 4279581469
0.064122848 0.043165881 0.33400002 4278992666
0.065207683 0.043165881 0.33400002 4279058459
0.066292517 0.043165881 0.33400002 4278993179
0.067377344 0.043165881 0.33400002 4278795800
0.068257198 0.04303664 0.333 4278729492
0.069338784 0.04303664 0.333 4278597904
0.07042037 0.04303664 0.333 4278663697
0.071287237 0.042907402 0.33200002 4278532111
0.072365575 0.042907402 0.33200002 4278465550
0.073443912 0.042907402 0.33200002 4278991383
0.074297786 0.042778164 0.33100003 4278791703
0.004870736 0.048358217 0.36500001 4279114242
0.0060562561 0.048358217 0.36500001 4278393600
0.0072417771 0.048358217 0.36500001 4278855433
0.0094547998 0.047563292 0.35900003 4279383574
0.010591248 0.047430802 0.35800001 4279121685
0.0117212 0.047298312 0.35700002 4279056406
0.012844655 0.047165822 0.35600001 4278991383
0.014000944 0.047165822 0.35600001 4278860310
0.015114657 0.047033336 0.35500002 4278729494
0.016267698 0.047033336 0.35500002 4278795287
0.017371666 0.046900846 0.354 4278927386
0.018521456 0.046900846 0.354 4278730007
0.019615682 0.04676836 0.35300002 4278730007
0.020703411 0.046635874 0.35200003 4278664214
0.021846708 0.046635874 0.35200003 4278730005
0.022859378 0.046370897 0.35000002 4278927382
0.02392762 0.046238404 0.34900001 4278730003
0.02506117 0.046238404 0.34900001 4278730003
0.026119666 0.046105918 0.34800002 4278730005
0.027171666 0.045973428 0.347 4278730005
0.028298723 0.045973428 0.347 4278730005
0.029340981 0.045840941 0.34600002 4278664212
0.030464789 0.045840941 0.34600002 4278795798
0.0314973 0.045708455 0.34500003 4278664212
0.032617863 0.045708455 0.34500003 4278730005
0.033738423 0.045708455 0.34500003 4278664212
0.034858983 0.045708455 0.34500003 4278729494
0.035875253 0.045575965 0.34400001 4278795287
0.036992565 0.045575965 0.34400001 4279123482
0.037999097 0.045443479 0.34300002 4278793750
0.03911316 0.045443479 0.34300002 4279121947
0.040227227 0.045443479 0.34300002 4278726675
0.041220758 0.045310989 0.34200001 4279448861
0.042331576 0.045310989 0.34200001 4278263304
0.04331537 0.045178503 0.34100002 4278197254
0.044422939 0.045178503 0.34100002 4278195712
0.045396984 0.045046009 0.34 4278195200
0.046501301 0.045046009 0.34 4278197511
0.047465611 0.044913523 0.33900002 4278462990
0.048566684 0.044913523 0.33900002 4278726675
0.049521249 0.044781037 0.33800003 4279450910
0.050619069 0.044781037 0.33800003 4278859543
0.051563885 0.044648547 0.33700001 4278860310
0.052658461 0.044648547 0.33700001 4278860310
0.053593531 0.044516061 0.33600003 4279122199
0.054684862 0.044516061 0.33600003 4279516957
0.055776194 0.044516061 0.33600003 4280108326
0.056867518 0.044516061 0.33600003 4279252504
0.057786349 0.044383571 0.33500001 4278198018
0.058874432 0.044383571 0.33500001 4278856978
0.059962511 0.044383571 0.33500001 4279057176
0.06105059 0.044383571 0.33500001 4278991383
0.062138673 0.044383571 0.33500001 4278196224
0.063226752 0.044383571 0.33500001 4279187224
0.064314827 0.044383571 0.33500001 4278795285
0.065207683 0.044251084 0.33400002 4278795285
0.066292517 0.044251084 0.33400002 4278795798
0.067377344 0.044251084 0.33400002 4278730005
0.068257198 0.044118594 0.333 4278795796
0.069338784 0.044118594 0.333 4278730003
0.07042037 0.044118594 0.333 4278532624
0.071287237 0.043986108 0.33200002 4278532111
0.072365575 0.043986108 0.33200002 4278728722
0.073443912 0.043986108 0.33200002 4279255066
0.074297786 0.043853618 0.33100003 4278660369
0.014000944 0.048322503 0.35600001 4279119635
0.015114657 0.048186764 0.35500002 4278923541
0.022859378 0.04750808 0.35000002 4279058459
0.02392762 0.047372341 0.34900001 4278927386
0.024989363 0.047236603 0.34800002 4278795800
0.026044609 0.047100864 0.347 4278730007
0.027171666 0.047100864 0.347 4278730007
0.02821717 0.04696513 0.34600002 4278927386
0.029340981 0.04696513 0.34600002 4278664214
0.030376742 0.046829391 0.34500003 4278664212
0.0314973 0.046829391 0.34500003 4278532626
0.032617863 0.046829391 0.34500003 4278664212
0.033738423 0.046829391 0.34500003 4278598419
0.034757942 0.046693653 0.34400001 4278533396
0.035875253 0.046693653 0.34400001 4278533396
0.036992565 0.046693653 0.34400001 4278467603
0.037999097 0.046557918 0.34300002 4278533396
0.03911316 0.046557918 0.34300002 4278664982
0.040227227 0.046557918 0.34300002 4278533396
0.041220758 0.04642218 0.34200001 4278730007
0.042331576 0.04642218 0.34200001 4278795287
0.04331537 0.046286441 0.34100002 4279188762
0.044422939 0.046286441 0.34100002 4279187992
0.045396984 0.046150703 0.34 4279647775
0.046501301 0.046150703 0.34 4279581471
0.047465611 0.046014968 0.33900002 4279382809
0.048566684 0.046014968 0.33900002 4278659086
0.049521249 0.04587923 0.33800003 4278196226
0.050619069 0.04587923 0.33800003 4278194944
0.051563885 0.045743492 0.33700001 4278194432
0.052658461 0.045743492 0.33700001 4278196225
0.053753033 0.045743492 0.33700001 4278198023
0.054684862 0.045607757 0.33600003 4278988564
0.055776194 0.045607757 0.33600003 4279450650
0.056867518 0.045607757 0.33600003 4279385371
0.057786349 0.045472018 0.33500001 4279385371
0.058874432 0.045472018 0.33500001 4279122199
0.059962511 0.045472018 0.33500001 4278794004
0.06105059 0.045472018 0.33500001 4278728211
0.062138673 0.045472018 0.33500001 4278264587
0.063226752 0.045472018 0.33500001 4279318810
0.064314827 0.045472018 0.33500001 4278926101
0.065207683 0.04533628 0.33400002 4278992664
0.066292517 0.04533628 0.33400002 4278795798
0.067377344 0.04533628 0.33400002 4278927384
0.068257198 0.045200542 0.333 4278795798
0.069338784 0.045200542 0.333 4278598419
0.07042037 0.045200542 0.333 4278598419
0.071287237 0.045064807 0.33200002 4278532626
0.072365575 0.045064807 0.33200002 4278728209
0.073443912 0.045064807 0.33200002 4278991381
0.074297786 0.044929069 0.33100003 4278725392
0.023859059 0.048367295 0.34800002 4279385889
0.024989363 0.048367295 0.34800002 4279451682
0.026044609 0.048228305 0.347 4279189793
0.027171666 0.048228305 0.347 4279189793
0.02821717 0.048089322 0.34600002 4279058205
0.029256182 0.047950335 0.34500003 4278860826
0.030376742 0.047950335 0.34500003 4278992666
0.0314973 0.047950335 0.34500003 4278861080
0.032523315 0.047811348 0.34400001 4278663701
0.033640627 0.047811348 0.34400001 4278532115
0.034757942 0.047811348 0.34400001 4278664212
0.035875253 0.047811348 0.34400001 4278532626
0.036885031 0.047672361 0.34300002 4278532626
0.037999097 0.047672361 0.34300002 4278664212
0.03911316 0.047672361 0.34300002 4278664982
0.040227227 0.047672361 0.34300002 4278533396
0.041220758 0.047533374 0.34200001 4278533396
0.042331576 0.047533374 0.34200001 4278598419
0.04331537 0.047394387 0.34100002 4278532115
0.044422939 0.047394387 0.34100002 4278729494
0.045530509 0.047394387 0.34100002 4278729494
0.046501301 0.047255401 0.34 4279058459
0.047605623 0.047255401 0.34 4278728724
0.048566684 0.047116414 0.33900002 4278991896
0.049667757 0.047116414 0.33900002 4279057176
0.050619069 0.046977431 0.33800003 4279451164
0.051563885 0.04683844 0.33700001 4279121431
0.052658461 0.04683844 0.33700001 4279647262
0.053753033 0.04683844 0.33700001 4279449115
0.054684862 0.046699457 0.33600003 4278856978
0.055776194 0.046699457 0.33600003 4278195969
0.056867518 0.046699457 0.33600003 4278196226
0.057786349 0.046560466 0.33500001 4278195456
0.058874432 0.046560466 0.33500001 4278195200
0.059962511 0.046560466 0.33500001 4278195712
0.06105059 0.046560466 0.33500001 4278329097
0.062138673 0.046560466 0.33500001 4278592523
0.063226752 0.046560466 0.33500001 4279450650
0.064314827 0.046560466 0.33500001 4278795285
0.06540291 0.046560466 0.33500001 4278993177
0.066292517 0.046421483 0.33400002 4278664212
0.067377344 0.046421483 0.33400002 4278730005
0.068257198 0.046282496 0.333 4278795798
0.069338784 0.046282496 0.333 4278598419
0.07042037 0.046282496 0.333 4278598419
0.071287237 0.046143509 0.33200002 4278532113
0.072365575 0.046143509 0.33200002 4278728209
0.073443912 0.046143509 0.33200002 4279122197
0.074297786 0.046004526 0.33100003 4280237866
0.029256182 0.049071278 0.34500003 4279121181
0.030376742 0.049071278 0.34500003 4279450658
0.031406004 0.048929039 0.34400001 4279516705
0.032523315 0.048929039 0.34400001 4279320094
0.033640627 0.048929039 0.34400001 4279189021
0.034757942 0.048929039 0.34400001 4279123482
0.035875253 0.048929039 0.34400001 4278991896
0.036885031 0.048786808 0.34300002 4278991896
0.037999097 0.048786808 0.34300002 4278860310
0.03911316 0.048786808 0.34300002 4278794517
0.040227227 0.048786808 0.34300002 4278861080
0.041220758 0.048644569 0.34200001 4278729494
0.042331576 0.048644569 0.34200001 4278729494
0.043442391 0.048644569 0.34200001 4278664214
0.044422939 0.048502333 0.34100002 4278730007
0.045530509 0.048502333 0.34100002 4278730007
0.046501301 0.048360098 0.34 4278730007
0.047605623 0.048360098 0.34 4278795800
0.048566684 0.048217863 0.33900002 4278664214
0.049667757 0.048217863 0.33900002 4278795800
0.050619069 0.048075628 0.33800003 4278664214
0.051716894 0.048075628 0.33800003 4279189275
0.052658461 0.047933392 0.33700001 4278991896
0.053753033 0.047933392 0.33700001 4278794517
0.054684862 0.047791157 0.33600003 4278991896
0.055776194 0.047791157 0.33600003 4278860310
0.056867518 0.047791157 0.33600003 4278859797
0.057786349 0.047648918 0.33500001 4279451164
0.058874432 0.047648918 0.33500001 4279187738
0.059962511 0.047648918 0.33500001 4279252252
0.06105059 0.047648918 0.33500001 4279712033
0.062138673 0.047648918 0.33500001 4279713822
0.063226752 0.047648918 0.33500001 4279057174
0.064314827 0.047648918 0.33500001 4279123480
0.06540291 0.047648918 0.33500001 4278861078
0.066292517 0.047506686 0.33400002 4278795798
0.067377344 0.047506686 0.33400002 4278664212
0.068462178 0.047506686 0.33400002 4278598419
0.069338784 0.047364447 0.333 4278598419
0.07042037 0.047364447 0.333 4278794515
0.071287237 0.047222216 0.33200002 4278728722
0.072365575 0.047222216 0.33200002 4278596623
0.073443912 0.047222216 0.33200002 4278595855
0.074297786 0.04707998 0.33100003 4284710254
0.031406004 0.050046727 0.34400001 4284644711
0.032523315 0.050046727 0.34400001 4282276931
0.033640627 0.050046727 0.34400001 4280040485
0.034757942 0.050046727 0.34400001 4279054357
0.035770968 0.049901247 0.34300002 4279515678
0.036885031 0.049901247 0.34300002 4279450398
0.037999097 0.049901247 0.34300002 4279450912
0.03911316 0.049901247 0.34300002 4279385887
0.040227227 0.049901247 0.34300002 4279320094
0.041220758 0.04975576 0.34200001 4279189021
0.042331576 0.04975576 0.34200001 4279320861
0.043442391 0.04975576 0.34200001 4279255068
0.044422939 0.049610276 0.34100002 4279189275
0.045530509 0.049610276 0.34100002 4279058459
0.046501301 0.049464788 0.34 4279058459
0.047605623 0.049464788 0.34 4278992666
0.048566684 0.049319305 0.33900002 4278992666
0.049667757 0.049319305 0.33900002 4278992666
0.050619069 0.049173824 0.33800003 4278795287
0.051716894 0.049173824 0.33800003 4278795287
0.052658461 0.049028337 0.33700001 4278729494
0.053753033 0.049028337 0.33700001 4278663701
0.054684862 0.048882853 0.33600003 4278861080
0.055776194 0.048882853 0.33600003 4278861078
0.056867518 0.048882853 0.33600003 4278861078
0.057786349 0.048737366 0.33500001 4278861078
0.058874432 0.048737366 0.33500001 4278795287
0.059962511 0.048737366 0.33500001 4278926103
0.06105059 0.048737366 0.33500001 4278926103
0.062138673 0.048737366 0.33500001 4278926101
0.063226752 0.048737366 0.33500001 4278860308
0.064314827 0.048737366 0.33500001 4278861076
0.06540291 0.048737366 0.33500001 4278795283
0.066292517 0.048591882 0.33400002 4278795796
0.067377344 0.048591882 0.33400002 4278532624
0.068462178 0.048591882 0.33400002 4278664210
0.069338784 0.048446395 0.333 4278598417
0.07042037 0.048446395 0.333 4278531341
0.071287237 0.048300914 0.33200002 4278531343
0.072365575 0.048300914 0.33200002 4278990613
0.073443912 0.048300914 0.33200002 4278791185
0.074297786 0.048155431 0.33100003 4284446571
0.035770968 0.05101569 0.34300002 4284447334
0.036885031 0.05101569 0.34300002 4284711018
0.037999097 0.05101569 0.34300002 4283922272
0.03911316 0.05101569 0.34300002 4282869588
0.040227227 0.05101569 0.34300002 4280698417
0.04134129 0.05101569 0.34300002 4280040485
0.042331576 0.050866954 0.34200001 4279382809
0.043442391 0.050866954 0.34200001 4279251736
0.044422939 0.050718222 0.34100002 4279646494
0.045530509 0.050718222 0.34100002 4279516189
0.046501301 0.050569486 0.34 4279713568
0.047605623 0.050569486 0.34 4279713822
0.048566684 0.050420754 0.33900002 4279648543
0.049667757 0.050420754 0.33900002 4279386141
0.050619069 0.050272021 0.33800003 4279451680
0.051716894 0.050272021 0.33800003 4279320607
0.052658461 0.050123286 0.33700001 4279320607
0.053753033 0.050123286 0.33700001 4279452193
0.054684862 0.049974553 0.33600003 4279386400
0.055776194 0.049974553 0.33600003 4279320861
0.056867518 0.049974553 0.33600003 4279320861
0.057786349 0.049825817 0.33500001 4279058459
0.058874432 0.049825817 0.33500001 4279124252
0.059962511 0.049825817 0.33500001 4278795287
0.06105059 0.049825817 0.33500001 4278861080
0.062138673 0.049825817 0.33500001 4278729492
0.063226752 0.049825817 0.33500001 4278795285
0.064314827 0.049825817 0.33500001 4278663699
0.06540291 0.049825817 0.33500001 4278795285
0.066490993 0.049825817 0.33500001 4278795285
0.067377344 0.049677085 0.33400002 4278795285
0.068462178 0.049677085 0.33400002 4278597906
0.069338784 0.049528349 0.333 4278663699
0.07042037 0.049528349 0.333 4278794515
0.071501955 0.049528349 0.333 4278925588
0.072365575 0.049379617 0.33200002 4279251734
0.073443912 0.049379617 0.33200002 4283000400
0.035770968 0.052130129 0.34300002 4284577637
0.036885031 0.052130129 0.34300002 4284315235
0.037999097 0.052130129 0.34300002 4284315235
0.03911316 0.052130129 0.34300002 4284381028
0.040227227 0.052130129 0.34300002 4284052063
0.04134129 0.052130129 0.34300002 4284315233
0.042455353 0.052130129 0.34300002 4284052574
0.043569416 0.052130129 0.34300002 4284776299
0.044683482 0.052130129 0.34300002 4284710506
0.045797549 0.052130129 0.34300002 4284973163
0.046501301 0.051674176 0.34 4285236335
0.047605623 0.051674176 0.34 4284447332
0.048709948 0.051674176 0.34 4284053088
0.049667757 0.051522195 0.33900002 4282606666
0.050619069 0.051370215 0.33800003 4281290806
0.051716894 0.051370215 0.33800003 4279909414
0.052658461 0.05121823 0.33700001 4279317277
0.053753033 0.05121823 0.33700001 4279054105
0.054684862 0.05106625 0.33600003 4279185691
0.055776194 0.05106625 0.33600003 4279318558
0.056867518 0.05106625 0.33600003 4279515937
0.057958849 0.05106625 0.33600003 4279581982
0.058874432 0.050914265 0.33500001 4279516703
0.059962511 0.050914265 0.33500001 4279254555
0.06105059 0.050914265 0.33500001 4279451934
0.062138673 0.050914265 0.33500001 4279188762
0.063226752 0.050914265 0.33500001 4279320348
0.064314827 0.050914265 0.33500001 4279255068
0.06540291 0.050914265 0.33500001 4279255068
0.066490993 0.050914265 0.33500001 4279386652
0.067377344 0.050762285 0.33400002 4279189273
0.068462178 0.050762285 0.33400002 4279320859
0.069547012 0.050762285 0.33400002 4278794517
0.07042037 0.050610296 0.333 4278925590
0.071501955 0.050610296 0.333 4278595603
0.072365575 0.050458316 0.33200002 4281552442
0.03911316 0.053244572 0.34300002 4284380258
0.040227227 0.053244572 0.34300002 4284446051
0.055776194 0.05215795 0.33600003 4286092675
0.056867518 0.05215795 0.33600003 4285763710
0.057958849 0.05215795 0.33600003 4285303929
0.058874432 0.052002717 0.33500001 4284843378
0.059962511 0.052002717 0.33500001 4283788893
0.06105059 0.052002717 0.33500001 4282605130
0.062138673 0.052002717 0.33500001 4280961589
0.063226752 0.052002717 0.33500001 4280369452
0.064314827 0.052002717 0.33500001 4279448348
0.06540291 0.052002717 0.33500001 4279382809
0.066490993 0.052002717 0.33500001 4278922256
0.067377344 0.051847484 0.33400002 4279053072
0.068462178 0.051847484 0.33400002 4278790672
0.069547012 0.051847484 0.33400002 4279317016
0.07042037 0.051692251 0.333 4280303657
0.071501955 0.051692251 0.333 4281881921
0.058874432 0.053091161 0.33500001 4285301878
0.059962511 0.053091161 0.33500001 4285038706
0.037934437 0.041850854 0.34594882 4294967295
0.037934437 0.041850854 0.34594882 4294901760
0.037964646 0.041352432 0.34592307 4294901760
0.03799485 0.040854011 0.34589732 4294901760
0.038025059 0.040355589 0.34587157 4294901760
0.038055267 0.039857164 0.34584582 4294901760
0.038085472 0.039358743 0.34582007 4294901760
0.03811568 0.038860321 0.34579432 4294901760
0.038145889 0.0383619 0.34576857 4294901760
0.038176093 0.037863478 0.34574282 4294901760
0.038206302 0.037365057 0.34571707 4294901760
0.03823651 0.036866635 0.34569132 4294901760
0.038266715 0.036368214 0.34566557 4294901760
0.038296923 0.035869792 0.34563982 4294901760
0.038327131 0.035371367 0.34561408 4294901760
0.038357336 0.034872945 0.34558833 4294901760
0.038387544 0.034374524 0.34556258 4294901760
0.038417753 0.033876102 0.34553683 4294901760
0.038447957 0.033377681 0.34551105 4294901760
0.038478166 0.032879256 0.3454853 4294901760
0.038508374 0.032380834 0.34545955 4294901760
0.038538579 0.031882413 0.3454338 4294901760
0.038568787 0.031383991 0.34540805 4294901760
0.038598996 0.03088557 0.3453823 4294901760
0.0386292 0.030387148 0.34535655 4294901760
0.038659409 0.029888727 0.3453308 4294901760
0.038689617 0.029390305 0.34530506 4294901760
0.038719822 0.028891884 0.34527931 4294901760
0.03875003 0.028393459 0.34525356 4294901760
0.038780238 0.027895037 0.34522781 4294901760
0.038810443 0.027396616 0.34520206 4294901760
0.038840652 0.026898194 0.34517631 4294901760
0.03887086 0.026399773 0.34515056 4294901760
0.038901065 0.025901351 0.34512481 4294901760
0.038931273 0.025402928 0.34509906 4294901760
0.038961481 0.024904506 0.34507331 4294901760
0.038991686 0.024406085 0.34504756 4294901760
0.039021894 0.023907661 0.34502181 4294901760
0.039052103 0.02340924 0.34499606 4294901760
0.039082307 0.022910818 0.34497032 4294901760
0.039112516 0.022412397 0.34494457 4294901760
0.039142724 0.021913974 0.34491882 4294901760
0.039172929 0.021415552 0.34489307 4294901760
0.039203137 0.020917131 0.34486732 4294901760
0.039233346 0.020418709 0.34484157 4294901760
0.03926355 0.019920288 0.34481582 4294901760
0.039293759 0.019421866 0.34479007 4294901760
0.039323967 0.018923443 0.34476432 4294901760
0.039354175 0.018425021 0.34473857 4294901760
0.03938438 0.0179266 0.34471282 4294901760
0.039414588 0.017428176 0.34468707 4294901760
0.039444797 0.016929755 0.3446613 4294901760
0.039475001 0.016431333 0.34463555 4294901760
0.03950521 0.015932912 0.3446098 4294901760
0.039535418 0.015434491 0.34458405 4294901760
0.039565623 0.014936065 0.3445583 4294901760
0.039595831 0.014437644 0.34453255 4294901760
0.03962604 0.013939222 0.3445068 4294901760
0.039656244 0.013440801 0.34448105 4294901760
0.039686453 0.012942379 0.3444553 4294901760
0.039716661 0.012443958 0.34442955 4294901760
0.039746866 0.011945534 0.3444038 4294901760
0.039777074 0.011447113 0.34437805 4294901760
0.039807282 0.010948692 0.3443523 4294901760
0.039837487 0.01045027 0.34432656 4294901760
0.039867695 0.0099518485 0.34430081 4294901760
0.039897904 0.009453427 0.34427506 4294901760
0.039928108 0.0089550018 0.34424931 4294901760
0.039958317 0.0084565803 0.34422356 4294901760
0.039988525 0.0079581589 0.34419781 4294901760
0.04001873 0.0074597374 0.34417206 4294901760
0.040048938 0.0069613159 0.34414631 4294901760
0.040079147 0.0064628944 0.34412056 4294901760
0.040109351 0.0059644692 0.34409481 4294901760
0.04013956 0.0054660477 0.34406906 4294901760
0.040169768 0.0049676262 0.34404331 4294901760
0.040199973 0.0044692047 0.34401757 4294901760
0.040230181 0.0039707832 0.34399182 4294901760
0.040260389 0.0034723617 0.34396607 4294901760
0.040290594 0.0029739402 0.34394032 4294901760
0.040320802 0.002475515 0.34391457 4294901760
0.040351011 0.0019770935 0.34388882 4294901760
0.040381216 0.001478672 0.34386307 4294901760
0.040411424 0.00098025054 0.34383732 4294901760
0.040441632 0.00048182905 0.34381157 4294901760
0.040471837 -1.6592443e-05 0.34378579 4294901760
0.040502045 -0.00051501393 0.34376004 4294901760
0.040532254 -0.0010134354 0.34373429 4294901760
0.040562458 -0.0015118569 0.34370854 4294901760
0.040592667 -0.0020102784 0.3436828 4294901760
0.040622875 -0.0025086999 0.34365705 4294901760
0.04065308 -0.0030071214 0.3436313 4294901760
0.040683288 -0.0035055466 0.34360555 4294901760
0.040713497 -0.0040039681 0.3435798 4294901760
0.040743701 -0.0045023896 0.34355405 4294901760
0.04077391 -0.0050008111 0.3435283 4294901760
0.040804118 -0.0054992326 0.34350255 4294901760
0.040834323 -0.0059976541 0.3434768 4294901760
0.040864531 -0.0064960793 0.34345105 4294901760
0.040894739 -0.0069945008 0.3434253 4294901760
0.040924944 -0.0074929222 0.34339955 4294901760
0.040955152 -0.0079913437 0.34337381 4294901760
0.037934437 0.041850854 0.34594882 4278255360
0.03837534 0.041889593 0.34571621 4278255360
0.038816247 0.041928329 0.3454836 4278255360
0.03925715 0.041967068 0.34525102 4278255360
0.039698057 0.042005807 0.34501842 4278255360
0.04013896 0.042044543 0.34478581 4278255360
0.040579863 0.042083282 0.34455323 4278255360
0.04102077 0.042122021 0.34432063 4278255360
0.041461673 0.042160757 0.34408802 4278255360
0.041902579 0.042199496 0.34385541 4278255360
0.042343482 0.042238235 0.3436228 4278255360
0.042784385 0.042276971 0.34339023 4278255360
0.043225292 0.04231571 0.34315762 4278255360
0.043666195 0.04235445 0.34292501 4278255360
0.044107102 0.042393185 0.34269243 4278255360
0.044548005 0.042431924 0.34245983 4278255360
0.044988908 0.042470664 0.34222722 4278255360
0.045429815 0.042509399 0.34199461 4278255360
0.045870718 0.042548139 0.34176201 4278255360
0.046311624 0.042586878 0.34152943 4278255360
0.046752527 0.042625614 0.34129682 4278255360
0.04719343 0.042664353 0.34106421 4278255360
0.047634337 0.042703092 0.34083164 4278255360
0.04807524 0.042741828 0.34059903 4278255360
0.048516147 0.042780567 0.34036642 4278255360
0.04895705 0.042819306 0.34013382 4278255360
0.049397953 0.042858042 0.33990121 4278255360
0.04983886 0.042896781 0.33966863 4278255360
0.050279763 0.04293552 0.33943602 4278255360
0.050720669 0.042974256 0.33920342 4278255360
0.051161572 0.043012995 0.33897081 4278255360
0.051602475 0.043051735 0.33873823 4278255360
0.052043382 0.04309047 0.33850563 4278255360
0.052484285 0.043129209 0.33827302 4278255360
0.052925192 0.043167949 0.33804041 4278255360
0.053366095 0.043206684 0.33780783 4278255360
0.053806998 0.043245424 0.33757523 4278255360
0.054247905 0.043284163 0.33734262 4278255360
0.054688808 0.043322898 0.33711004 4278255360
0.055129714 0.043361638 0.33687744 4278255360
0.055570617 0.043400377 0.33664483 4278255360
0.05601152 0.043439113 0.33641222 4278255360
0.056452423 0.043477852 0.33617961 4278255360
0.056893334 0.043516591 0.33594704 4278255360
0.057334237 0.043555327 0.33571443 4278255360
0.05777514 0.043594066 0.33548182 4278255360
0.058216043 0.043632805 0.33524925 4278255360
0.05865695 0.043671541 0.33501664 4278255360
0.059097853 0.04371028 0.33478403 4278255360
0.059538759 0.04374902 0.33455142 4278255360
0.059979662 0.043787755 0.33431882 4278255360
0.060420565 0.043826494 0.33408624 4278255360
0.060861468 0.043865234 0.33385363 4278255360
0.061302375 0.043903969 0.33362103 4278255360
0.061743282 0.043942709 0.33338842 4278255360
0.062184185 0.043981448 0.33315584 4278255360
0.062625088 0.044020183 0.33292323 4278255360
0.063065991 0.044058923 0.33269063 4278255360
0.063506901 0.044097662 0.33245802 4278255360
0.063947804 0.044136398 0.33222544 4278255360
0.064388707 0.044175137 0.33199283 4278255360
0.06482961 0.044213876 0.33176023 4278255360
0.065270513 0.044252615 0.33152765 4278255360
0.065711424 0.044291351 0.33129504 4278255360
0.066152327 0.04433009 0.33106244 4278255360
0.06659323 0.044368826 0.33082983 4278255360
0.067034133 0.044407565 0.33059722 4278255360
0.067475036 0.044446304 0.33036464 4278255360
0.067915946 0.044485044 0.33013204 4278255360
0.068356849 0.044523779 0.32989943 4278255360
0.068797752 0.044562519 0.32966685 4278255360
0.069238655 0.044601258 0.32943425 4278255360
0.069679558 0.044639993 0.32920164 4278255360
0.070120469 0.044678733 0.32896903 4278255360
0.070561372 0.044717472 0.32873642 4278255360
0.071002275 0.044756208 0.32850385 4278255360
0.071443178 0.044794947 0.32827124 4278255360
0.071884081 0.044833686 0.32803863 4278255360
0.072324991 0.044872422 0.32780606 4278255360
0.072765894 0.044911161 0.32757345 4278255360
0.073206797 0.0449499 0.32734084 4278255360
0.0736477 0.044988636 0.32710823 4278255360
0.074088603 0.045027375 0.32687563 4278255360
0.074529514 0.045066115 0.32664305 4278255360
0.074970409 0.04510485 0.32641044 4278255360
0.07541132 0.045143589 0.32617784 4278255360
0.07585223 0.045182329 0.32594526 4278255360
0.076293126 0.045221064 0.32571265 4278255360
0.076734036 0.045259804 0.32548004 4278255360
0.077174932 0.045298543 0.32524744 4278255360
0.077615842 0.045337278 0.32501483 4278255360
0.078056753 0.045376018 0.32478225 4278255360
0.078497648 0.045414757 0.32454965 4278255360
0.078938559 0.045453493 0.32431704 4278255360
0.079379462 0.045492232 0.32408446 4278255360
0.079820365 0.045530971 0.32385185 4278255360
0.080261268 0.045569707 0.32361925 4278255360
0.080702171 0.045608446 0.32338664 4278255360
0.081143081 0.045647185 0.32315403 4278255360
0.081583984 0.045685921 0.32292145 4278255360
0.082024887 0.04572466 0.32268885 4278255360
0.037934437 0.041850854 0.34594882 4278190335
0.03815262 0.04184084 0.34639859 4278190335
0.038370807 0.041830827 0.34684837 4278190335
0.03858899 0.041820813 0.34729815 4278190335
0.038807176 0.041810799 0.34774789 4278190335
0.039025359 0.041800786 0.34819767 4278190335
0.039243542 0.041790772 0.34864745 4278190335
0.039461728 0.041780759 0.34909722 4278190335
0.039679911 0.041770745 0.349547 4278190335
0.039898098 0.041760731 0.34999678 4278190335
0.04011628 0.041750718 0.35044655 4278190335
0.040334463 0.041740704 0.3508963 4278190335
0.04055265 0.041730691 0.35134608 4278190335
0.040770832 0.041720681 0.35179585 4278190335
0.040989019 0.041710667 0.35224563 4278190335
0.041207202 0.041700654 0.35269541 4278190335
0.041425385 0.04169064 0.35314518 4278190335
0.041643571 0.041680627 0.35359496 4278190335
0.041861754 0.041670613 0.35404474 4278190335
0.04207994 0.041660599 0.35449448 4278190335
0.042298123 0.041650586 0.35494426 4278190335
0.042516306 0.041640572 0.35539404 4278190335
0.042734493 0.041630559 0.35584381 4278190335
0.042952675 0.041620545 0.35629359 4278190335
0.043170862 0.041610532 0.35674337 4278190335
0.043389045 0.041600518 0.35719311 4278190335
0.043607228 0.041590504 0.35764289 4278190335
0.043825414 0.041580491 0.35809267 4278190335
0.044043597 0.041570477 0.35854244 4278190335
0.044261783 0.041560464 0.35899222 4278190335
0.044479966 0.04155045 0.359442 4278190335
0.044698149 0.041540436 0.35989177 4278190335
0.044916335 0.041530423 0.36034155 4278190335
0.045134518 0.041520409 0.3607913 4278190335
0.045352705 0.041510396 0.36124107 4278190335
0.045570888 0.041500382 0.36169085 4278190335
0.04578907 0.041490369 0.36214063 4278190335
0.046007257 0.041480355 0.3625904 4278190335
0.04622544 0.041470345 0.36304018 4278190335
0.046443626 0.041460332 0.36348993 4278190335
0.046661809 0.041450318 0.3639397 4278190335
0.046879992 0.041440304 0.36438948 4278190335
0.047098178 0.041430291 0.36483926 4278190335
0.047316361 0.041420277 0.36528903 4278190335
0.047534548 0.041410264 0.36573881 4278190335
0.047752731 0.04140025 0.36618859 4278190335
0.047970913 0.041390236 0.36663836 4278190335
0.0481891 0.041380223 0.36708811 4278190335
0.048407283 0.041370209 0.36753789 4278190335
0.048625469 0.041360196 0.36798766 4278190335
0.048843652 0.041350182 0.36843744 4278190335
0.049061835 0.041340169 0.36888722 4278190335
0.049280021 0.041330155 0.36933699 4278190335
0.049498204 0.041320141 0.36978677 4278190335
0.049716391 0.041310128 0.37023652 4278190335
0.049934573 0.041300114 0.37068629 4278190335
0.050152756 0.041290101 0.37113607 4278190335
0.050370943 0.041280087 0.37158585 4278190335
0.050589126 0.041270074 0.37203562 4278190335
0.050807312 0.04126006 0.3724854 4278190335
0.051025495 0.041250046 0.37293518 4278190335
0.051243678 0.041240033 0.37338495 4278190335
0.051461864 0.041230019 0.3738347 4278190335
0.051680047 0.041220009 0.37428448 4278190335
0.051898234 0.041209996 0.37473425 4278190335
0.052116416 0.041199982 0.37518403 4278190335
0.052334599 0.041189969 0.37563381 4278190335
0.052552786 0.041179955 0.37608358 4278190335
0.052770969 0.041169941 0.37653333 4278190335
0.052989155 0.041159928 0.37698311 4278190335
0.053207338 0.041149914 0.37743288 4278190335
0.053425521 0.041139901 0.37788266 4278190335
0.053643707 0.041129887 0.37833244 4278190335
0.053861894 0.041119874 0.37878221 4278190335
0.054080077 0.04110986 0.37923199 4278190335
0.054298259 0.041099846 0.37968177 4278190335
0.054516442 0.041089833 0.38013151 4278190335
0.054734625 0.041079819 0.38058129 4278190335
0.054952811 0.041069806 0.38103107 4278190335
0.055170998 0.041059792 0.38148084 4278190335
0.055389181 0.041049778 0.38193062 4278190335
0.055607364 0.041039765 0.3823804 4278190335
0.05582555 0.041029751 0.38283014 4278190335
0.056043733 0.041019738 0.38327992 4278190335
0.056261919 0.041009724 0.3837297 4278190335
0.056480102 0.040999711 0.38417947 4278190335
0.056698285 0.040989697 0.38462925 4278190335
0.056916472 0.040979683 0.38507903 4278190335
0.057134654 0.040969674 0.3855288 4278190335
0.057352841 0.04095966 0.38597858 4278190335
0.057571024 0.040949646 0.38642833 4278190335
0.057789207 0.040939633 0.3868781 4278190335
0.058007393 0.040929619 0.38732788 4278190335
0.058225576 0.040919606 0.38777766 4278190335
0.058443762 0.040909592 0.38822743 4278190335
0.058661945 0.040899578 0.38867721 4278190335
0.058880128 0.040889565 0.38912696 4278190335
0.059098314 0.040879551 0.38957673 4278190335
0.059316501 0.040869538 0.39002651 4278190335
0.059534684 0.040859524 0.39047629 4278190335
0.059752867 0.040849511 0.39092606 4278190335
0.037934437 0.041850854 0.34594882 4294967295
0.036625333 0.041910935 0.34325019 4294967295
0.035316225 0.041971017 0.34055156 4294967295
0.034007121 0.042031094 0.3378529 4294967295
0.032698013 0.042091176 0.33515427 4294967295
0.031388909 0.042151257 0.33245564 4294967295
0.030079802 0.042211339 0.329757 4294967295
0.028770696 0.042271417 0.32705837 4294967295
0.02746159 0.042331498 0.32435974 4294967295
0.026152484 0.04239158 0.32166108 4294967295
0.024843378 0.042451661 0.31896245 4294967295
0.023534272 0.042511739 0.31626382 4294967295
0.022225168 0.04257182 0.31356519 4294967295
0.020916061 0.042631902 0.31086656 4294967295
0.019606955 0.042691983 0.30816793 4294967295
0.018297847 0.042752065 0.30546927 4294967295
0.016988743 0.042812143 0.30277064 4294967295
0.015679637 0.042872224 0.30007201 4294967295
0.014370531 0.042932305 0.29737338 4294967295
0.013061425 0.042992387 0.29467475 4294967295
0.011752319 0.043052465 0.29197609 4294967295
0.010443214 0.043112546 0.28927746 4294967295
0.0091341082 0.043172628 0.28657883 4294967295
0.0078250002 0.043232709 0.2838802 4294967295
0.0065158978 0.043292787 0.28118157 4294967295
0.0052067898 0.043352868 0.27848291 4294967295
0.0038976856 0.04341295 0.27578431 4294967295
0.0025885776 0.043473031 0.27308565 4294967295
0.0012794733 0.043533113 0.27038702 4294967295
