# .PCD v0.7 - Point Cloud Data file format
VERSION 0.7
FIELDS x y z rgb
SIZE 4 4 4 4
TYPE F F F U
COUNT 1 1 1 1
WIDTH 655
HEIGHT 1
VIEWPOINT 0 0 0 1 0 0 0
POINTS 655
DATA ascii
-0.020871572 0.041745644 0.59000003 4279126047
-0.018955249 0.041745644 0.59000003 4279060765
-0.01701005 0.04167489 0.58900005 4278929179
-0.020765444 0.043440599 0.58700001 4278928156
-0.01882674 0.043366596 0.58600003 4278928668
-0.016923411 0.043366596 0.58600003 4278797595
-0.014943186 0.04314458 0.583 4278731802
-0.0053156065 0.041886508 0.56600004 4278797343
-0.0034649502 0.041738499 0.56400001 4278732068
-0.0016330772 0.041738499 0.56400001 4278467613
-0.020694694 0.045193318 0.58500004 4279124511
-0.018762486 0.045116063 0.58400005 4279059742
-0.016836772 0.045038808 0.583 4278797082
-0.014891924 0.044884302 0.58100003 4278797082
-0.0090558939 0.044034515 0.57000005 4278731802
-0.0071666148 0.043802753 0.56700003 4278600216
-0.0053062146 0.043648243 0.565 4278729753
-0.0034649502 0.043570992 0.56400001 4279058718
-0.0016301817 0.043493737 0.56300002 4278862109
0.00019773837 0.043339234 0.56100005 4278862109
0.0020162668 0.043261975 0.56 4278665498
0.0038351475 0.043261975 0.56 4278731291
-0.020623941 0.046933033 0.583 4279058718
-0.018698229 0.046852533 0.58200002 4279125535
-0.016779013 0.046772029 0.58100003 4278797082
-0.014840662 0.046611026 0.57900006 4278731289
-0.012892918 0.046369519 0.57600003 4278797082
-0.010945526 0.046047505 0.57200003 4278797082
-0.0090400064 0.045805998 0.56900001 4278731289
-0.0071666148 0.045644995 0.56700003 4278862877
-0.0053062146 0.045483984 0.565 4278464787
-0.0034649502 0.045403484 0.56400001 4278992412
-0.0016301817 0.045322981 0.56300002 4279124765
0.00019773837 0.045161977 0.56100005 4279519521
0.0020162668 0.045081474 0.56 4279190556
0.0038351475 0.045081474 0.56 4278993177
0.0056439321 0.04500097 0.55900002 4278664980
-0.020588567 0.048743509 0.58200002 4279125533
-0.018666102 0.048659757 0.58100003 4279125533
-0.016721256 0.048492257 0.57900006 4278993947
-0.014789398 0.048324749 0.57700002 4278797082
-0.012870535 0.048157249 0.57500005 4278862875
-0.010926391 0.047822241 0.57100004 4278928668
-0.009024119 0.047570985 0.56800002 4278665496
-0.0071539758 0.047403485 0.56600004 4278599189
-0.0053062146 0.047319729 0.565 4278198022
-0.0034588068 0.047152225 0.56300002 4279912485
-0.0016272862 0.047068477 0.56200004 4278196224
0.00019773837 0.046984725 0.56100005 4278263306
0.0020162668 0.046900969 0.56 4278394378
0.0038351475 0.046900969 0.56 4278262792
0.0056439321 0.046817217 0.55900002 4278197251
0.0074462211 0.046733469 0.55800003 4278197250
0.0092420131 0.046649717 0.55700004 4278396425
0.011051151 0.046649717 0.55700004 4279055638
0.012837199 0.046565969 0.55600005 4279321631
0.014643088 0.046565969 0.55600005 4279058972
0.016419392 0.046482213 0.55500001 4278795798
0.018222034 0.046482213 0.55500001 4278664982
0.019988593 0.046398461 0.55400002 4278533910
0.021748658 0.046314709 0.55300003 4278533910
0.023544803 0.046314709 0.55300003 4278665496
0.025295125 0.046230961 0.55200005 4278468117
-0.020588567 0.050634485 0.58200002 4278993949
-0.018666102 0.050547484 0.58100003 4278797082
-0.016721256 0.050373487 0.57900006 4278862875
-0.014763767 0.050112482 0.57600003 4278862875
-0.01284815 0.049938478 0.574 4278797082
-0.010907256 0.04959048 0.57000005 4278862875
-0.009024119 0.049416475 0.56800002 4278928668
-0.0071539758 0.049242474 0.56600004 4278928154
-0.0052968231 0.04906847 0.56400001 4278857748
-0.0034588068 0.048981469 0.56300002 4279649313
-0.0016272862 0.048894472 0.56200004 4278195715
0.00019773837 0.048807472 0.56100005 4278721549
0.0020162668 0.048720468 0.56 4278655756
0.0038282992 0.048633467 0.55900002 4278786572
0.0056439321 0.048633467 0.55900002 4278655756
0.0074462211 0.048546467 0.55800003 4278655756
0.0092420131 0.048459467 0.55700004 4278721549
0.011051151 0.048459467 0.55700004 4278655756
0.012860288 0.048459467 0.55700004 4278195712
0.014643088 0.048372466 0.55600005 4279056152
0.016448978 0.048372466 0.55600005 4278595087
0.018222034 0.048285462 0.55500001 4278197248
0.019988593 0.048198462 0.55400002 4278196480
0.021787986 0.048198462 0.55400002 4278198018
0.023544803 0.048111461 0.55300003 4278398222
0.025295125 0.048024464 0.55200005 4279254301
0.027038947 0.047937457 0.551 4278991896
0.028776275 0.04785046 0.55000001 4278992666
0.030562676 0.04785046 0.55000001 4278664982
0.032290261 0.047763459 0.54900002 4278533396
0.034073416 0.047763459 0.54900002 4278666009
0.035856567 0.047763459 0.54900002 4278600216
0.037639722 0.047763459 0.54900002 4278797595
0.039422873 0.047763459 0.54900002 4278666009
0.041281082 0.04785046 0.55000001 4278797595
0.043067485 0.04785046 0.55000001 4279192353
0.044853885 0.04785046 0.55000001 4278929951
0.046725087 0.047937457 0.551 4279127843
0.048514735 0.047937457 0.551 4279390504
-0.020588567 0.052525468 0.58200002 4278928156
-0.018633975 0.05234497 0.58000004 4278928670
-0.016692374 0.052164465 0.57800001 4278797084
-0.014763767 0.051983967 0.57600003 4278928668
-0.012825768 0.051713217 0.57300001 4278928668
-0.010907256 0.05144247 0.57000005 4278862877
-0.009024119 0.051261969 0.56800002 4278862877
-0.0071539758 0.051081471 0.56600004 4279520293
-0.0052968231 0.050900966 0.56400001 4279450396
-0.0034588068 0.050810717 0.56300002 4279780129
-0.0016272862 0.050720468 0.56200004 4278590474
0.00019773837 0.050630223 0.56100005 4279379990
0.0020162668 0.050539967 0.56 4278656267
0.0038282992 0.050449718 0.55900002 4279314199
0.0056439321 0.050449718 0.55900002 4279708955
0.0074462211 0.050359469 0.55800003 4278919439
0.0092586055 0.050359469 0.55800003 4278919441
0.011051151 0.05026922 0.55700004 4280235301
0.012860288 0.05026922 0.55700004 4278329097
0.014643088 0.050178971 0.55600005 4279319578
0.016448978 0.050178971 0.55600005 4278991381
0.018222034 0.050088719 0.55500001 4278792720
0.020024672 0.050088719 0.55500001 4279188762
0.021787986 0.04999847 0.55400002 4279386141
0.023544803 0.049908221 0.55300003 4279385887
0.025340948 0.049908221 0.55300003 4279779875
0.027088022 0.049817972 0.55200005 4279450910
0.028828595 0.049727716 0.551 4278858773
0.030562676 0.049637467 0.55000001 4278199303
0.032349076 0.049637467 0.55000001 4278196480
0.034135479 0.049637467 0.55000001 4278197504
0.035856567 0.049547222 0.54900002 4278198789
0.037708282 0.049637467 0.55000001 4278333201
0.039494682 0.049637467 0.55000001 4279123228
0.041281082 0.049637467 0.55000001 4278992412
0.043145787 0.049727716 0.551 4279190045
0.044935435 0.049727716 0.551 4278862361
0.046725087 0.049727716 0.551 4278533910
0.048602786 0.049817972 0.55200005 4278666009
0.050486978 0.049908221 0.55300003 4278863388
0.052283123 0.049908221 0.55300003 4279126562
0.054079268 0.049908221 0.55300003 4279454760
-0.020588567 0.054416444 0.58200002 4278928156
-0.018666102 0.054322947 0.58100003 4278862877
-0.016721256 0.054135952 0.57900006 4278797084
-0.014763767 0.053855453 0.57600003 4278928670
-0.012825768 0.053574953 0.57300001 4278797082
-0.010907256 0.053294457 0.57000005 4278797084
-0.0090082316 0.053013958 0.56700003 4278665498
-0.0071413354 0.05282696 0.565 4278199558
-0.0052968231 0.052733462 0.56400001 4278199815
-0.0034588068 0.052639961 0.56300002 4279911715
-0.0016272862 0.052546464 0.56200004 4278590474
0.00019773837 0.052452967 0.56100005 4278655756
0.0020162668 0.052359466 0.56 4278853135
0.0038282992 0.052265964 0.55900002 4278918928
0.0056439321 0.052265964 0.55900002 4279379479
0.0074462211 0.052172467 0.55800003 4278655756
0.0092586055 0.052172467 0.55800003 4280039203
0.011051151 0.05207897 0.55700004 4278920722
0.012860288 0.05207897 0.55700004 4279250969
0.014669425 0.05207897 0.55700004 4279450910
0.016448978 0.051985472 0.55600005 4278723082
0.018254867 0.051985472 0.55600005 4278590472
0.020024672 0.051891968 0.55500001 4278857746
0.021787986 0.05179847 0.55400002 4279187478
0.02358738 0.05179847 0.55400002 4278200072
0.025340948 0.051704973 0.55300003 4278200586
0.027088022 0.051611476 0.55200005 4278200071
0.028828595 0.051517971 0.551 4279320094
0.030618245 0.051517971 0.551 4278991896
0.032349076 0.051424474 0.55000001 4279123482
0.034135479 0.051424474 0.55000001 4279320346
0.035921879 0.051424474 0.55000001 4279649311
0.037708282 0.051424474 0.55000001 4279517473
0.039566487 0.051517971 0.551 4279188510
0.041356135 0.051517971 0.551 4279056924
0.043145787 0.051517971 0.551 4278595603
0.045016989 0.051611476 0.55200005 4278333712
0.046809889 0.051611476 0.55200005 4278664984
0.048690833 0.051704973 0.55300003 4278665498
0.050486978 0.051704973 0.55300003 4278862877
0.052377667 0.05179847 0.55400002 4278862877
0.054177057 0.05179847 0.55400002 4278994463
0.055976454 0.05179847 0.55400002 4278858007
-0.022556152 0.056500919 0.58400005 4279385371
-0.020623941 0.05640417 0.583 4278796570
-0.018698229 0.05630742 0.58200002 4278862877
-0.016750135 0.056113929 0.58000004 4278665498
-0.014789398 0.05582368 0.57700002 4278862877
-0.01284815 0.055533435 0.574 4278862877
-0.010907256 0.055146448 0.57000005 4278862877
-0.0090082316 0.0548562 0.56700003 4278797084
-0.0071413354 0.054662701 0.565 4278465298
-0.0052968231 0.054565955 0.56400001 4279187738
-0.0034526633 0.05437246 0.56200004 4279254814
-0.0016243907 0.054275714 0.56100005 4278527761
0.00019773837 0.054275714 0.56100005 4278591759
0.0020162668 0.054178961 0.56 4278589963
0.0038282992 0.054082215 0.55900002 4278983951
0.0056439321 0.054082215 0.55900002 4278852365
0.0074462211 0.053985465 0.55800003 4278852365
0.0092586055 0.053985465 0.55800003 4278720779
0.011070991 0.053985465 0.55800003 4278589963
0.012860288 0.05388872 0.55700004 4280107815
0.014669425 0.05388872 0.55700004 4279648291
0.016448978 0.053791974 0.55600005 4278853646
0.018254867 0.053791974 0.55600005 4278655754
0.020024672 0.053695221 0.55500001 4279251736
0.021827314 0.053695221 0.55500001 4279384092
0.02358738 0.053598475 0.55400002 4278397708
0.025340948 0.053501725 0.55300003 4278792466
0.027137095 0.053501725 0.55300003 4279516703
0.028880918 0.053404979 0.55200005 4279779875
0.030618245 0.053308226 0.551 4278398222
0.032407895 0.053308226 0.551 4278660880
0.034197543 0.053308226 0.551 4278792466
0.035987191 0.053308226 0.551 4278199815
0.037776843 0.053308226 0.551 4278860058
0.039566487 0.053308226 0.551 4278991644
0.041431196 0.053404979 0.55200005 4279123998
0.043224096 0.053404979 0.55200005 4279255584
0.045098543 0.053501725 0.55300003 4278925336
0.046894688 0.053501725 0.55300003 4279058457
0.04877888 0.053598475 0.55400002 4278993177
0.05057827 0.053598475 0.55400002 4278993947
0.052377667 0.053598475 0.55400002 4278928154
0.05427485 0.053695221 0.55500001 4278862361
0.056077491 0.053695221 0.55500001 4278728218
-0.020694694 0.058498394 0.58500004 4278795800
-0.018730355 0.058298394 0.583 4278928156
-0.016779013 0.058098402 0.58100003 4278862877
-0.014840662 0.05789841 0.57900006 4278731291
-0.012892918 0.057598416 0.57600003 4278797084
-0.010926391 0.05709843 0.57100004 4278731291
-0.009024119 0.056798436 0.56800002 4278993695
-0.0071413354 0.056498442 0.565 4279059490
-0.0052968231 0.056398448 0.56400001 4279321377
-0.0034526633 0.056198455 0.56200004 4279189791
-0.0016243907 0.056098457 0.56100005 4279123998
0.00019773837 0.056098457 0.56100005 4279123998
0.0020162668 0.055998456 0.56 4279320607
0.0038282992 0.055898461 0.55900002 4279320096
0.0056439321 0.055898461 0.55900002 4280042535
0.0074462211 0.055798467 0.55800003 4279515678
0.0092586055 0.055798467 0.55800003 4279250201
0.011070991 0.055798467 0.55800003 4278394378
0.012860288 0.055698469 0.55700004 4279450146
0.014669425 0.055698469 0.55700004 4278199051
0.016478563 0.055698469 0.55700004 4278856213
0.018254867 0.055598475 0.55600005 4279644957
0.020024672 0.055498473 0.55500001 4280107815
0.021827314 0.055498473 0.55500001 4279779363
0.02358738 0.055398475 0.55400002 4279647775
0.025386773 0.055398475 0.55400002 4280042533
0.027137095 0.055298481 0.55300003 4278595601
0.028880918 0.055198483 0.55200005 4279320094
0.030673815 0.055198483 0.55200005 4278727187
0.032466713 0.055198483 0.55200005 4278200074
0.03425961 0.055198483 0.55200005 4278199820
0.036052506 0.055198483 0.55200005 4279712803
0.037845407 0.055198483 0.55200005 4279120666
0.039638299 0.055198483 0.55200005 4278923287
0.041431196 0.055198483 0.55200005 4279781928
0.043302398 0.055298481 0.55300003 4278729494
0.045180093 0.055398475 0.55400002 4278398992
0.046979491 0.055398475 0.55400002 4278992664
0.048866928 0.055498473 0.55500001 4278993177
0.050669566 0.055498473 0.55500001 4279190556
0.052472211 0.055498473 0.55500001 4278928154
0.054372646 0.055598475 0.55600005 4278928154
0.05617854 0.055598475 0.55600005 4279583527
-0.010926391 0.058953669 0.57100004 4279584297
-0.009024119 0.058643926 0.56800002 4279781930
-0.0071413354 0.058334187 0.565 4279518758
-0.0052968231 0.05823094 0.56400001 4279189793
-0.0034526633 0.058024451 0.56200004 4278992927
-0.0016243907 0.057921205 0.56100005 4279124513
0.00019773837 0.057921205 0.56100005 4279058718
0.0020162668 0.057817955 0.56 4279058718
0.0038282992 0.057714708 0.55900002 4279058718
0.0056439321 0.057714708 0.55900002 4278992925
0.0074462211 0.057611465 0.55800003 4279124511
0.0092586055 0.057611465 0.55800003 4279058718
0.011070991 0.057611465 0.55800003 4279321377
0.012860288 0.057508219 0.55700004 4279320607
0.014669425 0.057508219 0.55700004 4279254816
0.016478563 0.057508219 0.55700004 4279385889
0.018254867 0.057404973 0.55600005 4279714854
0.020060755 0.057404973 0.55600005 4279581984
0.021827314 0.057301722 0.55500001 4278989593
0.02358738 0.057198476 0.55400002 4278397456
0.025386773 0.057198476 0.55400002 4278197764
0.027137095 0.057095233 0.55300003 4278196736
0.028933238 0.057095233 0.55300003 4278199303
0.030673815 0.056991987 0.55200005 4278529296
0.032466713 0.056991987 0.55200005 4279516705
0.03425961 0.056991987 0.55200005 4279648291
0.036052506 0.056991987 0.55200005 4279977256
0.037845407 0.056991987 0.55200005 4279319324
0.039710108 0.057095233 0.55300003 4279450910
0.041506253 0.057095233 0.55300003 4278991896
0.043380704 0.057198476 0.55400002 4278662931
0.045180093 0.057198476 0.55400002 4279320348
0.047064289 0.057301722 0.55500001 4278992664
0.048866928 0.057301722 0.55500001 4278993177
0.050760869 0.057404973 0.55600005 4279124763
0.052566759 0.057404973 0.55600005 4278796570
0.054470439 0.057508219 0.55700004 4278862363
0.056279577 0.057508219 0.55700004 4279386150
-0.009024119 0.060489416 0.56800002 4283528027
-0.0071539758 0.060276426 0.56600004 4281489214
-0.0052968231 0.060063433 0.56400001 4279450144
-0.0034588068 0.059956938 0.56300002 4279318558
-0.0016272862 0.059850447 0.56200004 4279582244
0.00019773837 0.059743952 0.56100005 4279780393
0.0020162668 0.05963745 0.56 4279583527
0.0038351475 0.05963745 0.56 4279518758
0.0056439321 0.059530959 0.55900002 4279453478
0.0074595655 0.059530959 0.55900002 4279058720
0.0092586055 0.059424464 0.55800003 4278729755
0.011070991 0.059424464 0.55800003 4278927134
0.012860288 0.059317969 0.55700004 4278927132
0.014669425 0.059317969 0.55700004 4279190304
0.016478563 0.059317969 0.55700004 4279124511
0.018254867 0.059211474 0.55600005 4278927132
0.020060755 0.059211474 0.55600005 4278927132
0.021827314 0.059104975 0.55500001 4278795546
0.02358738 0.05899848 0.55400002 4278992925
0.025386773 0.05899848 0.55400002 4278927132
0.027137095 0.058891986 0.55300003 4279058205
0.028933238 0.058891986 0.55300003 4278992412
0.030673815 0.058785491 0.55200005 4278991642
0.032466713 0.058785491 0.55200005 4279583779
0.03425961 0.058785491 0.55200005 4279320094
0.036052506 0.058785491 0.55200005 4278529808
0.037913963 0.058891986 0.55300003 4278197504
0.039710108 0.058891986 0.55300003 4278196736
0.041581307 0.05899848 0.55400002 4278196736
0.043380704 0.05899848 0.55400002 4278199563
0.045261644 0.059104975 0.55500001 4279912231
0.047149092 0.059211474 0.55600005 4278993179
0.048954982 0.059211474 0.55600005 4278993949
0.050852165 0.059317969 0.55700004 4278993949
0.052661303 0.059317969 0.55700004 4278928156
0.054470439 0.059317969 0.55700004 4278993949
0.056279577 0.059317969 0.55700004 4278726937
-0.0090082316 0.062225163 0.56700003 4285038188
-0.0071413354 0.062005669 0.565 4284841579
-0.0052968231 0.061895926 0.56400001 4284644711
-0.0034588068 0.061786182 0.56300002 4284447332
-0.0016272862 0.061676439 0.56200004 4285171055
0.00019773837 0.061566696 0.56100005 4285171057
0.0020162668 0.061456949 0.56 4284974192
0.0038351475 0.061456949 0.56 4283593309
0.0056439321 0.061347205 0.55900002 4281423936
0.0074595655 0.061347205 0.55900002 4279976490
0.0092586055 0.061237462 0.55800003 4279252767
0.011070991 0.061237462 0.55800003 4279450660
0.012883376 0.061237462 0.55800003 4279451945
0.014669425 0.061127719 0.55700004 4279650094
0.016478563 0.061127719 0.55700004 4279519019
0.018254867 0.061017975 0.55600005 4279519017
0.020060755 0.061017975 0.55600005 4279453224
0.021827314 0.060908224 0.55500001 4279124259
0.02358738 0.060798481 0.55400002 4279058720
0.025386773 0.060798481 0.55400002 4278927134
0.027137095 0.060688738 0.55300003 4278927134
0.028933238 0.060688738 0.55300003 4278927132
0.030729383 0.060688738 0.55300003 4278729753
0.032466713 0.060578994 0.55200005 4278993179
0.03425961 0.060578994 0.55200005 4278993179
0.036117818 0.060688738 0.55300003 4279058972
0.037913963 0.060688738 0.55300003 4278860826
0.039710108 0.060688738 0.55300003 4279320607
0.041581307 0.060798481 0.55400002 4279254814
0.043459006 0.060908224 0.55500001 4279123228
0.045261644 0.060908224 0.55500001 4279058718
0.047149092 0.061017975 0.55600005 4279124511
0.04904303 0.061127719 0.55700004 4278928156
0.050852165 0.061127719 0.55700004 4278993949
0.052755848 0.061237462 0.55800003 4279059742
0.054568231 0.061237462 0.55800003 4279058972
0.056380618 0.061237462 0.55800003 4282936923
-0.0071413354 0.06384141 0.565 4284841581
-0.0052874316 0.063615426 0.56300002 4284841581
-0.0034588068 0.063615426 0.56300002 4284710508
-0.0016272862 0.063502438 0.56200004 4284710508
0.00019773837 0.063389443 0.56100005 4284775788
0.0020162668 0.063276447 0.56 4284973165
0.0038351475 0.063276447 0.56 4284973165
0.0056540282 0.063276447 0.56 4285171057
0.0074595655 0.063163452 0.55900002 4285236850
0.009275198 0.063163452 0.55900002 4285303157
0.011070991 0.063050456 0.55800003 4286026880
0.012883376 0.063050456 0.55800003 4286158466
0.014669425 0.062937468 0.55700004 4285697917
0.016478563 0.062937468 0.55700004 4284186479
0.018254867 0.062824473 0.55600005 4282212689
0.020060755 0.062824473 0.55600005 4280633909
0.021827314 0.062711477 0.55500001 4279712807
0.02358738 0.062598482 0.55400002 4279186976
0.025386773 0.062598482 0.55400002 4278989857
0.027137095 0.062485494 0.55300003 4278990627
0.028933238 0.062485494 0.55300003 4279319592
0.030729383 0.062485494 0.55300003 4279451430
0.032466713 0.062372498 0.55200005 4279583527
0.03425961 0.062372498 0.55200005 4279452195
0.036117818 0.062485494 0.55300003 4279649574
0.037913963 0.062485494 0.55300003 4279518504
0.039781917 0.062598482 0.55400002 4279518504
0.041581307 0.062598482 0.55400002 4279518504
0.043459006 0.062711477 0.55500001 4279452711
0.045343202 0.062824473 0.55600005 4279387685
0.047233891 0.062937468 0.55700004 4279387685
0.04904303 0.062937468 0.55700004 4279387685
0.05094346 0.063050456 0.55800003 4279387685
0.052755848 0.063050456 0.55800003 4279255332
0.054568231 0.063050456 0.55800003 4279714350
-0.0052874316 0.065444671 0.56300002 4284709995
-0.0034588068 0.065444671 0.56300002 4284775788
-0.0016272862 0.065328434 0.56200004 4284446823
0.00019773837 0.06521219 0.56100005 4284709995
0.0020198673 0.06521219 0.56100005 4284775788
0.0038351475 0.065095939 0.56 4284841581
0.0056540282 0.065095939 0.56 4285038958
0.0074595655 0.064979702 0.55900002 4285302130
0.009275198 0.064979702 0.55900002 4285565815
0.011070991 0.064863458 0.55800003 4285697403
0.012883376 0.064863458 0.55800003 4285631356
0.014669425 0.064747214 0.55700004 4285631356
0.016478563 0.064747214 0.55700004 4285566077
0.0182877 0.064747214 0.55700004 4285237112
0.021827314 0.064514726 0.55500001 4285039987
0.02358738 0.06439849 0.55400002 4284513391
0.025386773 0.06439849 0.55400002 4284118633
0.027137095 0.064282246 0.55300003 4284118631
0.028933238 0.064282246 0.55300003 4284052578
0.030729383 0.064282246 0.55300003 4283659363
0.032525528 0.064282246 0.55300003 4282015308
0.034321673 0.064282246 0.55300003 4283725156
0.036117818 0.064282246 0.55300003 4284383086
0.037913963 0.064282246 0.55300003 4284318063
0.039781917 0.06439849 0.55400002 4283923818
0.041581307 0.06439849 0.55400002 4283265888
0.043459006 0.064514726 0.55500001 4283067996
0.045343202 0.064630978 0.55600005 4282344527
0.047233891 0.064747214 0.55700004 4281357632
0.049131077 0.064863458 0.55800003 4280699702
0.05094346 0.064863458 0.55800003 4281620804
0.016512409 0.05478131 0.55948454 4294967295
0.016512409 0.05478131 0.55948454 4294901760
0.016512409 0.05478131 0.55998456 4294901760
0.016512409 0.05478131 0.56048453 4294901760
0.016512409 0.05478131 0.56098455 4294901760
0.016512409 0.05478131 0.56148452 4294901760
0.016512409 0.05478131 0.56198454 4294901760
0.016512409 0.05478131 0.56248456 4294901760
0.016512409 0.05478131 0.56298453 4294901760
0.016512409 0.05478131 0.56348455 4294901760
0.016512409 0.05478131 0.56398451 4294901760
0.016512409 0.05478131 0.56448454 4294901760
0.016512409 0.05478131 0.56498456 4294901760
0.016512409 0.05478131 0.56548452 4294901760
0.016512409 0.05478131 0.56598455 4294901760
0.016512409 0.05478131 0.56648457 4294901760
0.016512409 0.05478131 0.56698453 4294901760
0.016512409 0.05478131 0.56748456 4294901760
0.016512409 0.05478131 0.56798452 4294901760
0.016512409 0.05478131 0.56848454 4294901760
0.016512409 0.05478131 0.56898457 4294901760
0.016512409 0.05478131 0.56948453 4294901760
0.016512409 0.05478131 0.56998456 4294901760
0.016512409 0.05478131 0.57048452 4294901760
0.016512409 0.05478131 0.57098454 4294901760
0.016512409 0.05478131 0.57148457 4294901760
0.016512409 0.05478131 0.57198453 4294901760
0.016512409 0.05478131 0.57248455 4294901760
0.016512409 0.05478131 0.57298452 4294901760
0.016512409 0.05478131 0.57348454 4294901760
0.016512409 0.05478131 0.57398456 4294901760
0.016512409 0.05478131 0.57448453 4294901760
0.016512409 0.05478131 0.57498455 4294901760
0.016512409 0.05478131 0.57548451 4294901760
0.016512409 0.05478131 0.57598454 4294901760
0.016512409 0.05478131 0.57648456 4294901760
0.016512409 0.05478131 0.57698452 4294901760
0.016512409 0.05478131 0.57748455 4294901760
0.016512409 0.05478131 0.57798457 4294901760
0.016512409 0.05478131 0.57848454 4294901760
0.016512409 0.05478131 0.57898456 4294901760
0.016512409 0.05478131 0.57948452 4294901760
0.016512409 0.05478131 0.57998455 4294901760
0.016512409 0.05478131 0.58048457 4294901760
0.016512409 0.05478131 0.58098453 4294901760
0.016512409 0.05478131 0.58148456 4294901760
0.016512409 0.05478131 0.58198452 4294901760
0.016512409 0.05478131 0.58248454 4294901760
0.016512409 0.05478131 0.58298457 4294901760
0.016512409 0.05478131 0.58348453 4294901760
0.016512409 0.05478131 0.58398455 4294901760
0.016512409 0.05478131 0.58448458 4294901760
0.016512409 0.05478131 0.58498454 4294901760
0.016512409 0.05478131 0.58548456 4294901760
0.016512409 0.05478131 0.58598453 4294901760
0.016512409 0.05478131 0.58648455 4294901760
0.016512409 0.05478131 0.58698457 4294901760
0.016512409 0.05478131 0.58748454 4294901760
0.016512409 0.05478131 0.58798456 4294901760
0.016512409 0.05478131 0.58848453 4294901760
0.016512409 0.05478131 0.58898455 4294901760
0.016512409 0.05478131 0.58948457 4294901760
0.016512409 0.05478131 0.58998454 4294901760
0.016512409 0.05478131 0.59048456 4294901760
0.016512409 0.05478131 0.59098452 4294901760
0.016512409 0.05478131 0.59148455 4294901760
0.016512409 0.05478131 0.59198457 4294901760
0.016512409 0.05478131 0.59248453 4294901760
0.016512409 0.05478131 0.59298456 4294901760
0.016512409 0.05478131 0.59348452 4294901760
0.016512409 0.05478131 0.59398454 4294901760
0.016512409 0.05478131 0.59448457 4294901760
0.016512409 0.05478131 0.59498453 4294901760
0.016512409 0.05478131 0.59548455 4294901760
0.016512409 0.05478131 0.59598458 4294901760
0.016512409 0.05478131 0.59648454 4294901760
0.016512409 0.05478131 0.59698457 4294901760
0.016512409 0.05478131 0.59748453 4294901760
0.016512409 0.05478131 0.59798455 4294901760
0.016512409 0.05478131 0.59848458 4294901760
0.016512409 0.05478131 0.59898454 4294901760
0.016512409 0.05478131 0.59948456 4294901760
0.016512409 0.05478131 0.59998453 4294901760
0.016512409 0.05478131 0.60048455 4294901760
0.016512409 0.05478131 0.60098457 4294901760
0.016512409 0.05478131 0.60148454 4294901760
0.016512409 0.05478131 0.60198456 4294901760
0.016512409 0.05478131 0.60248458 4294901760
0.016512409 0.05478131 0.60298455 4294901760
0.016512409 0.05478131 0.60348457 4294901760
0.016512409 0.05478131 0.60398453 4294901760
0.016512409 0.05478131 0.60448456 4294901760
0.016512409 0.05478131 0.60498458 4294901760
0.016512409 0.05478131 0.60548455 4294901760
0.016512409 0.05478131 0.60598457 4294901760
0.016512409 0.05478131 0.60648453 4294901760
0.016512409 0.05478131 0.60698456 4294901760
0.016512409 0.05478131 0.60748458 4294901760
0.016512409 0.05478131 0.60798454 4294901760
0.016512409 0.05478131 0.60848457 4294901760
0.016512409 0.05478131 0.60898453 4294901760
0.016512409 0.05478131 0.60948455 4294901760
0.016512409 0.05478131 0.55948454 4278255360
0.016662758 0.054751344 0.55996048 4278255360
0.016813107 0.054721382 0.56043637 4278255360
0.016963456 0.054691415 0.56091231 4278255360
0.017113805 0.054661453 0.56138819 4278255360
0.017264154 0.054631487 0.56186414 4278255360
0.017414503 0.054601524 0.56234002 4278255360
0.017564852 0.054571558 0.56281596 4278255360
0.017715201 0.054541595 0.56329191 4278255360
0.017865552 0.054511629 0.56376779 4278255360
0.018015901 0.054481667 0.56424373 4278255360
0.01816625 0.0544517 0.56471962 4278255360
0.018316599 0.054421738 0.56519556 4278255360
0.018466948 0.054391772 0.56567144 4278255360
0.018617297 0.054361809 0.56614739 4278255360
0.018767646 0.054331843 0.56662333 4278255360
0.018917995 0.05430188 0.56709921 4278255360
0.019068344 0.054271914 0.56757516 4278255360
0.019218693 0.054241952 0.56805104 4278255360
0.019369042 0.054211985 0.56852698 4278255360
0.019519391 0.054182023 0.56900287 4278255360
0.01966974 0.054152057 0.56947881 4278255360
0.019820089 0.054122094 0.56995475 4278255360
0.019970438 0.054092128 0.57043064 4278255360
0.020120787 0.054062165 0.57090658 4278255360
0.020271137 0.054032199 0.57138246 4278255360
0.020421486 0.054002233 0.57185841 4278255360
0.020571835 0.05397227 0.57233429 4278255360
0.020722184 0.053942304 0.57281023 4278255360
0.020872533 0.053912342 0.57328618 4278255360
0.021022882 0.053882375 0.57376206 4278255360
0.021173231 0.053852413 0.574238 4278255360
0.02132358 0.053822447 0.57471389 4278255360
0.021473929 0.053792484 0.57518983 4278255360
0.021624278 0.053762518 0.57566571 4278255360
0.021774627 0.053732555 0.57614166 4278255360
0.021924976 0.053702589 0.5766176 4278255360
0.022075325 0.053672627 0.57709348 4278255360
0.022225674 0.05364266 0.57756943 4278255360
0.022376023 0.053612698 0.57804531 4278255360
0.022526372 0.053582732 0.57852125 4278255360
0.022676721 0.053552769 0.57899714 4278255360
0.02282707 0.053522803 0.57947308 4278255360
0.022977421 0.05349284 0.57994902 4278255360
0.023127768 0.053462874 0.5804249 4278255360
0.023278117 0.053432912 0.58090085 4278255360
0.023428468 0.053402945 0.58137673 4278255360
0.023578817 0.053372983 0.58185267 4278255360
0.023729166 0.053343017 0.58232856 4278255360
0.023879515 0.053313054 0.5828045 4278255360
0.024029864 0.053283088 0.58328044 4278255360
0.024180213 0.053253122 0.58375633 4278255360
0.024330562 0.053223159 0.58423227 4278255360
0.024480911 0.053193193 0.58470815 4278255360
0.024631262 0.05316323 0.5851841 4278255360
0.024781611 0.053133264 0.58565998 4278255360
0.02493196 0.053103302 0.58613592 4278255360
0.025082309 0.053073335 0.58661181 4278255360
0.025232658 0.053043373 0.58708775 4278255360
0.025383007 0.053013407 0.58756369 4278255360
0.025533356 0.052983444 0.58803958 4278255360
0.025683705 0.052953478 0.58851552 4278255360
0.025834054 0.052923515 0.5889914 4278255360
0.025984403 0.052893549 0.58946735 4278255360
0.026134752 0.052863587 0.58994323 4278255360
0.026285101 0.05283362 0.59041917 4278255360
0.02643545 0.052803658 0.59089512 4278255360
0.026585799 0.052773692 0.591371 4278255360
0.026736148 0.052743729 0.59184694 4278255360
0.026886497 0.052713763 0.59232283 4278255360
0.027036846 0.0526838 0.59279877 4278255360
0.027187195 0.052653834 0.59327465 4278255360
0.027337544 0.052623872 0.5937506 4278255360
0.027487893 0.052593905 0.59422654 4278255360
0.027638242 0.052563943 0.59470242 4278255360
0.027788591 0.052533977 0.59517837 4278255360
0.02793894 0.05250401 0.59565425 4278255360
0.028089289 0.052474048 0.59613019 4278255360
0.028239638 0.052444082 0.59660608 4278255360
0.028389988 0.052414119 0.59708202 4278255360
0.028540337 0.052384153 0.59755796 4278255360
0.028690686 0.05235419 0.59803385 4278255360
0.028841035 0.052324224 0.59850979 4278255360
0.028991384 0.052294262 0.59898567 4278255360
0.029141733 0.052264296 0.59946162 4278255360
0.029292084 0.052234333 0.59993756 4278255360
0.029442433 0.052204367 0.60041344 4278255360
0.029592782 0.052174404 0.60088938 4278255360
0.029743129 0.052144438 0.60136527 4278255360
0.029893478 0.052114476 0.60184121 4278255360
0.030043827 0.052084509 0.60231709 4278255360
0.030194178 0.052054547 0.60279304 4278255360
0.030344527 0.052024581 0.60326892 4278255360
0.030494876 0.051994618 0.60374486 4278255360
0.030645225 0.051964652 0.60422081 4278255360
0.030795574 0.051934689 0.60469669 4278255360
0.030945923 0.051904723 0.60517263 4278255360
0.031096272 0.051874761 0.60564852 4278255360
0.031246621 0.051844794 0.60612446 4278255360
0.03139697 0.051814832 0.60660034 4278255360
0.031547319 0.051784866 0.60707629 4278255360
