# .PCD v0.7 - Point Cloud Data file format
VERSION 0.7
FIELDS x y z rgb
SIZE 4 4 4 4
TYPE F F F U
COUNT 1 1 1 1
WIDTH 1072
HEIGHT 1
VIEWPOINT 0 0 0 1 0 0 0
POINTS 1072
DATA ascii
0.066002466 0.038476381 0.32200003 4278795798
0.06725654 0.03859587 0.32300001 4278664212
0.068305649 0.03859587 0.32300001 4278664212
0.06935475 0.03859587 0.32300001 4278730005
0.070403859 0.03859587 0.32300001 4279582236
0.07145296 0.03859587 0.32300001 4278262279
0.072726525 0.038715359 0.324 4278991383
0.073778875 0.038715359 0.324 4278728724
0.074831232 0.038715359 0.324 4278195461
0.075883582 0.038715359 0.324 4278917390
0.077173397 0.038834855 0.32500002 4278391560
0.078228995 0.038834855 0.32500002 4278917390
0.079284593 0.038834855 0.32500002 4278983951
0.080587395 0.038954344 0.32600001 4279247123
0.081646241 0.038954344 0.32600001 4279642651
0.082958788 0.03907384 0.32700002 4279774748
0.084277831 0.039193328 0.32800001 4279576088
0.085343175 0.039193328 0.32800001 4279048463
0.086671971 0.039312821 0.32900003 4278983183
0.087740563 0.039312821 0.32900003 4278654218
0.089079089 0.039432313 0.33000001 4278589193
0.090150923 0.039432313 0.33000001 4279448602
0.091499202 0.039551806 0.33100003 4279122197
0.092574291 0.039551806 0.33100003 4279122197
0.093932308 0.039671298 0.33200002 4278990611
0.095010646 0.039671298 0.33200002 4278924818
0.096378401 0.039790787 0.333 4278924818
0.097459979 0.039790787 0.333 4278924818
0.098837487 0.039910283 0.33400002 4278859027
0.099922322 0.039910283 0.33400002 4278990613
0.10100716 0.039910283 0.33400002 4278991383
0.10209199 0.039910283 0.33400002 4278990613
0.10317682 0.039910283 0.33400002 4278990359
0.10457382 0.040029772 0.33500001 4278990359
0.10566189 0.040029772 0.33500001 4278989845
0.10706864 0.040149264 0.33600003 4279252504
0.10848186 0.040268756 0.33700001 4279186711
0.10957644 0.040268756 0.33700001 4279186711
0.11099943 0.040388249 0.33800003 4279119635
0.1124289 0.040507741 0.33900002 4279383322
0.11386485 0.04062723 0.34 4278922258
0.11496918 0.04062723 0.34 4279251223
0.1164149 0.040746726 0.34100002 4278395914
0.11752246 0.040746726 0.34100002 4278724109
0.11897792 0.040866215 0.34200001 4278197765
0.12008874 0.040866215 0.34200001 4278195712
0.12155395 0.040985707 0.34300002 4278861078
0.12266801 0.040985707 0.34300002 4278729492
0.12414294 0.0411052 0.34400001 4278597904
0.12562439 0.041224692 0.34500003 4278992662
0.12711233 0.041344184 0.34600002 4278795283
0.039171703 0.040995482 0.33400002 4281878843
0.044422939 0.041854668 0.34100002 4279969049
0.045664027 0.041977406 0.34200001 4279903256
0.046911612 0.04210015 0.34300002 4279771670
0.048025675 0.04210015 0.34300002 4279771668
0.049139742 0.04210015 0.34300002 4279903254
0.050253808 0.04210015 0.34300002 4280167196
0.051367871 0.04210015 0.34300002 4281616437
0.04957477 0.03976807 0.324 4279184406
0.050627124 0.03976807 0.324 4278922517
0.051679473 0.03976807 0.324 4278924566
0.052731827 0.03976807 0.324 4278924566
0.05378418 0.03976807 0.324 4278530832
0.05483653 0.03976807 0.324 4278531345
0.055888884 0.03976807 0.324 4278598421
0.056941237 0.03976807 0.324 4278664214
0.057814602 0.039645329 0.32300001 4278598419
0.058863703 0.039645329 0.32300001 4278664212
0.059912808 0.039645329 0.32300001 4278466833
0.060961917 0.039645329 0.32300001 4278532626
0.062011018 0.039645329 0.32300001 4278664212
0.06306012 0.039645329 0.32300001 4278730005
0.064109229 0.039645329 0.32300001 4278664212
0.064956605 0.039522592 0.32200003 4278664212
0.066207439 0.039645329 0.32300001 4278466833
0.06725654 0.039645329 0.32300001 4278664212
0.068305649 0.039645329 0.32300001 4278730005
0.06935475 0.039645329 0.32300001 4278664212
0.070403859 0.039645329 0.32300001 4278594574
0.071674176 0.03976807 0.324 4278328072
0.072726525 0.03976807 0.324 4278662931
0.073778875 0.03976807 0.324 4279320861
0.074831232 0.03976807 0.324 4278327050
0.076117791 0.039890811 0.32500002 4278853135
0.077173397 0.039890811 0.32500002 4279116818
0.078228995 0.039890811 0.32500002 4278327302
0.079528548 0.040013552 0.32600001 4278194434
0.080587395 0.040013552 0.32600001 4278393097
0.081896693 0.040136296 0.32700002 4278194689
0.082958788 0.040136296 0.32700002 4278919437
0.084277831 0.040259033 0.32800001 4278194948
0.085603371 0.040381778 0.32900003 4278194437
0.086671971 0.040381778 0.32900003 4279314199
0.088007249 0.040504515 0.33000001 4278655756
0.089079089 0.040504515 0.33000001 4278195459
0.090150923 0.040504515 0.33000001 4279120918
0.091499202 0.04062726 0.33100003 4278661646
0.092574291 0.04062726 0.33100003 4278199299
0.093932308 0.040750001 0.33200002 4278524168
0.095296815 0.040872738 0.333 4278391812
0.096378401 0.040872738 0.333 4279450396
0.097459979 0.040872738 0.333 4278198016
0.098837487 0.040995482 0.33400002 4278198017
0.099922322 0.040995482 0.33400002 4278661394
0.10100716 0.040995482 0.33400002 4278596371
0.10239765 0.041118219 0.33500001 4278199044
0.10348573 0.041118219 0.33500001 4278397962
0.10457382 0.041118219 0.33500001 4278990613
0.1059773 0.041240964 0.33600003 4278794004
0.10706864 0.041240964 0.33600003 4278859797
0.10848186 0.041363701 0.33700001 4278991383
0.1099016 0.041486446 0.33800003 4278859797
0.11132782 0.041609187 0.33900002 4278794004
0.11276054 0.041731924 0.34 4278990613
0.11386485 0.041731924 0.34 4278990611
0.11530732 0.041854668 0.34100002 4279056404
0.1164149 0.041854668 0.34100002 4279187990
0.1178671 0.041977406 0.34200001 4279187990
0.11897792 0.041977406 0.34200001 4279318297
0.12043988 0.04210015 0.34300002 4278197767
0.12155395 0.04210015 0.34300002 4278859795
0.12302563 0.042222891 0.34400001 4278926099
0.12414294 0.042222891 0.34400001 4278992662
0.12562439 0.042345632 0.34500003 4278861076
0.12711233 0.042468373 0.34600002 4278662929
0.12860675 0.04259111 0.347 4279188760
0.034519505 0.041702714 0.33100003 4285631097
0.035702128 0.041828703 0.33200002 4285434231
0.036780465 0.041828703 0.33200002 4285434231
0.037858803 0.041828703 0.33200002 4285236598
0.03893714 0.041828703 0.33200002 4283656283
0.044422939 0.042962614 0.34100002 4279903256
0.045664027 0.043088604 0.34200001 4279837463
0.046911612 0.043214593 0.34300002 4279837463
0.048025675 0.043214593 0.34300002 4280034840
0.049139742 0.043214593 0.34300002 4280165913
0.047763094 0.04107276 0.32600001 4280496674
0.048672181 0.040946774 0.32500002 4279972125
0.049727783 0.040946774 0.32500002 4279053590
0.050783385 0.040946774 0.32500002 4279054357
0.051838979 0.040946774 0.32500002 4278924566
0.052731827 0.040820781 0.324 4278727957
0.05378418 0.040820781 0.324 4278531345
0.05483653 0.040820781 0.324 4278729492
0.055888884 0.040820781 0.324 4278664212
0.056941237 0.040820781 0.324 4278664212
0.057814602 0.040694792 0.32300001 4278598419
0.058863703 0.040694792 0.32300001 4278466833
0.059912808 0.040694792 0.32300001 4278467603
0.060961917 0.040694792 0.32300001 4278599189
0.062011018 0.040694792 0.32300001 4278533396
0.06306012 0.040694792 0.32300001 4278533396
0.064109229 0.040694792 0.32300001 4278467603
0.06515833 0.040694792 0.32300001 4278467603
0.066207439 0.040694792 0.32300001 4278467603
0.06725654 0.040694792 0.32300001 4278599189
0.068305649 0.040694792 0.32300001 4278795798
0.06935475 0.040694792 0.32300001 4278466833
0.070621818 0.040820781 0.324 4278790670
0.071674176 0.040820781 0.324 4278986000
0.072726525 0.040820781 0.324 4278663447
0.073778875 0.040820781 0.324 4278860056
0.074831232 0.040820781 0.324 4278327050
0.076117791 0.040946774 0.32500002 4279181846
0.077173397 0.040946774 0.32500002 4278327304
0.078469701 0.04107276 0.32600001 4279907104
0.079528548 0.04107276 0.32600001 4278986002
0.080834597 0.041198753 0.32700002 4278195202
0.081896693 0.041198753 0.32700002 4278852363
0.083212487 0.041324742 0.32800001 4278589189
0.084277831 0.041324742 0.32800001 4278391814
0.085603371 0.041450735 0.32900003 4279578141
0.086671971 0.041450735 0.32900003 4278196999
0.088007249 0.041576721 0.33000001 4278589191
0.089079089 0.041576721 0.33000001 4278195712
0.090424113 0.041702714 0.33100003 4279055890
0.091499202 0.041702714 0.33100003 4278397195
0.092853971 0.041828703 0.33200002 4278262277
0.093932308 0.041828703 0.33200002 4278719498
0.095296815 0.041954692 0.333 4278851597
0.096378401 0.041954692 0.333 4279118613
0.097752653 0.042080685 0.33400002 4279251734
0.098837487 0.042080685 0.33400002 4279055638
0.099922322 0.042080685 0.33400002 4278197248
0.10130957 0.042206671 0.33500001 4278198019
0.10239765 0.042206671 0.33500001 4279186711
0.10348573 0.042206671 0.33500001 4278397195
0.10488598 0.042332664 0.33600003 4279186711
0.1059773 0.042332664 0.33600003 4278595341
0.10738729 0.042458653 0.33700001 4278199555
0.10880377 0.042584646 0.33800003 4278596623
0.1099016 0.042584646 0.33800003 4278530830
0.11132782 0.042710632 0.33900002 4278399246
0.11276054 0.042836621 0.34 4278728209
0.11419976 0.042962614 0.34100002 4278926099
0.11530732 0.042962614 0.34100002 4278860306
0.11675628 0.043088604 0.34200001 4278860306
0.1178671 0.043088604 0.34200001 4278860306
0.11897792 0.043088604 0.34200001 4279056406
0.12043988 0.043214593 0.34300002 4278330632
0.12155395 0.043214593 0.34300002 4278860306
0.12302563 0.043340582 0.34400001 4278663697
0.12450383 0.043466575 0.34500003 4278663697
0.12562439 0.043466575 0.34500003 4278795283
0.12711233 0.043592565 0.34600002 4278926099
0.12860675 0.04371855 0.347 4278926099
0.12973382 0.04371855 0.347 4279383574
0.034623791 0.042907402 0.33200002 4285302645
0.035702128 0.042907402 0.33200002 4285302905
0.036669683 0.042778164 0.33100003 4285302905
0.037630737 0.042648923 0.33000001 4285434491
0.038702577 0.042648923 0.33000001 4285434491
0.039533362 0.042390443 0.32800001 4285631870
0.040474929 0.042261206 0.32700002 4285828989
0.041537024 0.042261206 0.32700002 4285828989
0.04246885 0.042131964 0.32600001 4281551161
0.043527696 0.042131964 0.32600001 4279442451
0.046911612 0.044329032 0.34300002 4280297501
0.045645393 0.042131964 0.32600001 4280165143
0.046704244 0.042131964 0.32600001 4280428315
0.047763094 0.042131964 0.32600001 4281418288
0.048672181 0.04200273 0.32500002 4279578137
0.049727783 0.04200273 0.32500002 4279185941
0.050783385 0.04200273 0.32500002 4279055125
0.051838979 0.04200273 0.32500002 4278727441
0.052894581 0.04200273 0.32500002 4278596625
0.053950183 0.04200273 0.32500002 4278662931
0.05483653 0.041873489 0.324 4278663701
0.055888884 0.041873489 0.324 4278730005
0.056941237 0.041873489 0.324 4278927384
0.057993591 0.041873489 0.324 4278598419
0.058863703 0.041744251 0.32300001 4278664212
0.059912808 0.041744251 0.32300001 4278466833
0.060961917 0.041744251 0.32300001 4278467603
0.062011018 0.041744251 0.32300001 4278599189
0.06306012 0.041744251 0.32300001 4278533396
0.064109229 0.041744251 0.32300001 4278467605
0.06515833 0.041744251 0.32300001 4278533398
0.066207439 0.041744251 0.32300001 4278401812
0.06725654 0.041744251 0.32300001 4278467605
0.068305649 0.041744251 0.32300001 4278533398
0.069569468 0.041873489 0.324 4278532115
0.070621818 0.041873489 0.324 4278262277
0.071674176 0.041873489 0.324 4278195459
0.072726525 0.041873489 0.324 4278727957
0.073778875 0.041873489 0.324 4278530578
0.0750622 0.04200273 0.32500002 4278392330
0.076117791 0.04200273 0.32500002 4278194953
0.077173397 0.04200273 0.32500002 4278325769
0.078469701 0.042131964 0.32600001 4278523146
0.079528548 0.042131964 0.32600001 4278391560
0.080834597 0.042261206 0.32700002 4278456839
0.081896693 0.042261206 0.32700002 4278587912
0.083212487 0.042390443 0.32800001 4278587912
0.084534779 0.042519685 0.32900003 4278522886
0.085603371 0.042519685 0.32900003 4278853646
0.086935401 0.042648923 0.33000001 4279052306
0.088007249 0.042648923 0.33000001 4278260996
0.089079089 0.042648923 0.33000001 4279711004
0.090424113 0.042778164 0.33100003 4278727441
0.091499202 0.042778164 0.33100003 4278394630
0.092853971 0.042907402 0.33200002 4278522884
0.093932308 0.042907402 0.33200002 4278851597
0.095296815 0.04303664 0.333 4278851597
0.096378401 0.04303664 0.333 4278789648
0.097752653 0.043165881 0.33400002 4279185941
0.098837487 0.043165881 0.33400002 4279121431
0.10022149 0.043295119 0.33500001 4278265609
0.10130957 0.043295119 0.33500001 4278593804
0.10239765 0.043295119 0.33500001 4279121685
0.10379466 0.04342436 0.33600003 4278660880
0.10488598 0.04342436 0.33600003 4279449113
0.10629271 0.043553598 0.33700001 4278658314
0.10738729 0.043553598 0.33700001 4278657802
0.10880377 0.04368284 0.33800003 4278526730
0.11022675 0.043812077 0.33900002 4278593293
0.11132782 0.043812077 0.33900002 4279383320
0.11276054 0.043941315 0.34 4278198530
0.11419976 0.044070557 0.34100002 4278857230
0.11530732 0.044070557 0.34100002 4278791437
0.11675628 0.044199791 0.34200001 4278199298
0.1178671 0.044199791 0.34200001 4278991379
0.11932582 0.044329032 0.34300002 4278791953
0.12043988 0.044329032 0.34300002 4278988051
0.12190833 0.04445827 0.34400001 4278794513
0.12302563 0.04445827 0.34400001 4278729490
0.12450383 0.044587512 0.34500003 4278992662
0.12598851 0.044716749 0.34600002 4278729490
0.12711233 0.044716749 0.34600002 4278729490
0.12860675 0.044845987 0.347 4278795283
0.033444416 0.043853618 0.33100003 4285630845
0.034623791 0.043986108 0.33200002 4285302393
0.035702128 0.043986108 0.33200002 4285237112
0.036448114 0.043588642 0.32900003 4285303675
0.037516706 0.043588642 0.32900003 4285303675
0.038585298 0.043588642 0.32900003 4285302905
0.039412834 0.043323666 0.32700002 4285500284
0.040351149 0.043191176 0.32600001 4285434491
0.041409999 0.043191176 0.32600001 4285237112
0.04246885 0.043191176 0.32600001 4285237112
0.043527696 0.043191176 0.32600001 4285630843
0.044449776 0.04305869 0.32500002 4284248674
0.045505378 0.04305869 0.32500002 4280429085
0.046704244 0.043191176 0.32600001 4280757280
0.047763094 0.043191176 0.32600001 4280168223
0.048672181 0.04305869 0.32500002 4279381012
0.049727783 0.04305869 0.32500002 4279251736
0.050783385 0.04305869 0.32500002 4279055125
0.051838979 0.04305869 0.32500002 4279121945
0.052894581 0.04305869 0.32500002 4278793750
0.053950183 0.04305869 0.32500002 4278531345
0.055005781 0.04305869 0.32500002 4278662931
0.055888884 0.0429262 0.324 4278730005
0.056941237 0.0429262 0.324 4278664212
0.057993591 0.0429262 0.324 4278664212
0.059045941 0.0429262 0.324 4278598419
0.060098294 0.0429262 0.324 4278466833
0.060961917 0.04279371 0.32300001 4278532626
0.062011018 0.04279371 0.32300001 4278401810
0.06306012 0.04279371 0.32300001 4278467603
0.064109229 0.04279371 0.32300001 4278401810
0.06515833 0.04279371 0.32300001 4278467603
0.066207439 0.04279371 0.32300001 4278533396
0.067464761 0.0429262 0.324 4278467603
0.068517119 0.0429262 0.324 4278533396
0.069569468 0.0429262 0.324 4278597908
0.070621818 0.0429262 0.324 4278329097
0.071674176 0.0429262 0.324 4279579164
0.072726525 0.0429262 0.324 4278859543
0.073778875 0.0429262 0.324 4278595603
0.0750622 0.04305869 0.32500002 4278588939
0.076117791 0.04305869 0.32500002 4278391562
0.077173397 0.04305869 0.32500002 4278521868
0.078469701 0.043191176 0.32600001 4278587914
0.079528548 0.043191176 0.32600001 4278587912
0.080834597 0.043323666 0.32700002 4278522119
0.082147136 0.043456152 0.32800001 4278718728
0.083212487 0.043456152 0.32800001 4278587142
0.084534779 0.043588642 0.32900003 4278718728
0.085603371 0.043588642 0.32900003 4278522119
0.086935401 0.043721128 0.33000001 4278456839
0.088007249 0.043721128 0.33000001 4278654218
0.089079089 0.043721128 0.33000001 4279448602
0.090424113 0.043853618 0.33100003 4278859027
0.091499202 0.043853618 0.33100003 4278658316
0.092853971 0.043986108 0.33200002 4278589191
0.093932308 0.043986108 0.33200002 4278719498
0.095296815 0.044118594 0.333 4279511065
0.096378401 0.044118594 0.333 4278856976
0.097752653 0.044251084 0.33400002 4278196224
0.098837487 0.044251084 0.33400002 4278198274
0.10022149 0.044383571 0.33500001 4279187224
0.10130957 0.044383571 0.33500001 4278198272
0.10239765 0.044383571 0.33500001 4278264839
0.10379466 0.044516061 0.33600003 4278331915
0.10488598 0.044516061 0.33600003 4279187224
0.10629271 0.044648547 0.33700001 4278196480
0.10770595 0.044781037 0.33800003 4279119383
0.10880377 0.044781037 0.33800003 4279052560
0.11022675 0.044913523 0.33900002 4278198533
0.11165622 0.045046009 0.34 4279448600
0.11276054 0.045046009 0.34 4278461705
0.11419976 0.045178503 0.34100002 4278195712
0.11530732 0.045178503 0.34100002 4278789902
0.11675628 0.045310989 0.34200001 4278527498
0.1178671 0.045310989 0.34200001 4279253269
0.11932582 0.045443479 0.34300002 4278197765
0.12043988 0.045443479 0.34300002 4280171555
0.12190833 0.045575965 0.34400001 4278728722
0.12302563 0.045575965 0.34400001 4278795283
0.12450383 0.045708455 0.34500003 4278664210
0.12598851 0.045840941 0.34600002 4278664210
0.12711233 0.045840941 0.34600002 4278795285
0.12860675 0.045973428 0.347 4278795285
0.033053875 0.04587923 0.33800003 4284444770
0.034151699 0.04587923 0.33800003 4285368186
0.035249524 0.04587923 0.33800003 4285368186
0.035164446 0.044386119 0.32700002 4285433977
0.036337327 0.044521853 0.32800001 4285565563
0.03728864 0.044386119 0.32700002 4285434491
0.038350739 0.044386119 0.32700002 4285302905
0.039292302 0.04425038 0.32600001 4285500284
0.040351149 0.04425038 0.32600001 4285237112
0.041282974 0.044114646 0.32500002 4285237112
0.042338576 0.044114646 0.32500002 4285237112
0.043394178 0.044114646 0.32500002 4285237112
0.044449776 0.044114646 0.32500002 4285303159
0.045505378 0.044114646 0.32500002 4285828474
0.04656098 0.044114646 0.32500002 4279773465
0.047616582 0.044114646 0.32500002 4279774235
0.048672181 0.044114646 0.32500002 4279249172
0.049727783 0.044114646 0.32500002 4279054103
0.050783385 0.044114646 0.32500002 4279251736
0.051838979 0.044114646 0.32500002 4279055640
0.052894581 0.044114646 0.32500002 4278924566
0.053950183 0.044114646 0.32500002 4278727957
0.055005781 0.044114646 0.32500002 4278860310
0.056061383 0.044114646 0.32500002 4278795798
0.056941237 0.043978903 0.324 4278664212
0.057993591 0.043978903 0.324 4278598417
0.059045941 0.043978903 0.324 4278730003
0.060098294 0.043978903 0.324 4278664210
0.061150651 0.043978903 0.324 4278730003
0.062202998 0.043978903 0.324 4278598417
0.063255355 0.043978903 0.324 4278730003
0.064307705 0.043978903 0.324 4278664210
0.065360054 0.043978903 0.324 4278598417
0.066412412 0.043978903 0.324 4278664212
0.067464761 0.043978903 0.324 4278598419
0.068517119 0.043978903 0.324 4278663699
0.069569468 0.043978903 0.324 4278200837
0.070621818 0.043978903 0.324 4278199561
0.071674176 0.043978903 0.324 4278660882
0.072726525 0.043978903 0.324 4278859797
0.074006595 0.044114646 0.32500002 4278859797
0.0750622 0.044114646 0.32500002 4278922004
0.076117791 0.044114646 0.32500002 4278722832
0.077410847 0.04425038 0.32600001 4278590222
0.078469701 0.04425038 0.32600001 4278654732
0.079528548 0.04425038 0.32600001 4278194181
0.080834597 0.044386119 0.32700002 4278522886
0.082147136 0.044521853 0.32800001 4278587912
0.083212487 0.044521853 0.32800001 4278390535
0.084534779 0.044657595 0.32900003 4278785291
0.085603371 0.044657595 0.32900003 4278719498
0.086935401 0.04479333 0.33000001 4278719498
0.088007249 0.04479333 0.33000001 4278391046
0.089079089 0.04479333 0.33000001 4279251736
0.090424113 0.044929069 0.33100003 4278726675
0.091499202 0.044929069 0.33100003 4278988051
0.092853971 0.045064807 0.33200002 4279250199
0.093932308 0.045064807 0.33200002 4279776029
0.095010646 0.045064807 0.33200002 4279447578
0.096378401 0.045200542 0.333 4279383320
0.097459979 0.045200542 0.333 4279713055
0.098837487 0.04533628 0.33400002 4278989845
0.10022149 0.045472018 0.33500001 4279121685
0.10130957 0.045472018 0.33500001 4279122199
0.10270333 0.045607757 0.33600003 4279187478
0.10379466 0.045607757 0.33600003 4279253271
0.10519814 0.045743492 0.33700001 4278924820
0.10629271 0.045743492 0.33700001 4278794004
0.10770595 0.04587923 0.33800003 4278727957
0.10880377 0.04587923 0.33800003 4278924820
0.11022675 0.046014968 0.33900002 4278990613
0.11165622 0.046150703 0.34 4279187478
0.11276054 0.046150703 0.34 4279121431
0.11419976 0.046286441 0.34100002 4279121431
0.11564547 0.04642218 0.34200001 4278726160
0.11675628 0.04642218 0.34200001 4279055638
0.1178671 0.04642218 0.34200001 4279319064
0.11932582 0.046557918 0.34300002 4278195200
0.12043988 0.046557918 0.34300002 4279054355
0.12190833 0.046693653 0.34400001 4278860308
0.12302563 0.046693653 0.34400001 4278991892
0.12450383 0.046829391 0.34500003 4278795283
0.12598851 0.04696513 0.34600002 4278795283
0.12711233 0.04696513 0.34600002 4278991894
0.12860675 0.047100864 0.347 4279255066
0.031956051 0.046977431 0.33800003 4280825387
0.033151668 0.047116414 0.33900002 4285301627
0.03425274 0.047116414 0.33900002 4285236600
0.035353813 0.047116414 0.33900002 4285302393
0.036454882 0.047116414 0.33900002 4285565565
0.036226545 0.045448579 0.32700002 4285433977
0.037174605 0.045309588 0.32600001 4285302905
0.038233455 0.045309588 0.32600001 4285434491
0.039171774 0.045170605 0.32500002 4285434491
0.040227376 0.045170605 0.32500002 4285302905
0.041282974 0.045170605 0.32500002 4285171319
0.042338576 0.045170605 0.32500002 4285105526
0.043394178 0.045170605 0.32500002 4285302905
0.044449776 0.045170605 0.32500002 4285237112
0.045505378 0.045170605 0.32500002 4285171319
0.04656098 0.045170605 0.32500002 4285828735
0.047616582 0.045170605 0.32500002 4283328601
0.048672181 0.045170605 0.32500002 4278854677
0.049727783 0.045170605 0.32500002 4279052822
0.050783385 0.045170605 0.32500002 4279119385
0.051838979 0.045170605 0.32500002 4279055127
0.052894581 0.045170605 0.32500002 4279055638
0.053950183 0.045170605 0.32500002 4278727957
0.055005781 0.045170605 0.32500002 4278860056
0.056061383 0.045170605 0.32500002 4278664212
0.057116985 0.045170605 0.32500002 4278795798
0.057993591 0.045031615 0.324 4278730005
0.059045941 0.045031615 0.324 4278730005
0.060098294 0.045031615 0.324 4278664210
0.061150651 0.045031615 0.324 4278664210
0.062202998 0.045031615 0.324 4278730003
0.063255355 0.045031615 0.324 4278598417
0.064307705 0.045031615 0.324 4278598417
0.065360054 0.045031615 0.324 4278598417
0.066412412 0.045031615 0.324 4278598417
0.067464761 0.045031615 0.324 4278663697
0.068517119 0.045031615 0.324 4278728720
0.069569468 0.045031615 0.324 4278200326
0.070621818 0.045031615 0.324 4278593806
0.071674176 0.045031615 0.324 4278462990
0.072950989 0.045170605 0.32500002 4278728724
0.074006595 0.045170605 0.32500002 4278794515
0.0750622 0.045170605 0.32500002 4278926101
0.076117791 0.045170605 0.32500002 4278926101
0.077410847 0.045309588 0.32600001 4278859797
0.078469701 0.045309588 0.32600001 4279121945
0.079528548 0.045309588 0.32600001 4279121945
0.080834597 0.045448579 0.32700002 4279056152
0.081896693 0.045448579 0.32700002 4279121433
0.083212487 0.045587562 0.32800001 4279186713
0.084277831 0.045587562 0.32800001 4279186713
0.085603371 0.045726553 0.32900003 4279317529
0.086671971 0.045726553 0.32900003 4279448602
0.088007249 0.045865536 0.33000001 4279580188
0.089079089 0.045865536 0.33000001 4279187226
0.090424113 0.046004526 0.33100003 4278726675
0.091499202 0.046004526 0.33100003 4278723857
0.092574291 0.046004526 0.33100003 4278460685
0.093932308 0.046143509 0.33200002 4278195201
0.095010646 0.046143509 0.33200002 4278195716
0.096378401 0.046282496 0.333 4278195458
0.097459979 0.046282496 0.333 4278195456
0.098837487 0.046421483 0.33400002 4278194432
0.099922322 0.046421483 0.33400002 4278195201
0.10130957 0.046560466 0.33500001 4278195456
0.10270333 0.046699457 0.33600003 4278193920
0.10379466 0.046699457 0.33600003 4278195712
0.10519814 0.04683844 0.33700001 4278195968
0.10629271 0.04683844 0.33700001 4278198278
0.10770595 0.046977431 0.33800003 4278396427
0.10912567 0.047116414 0.33900002 4278462988
0.11022675 0.047116414 0.33900002 4278594574
0.11165622 0.047255401 0.34 4278594574
0.1130922 0.047394387 0.34100002 4279253017
0.11419976 0.047394387 0.34100002 4279253271
0.11564547 0.047533374 0.34200001 4279319064
0.11675628 0.047533374 0.34200001 4279319062
0.1178671 0.047533374 0.34200001 4279055890
0.11932582 0.047672361 0.34300002 4278195712
0.12043988 0.047672361 0.34300002 4279253271
0.12190833 0.047811348 0.34400001 4278861076
0.12302563 0.047811348 0.34400001 4278795283
0.12450383 0.047950335 0.34500003 4278794513
0.12598851 0.048089322 0.34600002 4278991892
0.12711233 0.048089322 0.34600002 4279123478
0.12860675 0.048228305 0.347 4279582748
0.032050595 0.048217863 0.33900002 4282340425
0.033249456 0.048360098 0.34 4285039482
0.034353778 0.048360098 0.34 4285171068
0.035458099 0.048360098 0.34 4285302907
0.03656242 0.048360098 0.34 4285368186
0.036115758 0.0463688 0.32600001 4285433979
0.037060574 0.046226565 0.32500002 4285433977
0.038116176 0.046226565 0.32500002 4285368184
0.039051246 0.046084326 0.324 4285433977
0.040103596 0.046084326 0.324 4285302391
0.041155949 0.046084326 0.324 4285237114
0.042208303 0.046084326 0.324 4285237114
0.043260656 0.046084326 0.324 4285302905
0.044449776 0.046226565 0.32500002 4285302905
0.045505378 0.046226565 0.32500002 4285237112
0.04656098 0.046226565 0.32500002 4285237112
0.047616582 0.046226565 0.32500002 4285171319
0.048672181 0.046226565 0.32500002 4285631870
0.049727783 0.046226565 0.32500002 4284249953
0.050783385 0.046226565 0.32500002 4280170787
0.051838979 0.046226565 0.32500002 4278921234
0.052894581 0.046226565 0.32500002 4279054103
0.053950183 0.046226565 0.32500002 4279121947
0.055005781 0.046226565 0.32500002 4279056922
0.056061383 0.046226565 0.32500002 4279189275
0.057116985 0.046226565 0.32500002 4278926103
0.058172587 0.046226565 0.32500002 4278729494
0.059045941 0.046084326 0.324 4278795287
0.060098294 0.046084326 0.324 4278730007
0.061150651 0.046084326 0.324 4278532628
0.062202998 0.046084326 0.324 4278664214
0.063255355 0.046084326 0.324 4278730007
0.064307705 0.046084326 0.324 4278796568
0.065360054 0.046084326 0.324 4278401810
0.066412412 0.046084326 0.324 4278598419
0.067464761 0.046084326 0.324 4278730003
0.068517119 0.046084326 0.324 4278729490
0.069569468 0.046084326 0.324 4278795283
0.070621818 0.046084326 0.324 4278926103
0.071895398 0.046226565 0.32500002 4278925590
0.072950989 0.046226565 0.32500002 4278926103
0.074006595 0.046226565 0.32500002 4278729492
0.0750622 0.046226565 0.32500002 4278663697
0.076117791 0.046226565 0.32500002 4278729490
0.077410847 0.0463688 0.32600001 4278729492
0.078469701 0.0463688 0.32600001 4278795285
0.079528548 0.0463688 0.32600001 4278729492
0.080834597 0.046511035 0.32700002 4278663699
0.081896693 0.046511035 0.32700002 4278861080
0.083212487 0.046653271 0.32800001 4278860308
0.084277831 0.046653271 0.32800001 4278991381
0.085603371 0.04679551 0.32900003 4278991381
0.086671971 0.04679551 0.32900003 4278728211
0.087740563 0.04679551 0.32900003 4278991383
0.089079089 0.046937741 0.33000001 4278860310
0.090150923 0.046937741 0.33000001 4278860310
0.091499202 0.04707998 0.33100003 4278794517
0.092574291 0.04707998 0.33100003 4278794263
0.09364938 0.04707998 0.33100003 4278925338
0.095010646 0.047222216 0.33200002 4278991131
0.096088983 0.047222216 0.33200002 4278925336
0.097459979 0.047364447 0.333 4278991129
0.098837487 0.047506686 0.33400002 4279055638
0.099922322 0.047506686 0.33400002 4279121431
0.10130957 0.047648918 0.33500001 4279318297
0.10270333 0.047791157 0.33600003 4279251734
0.10379466 0.047791157 0.33600003 4279317527
0.10519814 0.047933392 0.33700001 4279646492
0.10660812 0.048075628 0.33800003 4279251736
0.10770595 0.048075628 0.33800003 4279251736
0.10912567 0.048217863 0.33900002 4279119383
0.11022675 0.048217863 0.33900002 4278987027
0.11165622 0.048360098 0.34 4278591755
0.1130922 0.048502333 0.34100002 4278196997
0.11419976 0.048502333 0.34100002 4278196738
0.11564547 0.048644569 0.34200001 4278393347
0.11675628 0.048644569 0.34200001 4278195713
0.1178671 0.048644569 0.34200001 4278195714
0.11932582 0.048786808 0.34300002 4279119635
0.12043988 0.048786808 0.34300002 4279187988
0.12190833 0.048929039 0.34400001 4278860306
0.12302563 0.048929039 0.34400001 4278795283
0.12450383 0.049071278 0.34500003 4278992662
0.12598851 0.049213514 0.34600002 4278795283
0.12711233 0.049213514 0.34600002 4278991892
0.032145139 0.049464788 0.34 4282274632
0.033249456 0.049464788 0.34 4285039735
0.034353778 0.049464788 0.34 4285237114
0.035458099 0.049464788 0.34 4285302907
0.03656242 0.049464788 0.34 4285237112
0.037666742 0.049464788 0.34 4285302905
0.036946539 0.047137033 0.324 4285434491
0.037998892 0.047137033 0.324 4285302905
0.039051246 0.047137033 0.324 4285500284
0.040103596 0.047137033 0.324 4285302905
0.041155949 0.047137033 0.324 4285237112
0.042208303 0.047137033 0.324 4285237112
0.043260656 0.047137033 0.324 4285434491
0.044313006 0.047137033 0.324 4285302905
0.045505378 0.047282521 0.32500002 4285302905
0.04656098 0.047282521 0.32500002 4285434491
0.047616582 0.047282521 0.32500002 4285302905
0.048672181 0.047282521 0.32500002 4285171319
0.049727783 0.047282521 0.32500002 4285303159
0.050783385 0.047282521 0.32500002 4285171057
0.051838979 0.047282521 0.32500002 4285632124
0.052894581 0.047282521 0.32500002 4282868564
0.053950183 0.047282521 0.32500002 4279908129
0.055005781 0.047282521 0.32500002 4279317016
0.056061383 0.047282521 0.32500002 4279516189
0.057116985 0.047282521 0.32500002 4279319324
0.058172587 0.047282521 0.32500002 4279320348
0.059228186 0.047282521 0.32500002 4279188762
0.060098294 0.047137033 0.324 4278991896
0.061150651 0.047137033 0.324 4279189275
0.062202998 0.047137033 0.324 4279123482
0.063255355 0.047137033 0.324 4279123482
0.064307705 0.047137033 0.324 4278795800
0.065360054 0.047137033 0.324 4278664214
0.066412412 0.047137033 0.324 4278795800
0.067464761 0.047137033 0.324 4278730007
0.068728596 0.047282521 0.32500002 4278730007
0.069784194 0.047282521 0.32500002 4278795800
0.070839792 0.047282521 0.32500002 4278795800
0.071895398 0.047282521 0.32500002 4278730007
0.072950989 0.047282521 0.32500002 4278532628
0.074006595 0.047282521 0.32500002 4278598419
0.0750622 0.047282521 0.32500002 4278730003
0.076117791 0.047282521 0.32500002 4278598417
0.077410847 0.047428004 0.32600001 4278730005
0.078469701 0.047428004 0.32600001 4278730005
0.079528548 0.047428004 0.32600001 4278335247
0.080834597 0.047573492 0.32700002 4278664212
0.081896693 0.047573492 0.32700002 4278532626
0.082958788 0.047573492 0.32700002 4278597906
0.084277831 0.047718972 0.32800001 4278729490
0.085343175 0.047718972 0.32800001 4278663697
0.086671971 0.047864459 0.32900003 4278729492
0.087740563 0.047864459 0.32900003 4278532113
0.089079089 0.048009943 0.33000001 4278663699
0.090150923 0.048009943 0.33000001 4278663699
0.091222763 0.048009943 0.33000001 4278662929
0.092574291 0.048155431 0.33100003 4278532113
0.09364938 0.048155431 0.33100003 4278663701
0.095010646 0.048300914 0.33200002 4278663701
0.096088983 0.048300914 0.33200002 4278598421
0.097459979 0.048446395 0.333 4278729492
0.098541565 0.048446395 0.333 4278860308
0.099922322 0.048591882 0.33400002 4278860308
0.10130957 0.048737366 0.33500001 4279057174
0.10270333 0.048882853 0.33600003 4278991381
0.10410357 0.049028337 0.33700001 4278926101
0.10519814 0.049028337 0.33700001 4278860308
0.10660812 0.049173824 0.33800003 4278860308
0.10770595 0.049173824 0.33800003 4278926101
0.10912567 0.049319305 0.33900002 4278859795
0.11055189 0.049464788 0.34 4278859795
0.11165622 0.049464788 0.34 4278991381
0.1130922 0.049610276 0.34100002 4279122197
0.11419976 0.049610276 0.34100002 4279056406
0.11564547 0.04975576 0.34200001 4279057176
0.11675628 0.04975576 0.34200001 4279319578
0.1178671 0.04975576 0.34200001 4279056406
0.11932582 0.049901247 0.34300002 4279188760
0.12043988 0.049901247 0.34300002 4278991894
0.12190833 0.050046727 0.34400001 4278926099
0.12302563 0.050046727 0.34400001 4279189271
0.12450383 0.050192215 0.34500003 4278926099
0.12598851 0.050337698 0.34600002 4278991892
0.12711233 0.050337698 0.34600002 4279515928
0.031040816 0.050569486 0.34 4280494360
0.032145139 0.050569486 0.34 4283261527
0.033347253 0.050718222 0.34100002 4285105275
0.034454823 0.050718222 0.34100002 4285302905
0.035562389 0.050718222 0.34100002 4285237112
0.036669958 0.050718222 0.34100002 4285237112
0.037777528 0.050718222 0.34100002 4285500284
0.036946539 0.048189744 0.324 4285237112
0.037998892 0.048189744 0.324 4285302905
0.039051246 0.048189744 0.324 4285302905
0.040103596 0.048189744 0.324 4285237112
0.041155949 0.048189744 0.324 4285302905
0.042208303 0.048189744 0.324 4285171319
0.043260656 0.048189744 0.324 4285434491
0.044313006 0.048189744 0.324 4285433977
0.045505378 0.04833848 0.32500002 4285368184
0.04656098 0.04833848 0.32500002 4285302391
0.047616582 0.04833848 0.32500002 4285433977
0.048672181 0.04833848 0.32500002 4285565563
0.049727783 0.04833848 0.32500002 4285565817
0.050783385 0.04833848 0.32500002 4285434231
0.051998485 0.048487213 0.32600001 4285565817
0.052894581 0.04833848 0.32500002 4285237366
0.053950183 0.04833848 0.32500002 4285302905
0.055005781 0.04833848 0.32500002 4285697663
0.056061383 0.04833848 0.32500002 4285501054
0.057116985 0.04833848 0.32500002 4283198299
0.058172587 0.04833848 0.32500002 4280764208
0.059228186 0.04833848 0.32500002 4279777313
0.060098294 0.048189744 0.324 4279186713
0.061150651 0.048189744 0.324 4278857748
0.062202998 0.048189744 0.324 4279976229
0.063255355 0.048189744 0.324 4279515676
0.064307705 0.048189744 0.324 4279253017
0.065360054 0.048189744 0.324 4279318810
0.066617392 0.04833848 0.32500002 4279581982
0.06767299 0.04833848 0.32500002 4279187738
0.068728596 0.04833848 0.32500002 4279189021
0.069784194 0.04833848 0.32500002 4279123228
0.070839792 0.04833848 0.32500002 4279189021
0.071895398 0.04833848 0.32500002 4278991642
0.072950989 0.04833848 0.32500002 4278991383
0.074006595 0.04833848 0.32500002 4279057176
0.0750622 0.04833848 0.32500002 4278991894
0.076117791 0.04833848 0.32500002 4278991894
0.077410847 0.048487213 0.32600001 4278992664
0.078469701 0.048487213 0.32600001 4278861078
0.079528548 0.048487213 0.32600001 4278861078
0.080834597 0.048635948 0.32700002 4278729492
0.081896693 0.048635948 0.32700002 4278729492
0.082958788 0.048635948 0.32700002 4278795285
0.084277831 0.048784681 0.32800001 4278926101
0.085343175 0.048784681 0.32800001 4278926101
0.086671971 0.048933417 0.32900003 4278795285
0.087740563 0.048933417 0.32900003 4278795285
0.088809155 0.048933417 0.32900003 4278597904
0.090150923 0.049082149 0.33000001 4278729490
0.091222763 0.049082149 0.33000001 4278663697
0.092294604 0.049082149 0.33000001 4278532113
0.09364938 0.049230885 0.33100003 4278663699
0.094724469 0.049230885 0.33100003 4278729494
0.096088983 0.049379617 0.33200002 4278597906
0.097167313 0.049379617 0.33200002 4278729492
0.098541565 0.049528349 0.333 4278795285
0.099922322 0.049677085 0.33400002 4278729492
0.10130957 0.049825817 0.33500001 4278795285
0.10270333 0.049974553 0.33600003 4278795285
0.10410357 0.050123286 0.33700001 4278992664
0.10519814 0.050123286 0.33700001 4278729492
0.10660812 0.050272021 0.33800003 4278728722
0.1080246 0.050420754 0.33900002 4278794515
0.10912567 0.050420754 0.33900002 4278728722
0.11055189 0.050569486 0.34 4278794515
0.11165622 0.050569486 0.34 4278991894
0.1130922 0.050718222 0.34100002 4278926101
0.11419976 0.050718222 0.34100002 4278795285
0.11564547 0.050866954 0.34200001 4278992664
0.11675628 0.050866954 0.34200001 4278861078
0.1178671 0.050866954 0.34200001 4278795285
0.11932582 0.05101569 0.34300002 4278795283
0.12043988 0.05101569 0.34300002 4278729490
0.12155395 0.05101569 0.34300002 4278860306
0.12302563 0.051164422 0.34400001 4278925586
0.12450383 0.051313158 0.34500003 4279320344
0.12598851 0.05146189 0.34600002 4279386137
0.032239683 0.051826164 0.34100002 4284248422
0.033347253 0.051826164 0.34100002 4285302393
0.034454823 0.051826164 0.34100002 4285368186
0.035562389 0.051826164 0.34100002 4285105012
0.036669958 0.051826164 0.34100002 4285302905
0.037777528 0.051826164 0.34100002 4285302905
0.036946539 0.049242452 0.324 4285500284
0.037881613 0.049090471 0.32300001 4285631356
0.038930718 0.049090471 0.32300001 4285565563
0.039979823 0.049090471 0.32300001 4285433977
0.041028924 0.049090471 0.32300001 4285433977
0.042208303 0.049242452 0.324 4285368184
0.043260656 0.049242452 0.324 4285433977
0.044313006 0.049242452 0.324 4285565563
0.04536536 0.049242452 0.324 4285697149
0.04656098 0.049394436 0.32500002 4285631356
0.047616582 0.049394436 0.32500002 4285697149
0.048672181 0.049394436 0.32500002 4285565563
0.049727783 0.049394436 0.32500002 4285565563
0.050939638 0.049546417 0.32600001 4285631356
0.051998485 0.049546417 0.32600001 4285434231
0.053057332 0.049546417 0.32600001 4285434231
0.054116182 0.049546417 0.32600001 4285302391
0.055005781 0.049394436 0.32500002 4285433977
0.056061383 0.049394436 0.32500002 4285368184
0.057116985 0.049394436 0.32500002 4285433977
0.058172587 0.049394436 0.32500002 4285236852
0.059228186 0.049394436 0.32500002 4285236852
0.060283788 0.049394436 0.32500002 4285303159
0.06133939 0.049394436 0.32500002 4285302905
0.062394988 0.049394436 0.32500002 4286092159
0.06345059 0.049394436 0.32500002 4285828987
0.064506188 0.049394436 0.32500002 4285369720
0.065561786 0.049394436 0.32500002 4285303927
0.066617392 0.049394436 0.32500002 4284711790
0.06767299 0.049394436 0.32500002 4283856994
0.068728596 0.049394436 0.32500002 4282606927
0.069784194 0.049394436 0.32500002 4281882691
0.070839792 0.049394436 0.32500002 4281553726
0.071895398 0.049394436 0.32500002 4280501038
0.072950989 0.049394436 0.32500002 4280105762
0.074006595 0.049394436 0.32500002 4279317016
0.0750622 0.049394436 0.32500002 4279185689
0.076117791 0.049394436 0.32500002 4279843619
0.077410847 0.049546417 0.32600001 4279581471
0.078469701 0.049546417 0.32600001 4279187226
0.079528548 0.049546417 0.32600001 4279516191
0.080587395 0.049546417 0.32600001 4279581982
0.081896693 0.049698401 0.32700002 4279450396
0.082958788 0.049698401 0.32700002 4279516443
0.084277831 0.049850386 0.32800001 4279648029
0.085343175 0.049850386 0.32800001 4279385371
0.086408526 0.049850386 0.32800001 4279254555
0.087740563 0.05000237 0.32900003 4279057176
0.088809155 0.05000237 0.32900003 4279188760
0.090150923 0.050154351 0.33000001 4278991381
0.091222763 0.050154351 0.33000001 4279188760
0.092294604 0.050154351 0.33000001 4279188762
0.09364938 0.050306335 0.33100003 4279057174
0.094724469 0.050306335 0.33100003 4278991381
0.096088983 0.050458316 0.33200002 4278991381
0.097167313 0.050458316 0.33200002 4278925588
0.098541565 0.050610296 0.333 4278925588
0.099922322 0.050762285 0.33400002 4279057174
0.10130957 0.050914265 0.33500001 4278925588
0.10270333 0.05106625 0.33600003 4279188760
0.10410357 0.05121823 0.33700001 4278925588
0.10551031 0.051370215 0.33800003 4279188760
0.10660812 0.051370215 0.33800003 4278925588
0.1080246 0.051522195 0.33900002 4279057174
0.10912567 0.051522195 0.33900002 4279254553
0.11055189 0.051674176 0.34 4278991381
0.11165622 0.051674176 0.34 4279319576
0.1130922 0.051826164 0.34100002 4279385369
0.11419976 0.051826164 0.34100002 4279516957
0.11564547 0.051978145 0.34200001 4279516957
0.11675628 0.051978145 0.34200001 4279451164
0.1178671 0.051978145 0.34200001 4279516957
0.11897792 0.051978145 0.34200001 4279319578
0.12043988 0.052130129 0.34300002 4279451164
0.12155395 0.052130129 0.34300002 4279648029
0.12302563 0.05228211 0.34400001 4279383574
0.032239683 0.05293411 0.34100002 4285827454
0.033347253 0.05293411 0.34100002 4285368186
0.034454823 0.05293411 0.34100002 4285565565
0.035562389 0.05293411 0.34100002 4285565565
0.036669958 0.05293411 0.34100002 4285434491
0.037777528 0.05293411 0.34100002 4285237112
0.038885094 0.05293411 0.34100002 4285566077
0.037881613 0.050139934 0.32300001 4285565563
0.038930718 0.050139934 0.32300001 4285565563
0.039979823 0.050139934 0.32300001 4285697149
0.041028924 0.050139934 0.32300001 4285368184
0.042078033 0.050139934 0.32300001 4285565563
0.043260656 0.050295163 0.324 4285565563
0.051998485 0.050605629 0.32600001 4285631610
0.053057332 0.050605629 0.32600001 4285368184
0.054116182 0.050605629 0.32600001 4285302391
0.055005781 0.050450396 0.32500002 4285433977
0.056061383 0.050450396 0.32500002 4285433977
0.057116985 0.050450396 0.32500002 4285631356
0.058172587 0.050450396 0.32500002 4285499257
0.059228186 0.050450396 0.32500002 4285433718
0.090150923 0.051226556 0.33000001 4279975205
0.091222763 0.051226556 0.33000001 4279843360
0.092294604 0.051226556 0.33000001 4279711774
0.09364938 0.051381789 0.33100003 4279711772
0.094724469 0.051381789 0.33100003 4279711772
0.096088983 0.051537022 0.33200002 4279712026
0.097167313 0.051537022 0.33200002 4279777819
0.098541565 0.051692251 0.333 4279580186
0.099922322 0.051847484 0.33400002 4279514906
0.10130957 0.052002717 0.33500001 4279449113
0.10270333 0.05215795 0.33600003 4279514906
0.10410357 0.052313179 0.33700001 4279843358
0.10551031 0.052468415 0.33800003 4280369702
0.10660812 0.052468415 0.33800003 4280303141
0.1080246 0.052623644 0.33900002 4280368934
0.10912567 0.052623644 0.33900002 4280434727
0.11055189 0.052778874 0.34 4280632106
0.11165622 0.052778874 0.34 4281683767
0.1130922 0.05293411 0.34100002 4281486388
0.11419976 0.05293411 0.34100002 4281881405
0.11564547 0.053089339 0.34200001 4282539335
0.11675628 0.053089339 0.34200001 4283000140
0.1178671 0.053089339 0.34200001 4283394898
0.11897792 0.053089339 0.34200001 4284249692
0.12043988 0.053244572 0.34300002 4284906852
0.032334227 0.05420053 0.34200001 4285762429
0.033445042 0.05420053 0.34200001 4285433979
0.03455586 0.05420053 0.34200001 4285237114
0.035666678 0.05420053 0.34200001 4285434491
0.036777493 0.05420053 0.34200001 4285500284
0.037888311 0.05420053 0.34200001 4285302905
0.038999125 0.05420053 0.34200001 4285302905
0.040109944 0.05420053 0.34200001 4285434491
0.032334227 0.055311725 0.34200001 4285696638
0.033445042 0.055311725 0.34200001 4285433979
0.03455586 0.055311725 0.34200001 4285565565
0.035666678 0.055311725 0.34200001 4285631356
0.036777493 0.055311725 0.34200001 4285433977
0.037888311 0.055311725 0.34200001 4285565563
0.038999125 0.055311725 0.34200001 4285631356
0.032334227 0.056422915 0.34200001 4285828224
0.033445042 0.056422915 0.34200001 4285565565
0.03455586 0.056422915 0.34200001 4285433979
0.035666678 0.056422915 0.34200001 4285433979
0.036777493 0.056422915 0.34200001 4285565563
0.032428775 0.05770234 0.34300002 4285565563
0.033542838 0.05770234 0.34300002 4285565563
0.031314708 0.058816779 0.34300002 4282075454
0.032428775 0.058816779 0.34300002 4285894530
0.033542838 0.058816779 0.34300002 4285433977
0.032428775 0.059931226 0.34300002 4285630845
0.032523315 0.061223641 0.34400001 4285433979
0.031406004 0.062341332 0.34400001 4286024831
0.032523315 0.062341332 0.34400001 4285368186
0.031406004 0.063459024 0.34400001 4285433464
0.032523315 0.063459024 0.34400001 4285631358
0.031406004 0.064576715 0.34400001 4285433466
0.029171379 0.065694407 0.34400001 4283391568
0.030288691 0.065694407 0.34400001 4285894017
0.074266464 0.041199941 0.32973558 4294967295
0.074266464 0.041199941 0.32973558 4294901760
0.074266464 0.041199941 0.33023557 4294901760
0.074266464 0.041199941 0.33073556 4294901760
0.074266464 0.041199941 0.33123559 4294901760
0.074266464 0.041199941 0.33173558 4294901760
0.074266464 0.041199941 0.33223557 4294901760
0.074266464 0.041199941 0.33273557 4294901760
0.074266464 0.041199941 0.33323559 4294901760
0.074266464 0.041199941 0.33373559 4294901760
0.074266464 0.041199941 0.33423558 4294901760
0.074266464 0.041199941 0.33473557 4294901760
0.074266464 0.041199941 0.33523557 4294901760
0.074266464 0.041199941 0.33573559 4294901760
0.074266464 0.041199941 0.33623558 4294901760
0.074266464 0.041199941 0.33673558 4294901760
0.074266464 0.041199941 0.33723557 4294901760
0.074266464 0.041199941 0.33773559 4294901760
0.074266464 0.041199941 0.33823559 4294901760
0.074266464 0.041199941 0.33873558 4294901760
0.074266464 0.041199941 0.33923557 4294901760
0.074266464 0.041199941 0.33973557 4294901760
0.074266464 0.041199941 0.34023559 4294901760
0.074266464 0.041199941 0.34073558 4294901760
0.074266464 0.041199941 0.34123558 4294901760
0.074266464 0.041199941 0.34173557 4294901760
0.074266464 0.041199941 0.34223557 4294901760
0.074266464 0.041199941 0.34273559 4294901760
0.074266464 0.041199941 0.34323558 4294901760
0.074266464 0.041199941 0.34373558 4294901760
0.074266464 0.041199941 0.34423557 4294901760
0.074266464 0.041199941 0.34473559 4294901760
0.074266464 0.041199941 0.34523559 4294901760
0.074266464 0.041199941 0.34573558 4294901760
0.074266464 0.041199941 0.34623557 4294901760
0.074266464 0.041199941 0.3467356 4294901760
0.074266464 0.041199941 0.34723559 4294901760
0.074266464 0.041199941 0.34773558 4294901760
0.074266464 0.041199941 0.34823558 4294901760
0.074266464 0.041199941 0.34873557 4294901760
0.074266464 0.041199941 0.34923559 4294901760
0.074266464 0.041199941 0.34973559 4294901760
0.074266464 0.041199941 0.35023558 4294901760
0.074266464 0.041199941 0.35073557 4294901760
0.074266464 0.041199941 0.35123557 4294901760
0.074266464 0.041199941 0.35173559 4294901760
0.074266464 0.041199941 0.35223559 4294901760
0.074266464 0.041199941 0.35273558 4294901760
0.074266464 0.041199941 0.35323557 4294901760
0.074266464 0.041199941 0.3537356 4294901760
0.074266464 0.041199941 0.35423559 4294901760
0.074266464 0.041199941 0.35473558 4294901760
0.074266464 0.041199941 0.35523558 4294901760
0.074266464 0.041199941 0.35573557 4294901760
0.074266464 0.041199941 0.35623559 4294901760
0.074266464 0.041199941 0.35673559 4294901760
0.074266464 0.041199941 0.35723558 4294901760
0.074266464 0.041199941 0.35773557 4294901760
0.074266464 0.041199941 0.3582356 4294901760
0.074266464 0.041199941 0.35873559 4294901760
0.074266464 0.041199941 0.35923558 4294901760
0.074266464 0.041199941 0.35973558 4294901760
0.074266464 0.041199941 0.36023557 4294901760
0.074266464 0.041199941 0.3607356 4294901760
0.074266464 0.041199941 0.36123559 4294901760
0.074266464 0.041199941 0.36173558 4294901760
0.074266464 0.041199941 0.36223558 4294901760
0.074266464 0.041199941 0.3627356 4294901760
0.074266464 0.041199941 0.36323559 4294901760
0.074266464 0.041199941 0.36373559 4294901760
0.074266464 0.041199941 0.36423558 4294901760
0.074266464 0.041199941 0.36473557 4294901760
0.074266464 0.041199941 0.3652356 4294901760
0.074266464 0.041199941 0.36573559 4294901760
0.074266464 0.041199941 0.36623558 4294901760
0.074266464 0.041199941 0.36673558 4294901760
0.074266464 0.041199941 0.3672356 4294901760
0.074266464 0.041199941 0.36773559 4294901760
0.074266464 0.041199941 0.36823559 4294901760
0.074266464 0.041199941 0.36873558 4294901760
0.074266464 0.041199941 0.36923558 4294901760
0.074266464 0.041199941 0.3697356 4294901760
0.074266464 0.041199941 0.37023559 4294901760
0.074266464 0.041199941 0.37073559 4294901760
0.074266464 0.041199941 0.37123558 4294901760
0.074266464 0.041199941 0.37173557 4294901760
0.074266464 0.041199941 0.3722356 4294901760
0.074266464 0.041199941 0.37273559 4294901760
0.074266464 0.041199941 0.37323558 4294901760
0.074266464 0.041199941 0.37373558 4294901760
0.074266464 0.041199941 0.37423557 4294901760
0.074266464 0.041199941 0.37473559 4294901760
0.074266464 0.041199941 0.37523559 4294901760
0.074266464 0.041199941 0.37573558 4294901760
0.074266464 0.041199941 0.3762356 4294901760
0.074266464 0.041199941 0.3767356 4294901760
0.074266464 0.041199941 0.37723559 4294901760
0.074266464 0.041199941 0.37773558 4294901760
0.074266464 0.041199941 0.37823558 4294901760
0.074266464 0.041199941 0.3787356 4294901760
0.074266464 0.041199941 0.3792356 4294901760
0.074266464 0.041199941 0.37973559 4294901760
0.074266464 0.041199941 0.32973558 4278255360
0.074094921 0.041111846 0.33019689 4278255360
0.073923379 0.04102375 0.3306582 4278255360
0.073751837 0.040935658 0.33111954 4278255360
0.073580295 0.040847562 0.33158085 4278255360
0.073408753 0.040759467 0.33204216 4278255360
0.073237211 0.040671371 0.33250347 4278255360
