# .PCD v0.7 - Point Cloud Data file format
VERSION 0.7
FIELDS x y z rgb
SIZE 4 4 4 4
TYPE F F F U
COUNT 1 1 1 1
WIDTH 1052
HEIGHT 1
VIEWPOINT 0 0 0 1 0 0 0
POINTS 1052
DATA ascii
0.03410235 0.036948927 0.32700002 4278196738
0.035056908 0.036835931 0.32600001 4278198790
0.036004975 0.036722939 0.32500002 4278726673
0.036946539 0.036609944 0.324 4278925849
0.037998892 0.036609944 0.324 4279123998
0.038930718 0.036496952 0.32300001 4278927384
0.03973227 0.036270961 0.32100001 4278862361
0.040647853 0.036157969 0.32000002 4278600216
0.041687217 0.036157969 0.32000002 4278600216
0.042593054 0.036044974 0.31900001 4278731802
0.043629162 0.036044974 0.31900001 4278600986
0.044665277 0.036044974 0.31900001 4278600986
0.045558129 0.035931982 0.31800002 4278600986
0.046590995 0.035931982 0.31800002 4278797593
0.047623854 0.035931982 0.31800002 4278600984
0.048656721 0.035931982 0.31800002 4278864669
0.049689587 0.035931982 0.31800002 4279325220
0.05072245 0.035931982 0.31800002 4279127078
0.051755317 0.035931982 0.31800002 4285376384
0.052954178 0.036044974 0.31900001 4281164346
0.05399029 0.036044974 0.31900001 4279519521
0.055026405 0.036044974 0.31900001 4279519271
0.056062516 0.036044974 0.31900001 4281688394
0.0035741536 0.041149933 0.354 4278731804
0.0047106021 0.041033693 0.35300002 4278336533
0.0058571463 0.041033693 0.35300002 4278264589
0.0070036915 0.041033693 0.35300002 4279448861
0.0081271483 0.040917452 0.35200003 4279846440
0.0092441076 0.040801208 0.35100001 4278263308
0.010354572 0.040684965 0.35000002 4279379990
0.01145854 0.040568721 0.34900001 4278590474
0.012556012 0.04045248 0.34800002 4278723855
0.013646987 0.040336236 0.347 4279052822
0.014731468 0.040219992 0.34600002 4278195207
0.015809454 0.040103752 0.34500003 4278657552
0.016880941 0.039987508 0.34400001 4278523916
0.017945932 0.039871268 0.34300002 4279314199
0.019004429 0.03975502 0.34200001 4279183896
0.020056428 0.03963878 0.34100002 4278787855
0.021163998 0.03963878 0.34100002 4279187226
0.022206252 0.039522536 0.34 4279189273
0.023242014 0.039406296 0.33900002 4278266636
0.024199469 0.039173808 0.33700001 4278330634
0.025218988 0.039057568 0.33600003 4278196482
0.026232013 0.038941324 0.33500001 4278859543
0.02723854 0.03882508 0.33400002 4278992666
0.028238574 0.038708836 0.333 4278861080
0.029232109 0.038592596 0.33200002 4279058457
0.030219149 0.038476355 0.33100003 4279124250
0.031199694 0.038360108 0.33000001 4279321629
0.032173742 0.038243867 0.32900003 4279058459
0.033141293 0.038127623 0.32800001 4279583779
0.03410235 0.038011383 0.32700002 4279452193
0.035056908 0.037895139 0.32600001 4279779875
0.036115758 0.037895139 0.32600001 4278792468
0.037060574 0.037778895 0.32500002 4278857748
0.037998892 0.037662651 0.324 4278198277
0.038930718 0.037546411 0.32300001 4278196482
0.039856046 0.037430171 0.32200003 4278194944
0.040774874 0.037313923 0.32100001 4278197766
0.041817486 0.037313923 0.32100001 4278331917
0.042726576 0.037197683 0.32000002 4279254814
0.043765936 0.037197683 0.32000002 4279321377
0.044665277 0.037081439 0.31900001 4278533398
0.045701392 0.037081439 0.31900001 4278797082
0.046737507 0.037081439 0.31900001 4278600216
0.047773615 0.037081439 0.31900001 4278731802
0.04880973 0.037081439 0.31900001 4278731802
0.049845841 0.037081439 0.31900001 4278666779
0.050881952 0.037081439 0.31900001 4279193121
0.051918067 0.037081439 0.31900001 4279258398
0.052954178 0.037081439 0.31900001 4278994713
0.053821042 0.036965199 0.31800002 4279126299
0.054853909 0.036965199 0.31800002 4278993949
0.055886775 0.036965199 0.31800002 4279452965
0.056919642 0.036965199 0.31800002 4284448368
0.0024243612 0.042300116 0.354 4278731804
0.0035741536 0.042300116 0.354 4278863388
0.0047239466 0.042300116 0.354 4278928668
0.0058571463 0.042180628 0.35300002 4278396173
0.0070036915 0.042180628 0.35300002 4278857494
0.0081271483 0.042061135 0.35200003 4280043049
0.0092441076 0.041941643 0.35100001 4278723341
0.010354572 0.04182215 0.35000002 4278851849
0.01145854 0.041702658 0.34900001 4278917644
0.012556012 0.041583166 0.34800002 4278524170
0.013646987 0.041463673 0.347 4278524170
0.014731468 0.041344184 0.34600002 4278458123
0.015809454 0.041224692 0.34500003 4278721295
0.016880941 0.0411052 0.34400001 4279182100
0.017945932 0.040985707 0.34300002 4280302889
0.019004429 0.040866215 0.34200001 4278987797
0.020056428 0.040746726 0.34100002 4278655756
0.021101933 0.04062723 0.34 4279713568
0.022206252 0.04062723 0.34 4279189273
0.023242014 0.040507741 0.33900002 4278789388
0.024271278 0.040388249 0.33800003 4278655752
0.025294045 0.040268756 0.33700001 4278656265
0.026232013 0.040029772 0.33500001 4279909153
0.02723854 0.039910283 0.33400002 4278727189
0.028238574 0.039790787 0.333 4279582498
0.029232109 0.039671298 0.33200002 4278728211
0.030219149 0.039551806 0.33100003 4278860310
0.031199694 0.039432313 0.33000001 4278199043
0.032173742 0.039312821 0.32900003 4278597654
0.033242337 0.039312821 0.32900003 4279058972
0.034206636 0.039193328 0.32800001 4279058972
0.035164446 0.03907384 0.32700002 4279124765
0.036115758 0.038954344 0.32600001 4278993177
0.037060574 0.038834855 0.32500002 4279190045
0.037998892 0.038715359 0.324 4279255068
0.038930718 0.03859587 0.32300001 4279320348
0.039856046 0.038476381 0.32200003 4279450910
0.040901903 0.038476381 0.32200003 4279187738
0.041817486 0.038356885 0.32100001 4278858773
0.042860094 0.038356885 0.32100001 4278660115
0.043765936 0.038237397 0.32000002 4278197252
0.044805296 0.038237397 0.32000002 4278196736
0.045844659 0.038237397 0.32000002 4279255068
0.046737507 0.0381179 0.31900001 4278862361
0.047773615 0.0381179 0.31900001 4278796568
0.04880973 0.0381179 0.31900001 4278797080
0.049845841 0.0381179 0.31900001 4278665494
0.050881952 0.0381179 0.31900001 4278665494
0.051918067 0.0381179 0.31900001 4278665748
0.052788179 0.037998412 0.31800002 4278862613
0.053821042 0.037998412 0.31800002 4278796820
0.054853909 0.037998412 0.31800002 4279125531
0.055886775 0.037998412 0.31800002 4279124765
0.056919642 0.037998412 0.31800002 4279712553
0.00012512856 0.043573041 0.35500002 4278862875
0.0012781691 0.043573041 0.35500002 4278928668
0.0024243612 0.0434503 0.354 4278928668
0.0035741536 0.0434503 0.354 4278731289
0.0047239466 0.0434503 0.354 4278533396
0.0058571463 0.043327559 0.35300002 4278859027
0.0070036915 0.043327559 0.35300002 4279254555
0.0081271483 0.043204818 0.35200003 4279320607
0.0092441076 0.043082077 0.35100001 4278198791
0.010354572 0.042959336 0.35000002 4278917390
0.01145854 0.042836595 0.34900001 4278917390
0.012556012 0.042713854 0.34800002 4278982670
0.013646987 0.04259111 0.347 4278916877
0.014731468 0.042468373 0.34600002 4278982670
0.015809454 0.042345632 0.34500003 4278851597
0.016880941 0.042222891 0.34400001 4278785804
0.017945932 0.04210015 0.34300002 4278523916
0.019004429 0.041977406 0.34200001 4278196488
0.020056428 0.041854668 0.34100002 4278655756
0.021101933 0.041731924 0.34 4279187224
0.022206252 0.041731924 0.34 4279320859
0.023242014 0.041609187 0.33900002 4278656265
0.024271278 0.041486446 0.33800003 4278983949
0.025294045 0.041363701 0.33700001 4278984721
0.026310319 0.041240964 0.33600003 4278987029
0.027320093 0.041118219 0.33500001 4279582498
0.028323375 0.040995482 0.33400002 4279320096
0.029320156 0.040872738 0.333 4278200074
0.030310445 0.040750001 0.33200002 4278595089
0.031294242 0.04062726 0.33100003 4279254301
0.032271534 0.040504515 0.33000001 4278200842
0.033242337 0.040381778 0.32900003 4279386400
0.034206636 0.040259033 0.32800001 4278795287
0.035164446 0.040136296 0.32700002 4279190556
0.036115758 0.040013552 0.32600001 4278927384
0.037060574 0.039890811 0.32500002 4278730005
0.037998892 0.03976807 0.324 4278927384
0.039051246 0.03976807 0.324 4278993177
0.039979823 0.039645329 0.32300001 4278993177
0.040901903 0.039522592 0.32200003 4279058970
0.04194776 0.039522592 0.32200003 4278993177
0.042860094 0.039399847 0.32100001 4279058970
0.043902703 0.039399847 0.32100001 4279058459
0.044805296 0.039277107 0.32000002 4279581471
0.045844659 0.039277107 0.32000002 4278198790
0.046884019 0.039277107 0.32000002 4278993177
0.047773615 0.039154366 0.31900001 4278795798
0.04880973 0.039154366 0.31900001 4278796566
0.049845841 0.039154366 0.31900001 4278336015
0.050881952 0.039154366 0.31900001 4278862359
0.051755317 0.039031625 0.31800002 4278796566
0.052788179 0.039031625 0.31800002 4278862359
0.053821042 0.039031625 0.31800002 4278862359
0.054853909 0.039031625 0.31800002 4278795798
0.055886775 0.039031625 0.31800002 4278795287
0.056919642 0.039031625 0.31800002 4278856728
0.05777026 0.038908884 0.317 4286356363
0.00012512856 0.044726476 0.35500002 4278862875
0.0012781691 0.044726476 0.35500002 4278862875
0.0024312097 0.044726476 0.35500002 4278797082
0.0035842503 0.044726476 0.35500002 4278928668
0.0047239466 0.044600483 0.354 4278401810
0.0058737388 0.044600483 0.354 4278661396
0.0070036915 0.044474494 0.35300002 4278596371
0.0081502357 0.044474494 0.35300002 4278992666
0.0092704445 0.044348504 0.35200003 4279190045
0.010384156 0.044222515 0.35100001 4279647777
0.011491373 0.044096526 0.35000002 4279711774
0.012556012 0.043844543 0.34800002 4279117586
0.013646987 0.04371855 0.347 4278524168
0.014731468 0.043592565 0.34600002 4278917392
0.015809454 0.043466575 0.34500003 4278851597
0.016880941 0.043340582 0.34400001 4278917392
0.017945932 0.043214593 0.34300002 4278785806
0.019004429 0.043088604 0.34200001 4278785806
0.020056428 0.042962614 0.34100002 4278391560
0.021101933 0.042836621 0.34 4279187992
0.022140941 0.042710632 0.33900002 4279189273
0.023242014 0.042710632 0.33900002 4278459658
0.024271278 0.042584646 0.33800003 4278852365
0.025294045 0.042458653 0.33700001 4278655754
0.026310319 0.042332664 0.33600003 4280501036
0.027320093 0.042206671 0.33500001 4278594835
0.028323375 0.042080685 0.33400002 4278924568
0.029320156 0.041954692 0.333 4278397710
0.030310445 0.041828703 0.33200002 4278595089
0.031294242 0.041702714 0.33100003 4279189021
0.032271534 0.041576721 0.33000001 4279189021
0.033242337 0.041450735 0.32900003 4279055900
0.034206636 0.041324742 0.32800001 4278595603
0.035164446 0.041198753 0.32700002 4278198532
0.036115758 0.04107276 0.32600001 4278529808
0.037174605 0.04107276 0.32600001 4278793750
0.038116176 0.040946774 0.32500002 4278196736
0.039051246 0.040820781 0.324 4278199303
0.039979823 0.040694792 0.32300001 4279189275
0.040901903 0.040568803 0.32200003 4279124763
0.04194776 0.040568803 0.32200003 4278993179
0.042860094 0.040442813 0.32100001 4278796568
0.043902703 0.040442813 0.32100001 4278928154
0.044945311 0.040442813 0.32100001 4279845668
0.045844659 0.040316824 0.32000002 4278331917
0.046884019 0.040316824 0.32000002 4278993179
0.047923379 0.040316824 0.32000002 4279058970
0.04880973 0.040190831 0.31900001 4278796568
0.049845841 0.040190831 0.31900001 4278664982
0.050881952 0.040190831 0.31900001 4278664980
0.051755317 0.040064842 0.31800002 4278664980
0.052788179 0.040064842 0.31800002 4278599187
0.053821042 0.040064842 0.31800002 4278401808
0.054853909 0.040064842 0.31800002 4278664212
0.055711027 0.039938848 0.317 4278860310
0.056740645 0.039938848 0.317 4278856215
0.05777026 0.039938848 0.317 4286026628
0.00012512856 0.045879904 0.35500002 4279059740
0.0012781691 0.045879904 0.35500002 4278928154
0.0024312097 0.045879904 0.35500002 4278928154
0.0035842503 0.045879904 0.35500002 4278862359
0.004737291 0.045879904 0.35500002 4278928152
0.0058737388 0.045750663 0.354 4279255836
0.0070235315 0.045750663 0.354 4279255836
0.0081502357 0.045621425 0.35300002 4279058457
0.0092704445 0.045492187 0.35200003 4279124763
0.010384156 0.045362946 0.35100001 4279190558
0.011491373 0.045233708 0.35000002 4278992666
0.012592091 0.045104466 0.34900001 4279255068
0.013646987 0.044845987 0.347 4279255068
0.014731468 0.044716749 0.34600002 4279517727
0.015809454 0.044587512 0.34500003 4279976740
0.016880941 0.04445827 0.34400001 4279777313
0.017945932 0.044329032 0.34300002 4279118615
0.019004429 0.044199791 0.34200001 4278392843
0.020056428 0.044070557 0.34100002 4278194438
0.021101933 0.043941315 0.34 4279318812
0.022140941 0.043812077 0.33900002 4278200845
0.023173455 0.04368284 0.33800003 4279580188
0.024271278 0.04368284 0.33800003 4279711004
0.025294045 0.043553598 0.33700001 4279711772
0.026310319 0.04342436 0.33600003 4279516189
0.027320093 0.043295119 0.33500001 4279187738
0.028323375 0.043165881 0.33400002 4278990361
0.029320156 0.04303664 0.333 4279450912
0.030310445 0.042907402 0.33200002 4278726935
0.031294242 0.042778164 0.33100003 4278198792
0.032271534 0.042648923 0.33000001 4278265870
0.033242337 0.042519685 0.32900003 4279845670
0.034206636 0.042390443 0.32800001 4278200074
0.03527198 0.042390443 0.32800001 4279250969
0.036226545 0.042261206 0.32700002 4278198024
0.037174605 0.042131964 0.32600001 4278857748
0.038116176 0.04200273 0.32500002 4279187226
0.039051246 0.041873489 0.324 4279581984
0.039979823 0.041744251 0.32300001 4278726675
0.041028924 0.041744251 0.32300001 4278462990
0.04194776 0.041615013 0.32200003 4278199818
0.04299362 0.041615013 0.32200003 4279453217
0.043902703 0.041485772 0.32100001 4279387937
0.044945311 0.041485772 0.32100001 4279121947
0.045987923 0.041485772 0.32100001 4279647264
0.046884019 0.041356534 0.32000002 4278993179
0.047923379 0.041356534 0.32000002 4279190558
0.04880973 0.041227292 0.31900001 4278862361
0.049845841 0.041227292 0.31900001 4278664982
0.05072245 0.041098054 0.31800002 4278664980
0.051755317 0.041098054 0.31800002 4278862359
0.052788179 0.041098054 0.31800002 4278796566
0.053651791 0.040968813 0.317 4278533394
0.054681409 0.040968813 0.317 4278664212
0.055711027 0.040968813 0.317 4278926103
0.056740645 0.040968813 0.317 4278593554
0.00012512856 0.047033336 0.35500002 4279452445
0.0012781691 0.047033336 0.35500002 4279255836
0.0024312097 0.047033336 0.35500002 4279124250
0.0035842503 0.047033336 0.35500002 4279058457
0.004737291 0.047033336 0.35500002 4278992664
0.0058903312 0.047033336 0.35500002 4278861078
0.0070433724 0.047033336 0.35500002 4278795796
0.0081733242 0.046900846 0.354 4279124763
0.0092967805 0.04676836 0.35300002 4278927384
0.010413741 0.046635874 0.35200003 4278993177
0.011524205 0.046503384 0.35100001 4278993177
0.012628173 0.046370897 0.35000002 4279058970
0.013686316 0.046105918 0.34800002 4279058970
0.014774044 0.045973428 0.347 4278993177
0.015855277 0.045840941 0.34600002 4279124763
0.016880941 0.045575965 0.34400001 4279058970
0.017945932 0.045443479 0.34300002 4279256351
0.019004429 0.045310989 0.34200001 4279321377
0.020115245 0.045310989 0.34200001 4279320607
0.021101933 0.045046009 0.34 4279254814
0.022140941 0.044913523 0.33900002 4279452193
0.023173455 0.044781037 0.33800003 4278726160
0.024199469 0.044648547 0.33700001 4278197763
0.025294045 0.044648547 0.33700001 4278196482
0.026310319 0.044516061 0.33600003 4278195712
0.027320093 0.044383571 0.33500001 4278198537
0.028323375 0.044251084 0.33400002 4279121433
0.029320156 0.044118594 0.333 4279254814
0.030310445 0.043986108 0.33200002 4279189021
0.031294242 0.043853618 0.33100003 4279320607
0.032271534 0.043721128 0.33000001 4279320607
0.033242337 0.043588642 0.32900003 4279189275
0.034206636 0.043456152 0.32800001 4279123482
0.03527198 0.043456152 0.32800001 4279320348
0.036226545 0.043323666 0.32700002 4278989847
0.037174605 0.043191176 0.32600001 4279581730
0.038116176 0.04305869 0.32500002 4278397456
0.039051246 0.0429262 0.324 4278595089
0.040103596 0.0429262 0.324 4279055640
0.041028924 0.04279371 0.32300001 4278856978
0.04194776 0.042661224 0.32200003 4278396427
0.04299362 0.042661224 0.32200003 4279188508
0.044039473 0.042661224 0.32200003 4278993179
0.044945311 0.042528734 0.32100001 4279318812
0.045987923 0.042528734 0.32100001 4278857748
0.046884019 0.042396247 0.32000002 4278927132
0.047923379 0.042396247 0.32000002 4278795800
0.04880973 0.042263757 0.31900001 4278862361
0.049845841 0.042263757 0.31900001 4278664982
0.05072245 0.042131271 0.31800002 4278664980
0.051755317 0.042131271 0.31800002 4278862359
0.052788179 0.042131271 0.31800002 4278862359
0.053651791 0.041998781 0.317 4278664210
0.054681409 0.041998781 0.317 4278728722
0.055711027 0.041998781 0.317 4279320348
0.056740645 0.041998781 0.317 4279251482
0.0012817696 0.048322503 0.35600001 4279514643
0.0024380581 0.048322503 0.35600001 4279779100
0.0035943466 0.048322503 0.35600001 4279385369
0.0047506355 0.048322503 0.35600001 4279320346
0.0059069237 0.048322503 0.35600001 4279584031
0.0070433724 0.048186764 0.35500002 4278992664
0.0081964135 0.048186764 0.35500002 4278927386
0.0093231164 0.048051026 0.354 4278927386
0.010443325 0.047915291 0.35300002 4278927384
0.011557038 0.047779553 0.35200003 4278993177
0.012664253 0.047643814 0.35100001 4278927384
0.013725644 0.047372341 0.34900001 4278730005
0.014816621 0.047236603 0.34800002 4278796568
0.015855277 0.04696513 0.34600002 4278928154
0.016930014 0.046829391 0.34500003 4278796568
0.017998252 0.046693653 0.34400001 4278796568
0.019059997 0.046557918 0.34300002 4278993947
0.020115245 0.04642218 0.34200001 4278862361
0.021163998 0.046286441 0.34100002 4279190556
0.022140941 0.046014968 0.33900002 4278993177
0.023173455 0.04587923 0.33800003 4279124763
0.024199469 0.045743492 0.33700001 4279058970
0.025218988 0.045607757 0.33600003 4279321631
0.026232013 0.045472018 0.33500001 4279386400
0.02723854 0.04533628 0.33400002 4279253019
0.028238574 0.045200542 0.333 4279186713
0.029320156 0.045200542 0.333 4278198795
0.030310445 0.045064807 0.33200002 4278196483
0.031294242 0.044929069 0.33100003 4278195456
0.032271534 0.04479333 0.33000001 4278198025
0.033242337 0.044657595 0.32900003 4278792214
0.034206636 0.044521853 0.32800001 4279187738
0.035164446 0.044386119 0.32700002 4279058459
0.036226545 0.044386119 0.32700002 4279124252
0.037174605 0.04425038 0.32600001 4278927386
0.038116176 0.044114646 0.32500002 4279124252
0.039051246 0.043978903 0.324 4278991896
0.040103596 0.043978903 0.324 4279254814
0.041028924 0.043843169 0.32300001 4279187740
0.042078033 0.043843169 0.32300001 4278199307
0.04299362 0.043707434 0.32200003 4278859543
0.044039473 0.043707434 0.32200003 4279123998
0.044945311 0.043571692 0.32100001 4278200331
0.045987923 0.043571692 0.32100001 4279252506
0.046884019 0.043435957 0.32000002 4278927132
0.047923379 0.043435957 0.32000002 4278862363
0.04880973 0.043300219 0.31900001 4278862361
0.049845841 0.043300219 0.31900001 4278796566
0.05072245 0.043164484 0.31800002 4278862359
0.051755317 0.043164484 0.31800002 4278862359
0.052622177 0.043028742 0.317 4278796566
0.053651791 0.043028742 0.317 4278467603
0.054681409 0.043028742 0.317 4278861078
0.055711027 0.043028742 0.317 4279255836
0.056740645 0.043028742 0.317 4279318810
0.05777026 0.043028742 0.317 4285501306
0.0024380581 0.049479183 0.35600001 4279969038
0.0035943466 0.049479183 0.35600001 4279247111
0.0047506355 0.049479183 0.35600001 4278852867
0.0059069237 0.049479183 0.35600001 4279579154
0.0070632128 0.049479183 0.35600001 4279843610
0.008219501 0.049479183 0.35600001 4279187990
0.0093494533 0.0493402 0.35500002 4278925588
0.01047291 0.049201209 0.354 4278861078
0.01158987 0.049062226 0.35300002 4279124250
0.012700334 0.048923239 0.35200003 4278730005
0.013764974 0.048645265 0.35000002 4278795798
0.014859198 0.048506279 0.34900001 4278927384
0.015901102 0.048228305 0.347 4278795798
0.016979085 0.048089322 0.34600002 4278928152
0.018050574 0.047950335 0.34500003 4278664980
0.019115565 0.047811348 0.34400001 4278599187
0.020174062 0.047672361 0.34300002 4278862359
0.021163998 0.047394387 0.34100002 4278862359
0.022206252 0.047255401 0.34 4278928154
0.023173455 0.046977431 0.33800003 4278928154
0.024199469 0.04683844 0.33700001 4278928154
0.025218988 0.046699457 0.33600003 4278993947
0.026232013 0.046560466 0.33500001 4278993947
0.02723854 0.046421483 0.33400002 4279058970
0.028238574 0.046282496 0.333 4278927386
0.029232109 0.046143509 0.33200002 4278992925
0.030219149 0.046004526 0.33100003 4279255584
0.031294242 0.046004526 0.33100003 4278859543
0.032271534 0.045865536 0.33000001 4279187740
0.033242337 0.045726553 0.32900003 4278792214
0.034206636 0.045587562 0.32800001 4278198022
0.035164446 0.045448579 0.32700002 4278193664
0.036226545 0.045448579 0.32700002 4278196742
0.037174605 0.045309588 0.32600001 4278196482
0.038116176 0.045170605 0.32500002 4278792214
0.039051246 0.045031615 0.324 4278793750
0.040103596 0.045031615 0.324 4279320607
0.041028924 0.044892631 0.32300001 4279058459
0.042078033 0.044892631 0.32300001 4279058459
0.04299362 0.044753648 0.32200003 4279255068
0.044039473 0.044753648 0.32200003 4278795800
0.044945311 0.044614658 0.32100001 4278266124
0.045987923 0.044614658 0.32100001 4279252506
0.047030531 0.044614658 0.32100001 4278928156
0.047923379 0.044475675 0.32000002 4278928156
0.04880973 0.044336684 0.31900001 4278862359
0.049845841 0.044336684 0.31900001 4278862359
0.05072245 0.044197701 0.31800002 4278796566
0.051755317 0.044197701 0.31800002 4278862359
0.052622177 0.04405871 0.317 4278664982
0.053651791 0.04405871 0.317 4278336017
0.054681409 0.04405871 0.317 4278598421
0.055711027 0.04405871 0.317 4278927386
0.056740645 0.04405871 0.317 4278595089
0.0036044433 0.050778106 0.35700002 4280428819
0.0047639804 0.050778106 0.35700002 4280231440
0.0059235166 0.050778106 0.35700002 4279574026
0.0070830532 0.050778106 0.35700002 4279179781
0.008219501 0.050635867 0.35600001 4278917892
0.0093757901 0.050635867 0.35600001 4278720513
0.010502495 0.050493632 0.35500002 4278788875
0.011622703 0.050351396 0.354 4279184658
0.012700334 0.050066926 0.35200003 4279253271
0.013804302 0.04992469 0.35100001 4279319578
0.014901774 0.049782455 0.35000002 4278991381
0.015946927 0.049497984 0.34800002 4279188758
0.017028159 0.049355745 0.347 4279189271
0.018102894 0.049213514 0.34600002 4279058455
0.019171134 0.049071278 0.34500003 4279124248
0.020174062 0.048786808 0.34300002 4279058455
0.021163998 0.048502333 0.34100002 4279124763
0.022206252 0.048360098 0.34 4278993177
0.023173455 0.048075628 0.33800003 4279058970
0.024199469 0.047933392 0.33700001 4278928154
0.025218988 0.047791157 0.33600003 4278993949
0.026232013 0.047648918 0.33500001 4278993949
0.02723854 0.047506686 0.33400002 4278862363
0.028238574 0.047364447 0.333 4278796570
0.029232109 0.047222216 0.33200002 4278993949
0.030219149 0.04707998 0.33100003 4278993949
0.031199694 0.046937741 0.33000001 4278928156
0.032271534 0.046937741 0.33000001 4278796570
0.033242337 0.04679551 0.32900003 4279058970
0.034206636 0.046653271 0.32800001 4279124250
0.035164446 0.046511035 0.32700002 4278861080
0.036115758 0.0463688 0.32600001 4278992412
0.037174605 0.0463688 0.32600001 4279516451
0.038116176 0.046226565 0.32500002 4279186972
0.039051246 0.046084326 0.324 4278461966
0.040103596 0.046084326 0.324 4278197512
0.041028924 0.045942094 0.32300001 4278195712
0.042078033 0.045942094 0.32300001 4278329867
0.04299362 0.045799859 0.32200003 4278461966
0.044039473 0.045799859 0.32200003 4279187226
0.04508533 0.045799859 0.32200003 4278397197
0.045987923 0.04565762 0.32100001 4279779361
0.047030531 0.04565762 0.32100001 4279190556
0.047923379 0.045515388 0.32000002 4278928154
0.048962738 0.045515388 0.32000002 4278862361
0.049845841 0.045373149 0.31900001 4278796568
0.05072245 0.045230918 0.31800002 4278796568
0.051755317 0.045230918 0.31800002 4278862361
0.052788179 0.045230918 0.31800002 4278598419
0.053651791 0.045088679 0.317 4278466833
0.054681409 0.045088679 0.317 4278663701
0.055711027 0.045088679 0.317 4278729240
0.056740645 0.045088679 0.317 4278790933
0.0070830532 0.051938031 0.35700002 4279573258
0.008219501 0.051792543 0.35600001 4279507465
0.0093757901 0.051792543 0.35600001 4279375879
0.010502495 0.05164706 0.35500002 4279113477
0.011622703 0.051501572 0.354 4278982404
0.012736414 0.051356092 0.35300002 4278917894
0.01384363 0.051210608 0.35200003 4278852613
0.014901774 0.050919637 0.35000002 4278722051
0.015992749 0.05077415 0.34900001 4279118090
0.017077232 0.05062867 0.34800002 4279317779
0.018102894 0.050337698 0.34600002 4279844895
0.019171134 0.050192215 0.34500003 4279386141
0.020232879 0.050046727 0.34400001 4279517473
0.021226062 0.04975576 0.34200001 4279715365
0.022206252 0.049464788 0.34 4279649572
0.023173455 0.049173824 0.33800003 4279452963
0.024199469 0.049028337 0.33700001 4279255584
0.025218988 0.048882853 0.33600003 4278927902
0.026232013 0.048737366 0.33500001 4278927902
0.02723854 0.048591882 0.33400002 4278993695
0.028238574 0.048446395 0.333 4278993949
0.029232109 0.048300914 0.33200002 4278928156
0.030219149 0.048155431 0.33100003 4278993949
0.031199694 0.048009943 0.33000001 4278731291
0.032173742 0.047864459 0.32900003 4278797084
0.033242337 0.047864459 0.32900003 4278797082
0.034206636 0.047718972 0.32800001 4278665496
0.035164446 0.047573492 0.32700002 4278731289
0.036115758 0.047428004 0.32600001 4278862361
0.037174605 0.047428004 0.32600001 4278928156
0.038116176 0.047282521 0.32500002 4278928156
0.039051246 0.047137033 0.324 4278927386
0.039979823 0.046991549 0.32300001 4279124252
0.041028924 0.046991549 0.32300001 4278992666
0.042078033 0.046991549 0.32300001 4279912998
0.04299362 0.046846069 0.32200003 4279778848
0.044039473 0.046846069 0.32200003 4278726162
0.04508533 0.046846069 0.32200003 4278660115
0.045987923 0.046700582 0.32100001 4279320096
0.047030531 0.046700582 0.32100001 4279058970
0.047923379 0.046555098 0.32000002 4278928154
0.048962738 0.046555098 0.32000002 4278862361
0.049845841 0.046409611 0.31900001 4278796568
0.050881952 0.046409611 0.31900001 4278533396
0.051755317 0.046264127 0.31800002 4278796568
0.052788179 0.046264127 0.31800002 4278730005
0.053821042 0.046264127 0.31800002 4278532626
0.054681409 0.046118639 0.317 4278532115
0.055711027 0.046118639 0.317 4278859797
0.056740645 0.046118639 0.317 4279447582
0.0093757901 0.052949227 0.35600001 4279704074
0.010502495 0.052800495 0.35500002 4279440902
0.011622703 0.052651759 0.354 4279244293
0.012736414 0.052503027 0.35300002 4279244039
0.01384363 0.052354295 0.35200003 4279179016
0.01494435 0.052205559 0.35100001 4279113477
0.016038576 0.052056827 0.35000002 4279442442
0.017126303 0.051908091 0.34900001 4279377932
0.018155213 0.051610623 0.347 4279707410
0.019226702 0.05146189 0.34600002 4280366883
0.020291695 0.051313158 0.34500003 4281947200
0.021412257 0.051313158 0.34500003 4281950028
0.022140941 0.050420754 0.33900002 4279580967
0.023173455 0.050272021 0.33800003 4279450148
0.024199469 0.050123286 0.33700001 4279779111
0.025218988 0.049974553 0.33600003 4279649320
0.026232013 0.049825817 0.33500001 4279321125
0.02723854 0.049677085 0.33400002 4279584551
0.028238574 0.049528349 0.333 4279584551
0.029232109 0.049379617 0.33200002 4279256097
0.030219149 0.049230885 0.33100003 4279124511
0.031199694 0.049082149 0.33000001 4278993695
0.032173742 0.048933417 0.32900003 4279059488
0.033141293 0.048784681 0.32800001 4278862109
0.034206636 0.048784681 0.32800001 4278927902
0.035164446 0.048635948 0.32700002 4278862109
0.036115758 0.048487213 0.32600001 4278862109
0.037060574 0.04833848 0.32500002 4278862363
0.038116176 0.04833848 0.32500002 4278993949
0.039051246 0.048189744 0.324 4278993949
0.039979823 0.048041012 0.32300001 4278928156
0.041028924 0.048041012 0.32300001 4278928154
0.04194776 0.04789228 0.32200003 4278993947
0.04299362 0.04789228 0.32200003 4279058970
0.044039473 0.04789228 0.32200003 4279124250
0.04508533 0.04789228 0.32200003 4279058459
0.045987923 0.047743544 0.32100001 4279058718
0.047030531 0.047743544 0.32100001 4278927132
0.047923379 0.047594812 0.32000002 4278927386
0.048962738 0.047594812 0.32000002 4278862361
0.049845841 0.047446076 0.31900001 4278664982
0.050881952 0.047446076 0.31900001 4278664982
0.051755317 0.047297344 0.31800002 4278664982
0.052788179 0.047297344 0.31800002 4278336017
0.053821042 0.047297344 0.31800002 4278664212
0.054853909 0.047297344 0.31800002 4278662929
0.055711027 0.047148608 0.317 4278727441
0.056740645 0.047148608 0.317 4283526234
0.011622703 0.053801939 0.354 4279374855
0.012736414 0.053649958 0.35300002 4279374855
0.01384363 0.053497978 0.35200003 4279375625
0.01494435 0.053345989 0.35100001 4279179018
0.016038576 0.053194009 0.35000002 4279376395
0.017126303 0.053042024 0.34900001 4279507211
0.018259855 0.053042024 0.34900001 4280099348
0.019393407 0.053042024 0.34900001 4281219884
0.02052696 0.053042024 0.34900001 4284182368
0.021660512 0.053042024 0.34900001 4285697665
0.022794064 0.053042024 0.34900001 4285961607
0.02392762 0.053042024 0.34900001 4286027398
0.027156986 0.050610296 0.333 4280041772
0.028238574 0.050610296 0.333 4279252515
0.029232109 0.050458316 0.33200002 4279121693
0.030219149 0.050306335 0.33100003 4279845416
0.031199694 0.050154351 0.33000001 4279649574
0.032173742 0.05000237 0.32900003 4279583781
0.033141293 0.049850386 0.32800001 4279584551
0.034206636 0.049850386 0.32800001 4279321379
0.035164446 0.049698401 0.32700002 4279452963
0.036115758 0.049546417 0.32600001 4279518756
0.037060574 0.049394436 0.32500002 4279321377
0.038116176 0.049394436 0.32500002 4279255584
0.039051246 0.049242452 0.324 4279255838
0.039979823 0.049090471 0.32300001 4279190558
0.041028924 0.049090471 0.32300001 4279190556
0.04194776 0.04893849 0.32200003 4279124763
0.04299362 0.04893849 0.32200003 4279124763
0.044039473 0.04893849 0.32200003 4279058970
0.04508533 0.04893849 0.32200003 4279058970
0.045987923 0.048786502 0.32100001 4279058970
0.047030531 0.048786502 0.32100001 4278795798
0.048073135 0.048786502 0.32100001 4278927384
0.048962738 0.048634522 0.32000002 4278862361
0.050002102 0.048634522 0.32000002 4278862361
0.050881952 0.048482537 0.31900001 4278599189
0.051918067 0.048482537 0.31900001 4278467603
0.052788179 0.048330557 0.31800002 4278533396
0.053821042 0.048330557 0.31800002 4278598421
0.054853909 0.048330557 0.31800002 4278925336
0.055886775 0.048330557 0.31800002 4279318299
0.038930718 0.050139934 0.32300001 4280108328
0.039979823 0.050139934 0.32300001 4279779877
0.041028924 0.050139934 0.32300001 4279780129
0.04194776 0.049984701 0.32200003 4279649313
0.04299362 0.049984701 0.32200003 4279649311
0.044039473 0.049984701 0.32200003 4279386139
0.044945311 0.049829468 0.32100001 4279386654
0.045987923 0.049829468 0.32100001 4279386654
0.047030531 0.049829468 0.32100001 4279190045
0.048073135 0.049829468 0.32100001 4279124765
0.048962738 0.049674239 0.32000002 4278730007
0.050002102 0.049674239 0.32000002 4278993177
0.050881952 0.049519002 0.31900001 4278927384
0.051918067 0.049519002 0.31900001 4278795285
0.052954178 0.049519002 0.31900001 4279190045
0.053821042 0.049363773 0.31800002 4278729240
0.054853909 0.049363773 0.31800002 4279186713
0.055886775 0.049363773 0.31800002 4281026614
0.04299362 0.051030912 0.32200003 4279909416
0.043902703 0.050872426 0.32100001 4279383070
0.044945311 0.050872426 0.32100001 4279580188
0.045987923 0.050872426 0.32100001 4279514908
0.047030531 0.050872426 0.32100001 4279910947
0.048073135 0.050872426 0.32100001 4279582496
0.048962738 0.050713949 0.32000002 4279320094
0.050002102 0.050713949 0.32000002 4279385887
0.050881952 0.050555464 0.31900001 4279517473
0.051918067 0.050555464 0.31900001 4279451680
0.052954178 0.050555464 0.31900001 4278990359
0.05399029 0.050555464 0.31900001 4278857748
0.054853909 0.050396986 0.31800002 4281421370
0.042860094 0.051915392 0.32100001 4285236598
0.043902703 0.051915392 0.32100001 4285302645
0.044945311 0.051915392 0.32100001 4285302643
0.045987923 0.051915392 0.32100001 4285171057
0.047030531 0.051915392 0.32100001 4284842092
0.048073135 0.051915392 0.32100001 4284513127
0.048962738 0.051753663 0.32000002 4283855709
0.050002102 0.051753663 0.32000002 4282934607
0.050881952 0.051591929 0.31900001 4281816126
0.051918067 0.051591929 0.31900001 4281422138
0.052954178 0.051591929 0.31900001 4282737230
0.05399029 0.051591929 0.31900001 4284184162
0.031031676 0.042612191 0.33273688 4294967295
0.031031676 0.042612191 0.33273688 4294901760
0.03100412 0.042112954 0.33273596 4294901760
0.030976564 0.041613713 0.332735 4294901760
0.030949008 0.041114472 0.33273405 4294901760
0.030921452 0.040615235 0.33273312 4294901760
0.030893896 0.040115993 0.3327322 4294901760
0.03086634 0.039616756 0.33273125 4294901760
0.030838784 0.039117515 0.33273029 4294901760
0.030811228 0.038618278 0.33272937 4294901760
0.030783672 0.038119037 0.33272845 4294901760
0.030756116 0.037619799 0.33272749 4294901760
0.03072856 0.037120558 0.33272654 4294901760
0.030701004 0.036621321 0.33272561 4294901760
0.030673448 0.03612208 0.33272469 4294901760
0.030645892 0.035622843 0.33272374 4294901760
0.030618336 0.035123602 0.33272278 4294901760
0.03059078 0.034624364 0.33272186 4294901760
0.030563224 0.034125123 0.33272094 4294901760
0.030535668 0.033625886 0.33271998 4294901760
0.030508112 0.033126645 0.33271903 4294901760
0.030480556 0.032627407 0.3327181 4294901760
0.030453 0.03212817 0.33271718 4294901760
0.030425444 0.031628929 0.33271623 4294901760
0.030397888 0.031129688 0.33271527 4294901760
0.030370332 0.030630451 0.33271435 4294901760
0.030342776 0.03013121 0.33271343 4294901760
0.03031522 0.029631972 0.33271247 4294901760
0.030287664 0.029132731 0.33271152 4294901760
0.030260108 0.028633494 0.33271059 4294901760
0.030232552 0.028134253 0.33270967 4294901760
0.030204996 0.027635014 0.33270872 4294901760
0.03017744 0.027135774 0.33270776 4294901760
0.030149885 0.026636537 0.33270684 4294901760
0.030122329 0.026137296 0.33270591 4294901760
0.030094773 0.025638057 0.33270496 4294901760
0.030067217 0.025138818 0.33270401 4294901760
0.030039661 0.024639579 0.33270308 4294901760
0.030012105 0.024140339 0.33270216 4294901760
0.029984549 0.0236411 0.33270121 4294901760
0.029956993 0.023141863 0.33270025 4294901760
0.029929437 0.022642622 0.33269933 4294901760
0.029901881 0.022143383 0.3326984 4294901760
0.029874325 0.021644145 0.33269745 4294901760
0.029846769 0.021144904 0.3326965 4294901760
0.029819213 0.020645665 0.33269557 4294901760
0.029791657 0.020146426 0.33269465 4294901760
0.029764101 0.019647187 0.3326937 4294901760
0.029736545 0.019147947 0.33269274 4294901760
0.029708989 0.018648708 0.33269182 4294901760
0.029681433 0.018149469 0.33269089 4294901760
0.029653877 0.01765023 0.33268994 4294901760
0.029626321 0.017150991 0.33268899 4294901760
0.029598767 0.016651751 0.33268806 4294901760
0.029571211 0.016152514 0.33268714 4294901760
0.029543653 0.015653271 0.33268619 4294901760
0.029516099 0.015154034 0.33268523 4294901760
0.029488543 0.014654795 0.33268431 4294901760
0.029460987 0.014155556 0.33268338 4294901760
0.029433431 0.013656316 0.33268243 4294901760
0.029405875 0.013157079 0.33268151 4294901760
0.029378319 0.012657836 0.33268055 4294901760
0.029350763 0.012158597 0.33267963 4294901760
0.029323207 0.01165936 0.33267868 4294901760
0.029295651 0.01116012 0.33267772 4294901760
0.029268095 0.010660883 0.3326768 4294901760
0.029240539 0.010161642 0.33267587 4294901760
0.029212983 0.0096624009 0.33267492 4294901760
0.029185427 0.0091631636 0.33267397 4294901760
0.029157871 0.0086639225 0.33267304 4294901760
0.029130315 0.0081646852 0.33267212 4294901760
0.029102759 0.0076654442 0.33267117 4294901760
0.029075203 0.0071662068 0.33267021 4294901760
0.029047647 0.0066669658 0.33266929 4294901760
0.029020092 0.0061677285 0.33266836 4294901760
0.028992536 0.0056684874 0.33266741 4294901760
0.02896498 0.0051692501 0.33266646 4294901760
0.028937424 0.004670009 0.33266553 4294901760
0.028909868 0.0041707717 0.33266461 4294901760
0.028882312 0.0036715344 0.33266366 4294901760
0.028854756 0.0031722896 0.3326627 4294901760
0.0288272 0.0026730523 0.33266178 4294901760
0.028799644 0.0021738149 0.33266085 4294901760
0.028772088 0.0016745739 0.3326599 4294901760
0.028744532 0.0011753365 0.33265895 4294901760
0.028716976 0.00067609921 0.33265802 4294901760
0.02868942 0.00017685443 0.3326571 4294901760
0.028661864 -0.0003223829 0.33265615 4294901760
0.028634308 -0.00082162023 0.33265519 4294901760
0.028606752 -0.0013208613 0.33265427 4294901760
0.028579196 -0.0018200986 0.33265334 4294901760
0.02855164 -0.0023193397 0.33265239 4294901760
0.028524084 -0.0028185807 0.33265144 4294901760
0.028496528 -0.003317818 0.33265051 4294901760
0.028468972 -0.0038170591 0.33264959 4294901760
0.028441416 -0.0043162964 0.33264863 4294901760
0.02841386 -0.0048155338 0.33264768 4294901760
0.028386304 -0.0053147748 0.33264676 4294901760
0.028358748 -0.0058140159 0.33264583 4294901760
0.028331192 -0.0063132532 0.33264488 4294901760
0.028303636 -0.0068124942 0.33264393 4294901760
0.02827608 -0.0073117316 0.332643 4294901760
0.031031676 0.042612191 0.33273688 4278255360
0.031415831 0.042591587 0.33241752 4278255360
0.031799987 0.042570986 0.33209813 4278255360
0.032184143 0.042550381 0.33177876 4278255360
0.032568298 0.042529777 0.33145937 4278255360
0.032952454 0.042509176 0.33114001 4278255360
0.03333661 0.042488571 0.33082062 4278255360
0.033720765 0.04246797 0.33050126 4278255360
0.034104921 0.042447366 0.3301819 4278255360
0.034489077 0.042426761 0.32986251 4278255360
0.034873232 0.04240616 0.32954314 4278255360
0.035257388 0.042385556 0.32922375 4278255360
0.035641544 0.042364951 0.32890439 4278255360
0.036025699 0.04234435 0.32858503 4278255360
0.036409855 0.042323746 0.32826564 4278255360
0.036794011 0.042303141 0.32794628 4278255360
0.037178166 0.04228254 0.32762688 4278255360
0.037562322 0.042261936 0.32730752 4278255360
0.037946478 0.042241331 0.32698813 4278255360
0.038330633 0.04222073 0.32666877 4278255360
0.038714789 0.042200126 0.32634941 4278255360
0.039098945 0.042179525 0.32603002 4278255360
0.0394831 0.04215892 0.32571065 4278255360
0.03986726 0.042138316 0.32539126 4278255360
0.040251411 0.042117715 0.3250719 4278255360
0.040635571 0.04209711 0.32475251 4278255360
0.041019723 0.042076506 0.32443315 4278255360
0.041403882 0.042055905 0.32411379 4278255360
0.041788034 0.0420353 0.32379439 4278255360
0.042172194 0.042014696 0.32347503 4278255360
0.042556349 0.041994095 0.32315564 4278255360
0.042940505 0.04197349 0.32283628 4278255360
0.043324657 0.041952889 0.32251692 4278255360
0.043708816 0.041932285 0.32219753 4278255360
0.044092972 0.04191168 0.32187817 4278255360
0.044477127 0.041891079 0.32155877 4278255360
0.044861283 0.041870475 0.32123941 4278255360
0.045245439 0.04184987 0.32092002 4278255360
0.045629594 0.041829269 0.32060066 4278255360
0.04601375 0.041808665 0.3202813 4278255360
0.046397906 0.04178806 0.31996191 4278255360
0.046782061 0.041767459 0.31964254 4278255360
0.047166213 0.041746855 0.31932315 4278255360
0.047550373 0.04172625 0.31900379 4278255360
0.047934528 0.041705649 0.31868443 4278255360
0.048318684 0.041685045 0.31836504 4278255360
0.04870284 0.041664444 0.31804568 4278255360
0.049086995 0.041643839 0.31772628 4278255360
0.049471151 0.041623235 0.31740692 4278255360
0.049855307 0.041602634 0.31708753 4278255360
0.050239462 0.041582029 0.31676817 4278255360
0.050623618 0.041561425 0.31644881 4278255360
0.051007774 0.041540824 0.31612942 4278255360
0.051391929 0.041520219 0.31581005 4278255360
0.051776089 0.041499615 0.31549066 4278255360
0.052160241 0.041479014 0.3151713 4278255360
0.052544396 0.041458409 0.31485194 4278255360
0.052928552 0.041437808 0.31453255 4278255360
0.053312708 0.041417204 0.31421319 4278255360
0.053696863 0.041396599 0.3138938 4278255360
0.054081023 0.041375998 0.31357443 4278255360
0.054465175 0.041355394 0.31325504 4278255360
0.054849334 0.041334789 0.31293568 4278255360
0.055233486 0.041314188 0.31261632 4278255360
0.055617642 0.041293584 0.31229693 4278255360
0.056001797 0.041272979 0.31197757 4278255360
0.056385957 0.041252378 0.31165817 4278255360
0.056770109 0.041231774 0.31133881 4278255360
0.057154268 0.041211169 0.31101942 4278255360
0.05753842 0.041190568 0.31070006 4278255360
0.057922579 0.041169964 0.3103807 4278255360
0.058306731 0.041149363 0.31006131 4278255360
0.058690891 0.041128758 0.30974194 4278255360
0.059075043 0.041108154 0.30942255 4278255360
0.059459202 0.041087553 0.30910319 4278255360
0.059843354 0.041066948 0.30878383 4278255360
0.060227513 0.041046344 0.30846444 4278255360
0.060611665 0.041025743 0.30814508 4278255360
0.060995825 0.041005138 0.30782568 4278255360
0.06137998 0.040984534 0.30750632 4278255360
0.061764136 0.040963933 0.30718693 4278255360
0.062148288 0.040943328 0.30686757 4278255360
0.062532447 0.040922727 0.30654821 4278255360
0.062916599 0.040902123 0.30622882 4278255360
0.063300759 0.040881518 0.30590945 4278255360
0.063684911 0.040860917 0.30559006 4278255360
0.06406907 0.040840313 0.3052707 4278255360
0.064453229 0.040819708 0.30495131 4278255360
0.064837381 0.040799107 0.30463195 4278255360
0.065221533 0.040778503 0.30431259 4278255360
0.065605693 0.040757898 0.3039932 4278255360
0.065989852 0.040737297 0.30367383 4278255360
0.066374004 0.040716693 0.30335444 4278255360
0.066758156 0.040696088 0.30303508 4278255360
0.067142315 0.040675487 0.30271572 4278255360
0.067526475 0.040654883 0.30239633 4278255360
0.067910627 0.040634282 0.30207697 4278255360
0.068294778 0.040613677 0.30175757 4278255360
0.068678938 0.040593073 0.30143821 4278255360
0.069063097 0.040572472 0.30111882 4278255360
0.069447249 0.040551867 0.30079946 4278255360
0.031031676 0.042612191 0.33273688 4278190335
0.031369846 0.042592835 0.33310467 4278190335
0.031708013 0.042573478 0.33347246 4278190335
0.032046184 0.042554121 0.33384025 4278190335
0.032384351 0.042534761 0.33420801 4278190335
0.032722522 0.042515405 0.3345758 4278190335
0.033060689 0.042496048 0.33494359 4278190335
0.033398859 0.042476691 0.33531138 4278190335
0.033737026 0.042457335 0.33567917 4278190335
0.034075197 0.042437978 0.33604696 4278190335
0.034413368 0.042418621 0.33641475 4278190335
0.034751534 0.042399261 0.33678254 4278190335
0.035089705 0.042379905 0.33715031 4278190335
0.035427872 0.042360548 0.3375181 4278190335
0.035766043 0.042341191 0.33788589 4278190335
0.03610421 0.042321835 0.33825368 4278190335
0.03644238 0.042302478 0.33862147 4278190335
0.036780551 0.042283118 0.33898926 4278190335
0.037118718 0.042263761 0.33935705 4278190335
0.037456889 0.042244405 0.33972484 4278190335
0.037795056 0.042225048 0.3400926 4278190335
0.038133226 0.042205691 0.34046039 4278190335
0.038471393 0.042186335 0.34082818 4278190335
0.038809564 0.042166978 0.34119597 4278190335
0.039147735 0.042147618 0.34156376 4278190335
0.039485902 0.042128261 0.34193155 4278190335
0.039824069 0.042108905 0.34229934 4278190335
0.040162239 0.042089548 0.3426671 4278190335
0.04050041 0.042070191 0.34303489 4278190335
0.040838577 0.042050835 0.34340268 4278190335
0.041176748 0.042031474 0.34377047 4278190335
0.041514918 0.042012118 0.34413826 4278190335
0.041853085 0.041992761 0.34450606 4278190335
0.042191252 0.041973405 0.34487385 4278190335
0.042529423 0.041954048 0.34524164 4278190335
0.042867593 0.041934691 0.3456094 4278190335
0.04320576 0.041915335 0.34597719 4278190335
0.043543931 0.041895974 0.34634498 4278190335
0.043882098 0.041876618 0.34671277 4278190335
0.044220269 0.041857261 0.34708056 4278190335
0.044558436 0.041837905 0.34744835 4278190335
0.044896606 0.041818548 0.34781614 4278190335
0.045234777 0.041799191 0.34818393 4278190335
0.045572944 0.041779835 0.34855169 4278190335
0.045911111 0.041760474 0.34891948 4278190335
0.046249282 0.041741118 0.34928727 4278190335
0.046587452 0.041721761 0.34965506 4278190335
0.046925619 0.041702405 0.35002285 4278190335
0.04726379 0.041683048 0.35039064 4278190335
0.047601961 0.041663691 0.35075843 4278190335
0.047940128 0.041644335 0.35112619 4278190335
0.048278295 0.041624974 0.35149398 4278190335
0.048616465 0.041605618 0.35186177 4278190335
0.048954636 0.041586261 0.35222957 4278190335
0.049292803 0.041566905 0.35259736 4278190335
0.049630973 0.041547548 0.35296515 4278190335
0.049969144 0.041528191 0.35333294 4278190335
0.050307311 0.041508831 0.35370073 4278190335
0.050645478 0.041489474 0.35406849 4278190335
0.050983649 0.041470118 0.35443628 4278190335
0.051321819 0.041450761 0.35480407 4278190335
0.051659986 0.041431405 0.35517186 4278190335
0.051998157 0.041412048 0.35553965 4278190335
0.052336324 0.041392691 0.35590744 4278190335
0.052674495 0.041373331 0.35627523 4278190335
0.053012662 0.041353974 0.35664302 4278190335
0.053350832 0.041334618 0.35701078 4278190335
0.053689003 0.041315261 0.35737857 4278190335
0.05402717 0.041295905 0.35774636 4278190335
0.054365337 0.041276548 0.35811415 4278190335
0.054703508 0.041257188 0.35848194 4278190335
0.055041678 0.041237831 0.35884973 4278190335
0.055379845 0.041218475 0.35921752 4278190335
0.055718016 0.041199118 0.35958531 4278190335
0.056056187 0.041179761 0.35995308 4278190335
0.056394354 0.041160405 0.36032087 4278190335
0.05673252 0.041141048 0.36068866 4278190335
0.057070691 0.041121688 0.36105645 4278190335
0.057408862 0.041102331 0.36142424 4278190335
0.057747029 0.041082975 0.36179203 4278190335
0.058085199 0.041063618 0.36215982 4278190335
0.05842337 0.041044261 0.36252761 4278190335
0.058761537 0.041024905 0.36289537 4278190335
0.059099704 0.041005548 0.36326316 4278190335
0.059437875 0.040986188 0.36363095 4278190335
0.059776045 0.040966831 0.36399874 4278190335
0.060114212 0.040947475 0.36436653 4278190335
0.060452383 0.040928118 0.36473432 4278190335
0.06079055 0.040908761 0.36510211 4278190335
0.061128721 0.040889405 0.36546987 4278190335
0.061466888 0.040870048 0.36583766 4278190335
0.061805058 0.040850688 0.36620545 4278190335
0.062143229 0.040831331 0.36657324 4278190335
0.062481396 0.040811975 0.36694103 4278190335
0.06281957 0.040792618 0.36730883 4278190335
0.063157737 0.040773261 0.36767662 4278190335
0.063495904 0.040753905 0.36804438 4278190335
0.063834071 0.040734544 0.36841217 4278190335
0.064172238 0.040715188 0.36877996 4278190335
0.064510413 0.040695831 0.36914775 4278190335
0.064848579 0.040676475 0.36951554 4278190335
0.031031676 0.042612191 0.33273688 4294967295
0.029002661 0.042728335 0.33053017 4294967295
0.026973646 0.042844478 0.32832345 4294967295
0.024944633 0.042960621 0.32611671 4294967295
0.022915618 0.043076765 0.32391 4294967295
0.020886604 0.043192904 0.32170328 4294967295
0.018857591 0.043309048 0.31949657 4294967295
0.016828576 0.043425191 0.31728983 4294967295
0.014799561 0.043541335 0.31508312 4294967295
0.012770547 0.043657478 0.3128764 4294967295
0.010741534 0.043773621 0.31066969 4294967295
0.008712519 0.043889765 0.30846295 4294967295
0.0066835061 0.044005908 0.30625623 4294967295
0.0046544913 0.044122051 0.30404952 4294967295
0.0026254766 0.044238191 0.30184281 4294967295
0.00059646182 0.044354334 0.29963607 4294967295
-0.0014325529 0.044470478 0.29742935 4294967295
-0.0034615658 0.044586621 0.29522264 4294967295
-0.0054905824 0.044702765 0.29301593 4294967295
-0.0075195953 0.044818908 0.29080921 4294967295
-0.0095486082 0.044935051 0.28860247 4294967295
-0.011577621 0.045051195 0.28639576 4294967295
-0.013606638 0.045167338 0.28418905 4294967295
-0.015635654 0.045283481 0.28198233 4294967295
-0.017664663 0.045399621 0.27977559 4294967295
-0.01969368 0.045515765 0.27756888 4294967295
-0.021722693 0.045631908 0.27536216 4294967295
-0.02375171 0.045748051 0.27315545 4294967295
-0.025780722 0.045864195 0.27094871 4294967295
-0.027809735 0.045980338 0.268742 4294967295
-0.029838752 0.046096481 0.26653528 4294967295
-0.031867765 0.046212625 0.26432857 4294967295
-0.033896782 0.046328764 0.26212186 4294967295
-0.035925798 0.046444908 0.25991511 4294967295
-0.037954807 0.046561051 0.2577084 4294967295
-0.039983824 0.046677195 0.25550169 4294967295
-0.042012841 0.046793338 0.25329494 4294967295
-0.04404185 0.046909481 0.25108823 4294967295
-0.046070866 0.047025625 0.24888152 4294967295
-0.048099875 0.047141768 0.24667481 4294967295
-0.050128892 0.047257911 0.24446808 4294967295
-0.052157909 0.047374055 0.24226137 4294967295
-0.054186918 0.047490194 0.24005464 4294967295
-0.056215934 0.047606338 0.23784792 4294967295
-0.058244951 0.047722481 0.23564121 4294967295
-0.06027396 0.047838625 0.23343448 4294967295
