# .PCD v0.7 - Point Cloud Data file format
VERSION 0.7
FIELDS x y z rgb
SIZE 4 4 4 4
TYPE F F F U
COUNT 1 1 1 1
WIDTH 1033
HEIGHT 1
VIEWPOINT 0 0 0 1 0 0 0
POINTS 1033
DATA ascii
-0.028358439 0.031357478 0.48800004 4281023534
-0.026773416 0.031357478 0.48800004 4281483831
-0.02518839 0.031357478 0.48800004 4281417524
-0.023651732 0.031421736 0.48900002 4281549110
-0.022063458 0.031421736 0.48900002 4281483831
-0.020517059 0.03148599 0.49000001 4280366374
-0.018964162 0.031550247 0.49100003 4281486901
-0.017404767 0.031614505 0.49200001 4279783465
-0.015838878 0.031678762 0.49300003 4279257635
-0.032977805 0.032808028 0.48600003 4281418290
-0.029820746 0.032808028 0.48600003 4281352499
-0.028300326 0.032875534 0.48700002 4280825901
-0.026718551 0.032875534 0.48700002 4281484085
-0.025136774 0.032875534 0.48700002 4281286706
-0.023554998 0.032875534 0.48700002 4281286706
-0.021973221 0.032875534 0.48700002 4281155120
-0.020391444 0.032875534 0.48700002 4280103202
-0.018848291 0.03294304 0.48800004 4280830001
-0.017298641 0.033010546 0.48900002 4278928668
-0.015742496 0.033078052 0.49000001 4278863388
-0.029820746 0.034387089 0.48600003 4280299043
-0.028242216 0.034387089 0.48600003 4280759594
-0.026663689 0.034387089 0.48600003 4281483571
-0.025033543 0.034316335 0.48500001 4281615157
-0.023458261 0.034316335 0.48500001 4281484085
-0.021882981 0.034316335 0.48500001 4281023534
-0.020307701 0.034316335 0.48500001 4279511578
-0.018732419 0.034316335 0.48500001 4279975205
-0.017192515 0.034387089 0.48600003 4278928156
-0.015613986 0.034387089 0.48600003 4278797082
-0.014035458 0.034387089 0.48600003 4278797595
-0.012431297 0.034316335 0.48500001 4278666009
-0.0043576704 0.032830473 0.46400002 4279191590
-0.0028505973 0.032830473 0.46400002 4278796832
-0.001340629 0.032759719 0.46300003 4278402072
-0.029759385 0.035892148 0.48500001 4280628008
-0.028184103 0.035892148 0.48500001 4280298532
-0.026608825 0.035892148 0.48500001 4281286192
-0.025033543 0.035892148 0.48500001 4281483571
-0.023409896 0.035818145 0.48400003 4281484085
-0.021792741 0.035744138 0.48300001 4281615671
-0.020223958 0.035744138 0.48300001 4279577369
-0.018655173 0.035744138 0.48300001 4279843873
-0.017086387 0.035744138 0.48300001 4278993177
-0.015517603 0.035744138 0.48300001 4278928154
-0.013948818 0.035744138 0.48300001 4278731289
-0.012354402 0.035670135 0.48200002 4278731289
-0.010744099 0.035522126 0.48000002 4278797082
-0.0043670619 0.03441206 0.46500003 4278665496
-0.0028505973 0.034338053 0.46400002 4278797082
-0.001340629 0.03426405 0.46300003 4278665498
0.00016284335 0.034190048 0.46200001 4278665498
0.0016634201 0.034190048 0.46200001 4278731291
0.0031571484 0.034116041 0.46100003 4278666011
0.0046544774 0.034116041 0.46100003 4279060769
-0.031334668 0.037467964 0.48500001 4281418290
-0.029759385 0.037467964 0.48500001 4280233252
-0.028184103 0.037467964 0.48500001 4279443223
-0.026608825 0.037467964 0.48500001 4281483833
-0.024981929 0.037390709 0.48400003 4281418038
-0.023361526 0.037313454 0.48300001 4281747257
-0.021747623 0.037236203 0.48200002 4281549878
-0.020140216 0.037158951 0.48100004 4279314969
-0.018577926 0.037158951 0.48100004 4279713057
-0.017015638 0.037158951 0.48100004 4278927384
-0.015453348 0.037158951 0.48100004 4279058970
-0.01389106 0.037158951 0.48100004 4278993947
-0.012303138 0.037081696 0.48000002 4278928154
-0.010699331 0.036927186 0.47800002 4278993947
-0.0059026615 0.036077399 0.46700001 4278993947
-0.0043670619 0.035922892 0.46500003 4278993177
-0.0028505973 0.035845637 0.46400002 4278199296
-0.001340629 0.035768386 0.46300003 4279188510
0.00016284335 0.035691131 0.46200001 4279058205
0.0016598196 0.03561388 0.46100003 4278664984
0.0031571484 0.03561388 0.46100003 4278664984
0.0046544774 0.03561388 0.46100003 4278664984
-0.031334668 0.039043777 0.48500001 4280497960
-0.029759385 0.039043777 0.48500001 4280365352
-0.028184103 0.039043777 0.48500001 4279904285
-0.026553961 0.038963273 0.48400003 4281352499
-0.024930311 0.03888277 0.48300001 4281352499
-0.023313159 0.03880227 0.48200002 4281155636
-0.021702504 0.038721766 0.48100004 4280958257
-0.020098343 0.038641263 0.48000002 4279775520
-0.01850068 0.038560763 0.47900003 4279778850
-0.016944887 0.038560763 0.47900003 4279058972
-0.015389093 0.038560763 0.47900003 4279058970
-0.01386218 0.038641263 0.48000002 4278862361
-0.012277507 0.038560763 0.47900003 4278664982
-0.010676947 0.038399756 0.47700003 4278993947
-0.0059026615 0.037594728 0.46700001 4278928154
-0.0043670619 0.037433725 0.46500003 4278862361
-0.0028505973 0.037353221 0.46400002 4279255836
-0.001340629 0.037272722 0.46300003 4279254301
0.00016284335 0.037192214 0.46200001 4279189021
0.0016598196 0.037111714 0.46100003 4278861078
0.0031571484 0.037111714 0.46100003 4279255836
0.0046443804 0.037031211 0.46000001 4279255836
0.0061384616 0.037031211 0.46000001 4278992664
0.016344463 0.03646769 0.45300001 4278468117
0.017815808 0.03646769 0.45300001 4278468117
0.019287152 0.03646769 0.45300001 4278533908
-0.034414124 0.040535841 0.48400003 4281812019
-0.031334668 0.040619589 0.48500001 4280695598
-0.029820746 0.040703345 0.48600003 4280431143
-0.028184103 0.040619589 0.48500001 4281022507
-0.026553961 0.040535841 0.48400003 4281483569
-0.024930311 0.040452085 0.48300001 4281417776
-0.023313159 0.040368337 0.48200002 4281287476
-0.021702504 0.040284585 0.48100004 4281024304
-0.020098343 0.040200833 0.48000002 4279447582
-0.01850068 0.040117081 0.47900003 4279648291
-0.016944887 0.040117081 0.47900003 4279058970
-0.015389093 0.040117081 0.47900003 4278928154
-0.01386218 0.040200833 0.48000002 4278862361
-0.012277507 0.040117081 0.47900003 4278796568
-0.010699331 0.040033329 0.47800002 4278928154
-0.0091085145 0.039865825 0.47600001 4278862363
-0.0059026615 0.039112058 0.46700001 4278862361
-0.0043670619 0.038944557 0.46500003 4278795798
-0.0028505973 0.038860805 0.46400002 4278198784
-0.001340629 0.038777053 0.46300003 4278197248
0.00016284335 0.038693301 0.46200001 4278991896
0.0016598196 0.038609549 0.46100003 4278200331
0.0031571484 0.038609549 0.46100003 4278197515
0.0046443804 0.038525797 0.46000001 4278393867
0.0061384616 0.038525797 0.46000001 4278195972
0.0076159495 0.038442045 0.45900002 4278196742
0.0090869423 0.038358297 0.45800003 4278196226
0.010574528 0.038358297 0.45800003 4278198534
0.012035775 0.038274541 0.45700002 4278726162
0.013490528 0.038190793 0.45600003 4279056152
0.014971618 0.038190793 0.45600003 4279056922
0.016380543 0.038023289 0.45400003 4278598419
0.017855138 0.038023289 0.45400003 4278730005
0.01932973 0.038023289 0.45400003 4278664212
0.020850148 0.038107038 0.45500001 4278730005
-0.039211068 0.042195406 0.48500001 4281351470
-0.037635788 0.042195406 0.48500001 4281614640
-0.036060508 0.042195406 0.48500001 4281680946
-0.032977805 0.042282406 0.48600003 4280497958
-0.031399276 0.042282406 0.48600003 4280958511
-0.029820746 0.042282406 0.48600003 4281285677
-0.028184103 0.042195406 0.48500001 4281154091
-0.026553961 0.042108405 0.48400003 4281352499
-0.024930311 0.042021401 0.48300001 4281484085
-0.023313159 0.041934405 0.48200002 4281484085
-0.021702504 0.041847404 0.48100004 4280958257
-0.020098343 0.0417604 0.48000002 4279777315
-0.01861655 0.041934405 0.48200002 4279385635
-0.017121764 0.042108405 0.48400003 4278862363
-0.015581857 0.042195406 0.48500001 4278993949
-0.013919939 0.041934405 0.48200002 4278862361
-0.012328771 0.041847404 0.48100004 4278862361
-0.010744099 0.0417604 0.48000002 4278993947
-0.0091467863 0.041586399 0.47800002 4278796568
-0.005890022 0.04054239 0.46600002 4278862363
-0.0043576704 0.040368386 0.46400002 4278796570
-0.0028444538 0.040281389 0.46300003 4278398992
-0.0013377335 0.040194385 0.46200001 4279909666
0.00016284335 0.040194385 0.46200001 4279057174
0.0016598196 0.040107384 0.46100003 4278196228
0.0031571484 0.040107384 0.46100003 4278655502
0.0046443804 0.040020384 0.46000001 4278786318
0.0061384616 0.040020384 0.46000001 4278720525
0.0076159495 0.039933383 0.45900002 4278851597
0.0091067832 0.039933383 0.45900002 4278720525
0.010574528 0.039846383 0.45800003 4278588939
0.012035775 0.039759383 0.45700002 4278654732
0.013520112 0.039759383 0.45700002 4278458377
0.014971618 0.039672382 0.45600003 4278589963
0.016416624 0.039585378 0.45500001 4278196225
0.017894465 0.039585378 0.45500001 4278594828
0.019372307 0.039585378 0.45500001 4278197248
0.020850148 0.039585378 0.45500001 4278197760
0.022327987 0.039585378 0.45500001 4278200326
0.023805827 0.039585378 0.45500001 4278266890
0.025228102 0.039498381 0.45400003 4278859797
0.026702695 0.039498381 0.45400003 4279189273
0.028115222 0.039411377 0.45300001 4278334734
0.029586565 0.039411377 0.45300001 4278927384
0.031057913 0.039411377 0.45300001 4278730003
0.032457449 0.039324377 0.45200002 4278664980
0.033925544 0.039324377 0.45200002 4278204172
0.035315339 0.03923738 0.45100003 4278599187
0.036780186 0.03923738 0.45100003 4278664982
0.039445736 0.038976375 0.44800001 4278533910
0.040900841 0.038976375 0.44800001 4278731289
0.055823222 0.03923738 0.45100003 4279715883
-0.034627434 0.043951724 0.48700002 4280891944
-0.033045657 0.043951724 0.48700002 4280431395
-0.031463884 0.043951724 0.48700002 4280628774
-0.029882105 0.043951724 0.48700002 4281089325
-0.028242216 0.043861475 0.48600003 4280957739
-0.026608825 0.043771222 0.48500001 4281286704
-0.024930311 0.043590721 0.48300001 4280957739
-0.023313159 0.043500472 0.48200002 4281418290
-0.021702504 0.043410223 0.48100004 4281088813
-0.020098343 0.043319974 0.48000002 4279448350
-0.01861655 0.043500472 0.48200002 4279320096
-0.017121764 0.043680973 0.48400003 4278796570
-0.015581857 0.043771222 0.48500001 4278928156
-0.013948818 0.043590721 0.48300001 4278862361
-0.012354402 0.043500472 0.48200002 4278862361
-0.010766482 0.043410223 0.48100004 4278993947
-0.0091850571 0.043319974 0.48000002 4278928154
-0.0076101287 0.043229725 0.47900003 4278599191
-0.004348279 0.041785724 0.46300003 4278796570
-0.0028444538 0.041785724 0.46300003 4278200585
-0.0013377335 0.041695476 0.46200001 4278990099
0.00016284335 0.041695476 0.46200001 4279188760
0.0016598196 0.041605227 0.46100003 4278262279
0.0031571484 0.041605227 0.46100003 4280432167
0.0046443804 0.041514974 0.46000001 4278918928
0.0061384616 0.041514974 0.46000001 4279313432
0.0076159495 0.041424725 0.45900002 4279840030
0.0091067832 0.041424725 0.45900002 4279774237
0.010574528 0.041334476 0.45800003 4279445785
0.012062112 0.041334476 0.45800003 4278524170
0.013520112 0.041244224 0.45700002 4278983951
0.01500445 0.041244224 0.45700002 4278852111
0.016452705 0.041153975 0.45600003 4278723341
0.017933793 0.041153975 0.45600003 4279516443
0.019414883 0.041153975 0.45600003 4279188762
0.020895973 0.041153975 0.45600003 4279254555
0.022327987 0.041063726 0.45500001 4278990613
0.023805827 0.041063726 0.45500001 4279450650
0.025228102 0.040973477 0.45400003 4279648029
0.026702695 0.040973477 0.45400003 4278726673
0.028177287 0.040973477 0.45400003 4278331917
0.029586565 0.040883224 0.45300001 4278197762
0.031057913 0.040883224 0.45300001 4278196224
0.032457449 0.040792976 0.45200002 4278196992
0.033925544 0.040792976 0.45200002 4278199303
0.035315339 0.040702727 0.45100003 4278660882
0.036780186 0.040702727 0.45100003 4278990359
0.038160235 0.040612474 0.45000002 4279385887
0.039533786 0.040522225 0.44900003 4278729240
0.040992137 0.040522225 0.44900003 4278663960
0.042450495 0.040522225 0.44900003 4278599191
0.043908846 0.040522225 0.44900003 4278467603
0.0453672 0.040522225 0.44900003 4278599189
0.046721261 0.040431976 0.44800001 4278664982
0.048068829 0.040341727 0.44700003 4278665496
0.04952069 0.040341727 0.44700003 4278731289
0.050972544 0.040341727 0.44700003 4278797597
0.052658964 0.040522225 0.44900003 4278863390
0.054237843 0.040612474 0.45000002 4279258148
0.055823222 0.040702727 0.45100003 4279126562
0.057288069 0.040702727 0.45100003 4279387685
0.05888319 0.040792976 0.45200002 4283529826
-0.036283568 0.045627534 0.48800004 4281022755
-0.029882105 0.045534037 0.48700002 4281418542
-0.028242216 0.045440536 0.48600003 4280629026
-0.026608825 0.045347035 0.48500001 4281023530
-0.024930311 0.045160037 0.48300001 4280694567
-0.023313159 0.045066539 0.48200002 4281286704
-0.021702504 0.044973042 0.48100004 4280693801
-0.020098343 0.044879541 0.48000002 4279909412
-0.01861655 0.045066539 0.48200002 4279123228
-0.017157139 0.045347035 0.48500001 4278796570
-0.015581857 0.045347035 0.48500001 4278993949
-0.013977698 0.045253538 0.48400003 4278796568
-0.012380033 0.045160037 0.48300001 4278862361
-0.010788865 0.045066539 0.48200002 4278796568
-0.009204193 0.044973042 0.48100004 4278796568
-0.0076260157 0.044879541 0.48000002 4278796568
-0.0058521037 0.04329006 0.46300003 4278862361
-0.004348279 0.04329006 0.46300003 4279190556
-0.0028444538 0.04329006 0.46300003 4278198018
-0.0013377335 0.043196559 0.46200001 4279780129
0.00016284335 0.043196559 0.46200001 4279189273
0.0016598196 0.043103062 0.46100003 4278721549
0.0031571484 0.043103062 0.46100003 4280234788
0.0046443804 0.043009561 0.46000001 4279840543
0.0061384616 0.043009561 0.46000001 4278194945
0.0076159495 0.042916063 0.45900002 4278984719
0.0091067832 0.042916063 0.45900002 4278195205
0.010597616 0.042916063 0.45900002 4278195459
0.012062112 0.042822566 0.45800003 4278195205
0.013549698 0.042822566 0.45800003 4279380762
0.01500445 0.042729065 0.45700002 4278853648
0.016488785 0.042729065 0.45700002 4278394376
0.017933793 0.042635567 0.45600003 4279320348
0.019414883 0.042635567 0.45600003 4278530062
0.020895973 0.042635567 0.45600003 4278199045
0.022377061 0.042635567 0.45600003 4278196736
0.023805827 0.042542066 0.45500001 4278990613
0.025283668 0.042542066 0.45500001 4278924820
0.026702695 0.042448569 0.45400003 4278859027
0.028177287 0.042448569 0.45400003 4278926103
0.029586565 0.042355068 0.45300001 4278991896
0.031057913 0.042355068 0.45300001 4278991383
0.032529257 0.042355068 0.45300001 4278991129
0.033925544 0.042261571 0.45200002 4279320094
0.03539364 0.042261571 0.45200002 4279121945
0.036780186 0.04216807 0.45100003 4279647777
0.038245037 0.04216807 0.45100003 4279384092
0.039621834 0.042074572 0.45000002 4278198790
0.041083433 0.042074572 0.45000002 4278198019
0.042545035 0.042074572 0.45000002 4278196736
0.044006635 0.042074572 0.45000002 4278197248
0.045468237 0.042074572 0.45000002 4278199046
0.04682555 0.041981071 0.44900003 4278727189
0.048283901 0.041981071 0.44900003 4278795546
0.049742259 0.041981071 0.44900003 4278664984
0.05120061 0.041981071 0.44900003 4278664982
0.052776244 0.042074572 0.45000002 4278796568
0.054358374 0.04216807 0.45100003 4278665496
0.055946995 0.042261571 0.45200002 4278862875
0.057415091 0.042261571 0.45200002 4278928670
0.05888319 0.042261571 0.45200002 4278467351
0.060484808 0.042355068 0.45300001 4286224777
-0.028300326 0.047116347 0.48700002 4281548068
-0.026608825 0.046922851 0.48500001 4279838483
-0.024981929 0.046826106 0.48400003 4280759585
-0.023313159 0.046632607 0.48200002 4282075958
-0.021702504 0.046535861 0.48100004 4280694567
-0.020140216 0.046535861 0.48100004 4280173608
-0.01861655 0.046632607 0.48200002 4279190304
-0.017157139 0.046922851 0.48500001 4278862363
-0.015613986 0.047019601 0.48600003 4278993949
-0.014006577 0.046922851 0.48500001 4278664984
-0.012380033 0.046729356 0.48300001 4278796570
-0.010788865 0.046632607 0.48200002 4278928156
-0.009223328 0.046632607 0.48200002 4278862363
-0.0058647431 0.044891141 0.46400002 4278928156
-0.004348279 0.044794392 0.46300003 4278993179
-0.0028383103 0.044697642 0.46200001 4278196224
-0.0013377335 0.044697642 0.46200001 4278660882
0.00016249088 0.044600897 0.46100003 4279584033
0.0016598196 0.044600897 0.46100003 4278656269
0.0031502999 0.044504147 0.46000001 4278786572
0.0046443804 0.044504147 0.46000001 4278720779
0.0061384616 0.044504147 0.46000001 4278720779
0.0076159495 0.044407401 0.45900002 4278654986
0.0091067832 0.044407401 0.45900002 4278589193
0.010597616 0.044407401 0.45900002 4278654732
0.012062112 0.044310652 0.45800003 4280037155
0.013549698 0.044310652 0.45800003 4279973410
0.015037282 0.044310652 0.45800003 4278722832
0.016488785 0.044213902 0.45700002 4279053590
0.017973121 0.044213902 0.45700002 4279188508
0.019457459 0.044213902 0.45700002 4278526476
0.020895973 0.044117156 0.45600003 4278590474
0.022377061 0.044117156 0.45600003 4278590474
0.023805827 0.044020407 0.45500001 4278987027
0.025283668 0.044020407 0.45500001 4279187224
0.026761509 0.044020407 0.45500001 4278529808
0.028177287 0.043923661 0.45400003 4278924568
0.029651878 0.043923661 0.45400003 4278464017
0.031057913 0.043826912 0.45300001 4278198532
0.032529257 0.043826912 0.45300001 4279056924
0.033925544 0.043730162 0.45200002 4278663447
0.03539364 0.043730162 0.45200002 4278663447
0.036861736 0.043730162 0.45200002 4278860056
0.038245037 0.043633416 0.45100003 4278925849
0.039709885 0.043633416 0.45100003 4279057176
0.041174732 0.043633416 0.45100003 4279188762
0.042639583 0.043633416 0.45100003 4279057176
0.044104431 0.043633416 0.45100003 4278925336
0.045569282 0.043633416 0.45100003 4279187738
0.04703413 0.043633416 0.45100003 4279450912
0.048391439 0.043536667 0.45000002 4278661396
0.049853042 0.043536667 0.45000002 4278993179
0.051314641 0.043536667 0.45000002 4278796568
0.052893527 0.043633416 0.45100003 4278862361
0.054478899 0.043730162 0.45200002 4278862361
0.055946995 0.043730162 0.45200002 4278862361
0.057415091 0.043730162 0.45200002 4278862363
0.05901346 0.043826912 0.45300001 4278928156
0.060484808 0.043826912 0.45300001 4284185707
-0.024981929 0.04839867 0.48400003 4279968786
-0.023361526 0.048298672 0.48300001 4279376649
-0.021747623 0.048198674 0.48200002 4279047943
-0.020182086 0.048198674 0.48200002 4280305446
-0.018655173 0.048298672 0.48300001 4278992666
-0.017157139 0.048498664 0.48500001 4278862363
-0.015613986 0.048598666 0.48600003 4278796570
-0.014035458 0.048598666 0.48600003 4278664982
-0.012380033 0.048298672 0.48300001 4278664984
-0.010788865 0.048198674 0.48200002 4278928156
-0.0074035903 0.046598718 0.46600002 4278664984
-0.0058647431 0.046398722 0.46400002 4278599191
-0.004348279 0.046298727 0.46300003 4278991642
-0.0028383103 0.046198729 0.46200001 4278200331
-0.0013377335 0.046198729 0.46200001 4279188510
0.00016249088 0.046098731 0.46100003 4279452193
0.0016598196 0.046098731 0.46100003 4278461453
0.0031502999 0.045998733 0.46000001 4278458888
0.0046443804 0.045998733 0.46000001 4278853135
0.0061384616 0.045998733 0.46000001 4278851851
0.0076159495 0.045898739 0.45900002 4278851851
0.0091067832 0.045898739 0.45900002 4278851851
0.010597616 0.045898739 0.45900002 4278851597
0.012062112 0.045798741 0.45800003 4278785804
0.013549698 0.045798741 0.45800003 4278523916
0.015037282 0.045798741 0.45800003 4278589963
0.016488785 0.045698743 0.45700002 4279317016
0.017973121 0.045698743 0.45700002 4279386141
0.019457459 0.045698743 0.45700002 4278394378
0.020895973 0.045598745 0.45600003 4278983951
0.022377061 0.045598745 0.45600003 4278195718
0.023805827 0.045498747 0.45500001 4279118615
0.025283668 0.045498747 0.45500001 4279384092
0.026761509 0.045498747 0.45500001 4278529296
0.028177287 0.045398753 0.45400003 4278198535
0.029651878 0.045398753 0.45400003 4278990107
0.031057913 0.045298751 0.45300001 4279319326
0.032529257 0.045298751 0.45300001 4279121179
0.034000598 0.045298751 0.45300001 4278726421
0.03539364 0.045198757 0.45200002 4278199303
0.036861736 0.045198757 0.45200002 4278199046
0.038329836 0.045198757 0.45200002 4278199046
0.039797932 0.045198757 0.45200002 4278196992
0.041266028 0.045198757 0.45200002 4278596371
0.042734127 0.045198757 0.45200002 4278860056
0.044202223 0.045198757 0.45200002 4278991896
0.045670319 0.045198757 0.45200002 4278861080
0.047138415 0.045198757 0.45200002 4278926103
0.048498977 0.045098759 0.45100003 4278661396
0.049963828 0.045098759 0.45100003 4278795285
0.051542707 0.045198757 0.45200002 4278664212
0.053010803 0.045198757 0.45200002 4278795798
0.054478899 0.045198757 0.45200002 4278796568
0.056070771 0.045298751 0.45300001 4278664982
0.057542115 0.045298751 0.45300001 4278862361
0.05901346 0.045298751 0.45300001 4278927386
0.060484808 0.045298751 0.45300001 4281817159
-0.028358439 0.05038422 0.48800004 4280427790
-0.026718551 0.050280973 0.48700002 4280296209
-0.025085159 0.050177727 0.48600003 4279770635
-0.023409896 0.049971234 0.48400003 4279573258
-0.021837862 0.049971234 0.48400003 4279376649
-0.020265831 0.049971234 0.48400003 4279184398
-0.018693797 0.049971234 0.48400003 4279187990
-0.017192515 0.050177727 0.48600003 4278992664
-0.015646113 0.050280973 0.48700002 4279124763
-0.014064336 0.050280973 0.48700002 4278664984
-0.012380033 0.049867988 0.48300001 4278796570
-0.010788865 0.049764741 0.48200002 4278664984
-0.0089362953 0.048216045 0.46700001 4278796570
-0.0073877033 0.048009556 0.46500003 4278599191
-0.0058647431 0.047906306 0.46400002 4278796570
-0.004348279 0.047803063 0.46300003 4279058459
-0.0028383103 0.047699813 0.46200001 4279056922
-0.001334838 0.047596566 0.46100003 4278465300
0.00016249088 0.047596566 0.46100003 4278795548
0.0016562191 0.04749332 0.46000001 4279058205
0.0031502999 0.04749332 0.46000001 4279188762
0.0046443804 0.04749332 0.46000001 4279648029
0.0061251172 0.047390074 0.45900002 4279779615
0.0076159495 0.047390074 0.45900002 4280107815
0.0091067832 0.047390074 0.45900002 4279251482
0.010597616 0.047390074 0.45900002 4278920722
0.012062112 0.047286831 0.45800003 4278328072
0.013549698 0.047286831 0.45800003 4278393867
0.015037282 0.047286831 0.45800003 4278458123
0.016488785 0.047183581 0.45700002 4279975205
0.017973121 0.047183581 0.45700002 4278199563
0.019457459 0.047183581 0.45700002 4279448348
0.020895973 0.047080338 0.45600003 4279710236
0.022377061 0.047080338 0.45600003 4279973922
0.023805827 0.046977088 0.45500001 4279514141
0.025283668 0.046977088 0.45500001 4279581730
0.026761509 0.046977088 0.45500001 4279121179
0.028177287 0.046873845 0.45400003 4279318812
0.029651878 0.046873845 0.45400003 4278198275
0.031126473 0.046873845 0.45400003 4278199563
0.032529257 0.046770595 0.45300001 4279055900
0.034000598 0.046770595 0.45300001 4278197764
0.035471946 0.046770595 0.45300001 4278594322
0.03694329 0.046770595 0.45300001 4278791701
0.038329836 0.046667352 0.45200002 4278331150
0.039797932 0.046667352 0.45200002 4279647012
0.041266028 0.046667352 0.45200002 4279581219
0.042734127 0.046667352 0.45200002 4279186459
0.044202223 0.046667352 0.45200002 4278265357
0.045670319 0.046667352 0.45200002 4278794517
0.047138415 0.046667352 0.45200002 4278860310
0.048606511 0.046667352 0.45200002 4278793750
0.050074611 0.046667352 0.45200002 4278992666
0.051656738 0.046770595 0.45300001 4278861078
0.053128082 0.046770595 0.45300001 4278927384
0.054599427 0.046770595 0.45300001 4278664984
0.056070771 0.046770595 0.45300001 4278599191
0.057542115 0.046770595 0.45300001 4278664984
0.05901346 0.046770595 0.45300001 4278927132
0.060484808 0.046770595 0.45300001 4280567346
-0.028474661 0.052182771 0.49000001 4280493585
-0.026773416 0.051969782 0.48800004 4280296209
-0.025136774 0.051863287 0.48700002 4279835660
-0.02350663 0.051756792 0.48600003 4279244293
-0.021928102 0.051756792 0.48600003 4279375625
-0.020349573 0.051756792 0.48600003 4279246344
-0.018809667 0.051863287 0.48700002 4279116809
-0.017298641 0.052076276 0.48900002 4278923791
-0.015742496 0.052182771 0.49000001 4279188760
-0.0073877033 0.049520388 0.46500003 4278795546
-0.0058521037 0.049307395 0.46300003 4278927132
-0.004348279 0.049307395 0.46300003 4278992925
-0.0028383103 0.0492009 0.46200001 4278992925
-0.001334838 0.049094405 0.46100003 4278992925
0.0001621384 0.048987906 0.46000001 4278795546
0.0016562191 0.048987906 0.46000001 4278729753
0.0031502999 0.048987906 0.46000001 4278795546
0.0046342839 0.048881412 0.45900002 4278795546
0.0061251172 0.048881412 0.45900002 4278927132
0.0076159495 0.048881412 0.45900002 4278795546
0.0091067832 0.048881412 0.45900002 4278992412
0.010574528 0.04877492 0.45800003 4279189021
0.012062112 0.04877492 0.45800003 4279189021
0.013549698 0.04877492 0.45800003 4279123228
0.015037282 0.04877492 0.45800003 4278991129
0.016488785 0.048668422 0.45700002 4279188508
0.017973121 0.048668422 0.45700002 4278991129
0.019457459 0.048668422 0.45700002 4279648291
0.020895973 0.048561927 0.45600003 4279187226
0.022377061 0.048561927 0.45600003 4278264841
0.023805827 0.048455428 0.45500001 4278195968
0.025283668 0.048455428 0.45500001 4278195968
0.026702695 0.048348937 0.45400003 4278194688
0.028177287 0.048348937 0.45400003 4278264587
0.029651878 0.048348937 0.45400003 4278791185
0.031057913 0.048242439 0.45300001 4279055640
0.032529257 0.048242439 0.45300001 4279187226
0.034000598 0.048242439 0.45300001 4279451682
0.035471946 0.048242439 0.45300001 4278991131
0.03694329 0.048242439 0.45300001 4278925338
0.038414635 0.048242439 0.45300001 4279056922
0.039885979 0.048242439 0.45300001 4278793752
0.041357324 0.048242439 0.45300001 4278991131
0.042828668 0.048242439 0.45300001 4278199817
0.044300012 0.048242439 0.45300001 4278200074
0.04577136 0.048242439 0.45300001 4279189021
0.047242705 0.048242439 0.45300001 4278531091
0.048714045 0.048242439 0.45300001 4278727705
0.050185394 0.048242439 0.45300001 4278927132
0.051656738 0.048242439 0.45300001 4278795798
0.053128082 0.048242439 0.45300001 4278730005
0.054719958 0.048348937 0.45400003 4278927384
0.056194548 0.048348937 0.45400003 4278927384
0.05766914 0.048348937 0.45400003 4278730007
0.059143737 0.048348937 0.45400003 4279256097
0.06061833 0.048348937 0.45400003 4279515426
-0.028532773 0.053884577 0.49100003 4280361997
-0.026883142 0.05377483 0.49000001 4280361745
-0.025240006 0.053665087 0.48900002 4279638281
-0.023651732 0.053665087 0.48900002 4279703820
-0.022063458 0.053665087 0.48900002 4279638027
-0.020475188 0.053665087 0.48900002 4279442188
-0.018925538 0.05377483 0.49000001 4279574541
-0.017404767 0.05399432 0.49200001 4279641617
-0.0073718154 0.050921474 0.46400002 4279121179
-0.0058521037 0.05081173 0.46300003 4279188256
-0.0043388871 0.050701983 0.46200001 4279648807
-0.0028321669 0.05059224 0.46100003 4279714600
-0.001334838 0.05059224 0.46100003 4279255332
0.0001621384 0.050482493 0.46000001 4279584551
0.0016562191 0.050482493 0.46000001 4279124000
0.0031434514 0.05037275 0.45900002 4279189793
0.0046342839 0.05037275 0.45900002 4279124000
0.0061251172 0.05037275 0.45900002 4278927134
0.0076159495 0.05037275 0.45900002 4278795548
0.0090869423 0.050263006 0.45800003 4278927132
0.010574528 0.050263006 0.45800003 4278992925
0.012062112 0.050263006 0.45800003 4278795546
0.013549698 0.050263006 0.45800003 4278795546
0.015037282 0.050263006 0.45800003 4278992925
0.016488785 0.050153259 0.45700002 4278927132
0.017973121 0.050153259 0.45700002 4278730007
0.019414883 0.050043516 0.45600003 4278795800
0.020895973 0.050043516 0.45600003 4278730007
0.022327987 0.049933773 0.45500001 4278860310
0.023805827 0.049933773 0.45500001 4278926103
0.025283668 0.049933773 0.45500001 4279057176
0.026702695 0.049824029 0.45400003 4279056152
0.028177287 0.049824029 0.45400003 4279385119
0.029651878 0.049824029 0.45400003 4279121947
0.031057913 0.049714282 0.45300001 4279450398
0.032529257 0.049714282 0.45300001 4278791955
0.034000598 0.049714282 0.45300001 4278660369
0.035471946 0.049714282 0.45300001 4278197248
0.03694329 0.049714282 0.45300001 4278195456
0.038414635 0.049714282 0.45300001 4278196224
0.039885979 0.049714282 0.45300001 4278197765
0.041357324 0.049714282 0.45300001 4278660115
0.042828668 0.049714282 0.45300001 4279121179
0.044300012 0.049714282 0.45300001 4279319326
0.04577136 0.049714282 0.45300001 4279516705
0.047242705 0.049714282 0.45300001 4278265359
0.048714045 0.049714282 0.45300001 4278990361
0.050185394 0.049714282 0.45300001 4279058459
0.051770773 0.049824029 0.45400003 4278927384
0.053245366 0.049824029 0.45400003 4278993177
0.054719958 0.049824029 0.45400003 4278927384
0.056194548 0.049824029 0.45400003 4278598419
0.05766914 0.049824029 0.45400003 4278927386
0.059143737 0.049824029 0.45400003 4278795546
0.06061833 0.049824029 0.45400003 4282146126
-0.028648997 0.055705871 0.49300003 4280427790
-0.026992869 0.055592876 0.49200001 4280164623
-0.025394851 0.055592876 0.49200001 4280164625
-0.023748469 0.055479884 0.49100003 4279638281
-0.022153698 0.055479884 0.49100003 4279704074
-0.020600801 0.055592876 0.49200001 4279704844
-0.01904141 0.055705871 0.49300003 4279770637
-0.017510895 0.055931862 0.49500003 4280034325
-0.0073718154 0.052429054 0.46400002 4284579434
-0.0058521037 0.052316062 0.46300003 4284776813
-0.0043388871 0.052203067 0.46200001 4284842606
-0.0028321669 0.052090075 0.46100003 4284382055
-0.001334838 0.052090075 0.46100003 4282277449
0.0001621384 0.051977079 0.46000001 4280830514
0.0016562191 0.051977079 0.46000001 4279318560
0.0031434514 0.051864088 0.45900002 4278727709
0.0046342839 0.051864088 0.45900002 4279451430
0.0061251172 0.051864088 0.45900002 4279517223
0.0076159495 0.051864088 0.45900002 4279518504
0.0090869423 0.051751096 0.45800003 4279452711
0.010574528 0.051751096 0.45800003 4279518758
0.012062112 0.051751096 0.45800003 4279255586
0.013549698 0.051751096 0.45800003 4279781160
0.01500445 0.0516381 0.45700002 4279255586
0.016488785 0.0516381 0.45700002 4278466583
0.017973121 0.0516381 0.45700002 4278729755
0.019414883 0.051525109 0.45600003 4278729753
0.020895973 0.051525109 0.45600003 4278663960
0.022327987 0.051412113 0.45500001 4278927132
0.023805827 0.051412113 0.45500001 4278598167
0.025228102 0.051299121 0.45400003 4278992666
0.026702695 0.051299121 0.45400003 4278861080
0.028177287 0.051299121 0.45400003 4278861080
0.029586565 0.051186126 0.45300001 4278861080
0.031057913 0.051186126 0.45300001 4278729494
0.032529257 0.051186126 0.45300001 4278926103
0.034000598 0.051186126 0.45300001 4278860310
0.035471946 0.051186126 0.45300001 4278991896
0.03694329 0.051186126 0.45300001 4278926103
0.038414635 0.051186126 0.45300001 4278991383
0.039885979 0.051186126 0.45300001 4279582496
0.041357324 0.051186126 0.45300001 4279385117
0.042828668 0.051186126 0.45300001 4279516191
0.044300012 0.051186126 0.45300001 4278858007
0.04577136 0.051186126 0.45300001 4278396943
0.047242705 0.051186126 0.45300001 4278725138
0.048821583 0.051299121 0.45400003 4279254814
0.05029618 0.051299121 0.45400003 4278992664
0.051770773 0.051299121 0.45400003 4278927382
0.053245366 0.051299121 0.45400003 4278927382
0.054719958 0.051299121 0.45400003 4279124763
0.056194548 0.051299121 0.45400003 4279058970
0.05766914 0.051299121 0.45400003 4278993179
0.059143737 0.051299121 0.45400003 4278334995
0.06061833 0.051299121 0.45400003 4285962120
-0.028707108 0.057423919 0.49400002 4280427790
-0.027102597 0.057423919 0.49400002 4280361745
-0.025446469 0.057307679 0.49300003 4280098830
-0.023845203 0.057307679 0.49300003 4279770637
-0.022289056 0.057423919 0.49400002 4279639051
-0.020726418 0.057540167 0.49500003 4279573004
-0.019157279 0.057656407 0.49600002 4279638797
-0.017617021 0.057888892 0.49800003 4279967762
-0.016031643 0.058005136 0.49900001 4280100120
-0.014468651 0.058237623 0.50100005 4285497458
0.010574528 0.053239185 0.45800003 4281685827
0.012062112 0.053239185 0.45800003 4280238381
0.013549698 0.053239185 0.45800003 4279252254
0.01500445 0.053122938 0.45700002 4279318560
0.016488785 0.053122938 0.45700002 4279648039
0.017933793 0.053006697 0.45600003 4279714602
0.019414883 0.053006697 0.45600003 4279451428
0.020850148 0.052890453 0.45500001 4279517221
0.022327987 0.052890453 0.45500001 4279451941
0.023753507 0.052774213 0.45400003 4279386402
0.025228102 0.052774213 0.45400003 4279254814
0.026702695 0.052774213 0.45400003 4279123482
0.028115222 0.052657969 0.45300001 4279189275
0.029586565 0.052657969 0.45300001 4279189275
0.031057913 0.052657969 0.45300001 4278992666
0.032529257 0.052657969 0.45300001 4278663701
0.034000598 0.052657969 0.45300001 4278663447
0.035471946 0.052657969 0.45300001 4278861080
0.03694329 0.052657969 0.45300001 4278992666
0.038414635 0.052657969 0.45300001 4278992666
0.039885979 0.052657969 0.45300001 4278992666
0.041357324 0.052657969 0.45300001 4279123482
0.042828668 0.052657969 0.45300001 4279255068
0.044397809 0.052774213 0.45400003 4279255068
0.045872401 0.052774213 0.45400003 4279123228
0.047346994 0.052774213 0.45400003 4279123228
0.048821583 0.052774213 0.45400003 4278992412
0.05029618 0.052774213 0.45400003 4278992666
0.051770773 0.052774213 0.45400003 4278927386
0.053245366 0.052774213 0.45400003 4279058972
0.054840483 0.052890453 0.45500001 4278993179
0.056318324 0.052890453 0.45500001 4279058972
0.057796162 0.052890453 0.45500001 4279058720
0.059143737 0.052774213 0.45400003 4280437557
0.06061833 0.052774213 0.45400003 4285763458
-0.02876522 0.059148472 0.49500003 4280230411
-0.027157461 0.059148472 0.49500003 4279901196
-0.0255497 0.059148472 0.49500003 4280032782
-0.023941938 0.059148472 0.49500003 4279901199
-0.022379296 0.05926796 0.49600002 4279835406
-0.020810159 0.059387453 0.49700001 4279638799
-0.019234527 0.059506945 0.49800003 4279638799
-0.017687771 0.059745926 0.5 4279573776
-0.016128026 0.059984915 0.50200003 4279376397
-0.014526409 0.060104404 0.50300002 4285365358
0.020850148 0.054368794 0.45500001 4282868818
0.022327987 0.054368794 0.45500001 4280633655
0.023753507 0.054249305 0.45400003 4279449894
0.025228102 0.054249305 0.45400003 4278989595
0.026702695 0.054249305 0.45400003 4278792214
0.028115222 0.054129809 0.45300001 4278989847
0.029586565 0.054129809 0.45300001 4278529810
0.031057913 0.054129809 0.45300001 4279450912
0.032529257 0.054129809 0.45300001 4279385119
0.034000598 0.054129809 0.45300001 4279517475
0.035471946 0.054129809 0.45300001 4279385889
0.03694329 0.054129809 0.45300001 4279517475
0.038414635 0.054129809 0.45300001 4279320096
0.039885979 0.054129809 0.45300001 4279451680
0.041357324 0.054129809 0.45300001 4279517473
0.042923216 0.054249305 0.45400003 4279452963
0.044397809 0.054249305 0.45400003 4279321377
0.045872401 0.054249305 0.45400003 4279321377
0.047346994 0.054249305 0.45400003 4279452193
0.048821583 0.054249305 0.45400003 4279452193
0.05029618 0.054249305 0.45400003 4279452963
0.051770773 0.054249305 0.45400003 4279123998
0.053362645 0.054368794 0.45500001 4279321377
0.054840483 0.054368794 0.45500001 4279058205
0.056318324 0.054368794 0.45500001 4279255584
0.057796162 0.054368794 0.45500001 4279317279
0.059274007 0.054368794 0.45500001 4286026628
-0.028823331 0.060879517 0.49600002 4280230413
-0.027212324 0.060879517 0.49600002 4280032780
-0.025601314 0.060879517 0.49600002 4279835660
-0.023990305 0.060879517 0.49600002 4280098832
-0.022424415 0.061002254 0.49700001 4279966992
-0.020852031 0.061124999 0.49800003 4279638799
-0.019311773 0.061370477 0.5 4279704592
-0.017758524 0.061615963 0.50200003 4279704592
-0.016160153 0.061738703 0.50300002 4279638799
-0.014584168 0.061984181 0.505 4285300077
0.031057913 0.055601653 0.45300001 4283790690
0.032529257 0.055601653 0.45300001 4282013507
0.034000598 0.055601653 0.45300001 4281881923
0.035471946 0.055601653 0.45300001 4284448620
0.03694329 0.055601653 0.45300001 4284185961
0.038414635 0.055601653 0.45300001 4284054375
0.039885979 0.055601653 0.45300001 4283659617
0.041448619 0.055724397 0.45400003 4282541652
0.042923216 0.055724397 0.45400003 4281950028
0.044397809 0.055724397 0.45400003 4281094719
0.045872401 0.055724397 0.45400003 4280962620
0.047346994 0.055724397 0.45400003 4280239151
0.048821583 0.055724397 0.45400003 4279778600
0.05029618 0.055724397 0.45400003 4279712807
0.051770773 0.055724397 0.45400003 4279318047
0.053362645 0.055847134 0.45500001 4279318047
0.054840483 0.055847134 0.45500001 4279647525
0.056318324 0.055847134 0.45500001 4283068763
-0.028881442 0.062617064 0.49700001 4280295436
-0.027267186 0.062617064 0.49700001 4279967246
-0.02565293 0.062617064 0.49700001 4279901453
-0.02408704 0.062743053 0.49800003 4279901453
-0.022469535 0.062743053 0.49800003 4279769867
-0.020935774 0.062995031 0.5 4279704592
-0.019350398 0.063121028 0.50100005 4279704592
-0.017793899 0.063373007 0.50300002 4279836178
-0.016224409 0.063624978 0.505 4279573006
-0.014613048 0.063750975 0.50600004 4285169261
0.054961015 0.057451472 0.45600003 4285304442
-0.028939554 0.064361103 0.49800003 4280558093
-0.02732205 0.064361103 0.49800003 4279901453
-0.025704546 0.064361103 0.49800003 4279901453
-0.024135407 0.064490341 0.49900001 4279901199
-0.022559773 0.064619578 0.5 4279769613
-0.020977648 0.064748824 0.50100005 4279704592
-0.019427644 0.065007299 0.50300002 4279770385
-0.017829275 0.065136537 0.50400001 4279836948
-0.016256537 0.06539502 0.50600004 4279507213
-0.028997665 0.066111647 0.49900001 4280295434
-0.027376914 0.066111647 0.49900001 4279967244
-0.025807776 0.066244133 0.5 4279704842
-0.024232144 0.066376626 0.50100005 4279770383
-0.022650015 0.066509113 0.50200003 4279704592
-0.021061389 0.066641599 0.50300002 4279770385
-0.01950489 0.066906571 0.505 4279836178
-0.017900025 0.067039065 0.50600004 4279639569
-0.016288664 0.067171551 0.50700003 4279179018
-0.029055776 0.06786868 0.5 4280230413
-0.027486643 0.068004422 0.50100005 4279836430
-0.025911009 0.068140157 0.50200003 4279704844
-0.024328878 0.068275891 0.50300002 4279704592
-0.022740252 0.068411633 0.50400001 4279704592
-0.021145131 0.068547368 0.505 4279770385
-0.019582139 0.068818845 0.50700003 4279770385
-0.017970776 0.06895458 0.50800002 4279967764
-0.016352918 0.069090314 0.509 4279179018
-0.029113891 0.069632225 0.50100005 4280164877
-0.027541505 0.069771215 0.50200003 4279573004
-0.025962623 0.069910198 0.50300002 4279770383
-0.024425613 0.070188165 0.505 4279638797
-0.022830492 0.070327155 0.50600004 4279836176
-0.021270746 0.070605129 0.50800002 4279770385
-0.019659385 0.070744112 0.509 4279836178
-0.018041529 0.070883103 0.51000005 4280230936
-0.016417174 0.071022093 0.51100004 4279902743
-0.050468795 0.071544498 0.50300002 4279771418
-0.048737962 0.071402267 0.50200003 4279573778
-0.047013629 0.071260028 0.50100005 4279835660
-0.045295786 0.071117789 0.5 4280164623
-0.043671783 0.071117789 0.5 4280625169
-0.029172001 0.071402267 0.50200003 4280164620
-0.027596369 0.071544498 0.50300002 4279704844
-0.026065852 0.071828969 0.505 4279770637
-0.024522349 0.072113439 0.50700003 4279704590
-0.02292073 0.072255678 0.50800002 4279705360
-0.021354491 0.072540149 0.51000005 4279836948
-0.019736633 0.072682388 0.51100004 4279047434
-0.050569132 0.073324278 0.50400001 4279903774
-0.04883505 0.073178791 0.50300002 4279968797
-0.047107469 0.07303331 0.50200003 4279771670
-0.045386381 0.07288783 0.50100005 4280034842
-0.04375913 0.07288783 0.50100005 4279442192
-0.042047784 0.072742335 0.5 4279376399
-0.040423781 0.072742335 0.5 4279112455
-0.038722184 0.072596855 0.49900001 4279178248
-0.037101433 0.072596855 0.49900001 4279178246
-0.035551779 0.072742335 0.5 4279243269
-0.03392778 0.072742335 0.5 4279506441
-0.032368392 0.07288783 0.50100005 4279440648
-0.030802498 0.07303331 0.50200003 4279374855
-0.029230112 0.073178791 0.50300002 4279440648
-0.027651232 0.073324278 0.50400001 4279309832
-0.02611747 0.073615253 0.50600004 4279112455
-0.024570715 0.073906213 0.50800002 4279375627
-0.023010971 0.074197188 0.51000005 4279179018
-0.019813878 0.074633636 0.51300001 4284971884
-0.04375913 0.074515633 0.50100005 4279969567
-0.042131882 0.074515633 0.50100005 4279640602
-0.040423781 0.07436689 0.5 4279377430
-0.038799781 0.07436689 0.5 4279837211
-0.037175782 0.07436689 0.5 4279639832
-0.035551779 0.07436689 0.5 4279574039
-0.03399564 0.074515633 0.50100005 4279573526
-0.032368392 0.074515633 0.50100005 4279376147
-0.030802498 0.074664362 0.50200003 4279244561
-0.029288223 0.074961826 0.50400001 4279178766
-0.027706094 0.075110555 0.505 4279178766
-0.026169086 0.075408034 0.50700003 4279178766
-0.024619082 0.075705491 0.509 4279573524
-0.02305609 0.07600297 0.51100004 4279441938
-0.032432999 0.076295406 0.50200003 4279772188
-0.030802498 0.076295406 0.50200003 4279443223
-0.029288223 0.076599367 0.50400001 4279311637
-0.027706094 0.076751351 0.505 4279179281
-0.026169086 0.07705532 0.50700003 4279376660
-0.024619082 0.077359281 0.509 4279837211
-0.030802498 0.077926457 0.50200003 4279706908
-0.029230112 0.07808169 0.50300002 4279443736
-0.027706094 0.078392148 0.505 4279443736
-0.026169086 0.078702621 0.50700003 4279312150
-0.024619082 0.079013079 0.509 4279772188
0.0066566896 0.048440468 0.4697904 4294967295
0.0066566896 0.048440468 0.4697904 4294901760
0.0066566896 0.048440468 0.47029039 4294901760
0.0066566896 0.048440468 0.47079039 4294901760
0.0066566896 0.048440468 0.47129041 4294901760
0.0066566896 0.048440468 0.4717904 4294901760
0.0066566896 0.048440468 0.4722904 4294901760
0.0066566896 0.048440468 0.47279039 4294901760
0.0066566896 0.048440468 0.47329041 4294901760
0.0066566896 0.048440468 0.47379041 4294901760
0.0066566896 0.048440468 0.4742904 4294901760
0.0066566896 0.048440468 0.47479039 4294901760
0.0066566896 0.048440468 0.47529039 4294901760
0.0066566896 0.048440468 0.47579041 4294901760
0.0066566896 0.048440468 0.4762904 4294901760
0.0066566896 0.048440468 0.4767904 4294901760
0.0066566896 0.048440468 0.47729039 4294901760
0.0066566896 0.048440468 0.47779042 4294901760
0.0066566896 0.048440468 0.47829041 4294901760
0.0066566896 0.048440468 0.4787904 4294901760
0.0066566896 0.048440468 0.4792904 4294901760
0.0066566896 0.048440468 0.47979039 4294901760
0.0066566896 0.048440468 0.48029041 4294901760
0.0066566896 0.048440468 0.48079041 4294901760
0.0066566896 0.048440468 0.4812904 4294901760
0.0066566896 0.048440468 0.48179039 4294901760
0.0066566896 0.048440468 0.48229039 4294901760
0.0066566896 0.048440468 0.48279041 4294901760
0.0066566896 0.048440468 0.4832904 4294901760
0.0066566896 0.048440468 0.4837904 4294901760
0.0066566896 0.048440468 0.48429039 4294901760
0.0066566896 0.048440468 0.48479041 4294901760
0.0066566896 0.048440468 0.48529041 4294901760
0.0066566896 0.048440468 0.4857904 4294901760
0.0066566896 0.048440468 0.4862904 4294901760
0.0066566896 0.048440468 0.48679042 4294901760
0.0066566896 0.048440468 0.48729041 4294901760
0.0066566896 0.048440468 0.48779041 4294901760
0.0066566896 0.048440468 0.4882904 4294901760
0.0066566896 0.048440468 0.48879039 4294901760
0.0066566896 0.048440468 0.48929042 4294901760
0.0066566896 0.048440468 0.48979041 4294901760
0.0066566896 0.048440468 0.4902904 4294901760
0.0066566896 0.048440468 0.4907904 4294901760
0.0066566896 0.048440468 0.49129039 4294901760
0.0066566896 0.048440468 0.49179041 4294901760
0.0066566896 0.048440468 0.49229041 4294901760
0.0066566896 0.048440468 0.4927904 4294901760
0.0066566896 0.048440468 0.49329039 4294901760
0.0066566896 0.048440468 0.49379042 4294901760
0.0066566896 0.048440468 0.49429041 4294901760
0.0066566896 0.048440468 0.49479041 4294901760
0.0066566896 0.048440468 0.4952904 4294901760
0.0066566896 0.048440468 0.49579039 4294901760
0.0066566896 0.048440468 0.49629042 4294901760
0.0066566896 0.048440468 0.49679041 4294901760
0.0066566896 0.048440468 0.4972904 4294901760
0.0066566896 0.048440468 0.4977904 4294901760
0.0066566896 0.048440468 0.49829042 4294901760
0.0066566896 0.048440468 0.49879041 4294901760
0.0066566896 0.048440468 0.49929041 4294901760
0.0066566896 0.048440468 0.4997904 4294901760
0.0066566896 0.048440468 0.50029039 4294901760
0.0066566896 0.048440468 0.50079042 4294901760
0.0066566896 0.048440468 0.50129038 4294901760
0.0066566896 0.048440468 0.5017904 4294901760
0.0066566896 0.048440468 0.50229043 4294901760
0.0066566896 0.048440468 0.50279039 4294901760
0.0066566896 0.048440468 0.50329041 4294901760
0.0066566896 0.048440468 0.50379038 4294901760
0.0066566896 0.048440468 0.5042904 4294901760
0.0066566896 0.048440468 0.50479043 4294901760
0.0066566896 0.048440468 0.50529039 4294901760
0.0066566896 0.048440468 0.50579041 4294901760
0.0066566896 0.048440468 0.50629044 4294901760
0.0066566896 0.048440468 0.5067904 4294901760
0.0066566896 0.048440468 0.50729042 4294901760
0.0066566896 0.048440468 0.50779039 4294901760
0.0066566896 0.048440468 0.50829041 4294901760
0.0066566896 0.048440468 0.50879043 4294901760
0.0066566896 0.048440468 0.5092904 4294901760
0.0066566896 0.048440468 0.50979042 4294901760
0.0066566896 0.048440468 0.51029038 4294901760
0.0066566896 0.048440468 0.51079041 4294901760
0.0066566896 0.048440468 0.51129043 4294901760
0.0066566896 0.048440468 0.51179039 4294901760
0.0066566896 0.048440468 0.51229042 4294901760
0.0066566896 0.048440468 0.51279044 4294901760
0.0066566896 0.048440468 0.51329041 4294901760
0.0066566896 0.048440468 0.51379043 4294901760
0.0066566896 0.048440468 0.51429039 4294901760
0.0066566896 0.048440468 0.51479042 4294901760
0.0066566896 0.048440468 0.51529044 4294901760
0.0066566896 0.048440468 0.5157904 4294901760
0.0066566896 0.048440468 0.51629043 4294901760
0.0066566896 0.048440468 0.51679039 4294901760
0.0066566896 0.048440468 0.51729041 4294901760
0.0066566896 0.048440468 0.51779044 4294901760
0.0066566896 0.048440468 0.5182904 4294901760
0.0066566896 0.048440468 0.51879042 4294901760
0.0066566896 0.048440468 0.51929039 4294901760
0.0066566896 0.048440468 0.51979041 4294901760
0.0066566896 0.048440468 0.4697904 4278255360
0.0067926096 0.048441682 0.47027156 4278255360
0.0069285301 0.0484429 0.47075275 4278255360
0.0070644501 0.048444115 0.4712339 4278255360
0.0072003701 0.048445333 0.47171509 4278255360
0.0073362906 0.048446547 0.47219625 4278255360
0.0074722106 0.048447765 0.47267741 4278255360
0.0076081306 0.04844898 0.4731586 4278255360
0.0077440511 0.048450194 0.47363976 4278255360
0.0078799715 0.048451412 0.47412091 4278255360
0.0080158915 0.048452627 0.4746021 4278255360
0.0081518115 0.048453845 0.47508326 4278255360
0.0082877316 0.04845506 0.47556445 4278255360
0.0084236516 0.048456278 0.47604561 4278255360
0.0085595716 0.048457492 0.47652677 4278255360
0.0086954925 0.048458707 0.47700796 4278255360
0.0088314125 0.048459925 0.47748911 4278255360
0.0089673325 0.048461139 0.47797027 4278255360
0.0091032526 0.048462357 0.47845146 4278255360
0.0092391726 0.048463572 0.47893262 4278255360
0.0093750935 0.04846479 0.47941381 4278255360
0.0095110135 0.048466004 0.47989497 4278255360
0.0096469335 0.048467219 0.48037612 4278255360
0.0097828535 0.048468437 0.48085731 4278255360
0.0099187735 0.048469651 0.48133847 4278255360
0.010054694 0.04847087 0.48181963 4278255360
0.010190614 0.048472084 0.48230082 4278255360
0.010326535 0.048473302 0.48278198 4278255360
0.010462455 0.048474517 0.48326316 4278255360
0.010598375 0.048475731 0.48374432 4278255360
0.010734295 0.048476949 0.48422548 4278255360
0.010870215 0.048478164 0.48470667 4278255360
0.011006135 0.048479382 0.48518783 4278255360
0.011142056 0.048480596 0.48566902 4278255360
0.011277976 0.048481815 0.48615018 4278255360
0.011413896 0.048483029 0.48663133 4278255360
0.011549816 0.048484243 0.48711252 4278255360
0.011685736 0.048485462 0.48759368 4278255360
0.011821656 0.048486676 0.48807484 4278255360
0.011957576 0.048487894 0.48855603 4278255360
0.012093497 0.048489109 0.48903719 4278255360
0.012229417 0.048490327 0.48951837 4278255360
0.012365337 0.048491541 0.48999953 4278255360
0.012501257 0.048492756 0.49048069 4278255360
0.012637177 0.048493974 0.49096188 4278255360
0.012773097 0.048495188 0.49144304 4278255360
0.012909018 0.048496407 0.49192423 4278255360
0.013044938 0.048497621 0.49240538 4278255360
0.013180858 0.048498839 0.49288654 4278255360
0.013316778 0.048500054 0.49336773 4278255360
0.013452698 0.048501268 0.49384889 4278255360
0.013588618 0.048502486 0.49433005 4278255360
0.013724538 0.048503701 0.49481124 4278255360
0.013860459 0.048504919 0.4952924 4278255360
0.013996379 0.048506133 0.49577358 4278255360
0.014132299 0.048507351 0.49625474 4278255360
0.014268219 0.048508566 0.4967359 4278255360
0.014404139 0.048509784 0.49721709 4278255360
0.014540059 0.048510998 0.49769825 4278255360
0.01467598 0.048512213 0.49817941 4278255360
0.0148119 0.048513431 0.49866059 4278255360
0.01494782 0.048514646 0.49914175 4278255360
