# .PCD v0.7 - Point Cloud Data file format
VERSION 0.7
FIELDS x y z rgb
SIZE 4 4 4 4
TYPE F F F U
COUNT 1 1 1 1
WIDTH 660
HEIGHT 1
VIEWPOINT 0 0 0 1 0 0 0
POINTS 660
DATA ascii
-0.090913542 0.020424597 0.49200001 4280044332
-0.089315526 0.020424597 0.49200001 4281358909
-0.087539218 0.020383084 0.49100003 4283068246
-0.085769407 0.02034157 0.49000001 4285107059
-0.084006101 0.020300057 0.48900002 4286158464
-0.082249284 0.020258544 0.48800004 4286026366
-0.080664262 0.020258544 0.48800004 4285762679
-0.13350086 0.023321267 0.52100003 4279715619
-0.13180865 0.023321267 0.52100003 4279519008
-0.13011645 0.023321267 0.52100003 4279453726
-0.12817775 0.023276506 0.52000004 4279387933
-0.12624554 0.023231743 0.51900005 4279125531
-0.12455983 0.023231743 0.51900005 4278597906
-0.12263735 0.02318698 0.51800001 4278925590
-0.12072138 0.023142217 0.51700002 4279453217
-0.11904217 0.023142217 0.51700002 4279125531
-0.091098331 0.022067918 0.49300003 4279258146
-0.089315526 0.022023154 0.49200001 4279521320
-0.087539218 0.021978391 0.49100003 4279718186
-0.085769407 0.021933628 0.49000001 4280243762
-0.084006101 0.021888867 0.48900002 4280045615
-0.082417831 0.021888867 0.48900002 4279716650
-0.080829553 0.021888867 0.48900002 4280898874
-0.079241283 0.021888867 0.48900002 4282806103
-0.077653013 0.021888867 0.48900002 4285435513
-0.076220281 0.021933628 0.49000001 4286093443
-0.07462877 0.021933628 0.49000001 4285895294
-0.1337571 0.025062062 0.52200001 4279781410
-0.13180865 0.025014052 0.52100003 4279584801
-0.1298667 0.024966041 0.52000004 4279321629
-0.12793125 0.024918029 0.51900005 4279387933
-0.12624554 0.024918029 0.51900005 4279387933
-0.12431981 0.024870016 0.51800001 4279650594
-0.1224006 0.024822004 0.51700002 4279648029
-0.12048788 0.024773993 0.51600003 4279780899
-0.11858166 0.024725983 0.51500005 4279124252
-0.11645492 0.024629958 0.51300001 4279386654
-0.11456494 0.024581946 0.51200002 4279782180
-0.094683416 0.02376575 0.49500003 4279257633
-0.092887618 0.023717737 0.49400002 4279126047
-0.091098331 0.023669727 0.49300003 4278863388
-0.089315526 0.023621714 0.49200001 4278929181
-0.087539218 0.023573702 0.49100003 4279060767
-0.085769407 0.023525691 0.49000001 4279258146
-0.084177889 0.023525691 0.49000001 4279323941
-0.082417831 0.023477679 0.48900002 4279389734
-0.080829553 0.023477679 0.48900002 4279586859
-0.079241283 0.023477679 0.48900002 4280244789
-0.077811807 0.023525691 0.49000001 4280178483
-0.076220281 0.023525691 0.49000001 4280046899
-0.07462877 0.023525691 0.49000001 4279979820
-0.073186301 0.023573702 0.49100003 4281753413
-0.1337571 0.026758093 0.52200001 4279715619
-0.13180865 0.026706833 0.52100003 4279716387
-0.1298667 0.026655573 0.52000004 4279650594
-0.12793125 0.026604313 0.51900005 4279453728
-0.12600228 0.02655305 0.51800001 4279387935
-0.12407982 0.02650179 0.51700002 4278400529
-0.12216385 0.02645053 0.51600003 4278198017
-0.12025438 0.02639927 0.51500005 4279648543
-0.11835139 0.026348006 0.514 4278657548
-0.11622792 0.026245486 0.51200002 4278722830
-0.11434118 0.026194226 0.51100004 4278721549
-0.11201991 0.026040444 0.50800002 4278721547
-0.11015267 0.025989184 0.50700003 4278393865
-0.10807789 0.02588666 0.505 4278196997
-0.10622688 0.0258354 0.50400001 4278197250
-0.10438237 0.02578414 0.50300002 4279319324
-0.10254437 0.02573288 0.50200003 4278663447
-0.10051181 0.025630357 0.5 4279058459
-0.098690033 0.025579097 0.49900001 4279321631
-0.096874766 0.025527837 0.49800003 4279255838
-0.094874695 0.025425315 0.49600002 4279124763
-0.093075655 0.025374055 0.49500003 4279190556
-0.091283113 0.025322793 0.49400002 4279256349
-0.089497067 0.025271533 0.49300003 4279190554
-0.087717503 0.025220271 0.49200001 4279125531
-0.085944451 0.025169011 0.49100003 4278994461
-0.084177889 0.025117749 0.49000001 4279126047
-0.08258637 0.025117749 0.49000001 4279126047
-0.080829553 0.025066489 0.48900002 4279191840
-0.079403333 0.025117749 0.49000001 4279126560
-0.077811807 0.025117749 0.49000001 4279258146
-0.076220281 0.025117749 0.49000001 4279192353
-0.074781075 0.025169011 0.49100003 4279521320
-0.073186301 0.025169011 0.49100003 4279850031
-0.071591534 0.025169011 0.49100003 4280244278
-0.13401334 0.028508633 0.523 4279781412
-0.13180865 0.028399615 0.52100003 4279453730
-0.1298667 0.028345106 0.52000004 4279453728
-0.12793125 0.028290598 0.51900005 4279519521
-0.12575904 0.028181575 0.51700002 4279190556
-0.12383982 0.028127067 0.51600003 4280110377
-0.1219271 0.028072556 0.51500005 4279581982
-0.12002087 0.028018044 0.514 4280109864
-0.11812114 0.027963536 0.51300001 4278854416
-0.11600091 0.027854517 0.51100004 4278984721
-0.11411743 0.027800009 0.51000005 4278983951
-0.11201991 0.027690986 0.50800002 4279049744
-0.10993541 0.027581969 0.50600004 4279181330
-0.10807789 0.027527457 0.505 4278983697
-0.10622688 0.027472947 0.50400001 4279049744
-0.10438237 0.027418438 0.50300002 4278590474
-0.10254437 0.027363928 0.50200003 4280109094
-0.10071284 0.02730942 0.50100005 4279582750
-0.098690033 0.027200399 0.49900001 4279450910
-0.096874766 0.027145889 0.49800003 4278331915
-0.094874695 0.02703687 0.49600002 4278198018
-0.093075655 0.02698236 0.49500003 4278196992
-0.091283113 0.026927849 0.49400002 4278198530
-0.089497067 0.026873341 0.49300003 4278529808
-0.087717503 0.026818831 0.49200001 4279452193
-0.085944451 0.02676432 0.49100003 4279649572
-0.084177889 0.02670981 0.49000001 4279255838
-0.08258637 0.02670981 0.49000001 4279190558
-0.080994844 0.02670981 0.49000001 4279059740
-0.079403333 0.02670981 0.49000001 4279257119
-0.077811807 0.02670981 0.49000001 4279125533
-0.076220281 0.02670981 0.49000001 4279322912
-0.074781075 0.02676432 0.49100003 4279388705
-0.073186301 0.02676432 0.49100003 4279191840
-0.071591534 0.02676432 0.49100003 4279258148
-0.069996759 0.02676432 0.49100003 4278599964
-0.068402 0.02676432 0.49100003 4284257135
-0.066807225 0.02676432 0.49100003 4279650090
-0.1342696 0.030265674 0.52400005 4279519010
-0.13206165 0.030150155 0.52200001 4279584803
-0.1298667 0.030034639 0.52000004 4279387937
-0.12793125 0.02997688 0.51900005 4279256351
-0.12575904 0.029861361 0.51700002 4279256351
-0.12383982 0.029803602 0.51600003 4278991896
-0.12169035 0.029688083 0.514 4279319324
-0.11978737 0.029630324 0.51300001 4279451934
-0.11789089 0.029572567 0.51200002 4279314195
-0.11577391 0.029457049 0.51000005 4280037918
-0.11389366 0.029399289 0.509 4280037918
-0.1117994 0.029283771 0.50700003 4278393095
-0.10993541 0.029226014 0.50600004 4279577369
-0.10807789 0.029168252 0.505 4279248406
-0.10622688 0.029110495 0.50400001 4280497960
-0.10438237 0.029052736 0.50300002 4279578141
-0.10254437 0.028994977 0.50200003 4279451164
-0.10071284 0.028937221 0.50100005 4278398476
-0.098887809 0.028879458 0.5 4278924566
-0.096874766 0.028763942 0.49800003 4279649313
-0.095065974 0.028706182 0.49700001 4279386141
-0.093263686 0.028648423 0.49600002 4279517473
-0.091467902 0.028590666 0.49500003 4279648289
-0.0896786 0.028532906 0.49400002 4279779875
-0.087895796 0.028475147 0.49300003 4280108840
-0.086119488 0.028417388 0.49200001 4279911463
-0.084349684 0.028359629 0.49100003 4279582498
-0.08258637 0.028301869 0.49000001 4278989847
-0.080994844 0.028301869 0.49000001 4278331404
-0.079403333 0.028301869 0.49000001 4278196224
-0.077811807 0.028301869 0.49000001 4278200329
-0.076375842 0.028359629 0.49100003 4278595087
-0.074781075 0.028359629 0.49100003 4279255836
-0.073186301 0.028359629 0.49100003 4279256349
-0.071591534 0.028359629 0.49100003 4279257119
-0.069996759 0.028359629 0.49100003 4279126047
-0.068402 0.028359629 0.49100003 4278994463
-0.066807225 0.028359629 0.49100003 4279389221
-0.065212458 0.028359629 0.49100003 4279188769
-0.1342696 0.031968202 0.52400005 4279715617
-0.13231464 0.031907193 0.523 4279650594
-0.13011645 0.031785179 0.52100003 4279256349
-0.12793125 0.031663164 0.51900005 4279387935
-0.12575904 0.031541146 0.51700002 4279453730
-0.12383982 0.031480137 0.51600003 4278201098
-0.12169035 0.031358119 0.514 4278397195
-0.11978737 0.031297114 0.51300001 4279911201
-0.11766063 0.031175099 0.51100004 4279051023
-0.11577391 0.031114092 0.51000005 4278656265
-0.11389366 0.031053081 0.509 4279248404
-0.1117994 0.030931067 0.50700003 4278656267
-0.10993541 0.03087006 0.50600004 4278787853
-0.10807789 0.030809049 0.505 4280630825
-0.10622688 0.030748041 0.50400001 4278787855
-0.10438237 0.030687034 0.50300002 4280104485
-0.10254437 0.030626027 0.50200003 4279121431
-0.10071284 0.03056502 0.50100005 4278395660
-0.098887809 0.030504009 0.5 4278197254
-0.097069286 0.030443002 0.49900001 4278791701
-0.095257252 0.030381994 0.49800003 4279978024
-0.093263686 0.030259978 0.49600002 4279649059
-0.091467902 0.030198971 0.49500003 4278661394
-0.0896786 0.030137962 0.49400002 4279845668
-0.087895796 0.030076955 0.49300003 4279320859
-0.086119488 0.030015945 0.49200001 4279386652
-0.084349684 0.029954938 0.49100003 4279255068
-0.082754917 0.029954938 0.49100003 4279452447
-0.081160143 0.029954938 0.49100003 4279386654
-0.079565383 0.029954938 0.49100003 4279584031
-0.077970609 0.029954938 0.49100003 4279386652
-0.076375842 0.029954938 0.49100003 4279517727
-0.074781075 0.029954938 0.49100003 4279386654
-0.073186301 0.029954938 0.49100003 4279190043
-0.071591534 0.029954938 0.49100003 4279059740
-0.069996759 0.029954938 0.49100003 4279059742
-0.068402 0.029954938 0.49100003 4278797084
-0.066807225 0.029954938 0.49100003 4278862363
-0.065212458 0.029954938 0.49100003 4278991129
-0.063617691 0.029954938 0.49100003 4283001685
-0.13478206 0.03379925 0.52600002 4279452445
-0.13256763 0.033670735 0.52400005 4279649824
-0.13036619 0.03354222 0.52200001 4279321629
-0.12817775 0.033413704 0.52000004 4279387935
-0.12600228 0.033285189 0.51800001 4279257119
-0.12383982 0.033156678 0.51600003 4279716900
-0.12169035 0.033028159 0.514 4279779615
-0.11978737 0.032963905 0.51300001 4279648029
-0.11766063 0.03283539 0.51100004 4278786570
-0.11577391 0.032771137 0.51000005 4278983951
-0.1136699 0.032642618 0.50800002 4278983697
-0.1117994 0.032578364 0.50700003 4279114769
-0.10993541 0.032514106 0.50600004 4278983183
-0.10807789 0.032449845 0.505 4278720779
-0.10622688 0.032385591 0.50400001 4278787855
-0.10438237 0.032321334 0.50300002 4280302373
-0.10254437 0.032257076 0.50200003 4279383838
-0.10071284 0.032192823 0.50100005 4278591757
-0.098887809 0.032128561 0.5 4278526476
-0.097069286 0.032064304 0.49900001 4278265357
-0.095257252 0.03200005 0.49800003 4280174119
-0.093451716 0.031935789 0.49700001 4278792468
-0.091652684 0.031871535 0.49600002 4279845668
-0.089860134 0.031807277 0.49500003 4278924566
-0.088074081 0.03174302 0.49400002 4278923541
-0.086294532 0.031678762 0.49300003 4278726162
-0.084521472 0.031614505 0.49200001 4279056152
-0.082754917 0.031550247 0.49100003 4278200840
-0.081160143 0.031550247 0.49100003 4279516957
-0.079565383 0.031550247 0.49100003 4278399246
-0.077970609 0.031550247 0.49100003 4279386652
-0.076375842 0.031550247 0.49100003 4279649824
-0.074781075 0.031550247 0.49100003 4279057176
-0.073186301 0.031550247 0.49100003 4279321629
-0.071591534 0.031550247 0.49100003 4279387935
-0.069996759 0.031550247 0.49100003 4279059742
-0.068402 0.031550247 0.49100003 4279059742
-0.066807225 0.031550247 0.49100003 4279058972
-0.065212458 0.031550247 0.49100003 4279056922
-0.063617691 0.031550247 0.49100003 4283001685
-0.1350383 0.035575781 0.52700001 4279453215
-0.13307361 0.035508275 0.52600002 4279584799
-0.13086569 0.035373263 0.52400005 4279321627
-0.12817775 0.035103239 0.52000004 4279453213
-0.12600228 0.034968223 0.51800001 4279387933
-0.12383982 0.034833215 0.51600003 4278334734
-0.1219271 0.034765709 0.51500005 4278464269
-0.11978737 0.034630693 0.51300001 4279451680
-0.11766063 0.034495682 0.51100004 4279846438
-0.11554689 0.03436067 0.509 4280042022
-0.1136699 0.034293164 0.50800002 4279579934
-0.1117994 0.034225658 0.50700003 4279512857
-0.10971814 0.034090642 0.505 4278657039
-0.10786388 0.034023136 0.50400001 4278524683
-0.10622688 0.034023136 0.50400001 4278656267
-0.10438237 0.033955634 0.50300002 4280039201
-0.10254437 0.033888128 0.50200003 4279713057
-0.10071284 0.033820622 0.50100005 4279579934
-0.099085592 0.033820622 0.50100005 4280172071
-0.097263813 0.033753112 0.5 4279647777
-0.095257252 0.0336181 0.49800003 4279977254
-0.093451716 0.033550594 0.49700001 4279978024
-0.091652684 0.033483088 0.49600002 4278596371
-0.089860134 0.033415582 0.49500003 4279779875
-0.088074081 0.033348076 0.49400002 4278266122
-0.086294532 0.03328057 0.49300003 4278198536
-0.084521472 0.033213064 0.49200001 4279055127
-0.082923457 0.033213064 0.49200001 4279055127
-0.081325442 0.033213064 0.49200001 4280305446
-0.079565383 0.033145558 0.49100003 4279252758
-0.077970609 0.033145558 0.49100003 4279780899
-0.076375842 0.033145558 0.49100003 4278596625
-0.074781075 0.033145558 0.49100003 4279649059
-0.073186301 0.033145558 0.49100003 4279453217
-0.071591534 0.033145558 0.49100003 4279387937
-0.069996759 0.033145558 0.49100003 4278664984
-0.068402 0.033145558 0.49100003 4279059742
-0.066807225 0.033145558 0.49100003 4278862363
-0.065212458 0.033145558 0.49100003 4279781158
-0.13580702 0.037500326 0.53000003 4279451930
-0.13357958 0.037358813 0.528 4279517723
-0.13136517 0.037217304 0.52600002 4279386650
-0.12867074 0.036934283 0.52200001 4279190041
-0.12624554 0.036722019 0.51900005 4279124761
-0.12407982 0.036580503 0.51700002 4279387933
-0.1219271 0.036438994 0.51500005 4279321627
-0.11978737 0.036297482 0.51300001 4279321629
-0.11766063 0.036155973 0.51100004 4279124252
-0.11554689 0.03601446 0.509 4279321631
-0.1136699 0.035943706 0.50800002 4279255838
-0.1115789 0.035802197 0.50600004 4279320861
-0.10971814 0.035731439 0.505 4278991896
-0.10786388 0.035660684 0.50400001 4279320861
-0.10601612 0.03558993 0.50300002 4279648543
-0.10438237 0.03558993 0.50300002 4279648543
-0.10254437 0.035519175 0.50200003 4279977254
-0.10071284 0.035448421 0.50100005 4280042535
-0.099085592 0.035448421 0.50100005 4279778850
-0.097263813 0.035377663 0.5 4278397197
-0.095448531 0.035306908 0.49900001 4278196993
-0.093451716 0.035165396 0.49700001 4278196224
-0.091652684 0.035094641 0.49600002 4278198535
-0.089860134 0.035023887 0.49500003 4278660882
-0.088074081 0.034953132 0.49400002 4279187740
-0.086469568 0.034953132 0.49400002 4279648291
-0.084693268 0.034882378 0.49300003 4280109610
-0.082923457 0.03481162 0.49200001 4279780645
-0.081325442 0.03481162 0.49200001 4279516703
-0.079565383 0.034740865 0.49100003 4279779875
-0.077970609 0.034740865 0.49100003 4279649572
-0.076375842 0.034740865 0.49100003 4278201101
-0.074781075 0.034740865 0.49100003 4279452193
-0.073186301 0.034740865 0.49100003 4279190558
-0.071591534 0.034740865 0.49100003 4279387937
-0.069996759 0.034740865 0.49100003 4279124765
-0.068402 0.034740865 0.49100003 4279190558
-0.066807225 0.034740865 0.49100003 4278993179
-0.065212458 0.034740865 0.49100003 4279320607
-0.12673202 0.038556308 0.52100003 4279715104
-0.12431981 0.038334295 0.51800001 4279254553
-0.12216385 0.038186286 0.51600003 4279452443
-0.12002087 0.038038276 0.514 4279320857
-0.11789089 0.037890267 0.51200002 4279124248
-0.11554689 0.037668254 0.509 4278992662
-0.1136699 0.037594251 0.50800002 4279190041
-0.1115789 0.037446242 0.50600004 4279190041
-0.10971814 0.037372235 0.505 4279124250
-0.10786388 0.037298232 0.50400001 4279321629
-0.10601612 0.037224229 0.50300002 4279255836
-0.10417486 0.037150223 0.50200003 4279190043
-0.10254437 0.037150223 0.50200003 4279255836
-0.10071284 0.03707622 0.50100005 4279255836
-0.099085592 0.03707622 0.50100005 4279190043
-0.097263813 0.037002213 0.5 4279321631
-0.095448531 0.03692821 0.49900001 4279189793
-0.093639746 0.036854208 0.49800003 4279255586
-0.091652684 0.036706198 0.49600002 4279583781
-0.089860134 0.036632195 0.49500003 4280044332
-0.088252373 0.036632195 0.49500003 4279649061
-0.086469568 0.036558188 0.49400002 4280042795
-0.084693268 0.036484186 0.49300003 4279186974
-0.083092004 0.036484186 0.49300003 4278199049
-0.081325442 0.036410179 0.49200001 4278197762
-0.079727426 0.036410179 0.49200001 4278198019
-0.077970609 0.036336176 0.49100003 4278198790
-0.076375842 0.036336176 0.49100003 4278199818
-0.074781075 0.036336176 0.49100003 4279518756
-0.073186301 0.036336176 0.49100003 4279256097
-0.071445726 0.036262169 0.49000001 4279190558
-0.0698542 0.036262169 0.49000001 4279190558
-0.068262681 0.036262169 0.49000001 4279256351
-0.066671163 0.036262169 0.49000001 4279058972
-0.065079637 0.036262169 0.49000001 4279450396
-0.12216385 0.039862823 0.51600003 4279315219
-0.12002087 0.039708313 0.514 4279513109
-0.11789089 0.03955381 0.51200002 4279712539
-0.11554689 0.039322045 0.509 4279713309
-0.1136699 0.039244793 0.50800002 4279385369
-0.1115789 0.039090287 0.50600004 4279254553
-0.10950088 0.038935781 0.50400001 4279320346
-0.10786388 0.038935781 0.50400001 4279188760
-0.10601612 0.038858525 0.50300002 4279189273
-0.10417486 0.038781274 0.50200003 4279123480
-0.10254437 0.038781274 0.50200003 4279255068
-0.10071284 0.038704023 0.50100005 4279452447
-0.099085592 0.038704023 0.50100005 4279453217
-0.097263813 0.038626764 0.5 4279453217
-0.095448531 0.038549513 0.49900001 4279256097
-0.093639746 0.038472258 0.49800003 4279387683
-0.091837466 0.038395002 0.49700001 4279452963
-0.090041667 0.038317751 0.49600002 4279452963
-0.088252373 0.0382405 0.49500003 4279452963
-0.086469568 0.038163245 0.49400002 4279518758
-0.084693268 0.038085993 0.49300003 4279649574
-0.083092004 0.038085993 0.49300003 4279715367
-0.081325442 0.038008738 0.49200001 4279583781
-0.079727426 0.038008738 0.49200001 4279649059
-0.077970609 0.037931483 0.49100003 4279648289
-0.076375842 0.037931483 0.49100003 4279648289
-0.074781075 0.037931483 0.49100003 4279583779
-0.073037244 0.037854228 0.49000001 4279452963
-0.071445726 0.037854228 0.49000001 4279453730
-0.0698542 0.037854228 0.49000001 4279190558
-0.068262681 0.037854228 0.49000001 4279124765
-0.066671163 0.037854228 0.49000001 4279124252
-0.065079637 0.037854228 0.49000001 4278527759
-0.11554689 0.040975839 0.509 4279312139
-0.11344614 0.040814836 0.50700003 4279181318
-0.1115789 0.040734332 0.50600004 4279378697
-0.10950088 0.040573325 0.50400001 4278919430
-0.10764987 0.040492825 0.50300002 4279578643
-0.10601612 0.040492825 0.50300002 4279842842
-0.10417486 0.040412322 0.50200003 4279054096
-0.10254437 0.040412322 0.50200003 4279514647
-0.10071284 0.040331822 0.50100005 4279844641
-0.099085592 0.040331822 0.50100005 4279648037
-0.097263813 0.040251315 0.5 4279911209
-0.095448531 0.040170815 0.49900001 4280043047
-0.093639746 0.040090311 0.49800003 4279977254
-0.091837466 0.040009808 0.49700001 4279780645
-0.090041667 0.039929304 0.49600002 4279780645
-0.088252373 0.039848804 0.49500003 4279715367
-0.086469568 0.039768301 0.49400002 4279846953
-0.084865063 0.039768301 0.49400002 4279715367
-0.083092004 0.039687797 0.49300003 4279781160
-0.081325442 0.039607294 0.49200001 4279846951
-0.079727426 0.039607294 0.49200001 4279715365
-0.077970609 0.039526794 0.49100003 4279781158
-0.076375842 0.039526794 0.49100003 4279649572
-0.074781075 0.039526794 0.49100003 4279649572
-0.073037244 0.039446291 0.49000001 4279518756
-0.071445726 0.039446291 0.49000001 4279453476
-0.0698542 0.039446291 0.49000001 4279124511
-0.068262681 0.039446291 0.49000001 4279189791
-0.066671163 0.039446291 0.49000001 4279386402
-0.065079637 0.039446291 0.49000001 4281091891
-0.10950088 0.042210873 0.50400001 4280296979
-0.10764987 0.042127121 0.50300002 4280954909
-0.10601612 0.042127121 0.50300002 4280758815
-0.091652684 0.041540861 0.49600002 4283658334
-0.090041667 0.041540861 0.49600002 4282540623
-0.088252373 0.041457109 0.49500003 4281751107
-0.086469568 0.041373357 0.49400002 4280961591
-0.084865063 0.041373357 0.49400002 4280303661
-0.083092004 0.041289605 0.49300003 4280238381
-0.081325442 0.041205853 0.49200001 4279909414
-0.079727426 0.041205853 0.49200001 4280040487
-0.077970609 0.041122101 0.49100003 4279843621
-0.076375842 0.041122101 0.49100003 4279515939
-0.07462877 0.041038349 0.49000001 4279713318
-0.073037244 0.041038349 0.49000001 4279648041
-0.071445726 0.041038349 0.49000001 4279450408
-0.0698542 0.041038349 0.49000001 4279318822
-0.068262681 0.041038349 0.49000001 4279383842
-0.066671163 0.041038349 0.49000001 4282670925
-0.088252373 0.043065414 0.49500003 4286090878
-0.086469568 0.042978413 0.49400002 4286090878
-0.084865063 0.042978413 0.49400002 4286025085
-0.083092004 0.042891413 0.49300003 4286025085
-0.081325442 0.042804409 0.49200001 4285959292
-0.079727426 0.042804409 0.49200001 4286090876
-0.077970609 0.042717412 0.49100003 4285696890
-0.076375842 0.042717412 0.49100003 4285762683
-0.07462877 0.042630408 0.49000001 4285894780
-0.073037244 0.042630408 0.49000001 4285894780
-0.071445726 0.042630408 0.49000001 4285631608
-0.0698542 0.042630408 0.49000001 4286026366
-0.068262681 0.042630408 0.49000001 4285433716
-0.077970609 0.044312723 0.49100003 4285959038
-0.076375842 0.044312723 0.49100003 4285894015
-0.07462877 0.04422247 0.49000001 4285828222
-0.073037244 0.04422247 0.49000001 4285630843
-0.071445726 0.04422247 0.49000001 4285630843
-0.095660008 0.032409158 0.50013161 4294967295
-0.095660008 0.032409158 0.50013161 4294901760
-0.095660008 0.032409158 0.50063163 4294901760
-0.095660008 0.032409158 0.50113159 4294901760
-0.095660008 0.032409158 0.50163162 4294901760
-0.095660008 0.032409158 0.50213158 4294901760
-0.095660008 0.032409158 0.5026316 4294901760
-0.095660008 0.032409158 0.50313163 4294901760
-0.095660008 0.032409158 0.50363159 4294901760
-0.095660008 0.032409158 0.50413162 4294901760
-0.095660008 0.032409158 0.50463158 4294901760
-0.095660008 0.032409158 0.5051316 4294901760
-0.095660008 0.032409158 0.50563163 4294901760
-0.095660008 0.032409158 0.50613159 4294901760
-0.095660008 0.032409158 0.50663161 4294901760
-0.095660008 0.032409158 0.50713164 4294901760
-0.095660008 0.032409158 0.5076316 4294901760
-0.095660008 0.032409158 0.50813162 4294901760
-0.095660008 0.032409158 0.50863159 4294901760
-0.095660008 0.032409158 0.50913161 4294901760
-0.095660008 0.032409158 0.50963163 4294901760
-0.095660008 0.032409158 0.5101316 4294901760
-0.095660008 0.032409158 0.51063162 4294901760
-0.095660008 0.032409158 0.51113158 4294901760
-0.095660008 0.032409158 0.51163161 4294901760
-0.095660008 0.032409158 0.51213163 4294901760
-0.095660008 0.032409158 0.5126316 4294901760
-0.095660008 0.032409158 0.51313162 4294901760
-0.095660008 0.032409158 0.51363158 4294901760
-0.095660008 0.032409158 0.51413161 4294901760
-0.095660008 0.032409158 0.51463163 4294901760
-0.095660008 0.032409158 0.51513159 4294901760
-0.095660008 0.032409158 0.51563162 4294901760
-0.095660008 0.032409158 0.51613164 4294901760
-0.095660008 0.032409158 0.5166316 4294901760
-0.095660008 0.032409158 0.51713163 4294901760
-0.095660008 0.032409158 0.51763159 4294901760
-0.095660008 0.032409158 0.51813161 4294901760
-0.095660008 0.032409158 0.51863164 4294901760
-0.095660008 0.032409158 0.5191316 4294901760
-0.095660008 0.032409158 0.51963162 4294901760
-0.095660008 0.032409158 0.52013159 4294901760
-0.095660008 0.032409158 0.52063161 4294901760
-0.095660008 0.032409158 0.52113163 4294901760
-0.095660008 0.032409158 0.5216316 4294901760
-0.095660008 0.032409158 0.52213162 4294901760
-0.095660008 0.032409158 0.52263159 4294901760
-0.095660008 0.032409158 0.52313161 4294901760
-0.095660008 0.032409158 0.52363163 4294901760
-0.095660008 0.032409158 0.5241316 4294901760
-0.095660008 0.032409158 0.52463162 4294901760
-0.095660008 0.032409158 0.52513158 4294901760
-0.095660008 0.032409158 0.52563161 4294901760
-0.095660008 0.032409158 0.52613163 4294901760
-0.095660008 0.032409158 0.52663159 4294901760
-0.095660008 0.032409158 0.52713162 4294901760
-0.095660008 0.032409158 0.52763164 4294901760
-0.095660008 0.032409158 0.5281316 4294901760
-0.095660008 0.032409158 0.52863163 4294901760
-0.095660008 0.032409158 0.52913159 4294901760
-0.095660008 0.032409158 0.52963161 4294901760
-0.095660008 0.032409158 0.53013164 4294901760
-0.095660008 0.032409158 0.5306316 4294901760
-0.095660008 0.032409158 0.53113163 4294901760
-0.095660008 0.032409158 0.53163159 4294901760
-0.095660008 0.032409158 0.53213161 4294901760
-0.095660008 0.032409158 0.53263164 4294901760
-0.095660008 0.032409158 0.5331316 4294901760
-0.095660008 0.032409158 0.53363162 4294901760
-0.095660008 0.032409158 0.53413165 4294901760
-0.095660008 0.032409158 0.53463161 4294901760
-0.095660008 0.032409158 0.53513163 4294901760
-0.095660008 0.032409158 0.5356316 4294901760
-0.095660008 0.032409158 0.53613162 4294901760
-0.095660008 0.032409158 0.53663164 4294901760
-0.095660008 0.032409158 0.53713161 4294901760
-0.095660008 0.032409158 0.53763163 4294901760
-0.095660008 0.032409158 0.53813159 4294901760
-0.095660008 0.032409158 0.53863162 4294901760
-0.095660008 0.032409158 0.53913164 4294901760
-0.095660008 0.032409158 0.53963161 4294901760
-0.095660008 0.032409158 0.54013163 4294901760
-0.095660008 0.032409158 0.54063159 4294901760
-0.095660008 0.032409158 0.54113162 4294901760
-0.095660008 0.032409158 0.54163164 4294901760
-0.095660008 0.032409158 0.5421316 4294901760
-0.095660008 0.032409158 0.54263163 4294901760
-0.095660008 0.032409158 0.54313159 4294901760
-0.095660008 0.032409158 0.54363161 4294901760
-0.095660008 0.032409158 0.54413164 4294901760
-0.095660008 0.032409158 0.5446316 4294901760
-0.095660008 0.032409158 0.54513162 4294901760
-0.095660008 0.032409158 0.54563165 4294901760
-0.095660008 0.032409158 0.54613161 4294901760
-0.095660008 0.032409158 0.54663163 4294901760
-0.095660008 0.032409158 0.5471316 4294901760
-0.095660008 0.032409158 0.54763162 4294901760
-0.095660008 0.032409158 0.54813164 4294901760
-0.095660008 0.032409158 0.54863161 4294901760
-0.095660008 0.032409158 0.54913163 4294901760
-0.095660008 0.032409158 0.5496316 4294901760
-0.095660008 0.032409158 0.55013162 4294901760
-0.095660008 0.032409158 0.50013161 4278255360
-0.095393926 0.032324191 0.50054634 4278255360
-0.095127843 0.032239225 0.50096101 4278255360
-0.094861761 0.032154258 0.50137573 4278255360
-0.094595678 0.032069292 0.5017904 4278255360
-0.094329596 0.031984325 0.50220513 4278255360
-0.094063513 0.031899359 0.50261986 4278255360
-0.09379743 0.031814393 0.50303453 4278255360
-0.093531348 0.031729426 0.50344926 4278255360
-0.093265265 0.03164446 0.50386393 4278255360
-0.092999183 0.031559497 0.50427866 4278255360
-0.0927331 0.031474531 0.50469339 4278255360
-0.092467017 0.031389564 0.50510806 4278255360
-0.092200935 0.031304598 0.50552279 4278255360
-0.091934852 0.03121963 0.50593746 4278255360
-0.09166877 0.031134665 0.50635219 4278255360
-0.091402687 0.031049699 0.50676692 4278255360
-0.091136605 0.030964732 0.50718158 4278255360
-0.090870515 0.030879766 0.50759631 4278255360
-0.090604432 0.030794799 0.50801098 4278255360
-0.090338349 0.030709833 0.50842571 4278255360
-0.090072267 0.030624866 0.50884044 4278255360
-0.089806184 0.0305399 0.50925511 4278255360
-0.089540102 0.030454934 0.50966984 4278255360
-0.089274019 0.030369967 0.51008451 4278255360
-0.089007936 0.030285001 0.51049924 4278255360
-0.088741854 0.030200036 0.51091397 4278255360
-0.088475771 0.03011507 0.51132864 4278255360
-0.088209689 0.030030103 0.51174337 4278255360
-0.087943606 0.029945137 0.51215804 4278255360
-0.087677523 0.029860171 0.51257277 4278255360
-0.087411441 0.029775204 0.51298749 4278255360
-0.087145358 0.029690238 0.51340216 4278255360
-0.086879276 0.029605271 0.51381689 4278255360
-0.086613193 0.029520305 0.51423156 4278255360
-0.086347111 0.02943534 0.51464629 4278255360
-0.086081028 0.029350374 0.51506102 4278255360
-0.085814945 0.029265407 0.51547569 4278255360
-0.085548863 0.029180441 0.51589042 4278255360
-0.08528278 0.029095475 0.51630509 4278255360
-0.085016698 0.029010508 0.51671982 4278255360
-0.084750615 0.028925542 0.51713455 4278255360
-0.084484532 0.028840575 0.51754922 4278255360
-0.08421845 0.028755609 0.51796395 4278255360
-0.083952367 0.028670643 0.51837862 4278255360
-0.083686285 0.028585676 0.51879334 4278255360
-0.083420202 0.02850071 0.51920807 4278255360
-0.08315412 0.028415745 0.51962274 4278255360
-0.082888037 0.028330779 0.52003747 4278255360
-0.082621947 0.028245812 0.52045214 4278255360
-0.082355872 0.028160846 0.52086687 4278255360
-0.082089782 0.028075879 0.5212816 4278255360
-0.081823707 0.027990913 0.52169627 4278255360
-0.081557617 0.027905948 0.522111 4278255360
-0.081291534 0.02782098 0.52252567 4278255360
-0.081025451 0.027736016 0.5229404 4278255360
-0.080759369 0.027651049 0.52335513 4278255360
-0.080493286 0.027566083 0.5237698 4278255360
-0.080227204 0.027481116 0.52418453 4278255360
-0.079961121 0.02739615 0.52459919 4278255360
-0.079695038 0.027311184 0.52501392 4278255360
-0.079428956 0.027226217 0.52542865 4278255360
-0.079162873 0.027141251 0.52584332 4278255360
-0.078896791 0.027056284 0.52625805 4278255360
-0.078630708 0.026971318 0.52667272 4278255360
-0.078364626 0.026886351 0.52708745 4278255360
-0.078098543 0.026801385 0.52750218 4278255360
-0.07783246 0.026716419 0.52791685 4278255360
-0.077566378 0.026631454 0.52833158 4278255360
-0.077300295 0.026546488 0.52874625 4278255360
-0.077034213 0.026461521 0.52916098 4278255360
-0.07676813 0.026376555 0.52957571 4278255360
-0.076502047 0.026291588 0.52999038 4278255360
-0.076235965 0.026206622 0.5304051 4278255360
-0.075969882 0.026121655 0.53081977 4278255360
-0.0757038 0.026036691 0.5312345 4278255360
-0.075437717 0.025951724 0.53164923 4278255360
-0.075171635 0.025866758 0.5320639 4278255360
-0.074905552 0.025781792 0.53247863 4278255360
-0.074639469 0.025696825 0.5328933 4278255360
-0.074373379 0.025611859 0.53330803 4278255360
-0.074107304 0.025526892 0.53372276 4278255360
-0.073841214 0.025441926 0.53413743 4278255360
-0.073575139 0.02535696 0.53455216 4278255360
-0.073309049 0.025271993 0.53496683 4278255360
-0.073042966 0.025187027 0.53538156 4278255360
-0.072776884 0.02510206 0.53579628 4278255360
-0.072510801 0.025017096 0.53621095 4278255360
-0.072244719 0.024932129 0.53662568 4278255360
-0.071978644 0.024847163 0.53704035 4278255360
-0.071712554 0.024762196 0.53745508 4278255360
-0.071446471 0.02467723 0.53786981 4278255360
-0.071180388 0.024592264 0.53828448 4278255360
-0.070914306 0.024507299 0.53869921 4278255360
-0.070648223 0.024422333 0.53911388 4278255360
-0.070382141 0.024337366 0.53952861 4278255360
-0.070116058 0.0242524 0.53994334 4278255360
-0.069849975 0.024167433 0.54035801 4278255360
-0.069583893 0.024082467 0.54077274 4278255360
-0.06931781 0.023997501 0.54118741 4278255360
-0.069051728 0.023912534 0.54160213 4278255360
