# .PCD v0.7 - Point Cloud Data file format
VERSION 0.7
FIELDS x y z rgb
SIZE 4 4 4 4
TYPE F F F U
COUNT 1 1 1 1
WIDTH 732
HEIGHT 1
VIEWPOINT 0 0 0 1 0 0 0
POINTS 732
DATA ascii
-0.044164833 0.030448865 0.59400004 4280430116
-0.042306621 0.030500125 0.59500003 4280693290
-0.040374059 0.030500125 0.59500003 4280431145
-0.044016127 0.032269809 0.59200001 4280496424
-0.040170491 0.032269809 0.59200001 4280365352
-0.034402039 0.032269809 0.59200001 4279773213
-0.032314636 0.032106284 0.58900005 4280233250
-0.030246714 0.031942751 0.58600003 4280301094
-0.028295018 0.031888243 0.58500004 4280045102
-0.026394937 0.031888243 0.58500004 4278994209
-0.043867424 0.034077764 0.59000003 4279838492
-0.034227706 0.034020003 0.58900005 4280166946
-0.032204907 0.033904485 0.58700001 4279838492
-0.030246714 0.033846725 0.58600003 4280236069
-0.028295018 0.033788968 0.58500004 4279190045
-0.026349816 0.033731211 0.58400005 4279059742
-0.024411112 0.033673447 0.583 4279258148
-0.022478905 0.03361569 0.58200002 4278666011
-0.020553192 0.033557933 0.58100003 4279389221
-0.018666102 0.033557933 0.58100003 4279192355
-0.016750135 0.033500172 0.58000004 4279258664
-0.043793075 0.035933726 0.58900005 4280693801
-0.034169592 0.035872713 0.588 4279772699
-0.032150045 0.035750698 0.58600003 4279838746
-0.0301951 0.035689693 0.58500004 4279775516
-0.02824665 0.035628684 0.58400005 4279320348
-0.026349816 0.035628684 0.58400005 4278993179
-0.024369242 0.035506666 0.58200002 4278994463
-0.022478905 0.035506666 0.58200002 4278797084
-0.020553192 0.03544566 0.58100003 4278797084
-0.018633975 0.035384651 0.58000004 4278665498
-0.016721256 0.035323646 0.57900006 4278600218
-0.014815029 0.035262633 0.57800001 4278337046
-0.012915301 0.035201628 0.57700002 4278797595
-0.011022069 0.035140619 0.57600003 4278797595
-0.009135332 0.035079613 0.57500005 4278731802
-0.0072677312 0.035079613 0.57500005 4278666009
-0.034111481 0.037718933 0.58700001 4279706393
-0.032150045 0.037654676 0.58600003 4280036123
-0.0301951 0.037590418 0.58500004 4279907356
-0.02824665 0.037526164 0.58400005 4279320859
-0.026304696 0.037461903 0.583 4278993177
-0.024369242 0.037397645 0.58200002 4278862875
-0.022440281 0.037333392 0.58100003 4278862875
-0.020517817 0.037269134 0.58000004 4278731289
-0.018633975 0.037269134 0.58000004 4278665498
-0.016721256 0.037204877 0.57900006 4278665498
-0.014789398 0.037076361 0.57700002 4278928668
-0.012892918 0.037012104 0.57600003 4278468117
-0.011022069 0.037012104 0.57600003 4278201867
-0.009135332 0.03694785 0.57500005 4278269454
-0.0072677312 0.03694785 0.57500005 4278468117
-0.0054001305 0.03694785 0.57500005 4278533910
-0.043793075 0.039761171 0.58900005 4280299043
-0.03405337 0.039558649 0.58600003 4279509014
-0.032095183 0.039491143 0.58500004 4279970844
-0.030143484 0.039423637 0.58400005 4280104735
-0.028198281 0.039356127 0.583 4279255068
-0.026259577 0.039288625 0.58200002 4278795800
-0.024327371 0.039221119 0.58100003 4278797082
-0.022440281 0.039221119 0.58100003 4278731289
-0.020517817 0.039153613 0.58000004 4278665496
-0.018601848 0.039086107 0.57900006 4278533910
-0.016692374 0.039018597 0.57800001 4278862361
-0.014789398 0.038951091 0.57700002 4278862361
-0.012892918 0.038883585 0.57600003 4278927386
-0.011002934 0.038816083 0.57500005 4278399505
-0.009135332 0.038816083 0.57500005 4279189275
-0.0072677312 0.038816083 0.57500005 4279453730
-0.0054001305 0.038816083 0.57500005 4278663699
-0.0035263854 0.038748574 0.574 4278663701
-0.0016620324 0.038748574 0.574 4279058459
0.00020232052 0.038748574 0.574 4278927384
0.0020666735 0.038748574 0.574 4278795796
0.0039378749 0.038816083 0.57500005 4278599187
0.0058054761 0.038816083 0.57500005 4278665494
0.0076730778 0.038816083 0.57500005 4278665494
0.0095240846 0.038748574 0.574 4278533908
0.011388438 0.038748574 0.574 4278533910
0.013252791 0.038748574 0.574 4278600216
0.015090807 0.038681068 0.57300001 4278600218
0.016951913 0.038681068 0.57300001 4278666009
0.018813018 0.038681068 0.57300001 4278797593
0.020638041 0.038613562 0.57200003 4278731802
0.022495899 0.038613562 0.57200003 4278732572
0.024353758 0.038613562 0.57200003 4279193125
0.026211614 0.038613562 0.57200003 4279127332
0.028069472 0.038613562 0.57200003 4279061539
0.029927326 0.038613562 0.57200003 4279126562
0.031785183 0.038613562 0.57200003 4279060769
0.033643041 0.038613562 0.57200003 4278929183
0.035562962 0.038681068 0.57300001 4279388969
-0.043793075 0.04167489 0.58900005 4279838492
-0.04188 0.04167489 0.58900005 4280890667
-0.03405337 0.041462623 0.58600003 4279772186
-0.032095183 0.041391868 0.58500004 4279840028
-0.030143484 0.041321114 0.58400005 4279644443
-0.028198281 0.041250356 0.583 4279124252
-0.026259577 0.041179601 0.58200002 4278928154
-0.024327371 0.041108847 0.58100003 4278993947
-0.022401659 0.041038092 0.58000004 4278797082
-0.020482441 0.040967338 0.57900006 4278731289
-0.018569719 0.04089658 0.57800001 4278665496
-0.016663495 0.040825825 0.57700002 4278862361
-0.014763767 0.040755071 0.57600003 4278796568
-0.012892918 0.040755071 0.57600003 4278928154
-0.011002934 0.040684316 0.57500005 4278198016
-0.009135332 0.040684316 0.57500005 4279451934
-0.0072677312 0.040684316 0.57500005 4278199040
-0.0054001305 0.040684316 0.57500005 4278459658
-0.0035263854 0.040613558 0.574 4278459658
-0.0016620324 0.040613558 0.574 4278459660
0.00020232052 0.040613558 0.574 4278262794
0.002070274 0.040684316 0.57500005 4278460169
0.0039378749 0.040684316 0.57500005 4278196997
0.0058054761 0.040684316 0.57500005 4278196736
0.0076730778 0.040684316 0.57500005 4278199044
0.0095240846 0.040613558 0.574 4278203150
0.011388438 0.040613558 0.574 4278532115
0.013252791 0.040613558 0.574 4279321377
0.015117144 0.040613558 0.574 4279189791
0.016951913 0.040542804 0.57300001 4279124765
0.018813018 0.040542804 0.57300001 4278928154
0.020674122 0.040542804 0.57300001 4278204945
0.022495899 0.040472049 0.57200003 4278468117
0.024353758 0.040472049 0.57200003 4278533910
0.026211614 0.040472049 0.57200003 4278731289
0.028069472 0.040472049 0.57200003 4278731289
0.029927326 0.040472049 0.57200003 4278862875
0.031840753 0.040542804 0.57300001 4278336531
0.033701856 0.040542804 0.57300001 4278533910
0.035562962 0.040542804 0.57300001 4278863388
0.037554692 0.040684316 0.57500005 4278863388
0.039490856 0.040755071 0.57600003 4279060769
0.041433513 0.040825825 0.57700002 4279258148
0.043307606 0.040825825 0.57700002 4279388967
0.045260008 0.04089658 0.57800001 4279059490
-0.047700062 0.043662615 0.59000003 4282931531
-0.045783743 0.043662615 0.59000003 4279312662
-0.043867424 0.043662615 0.59000003 4280035871
-0.041951101 0.043662615 0.59000003 4280759083
-0.036018059 0.043440599 0.58700001 4280759846
-0.03405337 0.043366596 0.58600003 4280167198
-0.032095183 0.043292593 0.58500004 4279840541
-0.030143484 0.04321859 0.58400005 4279908129
-0.028149914 0.043070577 0.58200002 4279123998
-0.026214458 0.042996574 0.58100003 4278927902
-0.024285499 0.042922571 0.58000004 4278797082
-0.022363035 0.042848568 0.57900006 4278797082
-0.020447064 0.042774558 0.57800001 4278533910
-0.018569719 0.042774558 0.57800001 4278665496
-0.016663495 0.042700555 0.57700002 4278731289
-0.014763767 0.042626552 0.57600003 4278731289
-0.012870535 0.042552549 0.57500005 4278664982
-0.011002934 0.042552549 0.57500005 4278196480
-0.009135332 0.042552549 0.57500005 4279188762
-0.0072677312 0.042552549 0.57500005 4278197248
-0.0054001305 0.042552549 0.57500005 4279314197
-0.0035263854 0.042478543 0.574 4279050514
-0.0016620324 0.042478543 0.574 4278918674
0.00020267301 0.042552549 0.57500005 4278918674
0.002070274 0.042552549 0.57500005 4278852365
0.0039378749 0.042552549 0.57500005 4278654732
0.0058054761 0.042552549 0.57500005 4278655502
0.0076730778 0.042552549 0.57500005 4278458890
0.009540678 0.042552549 0.57500005 4279188510
0.011388438 0.042478543 0.574 4279714852
0.013252791 0.042478543 0.574 4279780645
0.015117144 0.042478543 0.574 4278990359
0.016981497 0.042478543 0.574 4279056154
0.018813018 0.042404536 0.57300001 4278198275
0.020674122 0.042404536 0.57300001 4278196992
0.022535227 0.042404536 0.57300001 4278196736
0.024396332 0.042404536 0.57300001 4278196736
0.026257439 0.042404536 0.57300001 4278201101
0.028118543 0.042404536 0.57300001 4278662677
0.029979646 0.042404536 0.57300001 4279189275
0.031840753 0.042404536 0.57300001 4279058972
0.033760674 0.042478543 0.574 4279058972
0.035625026 0.042478543 0.574 4278993177
0.037554692 0.042552549 0.57500005 4278664982
0.039490856 0.042626552 0.57600003 4278468117
0.041433513 0.042700555 0.57700002 4278797595
0.043307606 0.042700555 0.57700002 4278732572
0.045260008 0.042774558 0.57800001 4279127332
0.047218911 0.042848568 0.57900006 4279257896
0.049099505 0.042848568 0.57900006 4278663710
-0.051620048 0.045656838 0.59100002 4283064137
-0.047861759 0.045734089 0.59200001 4279180816
-0.045938943 0.045734089 0.59200001 4279378195
-0.044016127 0.045734089 0.59200001 4279837979
-0.042022206 0.045656838 0.59100002 4280299043
-0.036079418 0.045425076 0.588 4279838746
-0.03405337 0.04527057 0.58600003 4280298784
-0.032095183 0.045193318 0.58500004 4279907104
-0.030091867 0.045038808 0.583 4279843106
-0.028149914 0.044961553 0.58200002 4279123998
-0.026214458 0.044884302 0.58100003 4279059488
-0.024285499 0.04480705 0.58000004 4278928670
-0.022363035 0.044729795 0.57900006 4278665498
-0.020447064 0.04465254 0.57800001 4278797082
-0.018537592 0.044575289 0.57700002 4278533910
-0.016634615 0.044498034 0.57600003 4278665496
-0.014763767 0.044498034 0.57600003 4278665496
-0.012870535 0.044420782 0.57500005 4278928154
-0.011002934 0.044420782 0.57500005 4278197506
-0.009135332 0.044420782 0.57500005 4278991383
-0.0072677312 0.044420782 0.57500005 4278197763
-0.0053907386 0.044343524 0.574 4280104483
-0.0035263854 0.044343524 0.574 4279578139
-0.0016620324 0.044343524 0.574 4280366887
0.00020267301 0.044420782 0.57500005 4279050773
0.002070274 0.044420782 0.57500005 4278392843
0.0039378749 0.044420782 0.57500005 4278458377
0.0058054761 0.044420782 0.57500005 4279445785
0.0076730778 0.044420782 0.57500005 4278657039
0.009540678 0.044420782 0.57500005 4278925849
0.01140828 0.044420782 0.57500005 4278199043
0.013252791 0.044343524 0.574 4278196992
0.015117144 0.044343524 0.574 4279910949
0.016981497 0.044343524 0.574 4278331917
0.018845851 0.044343524 0.574 4279450912
0.020674122 0.044266272 0.57300001 4278925338
0.022535227 0.044266272 0.57300001 4279320094
0.024396332 0.044266272 0.57300001 4279320348
0.026257439 0.044266272 0.57300001 4279320348
0.028118543 0.044266272 0.57300001 4279056922
0.030031966 0.044343524 0.574 4279714852
0.031896319 0.044343524 0.574 4278991129
0.033760674 0.044343524 0.574 4278727959
0.035687093 0.044420782 0.57500005 4278727187
0.037620004 0.044498034 0.57600003 4278200072
0.039490856 0.044498034 0.57600003 4278199557
0.041433513 0.044575289 0.57700002 4278599191
0.043382663 0.04465254 0.57800001 4278665498
0.045260008 0.04465254 0.57800001 4278533912
0.047218911 0.044729795 0.57900006 4278994209
0.049099505 0.044729795 0.57900006 4278994209
-0.042164415 0.047738064 0.59300005 4283063367
-0.038183071 0.047577057 0.59100002 4283195469
-0.036140781 0.047416054 0.58900005 4280036385
-0.034111481 0.047255043 0.58700001 4280233250
-0.032095183 0.04709404 0.58500004 4280170276
-0.030143484 0.04701354 0.58400005 4279908899
-0.028149914 0.046852533 0.58200002 4279124000
-0.026214458 0.046772029 0.58100003 4278993697
-0.024285499 0.046691529 0.58000004 4278862877
-0.022324409 0.046530519 0.57800001 4278731804
-0.020447064 0.046530519 0.57800001 4278600218
-0.018537592 0.046450019 0.57700002 4278600216
-0.016634615 0.046369519 0.57600003 4278797082
-0.014738135 0.046289016 0.57500005 4278731289
-0.012870535 0.046289016 0.57500005 4279189021
-0.011002934 0.046289016 0.57500005 4278199046
-0.0091194436 0.046208508 0.574 4279582496
-0.0072550913 0.046208508 0.574 4278264841
-0.0053907386 0.046208508 0.574 4278656269
-0.0035263854 0.046208508 0.574 4278655756
-0.0016620324 0.046208508 0.574 4278589709
0.00020267301 0.046289016 0.57500005 4278655502
0.002070274 0.046289016 0.57500005 4278523916
0.0039378749 0.046289016 0.57500005 4279840541
0.0058054761 0.046289016 0.57500005 4279709725
0.0076730778 0.046289016 0.57500005 4278920209
0.009540678 0.046289016 0.57500005 4279846438
0.01140828 0.046289016 0.57500005 4278263304
0.013275881 0.046289016 0.57500005 4278657037
0.015117144 0.046208508 0.574 4278527248
0.016981497 0.046208508 0.574 4279121947
0.018845851 0.046208508 0.574 4278200331
0.020710202 0.046208508 0.574 4279188510
0.022574555 0.046208508 0.574 4278398994
0.024438908 0.046208508 0.574 4278398994
0.026303262 0.046208508 0.574 4278399507
0.028167615 0.046208508 0.574 4278794263
0.030031966 0.046208508 0.574 4278794517
0.031951889 0.046289016 0.57500005 4279123482
0.033819493 0.046289016 0.57500005 4279123482
0.035749156 0.046369519 0.57600003 4279254814
0.037620004 0.046369519 0.57600003 4279123228
0.039559416 0.046450019 0.57700002 4278197248
0.041433513 0.046450019 0.57700002 4278795546
0.043382663 0.046530519 0.57800001 4278665498
0.045260008 0.046530519 0.57800001 4278731291
0.047218911 0.046611026 0.57900006 4278665498
0.049099505 0.046611026 0.57900006 4278731291
0.050980095 0.046611026 0.57900006 4279384615
-0.03620214 0.049413525 0.59000003 4285365868
-0.034169592 0.049246017 0.588 4285300077
-0.032150045 0.049078517 0.58600003 4279512607
-0.030143484 0.048911016 0.58400005 4280502319
-0.028149914 0.048743509 0.58200002 4279190306
-0.026214458 0.048659757 0.58100003 4278928418
-0.024243629 0.048492257 0.57900006 4278862623
-0.022324409 0.048408501 0.57800001 4278862877
-0.020411689 0.048324749 0.57700002 4278533912
-0.018505465 0.048241001 0.57600003 4278533912
-0.016634615 0.048241001 0.57600003 4278731291
-0.014738135 0.048157249 0.57500005 4278665498
-0.012870535 0.048157249 0.57500005 4278201098
-0.010983797 0.048073493 0.574 4278200845
-0.0091194436 0.048073493 0.574 4279188508
-0.0072550913 0.048073493 0.574 4278859543
-0.0053907386 0.048073493 0.574 4278593039
-0.0035263854 0.048073493 0.574 4278591757
-0.0016620324 0.048073493 0.574 4278393867
0.00020232052 0.048073493 0.574 4278328074
0.002070274 0.048157249 0.57500005 4278654732
0.0039378749 0.048157249 0.57500005 4278786318
0.0058054761 0.048157249 0.57500005 4278655502
0.0076730778 0.048157249 0.57500005 4280039203
0.009540678 0.048157249 0.57500005 4279647775
0.01140828 0.048157249 0.57500005 4278527500
0.013275881 0.048157249 0.57500005 4278591755
0.015143481 0.048157249 0.57500005 4279515678
0.017011084 0.048157249 0.57500005 4278200845
0.018845851 0.048073493 0.574 4278990361
0.020710202 0.048073493 0.574 4278200331
0.022613885 0.048157249 0.57500005 4278200845
0.024481487 0.048157249 0.57500005 4278924568
0.026349088 0.048157249 0.57500005 4278726675
0.02821669 0.048157249 0.57500005 4278594322
0.03008429 0.048157249 0.57500005 4279120920
0.03200746 0.048241001 0.57600003 4278199561
0.033878308 0.048241001 0.57600003 4278397197
0.035749156 0.048241001 0.57600003 4278464015
0.037685316 0.048324749 0.57700002 4279189275
0.039559416 0.048324749 0.57700002 4278198531
0.041505318 0.048408501 0.57800001 4278927134
0.043382663 0.048408501 0.57800001 4278533658
0.045260008 0.048408501 0.57800001 4278665244
0.047218911 0.048492257 0.57900006 4278731037
0.049099505 0.048492257 0.57900006 4278796316
0.050980095 0.048492257 0.57900006 4278793502
-0.036324855 0.051504493 0.59200001 4285168491
-0.034285817 0.051330492 0.59000003 4285169774
-0.032204907 0.051069491 0.58700001 4284973167
-0.0301951 0.05089549 0.58500004 4279579166
-0.028198281 0.050721485 0.583 4279320355
-0.026214458 0.050547484 0.58100003 4279255845
-0.024243629 0.050373487 0.57900006 4278993697
-0.022324409 0.050286483 0.57800001 4278993697
-0.020411689 0.050199483 0.57700002 4278796832
-0.018505465 0.050112482 0.57600003 4278862623
-0.016605737 0.050025482 0.57500005 4278731037
-0.014738135 0.050025482 0.57500005 4278796830
-0.01284815 0.049938478 0.574 4278993697
-0.010983797 0.049938478 0.574 4278992927
-0.0091194436 0.049938478 0.574 4278992925
-0.0072550913 0.049938478 0.574 4278927132
-0.0053907386 0.049938478 0.574 4278927132
-0.0035263854 0.049938478 0.574 4279058205
-0.0016620324 0.049938478 0.574 4279123228
0.00020232052 0.049938478 0.574 4278925849
0.0020666735 0.049938478 0.574 4279649572
0.0039378749 0.050025482 0.57500005 4279254303
0.0058054761 0.050025482 0.57500005 4279779623
0.0076730778 0.050025482 0.57500005 4279582498
0.009540678 0.050025482 0.57500005 4278924566
0.01140828 0.050025482 0.57500005 4278726675
0.013275881 0.050025482 0.57500005 4278196736
0.015143481 0.050025482 0.57500005 4278196480
0.017011084 0.050025482 0.57500005 4278196480
0.018878685 0.050025482 0.57500005 4278196736
0.020746283 0.050025482 0.57500005 4278857748
0.022613885 0.050025482 0.57500005 4279384092
0.024481487 0.050025482 0.57500005 4279779875
0.026349088 0.050025482 0.57500005 4279845922
0.028265761 0.050112482 0.57600003 4279845920
0.030136609 0.050112482 0.57600003 4279582748
0.03200746 0.050112482 0.57600003 4279779875
0.033937123 0.050199483 0.57700002 4279187738
0.035811223 0.050199483 0.57700002 4278794004
0.037685316 0.050199483 0.57700002 4279320348
0.039627977 0.050286483 0.57800001 4278200330
0.041505318 0.050286483 0.57800001 4278927132
0.043382663 0.050286483 0.57800001 4278796570
0.045338318 0.050373487 0.57900006 4278796570
0.047218911 0.050373487 0.57900006 4278928156
0.049099505 0.050373487 0.57900006 4278795800
0.051068146 0.050460488 0.58000004 4278989597
-0.036447577 0.05360847 0.59400004 4285564019
-0.034343928 0.053337716 0.59100002 4284709993
-0.03225977 0.053066965 0.588 4284973167
-0.0301951 0.052796219 0.58500004 4285302130
-0.028198281 0.052615717 0.583 4285565815
-0.026214458 0.052435219 0.58100003 4283395160
-0.024243629 0.052254722 0.57900006 4280435506
-0.022324409 0.052164465 0.57800001 4279252515
-0.020411689 0.052074216 0.57700002 4278925088
-0.018505465 0.051983967 0.57600003 4279188260
-0.016605737 0.051893719 0.57500005 4279386150
-0.014738135 0.051893719 0.57500005 4279321127
-0.01284815 0.051803466 0.574 4279321127
-0.010983797 0.051803466 0.574 4279321127
-0.0091194436 0.051803466 0.574 4279124259
-0.0072550913 0.051803466 0.574 4279058466
-0.0053907386 0.051803466 0.574 4279058720
-0.0035263854 0.051803466 0.574 4279058720
-0.0016620324 0.051803466 0.574 4278927132
0.00020232052 0.051803466 0.574 4278927132
0.0020666735 0.051803466 0.574 4278927132
0.0039310264 0.051803466 0.574 4278992925
0.0057953792 0.051803466 0.574 4278992927
0.0076730778 0.051893719 0.57500005 4278992925
0.009540678 0.051893719 0.57500005 4278992925
0.01140828 0.051893719 0.57500005 4279123998
0.013275881 0.051893719 0.57500005 4279058205
0.015143481 0.051893719 0.57500005 4279320607
0.017011084 0.051893719 0.57500005 4279254814
0.018878685 0.051893719 0.57500005 4279320607
0.020746283 0.051893719 0.57500005 4279385887
0.022613885 0.051893719 0.57500005 4279516703
0.024524063 0.051983967 0.57600003 4279516703
0.026394913 0.051983967 0.57600003 4278990359
0.028265761 0.051983967 0.57600003 4279055638
0.030188929 0.052074216 0.57700002 4278200072
0.032063026 0.052074216 0.57700002 4278199044
0.033937123 0.052074216 0.57700002 4278196992
0.035811223 0.052074216 0.57700002 4278196224
0.037750628 0.052164465 0.57800001 4278198789
0.039627977 0.052164465 0.57800001 4278860058
0.041505318 0.052164465 0.57800001 4278795546
0.043457724 0.052254722 0.57900006 4278795800
0.045338318 0.052254722 0.57900006 4278927386
0.047218911 0.052254722 0.57900006 4279058972
0.049184304 0.05234497 0.58000004 4278927132
0.051068146 0.05234497 0.58000004 4284514674
-0.036570296 0.055725429 0.59600002 4285563247
-0.034460153 0.055444937 0.59300005 4284643430
-0.032369498 0.055164438 0.59000003 4284906604
-0.030246714 0.054790441 0.58600003 4285169522
-0.02824665 0.054603446 0.58400005 4285170546
-0.026259577 0.054416444 0.58200002 4285433716
-0.024243629 0.054135952 0.57900006 4285696890
-0.022324409 0.054042447 0.57800001 4285696890
-0.020411689 0.05394895 0.57700002 4285763710
-0.018505465 0.053855453 0.57600003 4285237112
-0.016605737 0.053761955 0.57500005 4285961087
-0.014738135 0.053761955 0.57500005 4285632122
-0.01284815 0.053668451 0.574 4284843378
-0.010983797 0.053668451 0.574 4282804308
-0.0091194436 0.053668451 0.574 4280173871
-0.0072550913 0.053668451 0.574 4279056420
-0.0053907386 0.053668451 0.574 4278859293
-0.0035263854 0.053668451 0.574 4278726935
-0.0016620324 0.053668451 0.574 4279385635
0.00020232052 0.053668451 0.574 4279386148
0.0020666735 0.053668451 0.574 4279189541
0.0039310264 0.053668451 0.574 4279123748
0.0057953792 0.053668451 0.574 4279255586
0.0076597324 0.053668451 0.574 4279189793
0.0095240846 0.053668451 0.574 4279189791
0.01140828 0.053761955 0.57500005 4279058205
0.013275881 0.053761955 0.57500005 4279058720
0.015143481 0.053761955 0.57500005 4278992927
0.017011084 0.053761955 0.57500005 4279058720
0.018878685 0.053761955 0.57500005 4279058718
0.020782365 0.053855453 0.57600003 4279058718
0.022653213 0.053855453 0.57600003 4278992925
0.024524063 0.053855453 0.57600003 4279058718
0.026394913 0.053855453 0.57600003 4278992925
0.028314834 0.05394895 0.57700002 4278992925
0.030188929 0.05394895 0.57700002 4279058205
0.032063026 0.05394895 0.57700002 4279189793
0.033995941 0.054042447 0.57800001 4279254816
0.035873286 0.054042447 0.57800001 4279386402
0.037750628 0.054042447 0.57800001 4279254816
0.039627977 0.054042447 0.57800001 4279254816
0.041577131 0.054135952 0.57900006 4279189791
0.043457724 0.054135952 0.57900006 4278993179
0.045338318 0.054135952 0.57900006 4279124765
0.047300462 0.054229449 0.58000004 4279124511
0.049184304 0.054229449 0.58000004 4279188769
0.051068146 0.054229449 0.58000004 4285960837
-0.036631655 0.05775864 0.597 4279772699
-0.034576375 0.057565149 0.59500003 4285037936
-0.0035202419 0.055436686 0.57300001 4283920992
-0.0016620324 0.055533435 0.574 4283921506
0.00020232052 0.055533435 0.574 4284514159
0.0020666735 0.055533435 0.574 4285106550
0.0039310264 0.055533435 0.574 4284580206
0.0057953792 0.055533435 0.574 4283463008
0.0076597324 0.055533435 0.574 4281686856
0.0095240846 0.055533435 0.574 4280108592
0.011388438 0.055533435 0.574 4279581734
0.013275881 0.055630188 0.57500005 4279252769
0.015143481 0.055630188 0.57500005 4279055904
0.017011084 0.055630188 0.57500005 4278990881
0.018878685 0.055630188 0.57500005 4278859808
0.020782365 0.055726934 0.57600003 4278794785
0.022653213 0.055726934 0.57600003 4278663712
0.024566639 0.05582368 0.57700002 4279058216
0.026440736 0.05582368 0.57700002 4278794785
0.028314834 0.05582368 0.57700002 4279123750
0.030188929 0.05582368 0.57700002 4279321129
0.032118596 0.05592043 0.57800001 4279123750
0.033995941 0.05592043 0.57800001 4279320357
0.035873286 0.05592043 0.57800001 4279451428
0.037750628 0.05592043 0.57800001 4279648807
0.039696541 0.056017179 0.57900006 4279451428
0.041577131 0.056017179 0.57900006 4279517221
0.043457724 0.056017179 0.57900006 4279320609
0.045416623 0.056113929 0.58000004 4279320609
0.047300462 0.056113929 0.58000004 4279318822
0.049269103 0.056210674 0.58100003 4285041016
0.051156193 0.056210674 0.58100003 4285171319
0.020782365 0.057598416 0.57600003 4285567101
0.022692541 0.057698414 0.57700002 4285896066
0.024566639 0.057698414 0.57700002 4286027652
0.026440736 0.057698414 0.57700002 4285961859
0.028314834 0.057698414 0.57700002 4285961859
0.030241249 0.057798408 0.57800001 4285961859
0.032118596 0.057798408 0.57800001 4285896066
0.033995941 0.057798408 0.57800001 4285567101
0.035873286 0.057798408 0.57800001 4285369981
0.037815943 0.05789841 0.57900006 4285369981
0.039696541 0.05789841 0.57900006 4284910200
0.041577131 0.05789841 0.57900006 4285107579
0.043532778 0.057998408 0.58000004 4284843637
0.045416623 0.057998408 0.58000004 4285895296
0.047300462 0.057998408 0.58000004 4285500284
0.049269103 0.058098402 0.58100003 4285237114
0.037815943 0.05977964 0.57900006 4285434745
0.039696541 0.05977964 0.57900006 4285237366
0.041577131 0.05977964 0.57900006 4285303159
0.043532778 0.059882887 0.58000004 4285434745
0.045416623 0.059882887 0.58000004 4285500538
0.047300462 0.059882887 0.58000004 4285434491
0.0041568065 0.046479516 0.57793564 4294967295
0.0041568065 0.046479516 0.57793564 4294901760
0.0041568065 0.046479516 0.57843566 4294901760
0.0041568065 0.046479516 0.57893562 4294901760
0.0041568065 0.046479516 0.57943565 4294901760
0.0041568065 0.046479516 0.57993561 4294901760
0.0041568065 0.046479516 0.58043563 4294901760
0.0041568065 0.046479516 0.58093566 4294901760
0.0041568065 0.046479516 0.58143562 4294901760
0.0041568065 0.046479516 0.58193564 4294901760
0.0041568065 0.046479516 0.58243561 4294901760
0.0041568065 0.046479516 0.58293563 4294901760
0.0041568065 0.046479516 0.58343565 4294901760
0.0041568065 0.046479516 0.58393562 4294901760
0.0041568065 0.046479516 0.58443564 4294901760
0.0041568065 0.046479516 0.58493567 4294901760
0.0041568065 0.046479516 0.58543563 4294901760
0.0041568065 0.046479516 0.58593565 4294901760
0.0041568065 0.046479516 0.58643562 4294901760
0.0041568065 0.046479516 0.58693564 4294901760
0.0041568065 0.046479516 0.58743566 4294901760
0.0041568065 0.046479516 0.58793563 4294901760
0.0041568065 0.046479516 0.58843565 4294901760
0.0041568065 0.046479516 0.58893561 4294901760
0.0041568065 0.046479516 0.58943564 4294901760
0.0041568065 0.046479516 0.58993566 4294901760
0.0041568065 0.046479516 0.59043562 4294901760
0.0041568065 0.046479516 0.59093565 4294901760
0.0041568065 0.046479516 0.59143561 4294901760
0.0041568065 0.046479516 0.59193563 4294901760
0.0041568065 0.046479516 0.59243566 4294901760
0.0041568065 0.046479516 0.59293562 4294901760
0.0041568065 0.046479516 0.59343565 4294901760
0.0041568065 0.046479516 0.59393561 4294901760
0.0041568065 0.046479516 0.59443563 4294901760
0.0041568065 0.046479516 0.59493566 4294901760
0.0041568065 0.046479516 0.59543562 4294901760
0.0041568065 0.046479516 0.59593564 4294901760
0.0041568065 0.046479516 0.59643567 4294901760
0.0041568065 0.046479516 0.59693563 4294901760
0.0041568065 0.046479516 0.59743565 4294901760
0.0041568065 0.046479516 0.59793562 4294901760
0.0041568065 0.046479516 0.59843564 4294901760
0.0041568065 0.046479516 0.59893566 4294901760
0.0041568065 0.046479516 0.59943563 4294901760
0.0041568065 0.046479516 0.59993565 4294901760
0.0041568065 0.046479516 0.60043561 4294901760
0.0041568065 0.046479516 0.60093564 4294901760
0.0041568065 0.046479516 0.60143566 4294901760
0.0041568065 0.046479516 0.60193563 4294901760
0.0041568065 0.046479516 0.60243565 4294901760
0.0041568065 0.046479516 0.60293567 4294901760
0.0041568065 0.046479516 0.60343564 4294901760
0.0041568065 0.046479516 0.60393566 4294901760
0.0041568065 0.046479516 0.60443562 4294901760
0.0041568065 0.046479516 0.60493565 4294901760
0.0041568065 0.046479516 0.60543567 4294901760
0.0041568065 0.046479516 0.60593563 4294901760
0.0041568065 0.046479516 0.60643566 4294901760
0.0041568065 0.046479516 0.60693562 4294901760
0.0041568065 0.046479516 0.60743564 4294901760
0.0041568065 0.046479516 0.60793567 4294901760
0.0041568065 0.046479516 0.60843563 4294901760
0.0041568065 0.046479516 0.60893565 4294901760
0.0041568065 0.046479516 0.60943562 4294901760
0.0041568065 0.046479516 0.60993564 4294901760
0.0041568065 0.046479516 0.61043566 4294901760
0.0041568065 0.046479516 0.61093563 4294901760
0.0041568065 0.046479516 0.61143565 4294901760
0.0041568065 0.046479516 0.61193562 4294901760
0.0041568065 0.046479516 0.61243564 4294901760
0.0041568065 0.046479516 0.61293566 4294901760
0.0041568065 0.046479516 0.61343563 4294901760
0.0041568065 0.046479516 0.61393565 4294901760
0.0041568065 0.046479516 0.61443567 4294901760
0.0041568065 0.046479516 0.61493564 4294901760
0.0041568065 0.046479516 0.61543566 4294901760
0.0041568065 0.046479516 0.61593562 4294901760
0.0041568065 0.046479516 0.61643565 4294901760
0.0041568065 0.046479516 0.61693567 4294901760
0.0041568065 0.046479516 0.61743563 4294901760
0.0041568065 0.046479516 0.61793566 4294901760
0.0041568065 0.046479516 0.61843562 4294901760
0.0041568065 0.046479516 0.61893564 4294901760
0.0041568065 0.046479516 0.61943567 4294901760
0.0041568065 0.046479516 0.61993563 4294901760
0.0041568065 0.046479516 0.62043566 4294901760
0.0041568065 0.046479516 0.62093568 4294901760
0.0041568065 0.046479516 0.62143564 4294901760
0.0041568065 0.046479516 0.62193567 4294901760
0.0041568065 0.046479516 0.62243563 4294901760
0.0041568065 0.046479516 0.62293565 4294901760
0.0041568065 0.046479516 0.62343568 4294901760
0.0041568065 0.046479516 0.62393564 4294901760
0.0041568065 0.046479516 0.62443566 4294901760
0.0041568065 0.046479516 0.62493563 4294901760
0.0041568065 0.046479516 0.62543565 4294901760
0.0041568065 0.046479516 0.62593567 4294901760
0.0041568065 0.046479516 0.62643564 4294901760
0.0041568065 0.046479516 0.62693566 4294901760
0.0041568065 0.046479516 0.62743562 4294901760
0.0041568065 0.046479516 0.62793565 4294901760
0.0041568065 0.046479516 0.57793564 4278255360
0.0041719149 0.046489626 0.5784353 4278255360
0.0041870233 0.046499737 0.57893497 4278255360
0.0042021316 0.046509847 0.57943463 4278255360
0.00421724 0.046519957 0.5799343 4278255360
0.0042323484 0.046530068 0.58043396 4278255360
0.0042474568 0.046540178 0.58093363 4278255360
0.0042625652 0.046550289 0.5814333 4278255360
0.0042776735 0.046560399 0.58193296 4278255360
0.0042927824 0.046570506 0.58243269 4278255360
0.0043078908 0.046580616 0.58293235 4278255360
0.0043229992 0.046590727 0.58343202 4278255360
0.0043381075 0.046600837 0.58393168 4278255360
0.0043532159 0.046610948 0.58443135 4278255360
0.0043683243 0.046621058 0.58493102 4278255360
0.0043834327 0.046631169 0.58543068 4278255360
0.0043985411 0.046641279 0.58593035 4278255360
0.0044136494 0.046651389 0.58643001 4278255360
0.0044287578 0.0466615 0.58692968 4278255360
0.0044438662 0.04667161 0.58742934 4278255360
0.0044589746 0.046681721 0.58792901 4278255360
0.004474083 0.046691831 0.58842868 4278255360
0.0044891913 0.046701942 0.58892834 4278255360
0.0045042997 0.046712052 0.58942801 4278255360
0.0045194081 0.046722163 0.58992767 4278255360
0.0045345165 0.046732269 0.5904274 4278255360
0.0045496253 0.04674238 0.59092706 4278255360
0.0045647337 0.04675249 0.59142673 4278255360
0.0045798421 0.046762601 0.5919264 4278255360
0.0045949505 0.046772711 0.59242606 4278255360
0.0046100589 0.046782821 0.59292573 4278255360
0.0046251672 0.046792932 0.59342539 4278255360
0.0046402756 0.046803042 0.59392506 4278255360
0.004655384 0.046813153 0.59442472 4278255360
0.0046704924 0.046823263 0.59492439 4278255360
0.0046856008 0.046833374 0.59542406 4278255360
0.0047007091 0.046843484 0.59592372 4278255360
0.0047158175 0.046853594 0.59642339 4278255360
0.0047309259 0.046863705 0.59692305 4278255360
0.0047460343 0.046873815 0.59742272 4278255360
0.0047611427 0.046883926 0.59792238 4278255360
0.0047762515 0.046894036 0.59842205 4278255360
0.0047913594 0.046904143 0.59892178 4278255360
0.0048064683 0.046914253 0.59942144 4278255360
0.0048215766 0.046924364 0.59992111 4278255360
0.004836685 0.046934474 0.60042077 4278255360
0.0048517934 0.046944585 0.60092044 4278255360
0.0048669018 0.046954695 0.6014201 4278255360
0.0048820102 0.046964806 0.60191977 4278255360
0.0048971185 0.046974916 0.60241944 4278255360
0.0049122269 0.046985026 0.6029191 4278255360
0.0049273353 0.046995137 0.60341877 4278255360
0.0049424437 0.047005247 0.60391843 4278255360
0.0049575521 0.047015358 0.6044181 4278255360
0.0049726604 0.047025468 0.60491776 4278255360
0.0049877688 0.047035579 0.60541743 4278255360
0.0050028772 0.047045689 0.6059171 4278255360
0.0050179856 0.0470558 0.60641676 4278255360
0.005033094 0.04706591 0.60691643 4278255360
0.0050482024 0.047076017 0.60741615 4278255360
0.0050633112 0.047086127 0.60791582 4278255360
0.0050784196 0.047096238 0.60841548 4278255360
0.005093528 0.047106348 0.60891515 4278255360
0.0051086363 0.047116458 0.60941482 4278255360
0.0051237447 0.047126569 0.60991448 4278255360
0.0051388531 0.047136679 0.61041415 4278255360
0.0051539615 0.04714679 0.61091381 4278255360
0.0051690699 0.0471569 0.61141348 4278255360
0.0051841782 0.047167011 0.61191314 4278255360
0.0051992866 0.047177121 0.61241281 4278255360
0.005214395 0.047187231 0.61291248 4278255360
0.0052295034 0.047197342 0.61341214 4278255360
0.0052446118 0.047207452 0.61391181 4278255360
0.0052597206 0.047217563 0.61441147 4278255360
0.0052748285 0.047227673 0.61491114 4278255360
0.0052899374 0.047237784 0.6154108 4278255360
0.0053050453 0.04724789 0.61591053 4278255360
0.0053201541 0.047258001 0.6164102 4278255360
0.005335262 0.047268111 0.61690986 4278255360
0.0053503709 0.047278222 0.61740953 4278255360
0.0053654793 0.047288332 0.61790919 4278255360
0.0053805877 0.047298443 0.61840886 4278255360
0.005395696 0.047308553 0.61890852 4278255360
0.0054108044 0.047318663 0.61940819 4278255360
0.0054259128 0.047328774 0.61990786 4278255360
0.0054410212 0.047338884 0.62040752 4278255360
0.0054561296 0.047348995 0.62090719 4278255360
0.0054712379 0.047359105 0.62140685 4278255360
0.0054863463 0.047369216 0.62190652 4278255360
0.0055014547 0.047379326 0.62240618 4278255360
0.0055165631 0.047389437 0.62290585 4278255360
0.0055316715 0.047399547 0.62340558 4278255360
0.0055467803 0.047409654 0.62390524 4278255360
0.0055618882 0.047419764 0.62440491 4278255360
0.0055769971 0.047429875 0.62490457 4278255360
0.0055921054 0.047439985 0.62540424 4278255360
0.0056072138 0.047450095 0.6259039 4278255360
0.0056223222 0.047460206 0.62640357 4278255360
0.0056374306 0.047470316 0.62690324 4278255360
0.005652539 0.047480427 0.6274029 4278255360
0.0056676473 0.047490537 0.62790257 4278255360
