# .PCD v0.7 - Point Cloud Data file format
VERSION 0.7
FIELDS x y z rgb
SIZE 4 4 4 4
TYPE F F F U
COUNT 1 1 1 1
WIDTH 1095
HEIGHT 1
VIEWPOINT 0 0 0 1 0 0 0
POINTS 1095
DATA ascii
0.090820312 0.082892403 0.294 4282586121
0.091775231 0.082892403 0.294 4282782985
0.092730135 0.082892403 0.294 4283111180
0.093685046 0.082892403 0.294 4283373069
0.094639964 0.082892403 0.294 4283503628
0.095594876 0.082892403 0.294 4284160788
0.096549787 0.082892403 0.294 4284292115
0.09783636 0.083174355 0.29500002 4284291343
0.099129401 0.0834563 0.296 4283897357
0.1014434 0.084584087 0.30000001 4283109383
0.1024178 0.084584087 0.30000001 4280683269
0.12715741 0.086839668 0.30800003 4283372821
0.12915818 0.086839668 0.30800003 4283372557
0.13015856 0.086839668 0.30800003 4283240971
0.13115893 0.086839668 0.30800003 4284029972
0.13258842 0.087121613 0.30900002 4284359964
0.13315971 0.086839668 0.30800003 4286412648
0.1341601 0.086839668 0.30800003 4285823339
0.13516049 0.086839668 0.30800003 4285889904
0.13616087 0.086839668 0.30800003 4285955699
0.13716124 0.086839668 0.30800003 4285692527
0.13816163 0.086839668 0.30800003 4285692527
0.086631089 0.084418036 0.296 4282063119
0.087592505 0.084418036 0.296 4282258701
0.088553913 0.084418036 0.296 4282258188
0.089515321 0.084418036 0.296 4282258188
0.090171069 0.084132843 0.29500002 4282258188
0.091129236 0.084132843 0.29500002 4282520588
0.091775231 0.083847642 0.294 4282454795
0.092730135 0.083847642 0.294 4282651660
0.093685046 0.083847642 0.294 4282980112
0.094639964 0.083847642 0.294 4283308048
0.095594876 0.083847642 0.294 4283504655
0.096878193 0.084132843 0.29500002 4283833106
0.098168001 0.084418036 0.296 4283766800
0.099129401 0.084418036 0.296 4283635727
0.1014434 0.085558824 0.30000001 4282059012
0.12715741 0.087840393 0.30800003 4283437846
0.12815779 0.087840393 0.30800003 4283372305
0.12915818 0.087840393 0.30800003 4283503630
0.13015856 0.087840393 0.30800003 4283700237
0.13115893 0.087840393 0.30800003 4283963150
0.13215932 0.087840393 0.30800003 4284685333
0.13359204 0.088125587 0.30900002 4284099874
0.1341601 0.087840393 0.30800003 4286542437
0.13516049 0.087840393 0.30800003 4285692525
0.13616087 0.087840393 0.30800003 4285758320
0.13716124 0.087840393 0.30800003 4285758320
0.13816163 0.087840393 0.30800003 4285626734
0.086631089 0.085379772 0.296 4282328605
0.087592505 0.085379772 0.296 4282324494
0.088553913 0.085379772 0.296 4282324494
0.089515321 0.085379772 0.296 4281929736
0.090171069 0.08509133 0.29500002 4282258188
0.091129236 0.08509133 0.29500002 4283578411
0.092087395 0.08509133 0.29500002 4282788895
0.092730135 0.084802881 0.294 4282522643
0.093685046 0.084802881 0.294 4282652946
0.094639964 0.084802881 0.294 4282782987
0.095920034 0.08509133 0.29500002 4282848010
0.096878193 0.08509133 0.29500002 4282979083
0.098168001 0.085379772 0.296 4283701520
0.099464305 0.085668221 0.29700002 4283438864
0.1014434 0.086533554 0.30000001 4282192393
0.12715741 0.088841125 0.30800003 4283503378
0.12815779 0.088841125 0.30800003 4283436813
0.12915818 0.088841125 0.30800003 4283700237
0.13015856 0.088841125 0.30800003 4283831310
0.13115893 0.088841125 0.30800003 4284356368
0.13215932 0.088841125 0.30800003 4285078551
0.13359204 0.08912956 0.30900002 4285669916
0.13459568 0.08912956 0.30900002 4284952355
0.13559932 0.08912956 0.30900002 4285888105
0.13660294 0.08912956 0.30900002 4285823341
0.13760658 0.08912956 0.30900002 4286086513
0.1386102 0.08912956 0.30900002 4285758318
0.087592505 0.0863415 0.296 4282193680
0.088553913 0.0863415 0.296 4282521873
0.089515321 0.0863415 0.296 4282323981
0.090476729 0.0863415 0.296 4282917401
0.091129236 0.08604981 0.29500002 4286414960
0.092087395 0.08604981 0.29500002 4286350707
0.093045548 0.08604981 0.29500002 4285493604
0.094003707 0.08604981 0.29500002 4281675041
0.094961874 0.08604981 0.29500002 4282457361
0.095920034 0.08604981 0.29500002 4282455565
0.097206593 0.0863415 0.296 4282914571
0.098499656 0.086633198 0.29700002 4283504909
0.099799193 0.086924888 0.29800001 4284495402
0.1014434 0.087508276 0.30000001 4281671699
0.12715741 0.089841835 0.30800003 4283699726
0.12815779 0.089841835 0.30800003 4283765517
0.12915818 0.089841835 0.30800003 4284027919
0.13015856 0.089841835 0.30800003 4284027919
0.13115893 0.089841835 0.30800003 4284618513
0.13215932 0.089841835 0.30800003 4285275158
0.13359204 0.090133525 0.30900002 4285734164
0.13459568 0.090133525 0.30900002 4285734934
0.13559932 0.090133525 0.30900002 4286145623
0.13660294 0.090133525 0.30900002 4286216554
0.13760658 0.090133525 0.30900002 4286151536
0.1386102 0.090133525 0.30900002 4286151538
0.088553913 0.087303236 0.296 4282455567
0.089515321 0.087303236 0.296 4282914321
0.090476729 0.087303236 0.296 4283245598
0.091438144 0.087303236 0.296 4286678652
0.092087395 0.087008297 0.29500002 4286416250
0.093045548 0.087008297 0.29500002 4286219900
0.094003707 0.087008297 0.29500002 4286613888
0.094961874 0.087008297 0.29500002 4281538830
0.096245185 0.087303236 0.296 4281930506
0.097206593 0.087303236 0.296 4282782987
0.098499656 0.087598182 0.29700002 4283701520
0.099799193 0.087893121 0.29800001 4287724655
0.1014434 0.088483013 0.30000001 4286084716
0.12715741 0.090842567 0.30800003 4283830794
0.12815779 0.090842567 0.30800003 4283962378
0.12915818 0.090842567 0.30800003 4284093194
0.13015856 0.090842567 0.30800003 4284224780
0.13115893 0.090842567 0.30800003 4285078549
0.13215932 0.090842567 0.30800003 4285669914
0.13359204 0.091137506 0.30900002 4285799957
0.13459568 0.091137506 0.30900002 4285997336
0.13559932 0.091137506 0.30900002 4284426788
0.13660294 0.091137506 0.30900002 4286609000
0.13760658 0.091137506 0.30900002 4286151538
0.1386102 0.091137506 0.30900002 4286283124
0.089515321 0.088264972 0.296 4283374100
0.090476729 0.088264972 0.296 4284035110
0.091438144 0.088264972 0.296 4286481271
0.092399552 0.088264972 0.296 4286416763
0.093360953 0.088264972 0.296 4286416509
0.094322361 0.088264972 0.296 4286679170
0.095283769 0.088264972 0.296 4281342230
0.096245185 0.088264972 0.296 4282063891
0.097534999 0.088563167 0.29700002 4282914573
0.098831296 0.088861361 0.29800001 4284096280
0.1001341 0.089159556 0.29900002 4287726452
0.1014434 0.089457743 0.30000001 4287072636
0.12715741 0.091843292 0.30800003 4284224780
0.12815779 0.091843292 0.30800003 4284224523
0.12915818 0.091843292 0.30800003 4284552718
0.13015856 0.091843292 0.30800003 4284684304
0.13115893 0.091843292 0.30800003 4284748814
0.13215932 0.091843292 0.30800003 4292381835
0.13359204 0.092141479 0.30900002 4286129699
0.092399552 0.089226708 0.296 4286417531
0.093360953 0.089226708 0.296 4286351740
0.094322361 0.089226708 0.296 4286811269
0.095283769 0.089226708 0.296 4281803295
0.096245185 0.089226708 0.296 4282194453
0.097534999 0.089528158 0.29700002 4282980625
0.098831296 0.089829594 0.29800001 4284030747
0.1001341 0.090131037 0.29900002 4287727481
0.1014434 0.09043248 0.30000001 4286284144
0.12574741 0.092542566 0.30700001 4284224530
0.12715741 0.092844017 0.30800003 4284290316
0.12815779 0.092844017 0.30800003 4284290316
0.12915818 0.092844017 0.30800003 4284355339
0.13015856 0.092844017 0.30800003 4284684304
0.092399552 0.090188436 0.296 4286416761
0.093360953 0.090188436 0.296 4286220154
0.094322361 0.090188436 0.296 4286812037
0.095283769 0.090188436 0.296 4282461227
0.096570343 0.090493135 0.29700002 4282063639
0.097534999 0.090493135 0.29700002 4282915350
0.098831296 0.090797819 0.29800001 4283307796
0.1001341 0.091102518 0.29900002 4287530104
0.1014434 0.091407202 0.30000001 4286350455
0.12353122 0.092625968 0.30400002 4284421655
0.12574741 0.093540035 0.30700001 4284487443
0.12715741 0.093844734 0.30800003 4284421134
0.12815779 0.093844734 0.30800003 4284618513
0.12915818 0.093844734 0.30800003 4284618511
0.13015856 0.093844734 0.30800003 4284618511
0.093360953 0.091150172 0.296 4286154361
0.094322361 0.091150172 0.296 4286154107
0.095283769 0.091150172 0.296 4282265131
0.096570343 0.091458119 0.29700002 4282194203
0.097534999 0.091458119 0.29700002 4282717457
0.098831296 0.091766052 0.29800001 4284029720
0.099799193 0.091766052 0.29800001 4287793274
0.10110525 0.092073999 0.29900002 4286219121
0.10275919 0.092689879 0.30100003 4287008646
0.12353122 0.093613699 0.30400002 4284553493
0.12574741 0.094537511 0.30700001 4284618259
0.12715741 0.094845459 0.30800003 4284749586
0.12815779 0.094845459 0.30800003 4284683793
0.12915818 0.094845459 0.30800003 4284749584
0.13015856 0.094845459 0.30800003 4284683791
0.087509118 0.093045481 0.29900002 4284373333
0.088480271 0.093045481 0.29900002 4282521621
0.089152247 0.092734285 0.29800001 4282783762
0.090120159 0.092734285 0.29800001 4283242255
0.091088064 0.092734285 0.29800001 4282716424
0.092711717 0.092423104 0.29700002 4286744443
0.093676366 0.092423104 0.29700002 4286416763
0.094641022 0.092423104 0.29700002 4286285177
0.095605679 0.092423104 0.29700002 4283713088
0.096570343 0.092423104 0.29700002 4281996822
0.097534999 0.092423104 0.29700002 4282782735
0.098499656 0.092423104 0.29700002 4284096280
0.099799193 0.092734285 0.29800001 4287529586
0.10110525 0.093045481 0.29900002 4286350453
0.10275919 0.093667857 0.30100003 4286154361
0.10408148 0.093979046 0.30200002 4284179547
0.12214071 0.094290234 0.303 4284684827
0.12353122 0.094601423 0.30400002 4284881431
0.12574741 0.095534988 0.30700001 4284815892
0.12715741 0.095846184 0.30800003 4284880400
0.12815779 0.095846184 0.30800003 4285077779
0.12915818 0.095846184 0.30800003 4285011986
0.13015856 0.095846184 0.30800003 4284880400
0.086537972 0.094016962 0.29900002 4286351486
0.087509118 0.094016962 0.29900002 4284571479
0.088480271 0.094016962 0.29900002 4282850840
0.089152247 0.093702525 0.29800001 4282914834
0.090120159 0.093702525 0.29800001 4283308048
0.091088064 0.093702525 0.29800001 4282978313
0.092055969 0.093702525 0.29800001 4287006070
0.092711717 0.093388088 0.29700002 4286612857
0.093676366 0.093388088 0.29700002 4286350716
0.094641022 0.093388088 0.29700002 4286284925
0.095605679 0.093388088 0.29700002 4286214767
0.096570343 0.093388088 0.29700002 4281998107
0.097534999 0.093388088 0.29700002 4282847756
0.098499656 0.093388088 0.29700002 4283964946
0.099464305 0.093388088 0.29700002 4287593581
0.10076711 0.093702525 0.29800001 4286809718
0.10275919 0.094645843 0.30100003 4286220154
0.10408148 0.09496028 0.30200002 4286022521
0.10541026 0.095274709 0.303 4284309334
0.12017243 0.095274709 0.303 4282525223
0.12115657 0.095274709 0.303 4285079585
0.12214071 0.095274709 0.303 4284882201
0.12353122 0.095589153 0.30400002 4284749586
0.12574741 0.096532464 0.30700001 4284683793
0.12715741 0.096846908 0.30800003 4285077779
0.12815779 0.096846908 0.30800003 4285208595
0.12915818 0.096846908 0.30800003 4284880398
0.13015856 0.096846908 0.30800003 4284619538
0.086537972 0.09498845 0.29900002 4286548095
0.087509118 0.09498845 0.29900002 4284176721
0.088480271 0.09498845 0.29900002 4282719254
0.089451425 0.09498845 0.29900002 4282783760
0.090120159 0.094670758 0.29800001 4283373841
0.091088064 0.094670758 0.29800001 4284096278
0.092055969 0.094670758 0.29800001 4287727997
0.092711717 0.094353072 0.29700002 4286547834
0.093676366 0.094353072 0.29700002 4286416509
0.094641022 0.094353072 0.29700002 4286416509
0.095605679 0.094353072 0.29700002 4286808957
0.096570343 0.094353072 0.29700002 4281736988
0.097534999 0.094353072 0.29700002 4282849041
0.098499656 0.094353072 0.29700002 4283965206
0.099464305 0.094353072 0.29700002 4285025085
0.10042896 0.094353072 0.29700002 4287006070
0.10139362 0.094353072 0.29700002 4286350970
0.10442612 0.096259192 0.303 4286220154
0.10541026 0.096259192 0.303 4286218619
0.11328342 0.096259192 0.303 4284226581
0.12115657 0.096259192 0.303 4285342752
0.12214071 0.096259192 0.303 4284946711
0.12353122 0.096576884 0.30400002 4285077781
0.12574741 0.09752994 0.30700001 4285077779
0.12715741 0.097847633 0.30800003 4285208595
0.12815779 0.097847633 0.30800003 4285405972
0.086537972 0.095959924 0.29900002 4286350716
0.087509118 0.095959924 0.29900002 4284570966
0.088480271 0.095959924 0.29900002 4282652948
0.089451425 0.095959924 0.29900002 4282717967
0.090120159 0.095638983 0.29800001 4283242253
0.091088064 0.095638983 0.29800001 4284161042
0.092055969 0.095638983 0.29800001 4286671197
0.093023874 0.095638983 0.29800001 4286743414
0.093676366 0.095318049 0.29700002 4286285177
0.094641022 0.095318049 0.29700002 4286350716
0.095605679 0.095318049 0.29700002 4286350205
0.096245185 0.094997108 0.296 4280818198
0.097206593 0.094997108 0.296 4282454797
0.098499656 0.095318049 0.29700002 4283767829
0.099464305 0.095318049 0.29700002 4283180055
0.10042896 0.095318049 0.29700002 4287465336
0.10139362 0.095318049 0.29700002 4286416763
0.10235828 0.095318049 0.29700002 4286416509
0.10506238 0.096922733 0.30200002 4286350716
0.10639441 0.097243659 0.303 4284967012
0.10737855 0.097243659 0.303 4281932053
0.11918829 0.097243659 0.303 4285211691
0.12017243 0.097243659 0.303 4285275937
0.12115657 0.097243659 0.303 4285078297
0.12214071 0.097243659 0.303 4285077527
0.12353122 0.0975646 0.30400002 4285275160
0.12574741 0.098527409 0.30700001 4285340183
0.12715741 0.09884835 0.30800003 4285537560
0.12815779 0.09884835 0.30800003 4286792249
0.086537972 0.096931405 0.29900002 4286417279
0.087509118 0.096931405 0.29900002 4283189059
0.088480271 0.096931405 0.29900002 4282850073
0.089451425 0.096931405 0.29900002 4282849041
0.090422578 0.096931405 0.29900002 4283438862
0.091088064 0.096607216 0.29800001 4284357138
0.092055969 0.096607216 0.29800001 4285345832
0.093023874 0.096607216 0.29800001 4286798420
0.093676366 0.096283033 0.29700002 4286743416
0.094641022 0.096283033 0.29700002 4286350457
0.095605679 0.096283033 0.29700002 4286218619
0.096245185 0.095958844 0.296 4285164134
0.097206593 0.095958844 0.296 4282849041
0.098168001 0.095958844 0.296 4283372817
0.099464305 0.096283033 0.29700002 4283768345
0.10042896 0.096283033 0.29700002 4288316792
0.10139362 0.096283033 0.29700002 4286350716
0.10235828 0.096283033 0.29700002 4286284925
0.10471449 0.097579777 0.30100003 4286482304
0.10604327 0.097903959 0.30200002 4286548097
0.11426757 0.098228142 0.303 4285078551
0.11918829 0.098228142 0.303 4285341984
0.12017243 0.098228142 0.303 4285275676
0.12115657 0.098228142 0.303 4285406492
0.12214071 0.098228142 0.303 4285472539
0.12353122 0.098552331 0.30400002 4285340953
0.12574741 0.099524885 0.30700001 4285538332
0.085852988 0.098230325 0.30000001 4286417281
0.08682739 0.098230325 0.30000001 4286416509
0.087801784 0.098230325 0.30000001 4283319614
0.088480271 0.097902894 0.29900002 4283177754
0.089451425 0.097902894 0.29900002 4283242514
0.090422578 0.097902894 0.29900002 4283570188
0.091393732 0.097902894 0.29900002 4284422161
0.092055969 0.097575448 0.29800001 4284683793
0.093023874 0.097575448 0.29800001 4284749586
0.093676366 0.097248018 0.29700002 4284357406
0.094641022 0.097248018 0.29700002 4285347642
0.095605679 0.097248018 0.29700002 4285943379
0.096245185 0.09692058 0.296 4285018943
0.097206593 0.09692058 0.296 4284293405
0.098168001 0.09692058 0.296 4284160277
0.099464305 0.097248018 0.29700002 4284817435
0.10042896 0.097248018 0.29700002 4286137660
0.10139362 0.097248018 0.29700002 4286349687
0.10270292 0.097575448 0.29800001 4286350716
0.1043666 0.098230325 0.30000001 4286284925
0.10569214 0.098557763 0.30100003 4285890167
0.10702417 0.098885193 0.30200002 4282132260
0.11328342 0.099212624 0.303 4285340949
0.11721999 0.099212624 0.303 4285474090
0.11820414 0.099212624 0.303 4285210144
0.11918829 0.099212624 0.303 4285275676
0.12017243 0.099212624 0.303 4285867297
0.12115657 0.099212624 0.303 4285934373
0.12214071 0.099212624 0.303 4285802787
0.12353122 0.099540062 0.30400002 4285935143
0.12574741 0.10052236 0.30700001 4285473570
0.085852988 0.099205054 0.30000001 4286483074
0.08682739 0.099205054 0.30000001 4286416511
0.087801784 0.099205054 0.30000001 4282397746
0.088776186 0.099205054 0.30000001 4283111961
0.089451425 0.098874375 0.29900002 4283242516
0.090422578 0.098874375 0.29900002 4284029456
0.091393732 0.098874375 0.29900002 4284225550
0.092055969 0.098543689 0.29800001 4284421902
0.093023874 0.098543689 0.29800001 4284684304
0.093676366 0.09821301 0.29700002 4284881172
0.094641022 0.09821301 0.29700002 4285209113
0.095605679 0.09821301 0.29700002 4285670184
0.096245185 0.097882316 0.296 4286592824
0.097206593 0.097882316 0.296 4286592821
0.098168001 0.097882316 0.296 4286658614
0.099129401 0.097882316 0.296 4285210137
0.10042896 0.09821301 0.29700002 4285013271
0.10139362 0.09821301 0.29700002 4285751640
0.10270292 0.098543689 0.29800001 4286480244
0.10401872 0.098874375 0.29900002 4286152824
0.105341 0.099205054 0.30000001 4286087031
0.10666979 0.099535741 0.30100003 4286477680
0.10836269 0.1001971 0.303 4282258967
0.10934684 0.1001971 0.303 4284291091
0.11033098 0.1001971 0.303 4284487443
0.11131513 0.1001971 0.303 4284881172
0.11229927 0.1001971 0.303 4285275928
0.11328342 0.1001971 0.303 4285340949
0.11426757 0.1001971 0.303 4285471765
0.11525171 0.1001971 0.303 4285142543
0.11623584 0.1001971 0.303 4285603096
0.11721999 0.1001971 0.303 4285668639
0.11820414 0.1001971 0.303 4285537308
0.11918829 0.1001971 0.303 4285802274
0.12017243 0.1001971 0.303 4286461744
0.12115657 0.1001971 0.303 4288771175
0.12214071 0.1001971 0.303 4287323217
0.12574741 0.10151984 0.30700001 4287060309
0.085852988 0.10017978 0.30000001 4286417279
0.08682739 0.10017978 0.30000001 4286612354
0.087801784 0.10017978 0.30000001 4281409568
0.088776186 0.10017978 0.30000001 4283178268
0.089451425 0.099845849 0.29900002 4283177493
0.090422578 0.099845849 0.29900002 4283701007
0.091393732 0.099845849 0.29900002 4284357138
0.092055969 0.099511914 0.29800001 4284421902
0.093023874 0.099511914 0.29800001 4284750097
0.093676366 0.099177986 0.29700002 4284946193
0.094641022 0.099177986 0.29700002 4285405974
0.095605679 0.099177986 0.29700002 4285603353
0.096245185 0.098844044 0.296 4288828500
0.097206593 0.098844044 0.296 4285342754
0.098168001 0.098844044 0.296 4285998113
0.099129401 0.098844044 0.296 4285865500
0.10009081 0.098844044 0.296 4285603098
0.10139362 0.099177986 0.29700002 4284885796
0.10235828 0.099177986 0.29700002 4285614146
0.10367082 0.099511914 0.29800001 4286015330
0.10498987 0.099845849 0.29900002 4286347888
0.10666979 0.10051372 0.30100003 4286280301
0.10836269 0.10118157 0.303 4282063387
0.10934684 0.10118157 0.303 4284752412
0.11033098 0.10118157 0.303 4284881685
0.11131513 0.10118157 0.303 4285536533
0.11229927 0.10118157 0.303 4285536533
0.11328342 0.10118157 0.303 4285536531
0.11426757 0.10118157 0.303 4285536531
0.11525171 0.10118157 0.303 4285667604
0.11623584 0.10118157 0.303 4285668887
0.11721999 0.10118157 0.303 4285668887
0.11918829 0.10118157 0.303 4286395949
0.12017243 0.10118157 0.303 4291796880
0.12115657 0.10118157 0.303 4290679705
0.12214071 0.10118157 0.303 4285213757
0.085852988 0.10115451 0.30000001 4286614660
0.08682739 0.10115451 0.30000001 4287270537
0.087801784 0.10115451 0.30000001 4281080603
0.088776186 0.10115451 0.30000001 4283046934
0.089750588 0.10115451 0.30000001 4283308307
0.090422578 0.10081733 0.29900002 4283831825
0.091393732 0.10081733 0.29900002 4284094482
0.092055969 0.10048015 0.29800001 4284422161
0.093023874 0.10048015 0.29800001 4284487697
0.093676366 0.10014297 0.29700002 4284880400
0.094641022 0.10014297 0.29700002 4285142800
0.095283769 0.09980578 0.296 4285340433
0.096245185 0.09980578 0.296 4285800732
0.097206593 0.09980578 0.296 4291330422
0.098168001 0.09980578 0.296 4285211418
0.099129401 0.09980578 0.296 4286062366
0.10009081 0.09980578 0.296 4285667608
0.10105222 0.09980578 0.296 4285472539
0.10235828 0.10014297 0.29700002 4285078551
0.10367082 0.10048015 0.29800001 4284947999
0.10498987 0.10081733 0.29900002 4284948001
0.10666979 0.1014917 0.30100003 4284950054
0.10836269 0.10216605 0.303 4284883748
0.10934684 0.10216605 0.303 4284946713
0.11033098 0.10216605 0.303 4285536535
0.11131513 0.10216605 0.303 4285404434
0.11229927 0.10216605 0.303 4285799192
0.11328342 0.10216605 0.303 4285732629
0.11426757 0.10216605 0.303 4285864213
0.11525171 0.10216605 0.303 4285732627
0.11623584 0.10216605 0.303 4285732627
0.11721999 0.10216605 0.303 4285864985
0.11820414 0.10216605 0.303 4285799192
0.11918829 0.10216605 0.303 4286393639
0.12017243 0.10216605 0.303 4286263338
0.12115657 0.10216605 0.303 4285739068
0.12214071 0.10216605 0.303 4285940810
0.086139172 0.10246968 0.30100003 4286482821
0.08682739 0.10212924 0.30000001 4286612354
0.087801784 0.10212924 0.30000001 4281606947
0.088776186 0.10212924 0.30000001 4282849557
0.089750588 0.10212924 0.30000001 4283308307
0.090422578 0.10178882 0.29900002 4283504403
0.091393732 0.10178882 0.29900002 4284030487
0.092055969 0.10144838 0.29800001 4284160788
0.093023874 0.10144838 0.29800001 4283962896
0.093676366 0.10110795 0.29700002 4284290318
0.094641022 0.10110795 0.29700002 4284815375
0.095283769 0.10076752 0.296 4285077007
0.096245185 0.10076752 0.296 4285405972
0.097206593 0.10076752 0.296 4285799192
0.098168001 0.10076752 0.296 4286458412
0.099129401 0.10076752 0.296 4285603351
0.10009081 0.10076752 0.296 4285864983
0.10105222 0.10076752 0.296 4285733910
0.10201363 0.10076752 0.296 4285405715
0.10332294 0.10110795 0.29700002 4285471510
0.10498987 0.10178882 0.29900002 4285471510
0.10666979 0.10246968 0.30100003 4285603098
0.10836269 0.10315053 0.303 4285603101
0.10934684 0.10315053 0.303 4285668637
0.11033098 0.10315053 0.303 4285405719
0.11131513 0.10315053 0.303 4285732629
0.11229927 0.10315053 0.303 4285732627
0.11328342 0.10315053 0.303 4285601041
0.11426757 0.10315053 0.303 4285798420
0.11525171 0.10315053 0.303 4285798422
0.11623584 0.10315053 0.303 4285995801
0.11721999 0.10315053 0.303 4286061594
0.11820414 0.10315053 0.303 4285995801
0.11918829 0.10315053 0.303 4285930778
0.086139172 0.10344766 0.30100003 4286614920
0.08682739 0.10310397 0.30000001 4286613639
0.087801784 0.10310397 0.30000001 4282135601
0.088776186 0.10310397 0.30000001 4282718487
0.089750588 0.10310397 0.30000001 4283045909
0.090422578 0.1027603 0.29900002 4283176721
0.091393732 0.1027603 0.29900002 4283505686
0.092055969 0.10241661 0.29800001 4283504657
0.093023874 0.10241661 0.29800001 4283569934
0.093676366 0.10207294 0.29700002 4283897357
0.094641022 0.10207294 0.29700002 4284356366
0.095283769 0.10172925 0.296 4284946193
0.096245185 0.10172925 0.296 4285340181
0.096878193 0.10138558 0.29500002 4285799192
0.09783636 0.10138558 0.29500002 4286128159
0.098794512 0.10138558 0.29500002 4289027935
0.099752672 0.10138558 0.29500002 4285145378
0.10105222 0.10172925 0.296 4285208336
0.10201363 0.10172925 0.296 4285142543
0.10332294 0.10207294 0.29700002 4285274129
0.10498987 0.1027603 0.29900002 4285537301
0.10666979 0.10344766 0.30100003 4285537301
0.10836269 0.10413501 0.303 4285734682
0.10934684 0.10413501 0.303 4285602326
0.11033098 0.10413501 0.303 4285667606
0.11131513 0.10413501 0.303 4285667604
0.11229927 0.10413501 0.303 4285864467
0.11328342 0.10413501 0.303 4285798674
0.11426757 0.10413501 0.303 4285930260
0.11525171 0.10413501 0.303 4285930006
0.11623584 0.10413501 0.303 4285930006
0.11721999 0.10413501 0.303 4286193180
0.11820414 0.10413501 0.303 4286193180
0.11918829 0.10413501 0.303 4285538332
0.08682739 0.10407871 0.30000001 4286285695
0.087801784 0.10407871 0.30000001 4284901219
0.088776186 0.10407871 0.30000001 4282851356
0.089451425 0.10373178 0.29900002 4282783764
0.090422578 0.10373178 0.29900002 4282849041
0.091393732 0.10373178 0.29900002 4282717453
0.092055969 0.10338485 0.29800001 4283110928
0.093023874 0.10338485 0.29800001 4283242255
0.093676366 0.10303792 0.29700002 4283635216
0.094322361 0.10269099 0.296 4284160275
0.095283769 0.10269099 0.296 4284553490
0.095920034 0.10234407 0.29500002 4284881172
0.096878193 0.10234407 0.29500002 4285208595
0.09783636 0.10234407 0.29500002 4285340181
0.098794512 0.10234407 0.29500002 4285804332
0.099752672 0.10234407 0.29500002 4284947999
0.10071083 0.10234407 0.29500002 4284881683
0.10201363 0.10269099 0.296 4284815890
0.10332294 0.10303792 0.29700002 4284619540
0.10498987 0.10373178 0.29900002 4284750099
0.10666979 0.10442565 0.30100003 4285405717
0.10836269 0.10511949 0.303 4285668887
0.10934684 0.10511949 0.303 4285734680
0.11033098 0.10511949 0.303 4287774517
0.11131513 0.10511949 0.303 4286063899
0.11229927 0.10511949 0.303 4285733910
0.11328342 0.10511949 0.303 4286061592
0.11426757 0.10511949 0.303 4285995799
0.11525171 0.10511949 0.303 4285995801
0.11623584 0.10511949 0.303 4286061592
0.11721999 0.10511949 0.303 4285995799
0.11820414 0.10511949 0.303 4285930008
0.08682739 0.10505343 0.30000001 4286614407
0.087801784 0.10505343 0.30000001 4286482051
0.088776186 0.10505343 0.30000001 4283579706
0.089451425 0.10470325 0.29900002 4282587414
0.090422578 0.10470325 0.29900002 4282520590
0.091393732 0.10470325 0.29900002 4282717967
0.092055969 0.10435308 0.29800001 4282914832
0.092711717 0.1040029 0.29700002 4282849039
0.093676366 0.1040029 0.29700002 4283043852
0.094322361 0.10365272 0.296 4283503889
0.095283769 0.10365272 0.296 4284291861
0.095920034 0.10330255 0.29500002 4284553493
0.096878193 0.10330255 0.29500002 4284619029
0.09783636 0.10330255 0.29500002 4284947994
0.098794512 0.10330255 0.29500002 4284816665
0.099752672 0.10330255 0.29500002 4284882201
0.10071083 0.10330255 0.29500002 4284816919
0.101669 0.10330255 0.29500002 4288573796
0.10332294 0.1040029 0.29700002 4286805098
0.10498987 0.10470325 0.29900002 4282787614
0.10666979 0.10540362 0.30100003 4284752666
0.10836269 0.10610396 0.303 4285144855
0.10934684 0.10610396 0.303 4285208595
0.11033098 0.10610396 0.303 4285537301
0.11131513 0.10610396 0.303 4285668117
0.11229927 0.10610396 0.303 4285799703
0.11328342 0.10610396 0.303 4285997082
0.11426757 0.10610396 0.303 4286128155
0.11525171 0.10610396 0.303 4286128670
0.11623584 0.10610396 0.303 4286458407
0.11721999 0.10610396 0.303 4285995799
0.11820414 0.10610396 0.303 4286193178
0.086139172 0.1063816 0.30100003 4286680713
0.087116823 0.1063816 0.30100003 4286680200
0.087801784 0.10602816 0.30000001 4286614407
0.088776186 0.10602816 0.30000001 4286415998
0.089750588 0.10602816 0.30000001 4282464307
0.090422578 0.10567474 0.29900002 4282587666
0.091088064 0.10532131 0.29800001 4282652946
0.092055969 0.10532131 0.29800001 4282651660
0.092711717 0.10496788 0.29700002 4282717453
0.093676366 0.10496788 0.29700002 4282980112
0.094322361 0.10461445 0.296 4283242001
0.095283769 0.10461445 0.296 4283898901
0.095920034 0.10426103 0.29500002 4283766802
0.096878193 0.10426103 0.29500002 4284160790
0.09783636 0.10426103 0.29500002 4284292376
0.098794512 0.10426103 0.29500002 4284883228
0.099752672 0.10426103 0.29500002 4284882458
0.10071083 0.10426103 0.29500002 4284692779
0.101669 0.10426103 0.29500002 4286608480
0.10332294 0.10496788 0.29700002 4286282865
0.10498987 0.10567474 0.29900002 4285888107
0.10666979 0.1063816 0.30100003 4286412135
0.10836269 0.10708845 0.303 4285422160
0.10934684 0.10708845 0.303 4284296999
0.11033098 0.10708845 0.303 4283242514
0.11131513 0.10708845 0.303 4284686103
0.11229927 0.10708845 0.303 4284553490
0.11328342 0.10708845 0.303 4284815379
0.11426757 0.10708845 0.303 4285471769
0.11525171 0.10708845 0.303 4286523430
0.11623584 0.10708845 0.303 4292184454
0.11721999 0.10708845 0.303 4286062879
0.11820414 0.10708845 0.303 4285930778
0.11918829 0.10708845 0.303 4285145625
0.086139172 0.10735958 0.30100003 4286680200
0.087116823 0.10735958 0.30100003 4286745223
0.088094465 0.10735958 0.30100003 4286811016
0.088776186 0.1070029 0.30000001 4286614660
0.089750588 0.1070029 0.30000001 4286613375
0.090422578 0.10664622 0.29900002 4285621085
0.091088064 0.10628954 0.29800001 4283973432
0.092055969 0.10628954 0.29800001 4283115041
0.092711717 0.10593287 0.29700002 4282521621
0.093676366 0.10593287 0.29700002 4282849555
0.094322361 0.10557619 0.296 4282980627
0.095283769 0.10557619 0.296 4283111952
0.095920034 0.10521952 0.29500002 4283505940
0.096878193 0.10521952 0.29500002 4283637013
0.09783636 0.10521952 0.29500002 4283768599
0.098794512 0.10521952 0.29500002 4284491552
0.099752672 0.10521952 0.29500002 4285479730
0.10071083 0.10521952 0.29500002 4282651664
0.101669 0.10521952 0.29500002 4282851617
0.10332294 0.10593287 0.29700002 4282921524
0.10498987 0.10664622 0.29900002 4282264109
0.10666979 0.10735958 0.30100003 4282000935
0.10836269 0.10807292 0.303 4282923059
0.10934684 0.10807292 0.303 4282330920
0.11033098 0.10807292 0.303 4283185713
0.11131513 0.10807292 0.303 4282914321
0.11229927 0.10807292 0.303 4283569423
0.11328342 0.10807292 0.303 4284356368
0.11426757 0.10807292 0.303 4284750099
0.11525171 0.10807292 0.303 4285668119
0.11623584 0.10807292 0.303 4285864987
0.11721999 0.10807292 0.303 4286194213
0.11820414 0.10807292 0.303 4286194465
0.11918829 0.10807292 0.303 4285406746
0.086139172 0.10833756 0.30100003 4286614660
0.087116823 0.10833756 0.30100003 4286614660
0.088094465 0.10833756 0.30100003 4286483074
0.088776186 0.10797763 0.30000001 4286614660
0.089750588 0.10797763 0.30000001 4286614660
0.090422578 0.10761771 0.29900002 4286417281
0.091393732 0.10761771 0.29900002 4286153337
0.092055969 0.10725778 0.29800001 4286743416
0.092711717 0.10689785 0.29700002 4286280810
0.093676366 0.10689785 0.29700002 4283843130
0.094322361 0.10653792 0.296 4282854438
0.095283769 0.10653792 0.296 4282261016
0.095920034 0.10617801 0.29500002 4282457879
0.096878193 0.10617801 0.29500002 4283313188
0.09783636 0.10617801 0.29500002 4284367929
0.098794512 0.10617801 0.29500002 4286014035
0.099752672 0.10617801 0.29500002 4283907891
0.10071083 0.10617801 0.29500002 4283311137
0.101669 0.10617801 0.29500002 4282850073
0.10332294 0.10689785 0.29700002 4282784280
0.10498987 0.10761771 0.29900002 4282258451
0.10666979 0.10833756 0.30100003 4282062101
0.10836269 0.1090574 0.303 4281602834
0.10934684 0.1090574 0.303 4281669394
0.11033098 0.1090574 0.303 4281800467
0.11131513 0.1090574 0.303 4282717457
0.11229927 0.1090574 0.303 4283373587
0.11328342 0.1090574 0.303 4284357138
0.11426757 0.1090574 0.303 4284487697
0.11525171 0.1090574 0.303 4285077009
0.11623584 0.1090574 0.303 4285208336
0.11721999 0.1090574 0.303 4285537305
0.11820414 0.1090574 0.303 4285537305
0.087116823 0.10931554 0.30100003 4286680200
0.088094465 0.10931554 0.30100003 4286351488
0.088776186 0.10895235 0.30000001 4286483074
0.089750588 0.10895235 0.30000001 4286483074
0.090422578 0.10858919 0.29900002 4286219902
0.091393732 0.10858919 0.29900002 4286417281
0.092055969 0.108226 0.29800001 4286285693
0.092711717 0.10786283 0.29700002 4286154107
0.093676366 0.10786283 0.29700002 4286416763
0.094322361 0.10749965 0.296 4286218871
0.095283769 0.10749965 0.296 4286414708
0.11127017 0.081754953 0.30096629 4294967295
0.11127017 0.081754953 0.30096629 4294901760
0.11127017 0.08125551 0.30094272 4294901760
0.11127017 0.080756068 0.30091915 4294901760
0.11127017 0.080256619 0.30089557 4294901760
0.11127017 0.079757176 0.300872 4294901760
0.11127017 0.079257734 0.30084842 4294901760
0.11127017 0.078758292 0.30082485 4294901760
0.11127017 0.078258842 0.30080128 4294901760
0.11127017 0.0777594 0.3007777 4294901760
0.11127017 0.077259958 0.30075413 4294901760
0.11127017 0.076760516 0.30073056 4294901760
0.11127017 0.076261066 0.30070698 4294901760
0.11127017 0.075761624 0.30068341 4294901760
0.11127017 0.075262181 0.30065984 4294901760
0.11127017 0.074762739 0.30063626 4294901760
0.11127017 0.07426329 0.30061269 4294901760
0.11127017 0.073763847 0.30058911 4294901760
0.11127017 0.073264405 0.30056557 4294901760
0.11127017 0.072764963 0.300542 4294901760
0.11127017 0.072265521 0.30051842 4294901760
0.11127017 0.071766071 0.30049485 4294901760
0.11127017 0.071266629 0.30047128 4294901760
0.11127017 0.070767187 0.3004477 4294901760
0.11127017 0.070267737 0.30042413 4294901760
0.11127017 0.069768295 0.30040056 4294901760
0.11127017 0.069268852 0.30037698 4294901760
0.11127017 0.06876941 0.30035341 4294901760
0.11127017 0.068269968 0.30032983 4294901760
0.11127017 0.067770518 0.30030626 4294901760
0.11127017 0.067271076 0.30028269 4294901760
0.11127017 0.066771634 0.30025911 4294901760
0.11127017 0.066272184 0.30023554 4294901760
0.11127017 0.065772742 0.30021197 4294901760
0.11127017 0.0652733 0.30018839 4294901760
0.11127017 0.064773858 0.30016482 4294901760
0.11127017 0.064274415 0.30014125 4294901760
0.11127017 0.063774966 0.30011767 4294901760
0.11127017 0.063275523 0.3000941 4294901760
0.11127017 0.062776081 0.30007052 4294901760
0.11127017 0.062276639 0.30004695 4294901760
0.11127017 0.061777189 0.30002338 4294901760
0.11127017 0.061277747 0.2999998 4294901760
0.11127017 0.060778305 0.29997623 4294901760
0.11127017 0.060278863 0.29995266 4294901760
0.11127017 0.059779417 0.29992908 4294901760
0.11127017 0.059279971 0.29990551 4294901760
0.11127017 0.058780529 0.29988194 4294901760
0.11127017 0.058281086 0.29985836 4294901760
0.11127017 0.05778164 0.29983479 4294901760
0.11127017 0.057282194 0.29981121 4294901760
0.11127017 0.056782752 0.29978764 4294901760
0.11127017 0.05628331 0.2997641 4294901760
0.11127017 0.055783868 0.29974052 4294901760
0.11127017 0.055284422 0.29971695 4294901760
0.11127017 0.054784976 0.29969338 4294901760
0.11127017 0.054285534 0.2996698 4294901760
0.11127017 0.053786088 0.29964623 4294901760
0.11127017 0.053286642 0.29962265 4294901760
0.11127017 0.0527872 0.29959908 4294901760
0.11127017 0.052287757 0.29957551 4294901760
0.11127017 0.051788311 0.29955193 4294901760
0.11127017 0.051288866 0.29952836 4294901760
0.11127017 0.050789423 0.29950479 4294901760
0.11127017 0.050289981 0.29948121 4294901760
0.11127017 0.049790535 0.29945764 4294901760
0.11127017 0.049291093 0.29943407 4294901760
0.11127017 0.048791647 0.29941049 4294901760
0.11127017 0.048292205 0.29938692 4294901760
0.11127017 0.047792759 0.29936334 4294901760
0.11127017 0.047293317 0.29933977 4294901760
0.11127017 0.046793874 0.2993162 4294901760
0.11127017 0.046294428 0.29929262 4294901760
0.11127017 0.045794982 0.29926905 4294901760
0.11127017 0.04529554 0.29924548 4294901760
0.11127017 0.044796094 0.2992219 4294901760
0.11127017 0.044296652 0.29919833 4294901760
0.11127017 0.04379721 0.29917476 4294901760
0.11127017 0.043297764 0.29915118 4294901760
0.11127017 0.042798322 0.29912761 4294901760
0.11127017 0.042298876 0.29910403 4294901760
0.11127017 0.04179943 0.29908046 4294901760
0.11127017 0.041299988 0.29905689 4294901760
0.11127017 0.040800545 0.29903331 4294901760
0.11127017 0.040301099 0.29900974 4294901760
0.11127017 0.039801657 0.2989862 4294901760
0.11127017 0.039302211 0.29896262 4294901760
0.11127017 0.038802769 0.29893905 4294901760
0.11127017 0.038303323 0.29891548 4294901760
0.11127017 0.037803881 0.2988919 4294901760
0.11127017 0.037304435 0.29886833 4294901760
0.11127017 0.036804993 0.29884475 4294901760
0.11127017 0.036305547 0.29882118 4294901760
0.11127017 0.035806105 0.29879761 4294901760
0.11127017 0.035306659 0.29877403 4294901760
0.11127017 0.034807216 0.29875046 4294901760
0.11127017 0.034307774 0.29872689 4294901760
0.11127017 0.033808328 0.29870331 4294901760
0.11127017 0.033308882 0.29867974 4294901760
0.11127017 0.03280944 0.29865617 4294901760
0.11127017 0.032309994 0.29863259 4294901760
0.11127017 0.031810552 0.29860902 4294901760
0.11127017 0.081754953 0.30096629 4278255360
0.11174338 0.081747338 0.30112758 4278255360
0.1122166 0.081739731 0.30128887 4278255360
0.11268981 0.081732117 0.30145016 4278255360
0.11316302 0.081724502 0.30161142 4278255360
0.11363623 0.081716888 0.30177271 4278255360
0.11410944 0.081709281 0.301934 4278255360
0.11458266 0.081701666 0.30209529 4278255360
0.11505587 0.081694052 0.30225658 4278255360
0.11552908 0.081686445 0.30241787 4278255360
0.11600229 0.08167883 0.30257913 4278255360
0.1164755 0.081671216 0.30274042 4278255360
0.11694871 0.081663601 0.30290172 4278255360
0.11742193 0.081655994 0.30306301 4278255360
0.11789513 0.08164838 0.3032243 4278255360
0.11836834 0.081640765 0.30338559 4278255360
0.11884156 0.081633158 0.30354685 4278255360
0.11931477 0.081625544 0.30370814 4278255360
0.11978798 0.081617929 0.30386943 4278255360
0.12026119 0.081610322 0.30403072 4278255360
0.1207344 0.081602708 0.30419201 4278255360
0.12120761 0.081595093 0.3043533 4278255360
0.12168083 0.081587479 0.30451456 4278255360
0.12215403 0.081579871 0.30467585 4278255360
0.12262725 0.081572257 0.30483714 4278255360
0.12310046 0.081564642 0.30499843 4278255360
0.12357367 0.081557035 0.30515972 4278255360
0.12404688 0.081549421 0.30532101 4278255360
0.12452009 0.081541806 0.3054823 4278255360
0.1249933 0.081534192 0.30564356 4278255360
0.12546651 0.081526585 0.30580485 4278255360
0.12593973 0.08151897 0.30596614 4278255360
0.12641294 0.081511356 0.30612743 4278255360
0.12688616 0.081503749 0.30628872 4278255360
0.12735936 0.081496134 0.30645001 4278255360
0.12783258 0.08148852 0.30661127 4278255360
0.12830579 0.081480905 0.30677256 4278255360
0.12877899 0.081473298 0.30693385 4278255360
0.12925221 0.081465684 0.30709514 4278255360
0.12972543 0.081458069 0.30725643 4278255360
0.13019863 0.081450462 0.30741772 4278255360
0.13067184 0.081442848 0.30757898 4278255360
0.13114506 0.081435233 0.30774027 4278255360
0.13161826 0.081427619 0.30790156 4278255360
0.13209148 0.081420012 0.30806285 4278255360
0.13256469 0.081412397 0.30822414 4278255360
0.13303789 0.081404783 0.30838543 4278255360
0.13351111 0.081397176 0.30854669 4278255360
0.13398433 0.081389561 0.30870798 4278255360
0.13445753 0.081381947 0.30886927 4278255360
0.13493074 0.081374332 0.30903056 4278255360
0.13540396 0.081366725 0.30919185 4278255360
0.13587716 0.081359111 0.30935314 4278255360
0.13635038 0.081351496 0.3095144 4278255360
0.13682359 0.081343889 0.30967569 4278255360
0.1372968 0.081336275 0.30983698 4278255360
0.13777001 0.08132866 0.30999827 4278255360
0.13824323 0.081321053 0.31015956 4278255360
0.13871643 0.081313439 0.31032085 4278255360
0.13918965 0.081305824 0.31048214 4278255360
0.13966286 0.08129821 0.3106434 4278255360
0.14013606 0.081290603 0.31080469 4278255360
0.14060928 0.081282988 0.31096599 4278255360
0.1410825 0.081275374 0.31112728 4278255360
0.1415557 0.081267767 0.31128857 4278255360
0.14202891 0.081260152 0.31144986 4278255360
0.14250213 0.081252538 0.31161112 4278255360
0.14297533 0.081244923 0.31177241 4278255360
0.14344855 0.081237316 0.3119337 4278255360
0.14392176 0.081229702 0.31209499 4278255360
0.14439496 0.081222087 0.31225628 4278255360
0.14486818 0.08121448 0.31241757 4278255360
0.1453414 0.081206866 0.31257886 4278255360
0.14581461 0.081199251 0.31274012 4278255360
0.14628781 0.081191637 0.31290141 4278255360
0.14676103 0.08118403 0.3130627 4278255360
0.14723425 0.081176415 0.31322399 4278255360
0.14770745 0.081168801 0.31338528 4278255360
0.14818066 0.081161194 0.31354654 4278255360
0.14865388 0.081153579 0.31370783 4278255360
0.1491271 0.081145965 0.31386912 4278255360
0.1496003 0.08113835 0.31403041 4278255360
0.15007351 0.081130743 0.3141917 4278255360
0.15054673 0.081123129 0.31435299 4278255360
0.15101993 0.081115514 0.31451428 4278255360
0.15149315 0.081107907 0.31467554 4278255360
0.15196636 0.081100293 0.31483683 4278255360
0.15243956 0.081092678 0.31499812 4278255360
0.15291278 0.081085071 0.31515941 4278255360
0.153386 0.081077456 0.3153207 4278255360
0.1538592 0.081069842 0.31548199 4278255360
0.15433241 0.081062227 0.31564325 4278255360
0.15480563 0.08105462 0.31580454 4278255360
0.15527883 0.081047006 0.31596583 4278255360
0.15575205 0.081039391 0.31612712 4278255360
0.15622526 0.081031784 0.31628841 4278255360
0.15669847 0.08102417 0.3164497 4278255360
0.15717168 0.081016555 0.31661099 4278255360
0.1576449 0.081008941 0.31677225 4278255360
0.1581181 0.081001334 0.31693354 4278255360
0.15859132 0.080993719 0.31709483 4278255360
0.11127017 0.081754953 0.30096629 4278190335
0.11110871 0.081732646 0.30143899 4278190335
0.11094724 0.081710331 0.30191165 4278190335
0.11078578 0.081688024 0.30238435 4278190335
0.11062431 0.081665717 0.30285704 4278190335
0.11046285 0.081643403 0.30332971 4278190335
0.11030138 0.081621096 0.3038024 4278190335
0.11013992 0.081598781 0.3042751 4278190335
0.10997845 0.081576474 0.30474779 4278190335
0.10981699 0.081554167 0.30522045 4278190335
0.10965552 0.081531852 0.30569315 4278190335
0.10949406 0.081509545 0.30616584 4278190335
0.10933259 0.081487238 0.30663851 4278190335
0.10917113 0.081464924 0.3071112 4278190335
0.10900966 0.081442617 0.3075839 4278190335
0.1088482 0.081420302 0.30805656 4278190335
0.10868673 0.081397995 0.30852926 4278190335
0.10852527 0.081375688 0.30900195 4278190335
0.10836381 0.081353374 0.30947462 4278190335
0.10820234 0.081331067 0.30994731 4278190335
0.10804088 0.08130876 0.31042001 4278190335
0.10787941 0.081286445 0.31089267 4278190335
0.10771795 0.081264138 0.31136537 4278190335
0.10755648 0.081241824 0.31183806 4278190335
0.10739502 0.081219517 0.31231076 4278190335
0.10723355 0.08119721 0.31278342 4278190335
0.10707209 0.081174895 0.31325611 4278190335
0.10691062 0.081152588 0.31372881 4278190335
0.10674915 0.081130281 0.31420147 4278190335
0.10658769 0.081107967 0.31467417 4278190335
0.10642622 0.08108566 0.31514686 4278190335
0.10626476 0.081063353 0.31561953 4278190335
0.10610329 0.081041038 0.31609222 4278190335
0.10594182 0.081018731 0.31656492 4278190335
0.10578036 0.080996417 0.31703758 4278190335
0.1056189 0.080974109 0.31751028 4278190335
0.10545743 0.080951802 0.31798297 4278190335
0.10529597 0.080929488 0.31845567 4278190335
0.1051345 0.080907181 0.31892833 4278190335
0.10497304 0.080884874 0.31940103 4278190335
0.10481157 0.080862559 0.31987372 4278190335
0.10465011 0.080840252 0.32034639 4278190335
0.10448864 0.080817938 0.32081908 4278190335
0.10432718 0.080795631 0.32129177 4278190335
0.10416571 0.080773324 0.32176444 4278190335
0.10400425 0.080751009 0.32223713 4278190335
0.10384278 0.080728702 0.32270983 4278190335
0.10368132 0.080706395 0.32318249 4278190335
0.10351985 0.080684081 0.32365519 4278190335
0.10335839 0.080661774 0.32412788 4278190335
0.10319692 0.080639467 0.32460058 4278190335
0.10303546 0.080617152 0.32507324 4278190335
0.102874 0.080594845 0.32554594 4278190335
0.10271253 0.080572531 0.32601863 4278190335
0.10255107 0.080550224 0.3264913 4278190335
0.1023896 0.080527917 0.32696399 4278190335
0.10222813 0.080505602 0.32743669 4278190335
0.10206667 0.080483295 0.32790935 4278190335
0.1019052 0.080460988 0.32838205 4278190335
0.10174374 0.080438673 0.32885474 4278190335
0.10158227 0.080416366 0.3293274 4278190335
0.1014208 0.080394052 0.3298001 4278190335
0.10125934 0.080371745 0.33027279 4278190335
0.10109787 0.080349438 0.33074546 4278190335
0.10093641 0.080327123 0.33121815 4278190335
0.10077494 0.080304816 0.33169085 4278190335
0.10061348 0.080282509 0.33216354 4278190335
0.10045202 0.080260195 0.33263621 4278190335
0.10029055 0.080237888 0.3331089 4278190335
0.10012909 0.080215573 0.3335816 4278190335
0.099967621 0.080193266 0.33405426 4278190335
0.09980616 0.080170959 0.33452696 4278190335
0.099644691 0.080148645 0.33499965 4278190335
0.099483229 0.080126338 0.33547232 4278190335
0.09932176 0.080104031 0.33594501 4278190335
0.099160299 0.080081716 0.3364177 4278190335
0.09899883 0.080059409 0.33689037 4278190335
0.098837368 0.080037102 0.33736306 4278190335
0.098675899 0.080014788 0.33783576 4278190335
0.098514438 0.079992481 0.33830845 4278190335
0.098352969 0.079970166 0.33878112 4278190335
0.098191507 0.079947859 0.33925381 4278190335
0.098030046 0.079925552 0.33972651 4278190335
0.097868577 0.079903238 0.34019917 4278190335
0.097707115 0.07988093 0.34067187 4278190335
0.097545646 0.079858623 0.34114456 4278190335
0.097384185 0.079836309 0.34161723 4278190335
0.097222716 0.079814002 0.34208992 4278190335
0.097061254 0.079791687 0.34256262 4278190335
0.096899785 0.07976938 0.34303528 4278190335
0.096738324 0.079747073 0.34350798 4278190335
0.096576855 0.079724759 0.34398067 4278190335
0.096415393 0.079702452 0.34445333 4278190335
0.096253924 0.079680145 0.34492603 4278190335
0.096092463 0.07965783 0.34539872 4278190335
0.095930994 0.079635523 0.34587139 4278190335
0.095769532 0.079613209 0.34634408 4278190335
0.095608063 0.079590902 0.34681678 4278190335
0.095446602 0.079568595 0.34728947 4278190335
0.095285133 0.07954628 0.34776214 4278190335
0.095123671 0.079523973 0.34823483 4278190335
0.11127017 0.081754953 0.30096629 4294967295
0.1115931 0.081799574 0.30002093 4294967295
0.11191604 0.081844188 0.29907554 4294967295
0.11223897 0.08188881 0.29813018 4294967295
0.1125619 0.081933431 0.29718482 4294967295
0.11288483 0.081978053 0.29623944 4294967295
0.11320776 0.082022667 0.29529408 4294967295
0.11353069 0.082067288 0.29434869 4294967295
0.11385362 0.08211191 0.29340333 4294967295
0.11417654 0.082156532 0.29245797 4294967295
0.11449947 0.082201146 0.29151258 4294967295
0.1148224 0.082245767 0.29056722 4294967295
0.11514533 0.082290389 0.28962186 4294967295
0.11546826 0.08233501 0.28867647 4294967295
0.11579119 0.082379624 0.28773111 4294967295
0.11611412 0.082424246 0.28678572 4294967295
0.11643706 0.082468867 0.28584036 4294967295
0.11675999 0.082513489 0.284895 4294967295
0.11708292 0.082558103 0.28394961 4294967295
0.11740585 0.082602724 0.28300425 4294967295
0.11772878 0.082647346 0.28205889 4294967295
0.11805171 0.082691967 0.28111351 4294967295
0.11837464 0.082736582 0.28016815 4294967295
0.11869757 0.082781203 0.27922279 4294967295
0.1190205 0.082825825 0.2782774 4294967295
0.11934343 0.082870439 0.27733204 4294967295
0.11966635 0.08291506 0.27638665 4294967295
0.11998928 0.082959682 0.27544129 4294967295
0.12031221 0.083004303 0.27449593 4294967295
0.12063514 0.083048917 0.27355054 4294967295
0.12095807 0.083093539 0.27260518 4294967295
0.12128101 0.08313816 0.27165979 4294967295
0.12160394 0.083182782 0.27071443 4294967295
0.12192687 0.083227396 0.26976907 4294967295
0.1222498 0.083272018 0.26882368 4294967295
0.12257273 0.083316639 0.26787832 4294967295
0.12289566 0.083361261 0.26693296 4294967295
0.12321859 0.083405875 0.26598758 4294967295
0.12354152 0.083450496 0.26504222 4294967295
0.12386445 0.083495118 0.26409686 4294967295
0.12418738 0.083539739 0.26315147 4294967295
0.1245103 0.083584353 0.26220611 4294967295
0.12483323 0.083628975 0.26126075 4294967295
0.12515616 0.083673596 0.26031536 4294967295
0.1254791 0.083718218 0.25937 4294967295
0.12580203 0.083762832 0.25842461 4294967295
0.12612496 0.083807454 0.25747925 4294967295
0.12644789 0.083852075 0.25653389 4294967295
0.12677082 0.083896697 0.2555885 4294967295
0.12709375 0.083941311 0.25464314 4294967295
0.12741667 0.083985932 0.25369775 4294967295
0.12773961 0.084030554 0.25275239 4294967295
0.12806253 0.084075168 0.25180703 4294967295
0.12838547 0.084119789 0.25086164 4294967295
0.12870839 0.084164411 0.24991629 4294967295
0.12903133 0.084209032 0.24897091 4294967295
0.12935425 0.084253646 0.24802554 4294967295
0.12967719 0.084298268 0.24708018 4294967295
0.13000011 0.084342889 0.2461348 4294967295
0.13032305 0.084387511 0.24518943 4294967295
0.13064598 0.084432125 0.24424407 4294967295
0.13096891 0.084476747 0.24329869 4294967295
0.13129184 0.084521368 0.24235332 4294967295
0.13161477 0.08456599 0.24140796 4294967295
0.1319377 0.084610604 0.24046259 4294967295
0.13226062 0.084655225 0.23951721 4294967295
0.13258356 0.084699847 0.23857184 4294967295
0.1329065 0.084744468 0.23762646 4294967295
0.13322942 0.084789082 0.2366811 4294967295
0.13355234 0.084833704 0.23573573 4294967295
0.13387528 0.084878325 0.23479035 4294967295
0.1341982 0.084922947 0.233845 4294967295
0.13452114 0.084967561 0.23289961 4294967295
0.13484406 0.085012183 0.23195425 4294967295
0.135167 0.085056804 0.23100887 4294967295
0.13548993 0.085101426 0.2300635 4294967295
0.13581286 0.08514604 0.22911814 4294967295
0.13613579 0.085190661 0.22817276 4294967295
0.13645872 0.085235283 0.22722739 4294967295
0.13678165 0.085279897 0.22628203 4294967295
0.13710459 0.085324518 0.22533664 4294967295
0.13742751 0.08536914 0.22439128 4294967295
