# .PCD v0.7 - Point Cloud Data file format
VERSION 0.7
FIELDS x y z rgb
SIZE 4 4 4 4
TYPE F F F U
COUNT 1 1 1 1
WIDTH 1023
HEIGHT 1
VIEWPOINT 0 0 0 1 0 0 0
POINTS 1023
DATA ascii
0.090674929 -0.0057080728 0.41600001 4280111406
0.0920261 -0.0057080728 0.41600001 4279454246
0.093601733 -0.0057217944 0.41700003 4279455014
0.094956152 -0.0057217944 0.41700003 4279323428
0.096541531 -0.0057355152 0.41800001 4279586600
0.097899191 -0.0057355152 0.41800001 4279258148
0.10506026 -0.0058315648 0.42500001 4279193121
0.10669111 -0.0058452864 0.42600003 4279127328
0.10807475 -0.0058452864 0.42600003 4279456293
0.10971535 -0.0058590076 0.42700002 4279258914
0.11110225 -0.0058590076 0.42700002 4278929949
0.11248914 -0.0058590076 0.42700002 4278798363
0.11387604 -0.0058590076 0.42700002 4278798363
0.11526294 -0.0058590076 0.42700002 4278732570
0.11692302 -0.0058727288 0.42800003 4278732570
0.11831316 -0.0058727288 0.42800003 4278732570
0.11970331 -0.0058727288 0.42800003 4279061539
0.12109346 -0.0058727288 0.42800003 4279320096
0.02340897 -0.0041679461 0.39800003 4279971614
0.027355645 -0.0041784183 0.39900002 4280367655
0.028651597 -0.0041784183 0.39900002 4280038690
0.029947549 -0.0041784183 0.39900002 4279839776
0.036336016 -0.0041679461 0.39800003 4280036125
0.037534177 -0.0041574738 0.39700001 4279968795
0.038823631 -0.0041574738 0.39700001 4279772188
0.040113091 -0.0041574738 0.39700001 4280234018
0.04375989 -0.0041365293 0.39500001 4279581219
0.076421298 -0.0043145572 0.41200003 4285896579
0.077759475 -0.0043145572 0.41200003 4283791973
0.07928963 -0.0043250294 0.41300002 4281950280
0.080631055 -0.0043250294 0.41300002 4280108588
0.082170963 -0.0043355017 0.41400003 4280175403
0.083515637 -0.0043355017 0.41400003 4280504881
0.085065283 -0.004345974 0.41500002 4279914797
0.086413205 -0.004345974 0.41500002 4279652393
0.087761126 -0.004345974 0.41500002 4279389734
0.089109041 -0.004345974 0.41500002 4279193123
0.090674929 -0.0043564462 0.41600001 4279061537
0.0920261 -0.0043564462 0.41600001 4279193121
0.093601733 -0.0043669185 0.41700003 4278930716
0.094956152 -0.0043669185 0.41700003 4279062302
0.096541531 -0.0043773907 0.41800001 4279062302
0.097899191 -0.0043773907 0.41800001 4278864923
0.099494316 -0.004387863 0.41900003 4278733337
0.102948 -0.0044192798 0.42200002 4278667544
0.10481305 -0.0044402243 0.42400002 4278733337
0.10644065 -0.0044506961 0.42500001 4278535958
0.10782105 -0.0044506961 0.42500001 4278601751
0.10945841 -0.0044611688 0.42600003 4278667031
0.11084206 -0.0044611688 0.42600003 4278338066
0.1122257 -0.0044611688 0.42600003 4278732824
0.11387604 -0.0044716406 0.42700002 4278732824
0.11526294 -0.0044716406 0.42700002 4278798363
0.11664983 -0.0044716406 0.42700002 4279193123
0.11831316 -0.0044821128 0.42800003 4278929181
0.11970331 -0.0044821128 0.42800003 4279191842
0.12109346 -0.0044821128 0.42800003 4279319326
0.036244716 -0.0028675804 0.39700001 4279772953
0.037534177 -0.0028675804 0.39700001 4279837209
0.038823631 -0.0028675804 0.39700001 4279837209
0.04001205 -0.0028603573 0.39600003 4279837979
0.041298259 -0.0028603573 0.39600003 4279772953
0.04247693 -0.0028531342 0.39500001 4280432165
0.04375989 -0.0028531342 0.39500001 4279842338
0.044928819 -0.0028459111 0.39400002 4279783213
0.046091251 -0.0028386877 0.39300001 4280046899
0.047367714 -0.0028386877 0.39300001 4283004000
0.06459935 -0.0029253655 0.40500003 4285961607
0.065914787 -0.0029253655 0.40500003 4285764228
0.068714917 -0.0029325886 0.40600002 4286225290
0.070206098 -0.0029398117 0.40700001 4284976247
0.071703784 -0.0029470348 0.40800002 4282608210
0.073028974 -0.0029470348 0.40800002 4280438577
0.074536391 -0.0029542579 0.40900001 4280307504
0.076235801 -0.0029687041 0.41100001 4280374580
0.077759475 -0.0029759274 0.41200003 4279717932
0.079097643 -0.0029759274 0.41200003 4279193125
0.080631055 -0.0029831503 0.41300002 4278929953
0.08197248 -0.0029831503 0.41300002 4279061539
0.083515637 -0.0029903736 0.41400003 4279127330
0.08486031 -0.0029903736 0.41400003 4279127328
0.086204983 -0.0029903736 0.41400003 4279193121
0.087549657 -0.0029903736 0.41400003 4279194404
0.089109041 -0.0029975967 0.41500002 4279063072
0.09045697 -0.0029975967 0.41500002 4278931486
0.0920261 -0.0030048196 0.41600001 4278930716
0.09337727 -0.0030048196 0.41600001 4278864923
0.094956152 -0.003012043 0.41700003 4278667544
0.096541531 -0.0030192661 0.41800001 4278601749
0.097899191 -0.0030192661 0.41800001 4278601749
0.099494316 -0.0030264892 0.41900003 4278601238
0.10109594 -0.0030337123 0.42000002 4278535445
0.102948 -0.0030481585 0.42200002 4278206480
0.10456585 -0.0030553816 0.42300001 4278272273
0.1061902 -0.0030626049 0.42400002 4278600984
0.10756736 -0.0030626049 0.42400002 4279192351
0.10920145 -0.0030698278 0.42500001 4278863386
0.11058186 -0.0030698278 0.42500001 4279257631
0.1122257 -0.0030770511 0.42600003 4279125533
0.11360936 -0.0030770511 0.42600003 4279257117
0.11526294 -0.0030842742 0.42700002 4279257631
0.11664983 -0.0030842742 0.42700002 4279257633
0.11803672 -0.0030842742 0.42700002 4279388705
0.11970331 -0.0030914973 0.42800003 4279125533
0.12109346 -0.0030914973 0.42800003 4279056154
0.1224836 -0.0030914973 0.42800003 4285699196
0.034955263 -0.001577687 0.39700001 4280826155
0.036244716 -0.001577687 0.39700001 4279838746
0.037439633 -0.0015737129 0.39600003 4279706393
0.038725842 -0.0015737129 0.39600003 4279640600
0.04001205 -0.0015737129 0.39600003 4280101918
0.04119397 -0.0015697388 0.39500001 4279641367
0.04247693 -0.0015697388 0.39500001 4279904539
0.043649107 -0.0015657649 0.39400002 4279708955
0.044928819 -0.0015657649 0.39400002 4279125535
0.046091251 -0.0015617908 0.39300001 4279390504
0.047367714 -0.0015617908 0.39300001 4279719217
0.048644178 -0.0015617908 0.39300001 4280177719
0.049920641 -0.0015617908 0.39300001 4285568643
0.051197108 -0.0015617908 0.39300001 4286028935
0.057019293 -0.0015816611 0.39800003 4286027398
0.058312003 -0.0015816611 0.39800003 4285961605
0.059754461 -0.001585635 0.39900002 4285830532
0.06120342 -0.001589609 0.40000001 4286422669
0.062815137 -0.001597557 0.40200001 4285962372
0.064280339 -0.0016015311 0.40300003 4283791973
0.065752037 -0.0016055051 0.40400001 4281489729
0.067064226 -0.0016055051 0.40400001 4280110641
0.068545669 -0.0016094792 0.40500003 4280045361
0.070033602 -0.0016134531 0.40600002 4279454760
0.07152804 -0.0016174271 0.40700001 4279586600
0.073028974 -0.0016214012 0.40800002 4279127330
0.074536391 -0.0016253751 0.40900001 4279062050
0.076050319 -0.0016293493 0.41000003 4278931234
0.077570736 -0.0016333233 0.41100001 4278800162
0.078905657 -0.0016333233 0.41100001 4278734369
0.080435827 -0.0016372973 0.41200003 4278865955
0.081774004 -0.0016372973 0.41200003 4279326506
0.083313905 -0.0016412713 0.41300002 4278865955
0.08465533 -0.0016412713 0.41300002 4278865439
0.085996754 -0.0016412713 0.41300002 4278733853
0.087549657 -0.0016452454 0.41400003 4278602521
0.08889433 -0.0016452454 0.41400003 4278470681
0.09045697 -0.0016492193 0.41500002 4278470681
0.091804892 -0.0016492193 0.41500002 4278667290
0.09337727 -0.0016531934 0.41600001 4278666777
0.094956152 -0.0016571674 0.41700003 4278732054
0.096310571 -0.0016571674 0.41700003 4279192605
0.097899191 -0.0016611414 0.41800001 4278929433
0.099494316 -0.0016651155 0.41900003 4279126812
0.10109594 -0.0016690894 0.42000002 4279061019
0.10270405 -0.0016730635 0.42100003 4278929433
0.10431866 -0.0016770376 0.42200002 4278994459
0.10593975 -0.0016810115 0.42300001 4279322912
0.10756736 -0.0016849856 0.42400002 4278269202
0.10894451 -0.0016849856 0.42400002 4278198273
0.11058186 -0.0016889595 0.42500001 4278792466
0.11196226 -0.0016889595 0.42500001 4279713316
0.11360936 -0.0016929336 0.42600003 4279188508
0.11499301 -0.0016929336 0.42600003 4279388707
0.11664983 -0.0016969076 0.42700002 4279388707
0.11803672 -0.0016969076 0.42700002 4279257121
0.11942363 -0.0016969076 0.42700002 4279256351
0.12109346 -0.0017008816 0.42800003 4281226044
0.1224836 -0.0017008816 0.42800003 4285763710
0.034955263 -0.00028779331 0.39700001 4280628774
0.036244716 -0.00028779331 0.39700001 4280036123
0.037439633 -0.00028706843 0.39600003 4279706647
0.038725842 -0.00028706843 0.39600003 4279706647
0.039911009 -0.00028634348 0.39500001 4280101405
0.04119397 -0.00028634348 0.39500001 4279706647
0.042369392 -0.00028561856 0.39400002 4279772953
0.043649107 -0.00028561856 0.39400002 4279773467
0.044928819 -0.00028561856 0.39400002 4279188508
0.046091251 -0.00028489364 0.39300001 4279191840
0.047367714 -0.00028489364 0.39300001 4279390502
0.048767958 -0.00028561856 0.39400002 4279061537
0.05004767 -0.00028561856 0.39400002 4279915313
0.051327381 -0.00028561856 0.39400002 4280571707
0.052740615 -0.00028634348 0.39500001 4284714102
0.054023571 -0.00028634348 0.39500001 4286095239
0.055446554 -0.00028706843 0.39600003 4285634175
0.056876026 -0.00028779331 0.39700001 4284779381
0.058312003 -0.00028851826 0.39800003 4282608726
0.059754461 -0.00028924318 0.39900002 4281030975
0.06120342 -0.00028996807 0.40000001 4280176686
0.062658884 -0.00029069302 0.40100002 4280111406
0.064120829 -0.00029141793 0.40200001 4279520039
0.065589286 -0.00029214285 0.40300003 4279257381
0.066898227 -0.00029214285 0.40300003 4279258918
0.068376414 -0.00029286777 0.40400001 4279062050
0.069861114 -0.00029359269 0.40500003 4279193636
0.071352296 -0.00029431761 0.40600002 4279127843
0.072849974 -0.00029504253 0.40700001 4279062818
0.074354149 -0.00029576744 0.40800002 4279194404
0.075864829 -0.00029649236 0.40900001 4278931746
0.077381998 -0.00029721731 0.41000003 4278931746
0.078713678 -0.00029721731 0.41000003 4278734367
0.080240592 -0.0002979422 0.41100001 4278602783
0.08157552 -0.0002979422 0.41100001 4278404888
0.083112173 -0.00029866715 0.41200003 4278733337
0.084450357 -0.00029866715 0.41200003 4278601751
0.085996754 -0.00029939206 0.41300002 4278930203
0.087338179 -0.00029939206 0.41300002 4278798617
0.088679604 -0.00029939206 0.41300002 4278930203
0.090239003 -0.00030011698 0.41400003 4278732570
0.091804892 -0.0003008419 0.41500002 4278929949
0.093152806 -0.0003008419 0.41500002 4279126045
0.09472844 -0.00030156682 0.41600001 4279126045
0.096310571 -0.00030229174 0.41700003 4279454750
0.097899191 -0.00030301666 0.41800001 4279585566
0.099494316 -0.00030374157 0.41900003 4279124250
0.10109594 -0.00030446649 0.42000002 4278200067
0.10270405 -0.00030519141 0.42100003 4278199300
0.10431866 -0.00030591633 0.42200002 4279188508
0.10593975 -0.00030664125 0.42300001 4280306989
0.10731366 -0.00030664125 0.42300001 4279912746
0.10894451 -0.00030736616 0.42400002 4279781412
0.11032167 -0.00030736616 0.42400002 4279781412
0.11196226 -0.00030809108 0.42500001 4278199303
0.11334267 -0.00030809108 0.42500001 4279780645
0.11499301 -0.00030881603 0.42600003 4279585316
0.11637665 -0.00030881603 0.42600003 4279651109
0.11803672 -0.00030954092 0.42700002 4279190304
0.11942363 -0.00030954092 0.42700002 4278793752
0.12081052 -0.00030954092 0.42700002 4286421640
0.029797435 0.0010021003 0.39700001 4280234788
0.034955263 0.0010021003 0.39700001 4280232989
0.036153425 0.00099957618 0.39600003 4280101403
0.037439633 0.00099957618 0.39600003 4279903254
0.038628045 0.00099705195 0.39500001 4280100633
0.039911009 0.00099705195 0.39500001 4280890919
0.04119397 0.00099705195 0.39500001 4280825126
0.042369392 0.00099452771 0.39400002 4280759848
0.043649107 0.00099452771 0.39400002 4280365600
0.044928819 0.00099452771 0.39400002 4279447832
0.046208534 0.00099452771 0.39400002 4278530832
0.047488246 0.00099452771 0.39400002 4278929181
0.048767958 0.00099452771 0.39400002 4278535706
0.05004767 0.00099452771 0.39400002 4278931234
0.051327381 0.00099452771 0.39400002 4278997027
0.052740615 0.00099705195 0.39500001 4279521836
0.054023571 0.00099705195 0.39500001 4279454762
0.055446554 0.00099957618 0.39600003 4279060517
0.056876026 0.0010021003 0.39700001 4279192103
0.058165487 0.0010021003 0.39700001 4279521066
0.059604701 0.0010046245 0.39800003 4279193125
0.061050415 0.0010071486 0.39900002 4278601497
0.062502623 0.0010096728 0.40000001 4279062818
0.063961327 0.001012197 0.40100002 4278799646
0.065426528 0.0010147212 0.40200001 4279062818
0.066732228 0.0010147212 0.40200001 4279062818
0.068207167 0.0010172453 0.40300003 4278997025
0.069688611 0.0010197696 0.40400001 4279062818
0.071176551 0.0010222938 0.40500003 4278865439
0.072670989 0.0010248179 0.40600002 4278536474
0.074171908 0.001027342 0.40700001 4278536474
0.075679339 0.0010298663 0.40800002 4278339095
0.07719326 0.0010323904 0.40900001 4278931232
0.078713678 0.0010349146 0.41000003 4278799646
0.080045357 0.0010349146 0.41000003 4278996255
0.08157552 0.0010374389 0.41100001 4278995742
0.082910441 0.0010374389 0.41100001 4279061019
0.084450357 0.0010399631 0.41200003 4279126812
0.085788533 0.0010399631 0.41200003 4279061019
0.08712671 0.0010399631 0.41200003 4278994713
0.088679604 0.0010424872 0.41300002 4279126299
0.090021029 0.0010424872 0.41300002 4279586082
0.091583677 0.0010450114 0.41400003 4279519519
0.093152806 0.0010475356 0.41500002 4278267660
0.09472844 0.0010500597 0.41600001 4278198016
0.096310571 0.0010525839 0.41700003 4278529808
0.097899191 0.0010551082 0.41800001 4279450910
0.099494316 0.0010576323 0.41900003 4279780899
0.10109594 0.0010601565 0.42000002 4279715106
0.10270405 0.0010626807 0.42100003 4279715104
0.10431866 0.0010652049 0.42200002 4279715104
0.10568931 0.0010652049 0.42200002 4279912483
0.10731366 0.001067729 0.42300001 4278530832
0.10868756 0.001067729 0.42300001 4279057176
0.11032167 0.0010702532 0.42400002 4279649311
0.11169882 0.0010702532 0.42400002 4278200072
0.11334267 0.0010727773 0.42500001 4279781412
0.11472306 0.0010727773 0.42500001 4279651109
0.11637665 0.0010753016 0.42600003 4279716902
0.1177603 0.0010753016 0.42600003 4279584803
0.11942363 0.0010778258 0.42700002 4282739794
0.034955263 0.0022919939 0.39700001 4280101403
0.036153425 0.0022862207 0.39600003 4280232219
0.037439633 0.0022862207 0.39600003 4280034842
0.038628045 0.0022804472 0.39500001 4279771670
0.039911009 0.0022804472 0.39500001 4282667843
0.04119397 0.0022804472 0.39500001 4282338878
0.04247693 0.0022804472 0.39500001 4282799941
0.043649107 0.0022746741 0.39400002 4281023530
0.044928819 0.0022746741 0.39400002 4279184660
0.046208534 0.0022746741 0.39400002 4278990359
0.047488246 0.0022746741 0.39400002 4278796566
0.048767958 0.0022746741 0.39400002 4278600214
0.05004767 0.0022746741 0.39400002 4278535704
0.051327381 0.0022746741 0.39400002 4278734367
0.052740615 0.0022804472 0.39500001 4283141216
0.054023571 0.0022804472 0.39500001 4281035075
0.055306535 0.0022804472 0.39500001 4279260201
0.056732766 0.0022862207 0.39600003 4279194404
0.058165487 0.0022919939 0.39700001 4278997025
0.059604701 0.0022977672 0.39800003 4278865439
0.061050415 0.0023035405 0.39900002 4279063332
0.062346369 0.0023035405 0.39900002 4279194918
0.063801818 0.0023093137 0.40000001 4278603294
0.065263778 0.002315087 0.40100002 4278405915
0.066566229 0.002315087 0.40100002 4278471195
0.06803792 0.0023208603 0.40200001 4278471195
0.069516115 0.0023266335 0.40300003 4278273302
0.071000807 0.0023324068 0.40400001 4278733083
0.072491996 0.0023381801 0.40500003 4278864923
0.073989674 0.0023439534 0.40600002 4278930203
0.07549385 0.0023497266 0.40700001 4278995996
0.07700453 0.0023554999 0.40800002 4278798363
0.078521691 0.0023612732 0.40900001 4278929949
0.079850122 0.0023612732 0.40900001 4279126558
0.081377044 0.0023670467 0.41000003 4279191838
0.082708716 0.0023670467 0.41000003 4279388703
0.084245376 0.0023728197 0.41100001 4279059738
0.085580304 0.0023728197 0.41100001 4278400527
0.08712671 0.0023785932 0.41200003 4278199040
0.088464886 0.0023785932 0.41200003 4278199815
0.090021029 0.0023843665 0.41300002 4279780129
0.091583677 0.0023901397 0.41400003 4280372266
0.093152806 0.002395913 0.41500002 4279911715
0.09472844 0.0024016863 0.41600001 4279845922
0.096310571 0.0024074595 0.41700003 4279582496
0.097899191 0.0024132328 0.41800001 4279517473
0.099494316 0.0024190061 0.41900003 4279715617
0.10109594 0.0024247793 0.42000002 4279584031
0.10270405 0.0024305528 0.42100003 4278333451
0.10431866 0.0024363259 0.42200002 4279386141
0.10568931 0.0024363259 0.42200002 4279450396
0.10731366 0.0024420992 0.42300001 4279778850
0.10868756 0.0024420992 0.42300001 4279516957
0.11032167 0.0024478727 0.42400002 4280109864
0.11169882 0.0024478727 0.42400002 4279912231
0.11334267 0.0024536457 0.42500001 4279716135
0.11472306 0.0024536457 0.42500001 4279650596
0.11637665 0.0024594192 0.42600003 4279782182
0.1177603 0.0024594192 0.42600003 4279779109
0.034955263 0.0035818873 0.39700001 4280298782
0.036244716 0.0035818873 0.39700001 4280232221
0.037439633 0.0035728649 0.39600003 4280297760
0.038725842 0.0035728649 0.39600003 4279640084
0.04001205 0.0035728649 0.39600003 4282602564
0.04119397 0.0035638425 0.39500001 4282602564
0.04247693 0.0035638425 0.39500001 4282931527
0.04375989 0.0035638425 0.39500001 4282800711
0.04504285 0.0035638425 0.39500001 4279119637
0.046325814 0.0035638425 0.39500001 4279253017
0.04760877 0.0035638425 0.39500001 4278795285
0.048891731 0.0035638425 0.39500001 4278599187
0.050174691 0.0035638425 0.39500001 4278469398
0.051457655 0.0035638425 0.39500001 4278864669
0.052740615 0.0035638425 0.39500001 4278668574
0.054023571 0.0035638425 0.39500001 4278206740
0.055306535 0.0035638425 0.39500001 4278471449
0.056732766 0.0035728649 0.39600003 4278734621
0.058165487 0.0035818873 0.39700001 4278668826
0.059454937 0.0035818873 0.39700001 4278668826
0.060897406 0.0035909098 0.39800003 4278471195
0.062346369 0.0035999322 0.39900002 4278405402
0.063801818 0.0036089544 0.40000001 4278405402
0.06510102 0.0036089544 0.40000001 4278536474
0.066566229 0.003617977 0.40100002 4278864669
0.067868672 0.003617977 0.40100002 4278798363
0.069343619 0.0036269992 0.40200001 4278929179
0.070825063 0.0036360216 0.40300003 4279126558
0.072313003 0.0036450441 0.40400001 4278797847
0.073989674 0.0036630889 0.40600002 4279126812
0.07549385 0.0036721111 0.40700001 4279192092
0.07700453 0.0036811335 0.40800002 4279586082
0.078329705 0.0036811335 0.40800002 4279190043
0.079850122 0.0036901559 0.40900001 4278399757
0.081178561 0.0036901559 0.40900001 4278198275
0.082708716 0.0036991783 0.41000003 4278198023
0.084040403 0.0036991783 0.41000003 4279715619
0.085580304 0.0037082008 0.41100001 4279584031
0.08712671 0.0037172232 0.41200003 4279320859
0.088464886 0.0037172232 0.41200003 4279781412
0.090021029 0.0037262456 0.41300002 4279846692
0.091583677 0.003735268 0.41400003 4278201096
0.093152806 0.0037442902 0.41500002 4279188508
0.09472844 0.0037533126 0.41600001 4279188508
0.096310571 0.0037623351 0.41700003 4280241196
0.097899191 0.0037713575 0.41800001 4280372012
0.099494316 0.0037803799 0.41900003 4279121683
0.10109594 0.0037894021 0.42000002 4278332169
0.10270405 0.0037984247 0.42100003 4278595087
0.10431866 0.0038074469 0.42200002 4278660880
0.10568931 0.0038074469 0.42200002 4279911461
0.10731366 0.0038164693 0.42300001 4280437805
0.10868756 0.0038164693 0.42300001 4279122199
0.11032167 0.0038254918 0.42400002 4278200326
0.11169882 0.0038254918 0.42400002 4279846951
0.11307598 0.0038254918 0.42400002 4279781928
0.11472306 0.0038345142 0.42500001 4280176940
0.11610346 0.0038345142 0.42500001 4279650344
0.035043314 0.0048840526 0.39800003 4280364575
0.036244716 0.004871781 0.39700001 4280167196
0.037534177 0.004871781 0.39700001 4280363807
0.038823631 0.004871781 0.39700001 4280034842
0.04001205 0.0048595094 0.39600003 4282469951
0.041298259 0.0048595094 0.39600003 4282733636
0.042584468 0.0048595094 0.39600003 4282735172
0.043870676 0.0048595094 0.39600003 4282275134
0.045156885 0.0048595094 0.39600003 4279317527
0.046443094 0.0048595094 0.39600003 4279122199
0.047729302 0.0048595094 0.39600003 4278860310
0.049015511 0.0048595094 0.39600003 4278730007
0.050174691 0.0048472378 0.39500001 4278929181
0.051457655 0.0048472378 0.39500001 4278732572
0.052740615 0.0048472378 0.39500001 4278469911
0.054023571 0.0048472378 0.39500001 4278667290
0.055306535 0.0048472378 0.39500001 4278864923
0.056732766 0.0048595094 0.39600003 4278733337
0.058018975 0.0048595094 0.39600003 4278864923
0.059454937 0.004871781 0.39700001 4278864923
0.060897406 0.0048840526 0.39800003 4278929949
0.062190115 0.0048840526 0.39800003 4278929949
0.063642316 0.0048963241 0.39900002 4278798363
0.06510102 0.0049085952 0.40000001 4278337812
0.066400222 0.0049085952 0.40000001 4278992664
0.067868672 0.0049208668 0.40100002 4278333966
0.069343619 0.0049331384 0.40200001 4279125533
0.070825063 0.0049454099 0.40300003 4279585314
0.072313003 0.0049576815 0.40400001 4278924820
0.073807433 0.0049699531 0.40500003 4278197504
0.07530836 0.0049822242 0.40600002 4278197508
0.076815784 0.0049944958 0.40700001 4278525449
0.078329705 0.0050067673 0.40800002 4278918928
0.079654895 0.0050067673 0.40800002 4278852881
0.081178561 0.0050190389 0.40900001 4278655756
0.082708716 0.0050313105 0.41000003 4278393097
0.084040403 0.0050313105 0.41000003 4279649311
0.085580304 0.0050435816 0.41100001 4279189271
0.086915232 0.0050435816 0.41100001 4278397197
0.088464886 0.0050558536 0.41200003 4278658832
0.090021029 0.0050681247 0.41300002 4278595601
0.091583677 0.0050803963 0.41400003 4279649059
0.093152806 0.0050926679 0.41500002 4279845668
0.09472844 0.005104939 0.41600001 4279911463
0.096310571 0.005117211 0.41700003 4278596371
0.097899191 0.0051294821 0.41800001 4279846692
0.099494316 0.0051417537 0.41900003 4279911715
0.10109594 0.0051540253 0.42000002 4280109094
0.10270405 0.0051662968 0.42100003 4279582750
0.10431866 0.0051785684 0.42200002 4278727187
0.10568931 0.0051785684 0.42200002 4278199301
0.10731366 0.0051908395 0.42300001 4278858261
0.10868756 0.0051908395 0.42300001 4279977254
0.11032167 0.0052031111 0.42400002 4280306219
0.11169882 0.0052031111 0.42400002 4280241196
0.11307598 0.0052031111 0.42400002 4279714852
0.11472306 0.0052153827 0.42500001 4282080581
0.035043314 0.0061771953 0.39800003 4280758563
0.036336016 0.0061771953 0.39800003 4280429598
0.037628721 0.0061771953 0.39800003 4280429598
0.038921427 0.0061771953 0.39800003 4281350700
0.040113091 0.0061616744 0.39700001 4282404671
0.041402545 0.0061616744 0.39700001 4282536257
0.042692002 0.0061616744 0.39700001 4282800711
0.043981459 0.0061616744 0.39700001 4281091630
0.045270916 0.0061616744 0.39700001 4279252758
0.046560373 0.0061616744 0.39700001 4279056406
0.04784983 0.0061616744 0.39700001 4279057176
0.049015511 0.0061461544 0.39600003 4278532628
0.050301719 0.0061461544 0.39600003 4278665496
0.051587928 0.0061461544 0.39600003 4278797595
0.052740615 0.0061306334 0.39500001 4278732572
0.054023571 0.0061306334 0.39500001 4279456293
0.055306535 0.0061306334 0.39500001 4278995996
0.056732766 0.0061461544 0.39600003 4278798617
0.058018975 0.0061461544 0.39600003 4279126812
0.059454937 0.0061616744 0.39700001 4278929179
0.060897406 0.0061771953 0.39800003 4279060765
0.062190115 0.0061771953 0.39800003 4279192351
0.063642316 0.0061927158 0.39900002 4279126558
0.06493827 0.0061927158 0.39900002 4279126045
0.066400222 0.0062082363 0.40000001 4278991383
0.067868672 0.0062237573 0.40100002 4279584033
0.069343619 0.0062392773 0.40200001 4278727957
0.070825063 0.0062547983 0.40300003 4278526476
0.072313003 0.0062703188 0.40400001 4278655756
0.073807433 0.0062858397 0.40500003 4278852365
0.07530836 0.0063013597 0.40600002 4278655756
0.076815784 0.0063168802 0.40700001 4279379479
0.078329705 0.0063324012 0.40800002 4279445270
0.079654895 0.0063324012 0.40800002 4279379477
0.081178561 0.0063479217 0.40900001 4280695850
0.082506984 0.0063479217 0.40900001 4279116818
0.084040403 0.0063634426 0.41000003 4279715104
0.085580304 0.0063789627 0.41100001 4278198274
0.086915232 0.0063789627 0.41100001 4278722832
0.088464886 0.0063944836 0.41200003 4279842336
0.090021029 0.0064100041 0.41300002 4278199815
0.091583677 0.0064255251 0.41400003 4279121945
0.093152806 0.0064410456 0.41500002 4279648543
0.09472844 0.0064565656 0.41600001 4280240426
0.096310571 0.0064720865 0.41700003 4279779875
0.097899191 0.006487607 0.41800001 4278398222
0.099494316 0.006503128 0.41900003 4278198530
0.10109594 0.006518648 0.42000002 4279318812
0.10270405 0.006534169 0.42100003 4280568879
0.10431866 0.0065496895 0.42200002 4280437805
0.10568931 0.0065496895 0.42200002 4279649059
0.10731366 0.0065652099 0.42300001 4280306989
0.10868756 0.0065652099 0.42300001 4280437807
0.11032167 0.0065807309 0.42400002 4280437293
0.11169882 0.0065807309 0.42400002 4284843376
0.033835407 0.0074891075 0.39900002 4280562469
0.035219409 0.007507877 0.40000001 4281153321
0.036427312 0.0074891075 0.39900002 4280429598
0.037723266 0.0074891075 0.39900002 4280495391
0.03901922 0.0074891075 0.39900002 4282009402
0.040214133 0.0074703381 0.39800003 4282536257
0.041506838 0.0074703381 0.39800003 4282931015
0.04279954 0.0074703381 0.39800003 4282670408
0.044092245 0.0074703381 0.39800003 4279513625
0.045384951 0.0074703381 0.39800003 4279252504
0.046560373 0.0074515683 0.39700001 4278990613
0.04784983 0.0074515683 0.39700001 4278926103
0.049139284 0.0074515683 0.39700001 4278795798
0.050301719 0.0074327989 0.39600003 4278928154
0.051587928 0.0074327989 0.39600003 4278928668
0.05287414 0.0074327989 0.39600003 4278402837
0.054023571 0.007414029 0.39500001 4279192351
0.055446554 0.0074327989 0.39600003 4278929179
0.056732766 0.0074327989 0.39600003 4279126558
0.058018975 0.0074327989 0.39600003 4278929179
0.059454937 0.0074515683 0.39700001 4279257631
0.060897406 0.0074703381 0.39800003 4279257631
0.062190115 0.0074703381 0.39800003 4278928666
0.063642316 0.0074891075 0.39900002 4278994459
0.06493827 0.0074891075 0.39900002 4278532628
0.066400222 0.007507877 0.40000001 4278198530
0.067868672 0.0075266473 0.40100002 4279649059
0.069343619 0.0075454167 0.40200001 4278197253
0.070825063 0.0075641866 0.40300003 4279445783
0.072313003 0.007582956 0.40400001 4279313686
0.073807433 0.0076017259 0.40500003 4279511578
0.07530836 0.0076204957 0.40600002 4278788625
0.076815784 0.0076392652 0.40700001 4279776031
0.078137718 0.0076392652 0.40700001 4278459658
0.079654895 0.007658035 0.40800002 4280565545
0.081178561 0.0076768044 0.40900001 4279117588
0.082506984 0.0076768044 0.40900001 4280302373
0.084040403 0.0076955743 0.41000003 4279713822
0.085580304 0.0077143437 0.41100001 4278462220
0.086915232 0.0077143437 0.41100001 4279841824
0.088464886 0.0077331141 0.41200003 4280435243
0.090021029 0.0077518835 0.41300002 4279120918
0.091583677 0.0077706533 0.41400003 4278198785
0.093152806 0.0077894228 0.41500002 4278529548
0.09472844 0.0078081922 0.41600001 4279911201
0.096310571 0.0078269625 0.41700003 4280241196
0.097899191 0.0078457315 0.41800001 4279912231
0.099494316 0.0078645013 0.41900003 4280109612
0.10109594 0.0078832712 0.42000002 4280109612
0.10270405 0.0079020411 0.42100003 4280241198
0.10431866 0.007920811 0.42200002 4279779877
0.10568931 0.007920811 0.42200002 4281226042
0.10731366 0.0079395799 0.42300001 4285040755
0.10868756 0.0079395799 0.42300001 4286223747
0.11032167 0.0079583498 0.42400002 4286157954
0.034005009 0.0088295368 0.40100002 4284972397
0.035307456 0.0088295368 0.40100002 4280364577
0.036609907 0.0088295368 0.40100002 4280429598
0.03781781 0.0088075176 0.40000001 4280955944
0.039117008 0.0088075176 0.40000001 4282667332
0.040315174 0.0087854993 0.39900002 4283325773
0.041611124 0.0087854993 0.39900002 4282865734
0.042907074 0.0087854993 0.39900002 4283328592
0.044203028 0.0087854993 0.39900002 4278987027
0.045384951 0.0087634809 0.39800003 4279187478
0.046677656 0.0087634809 0.39800003 4279187992
0.047970362 0.0087634809 0.39800003 4278663701
0.049139284 0.0087414617 0.39700001 4278730007
0.050428741 0.0087414617 0.39700001 4278928668
0.051587928 0.0087194433 0.39600003 4278862875
0.05287414 0.0087194433 0.39600003 4279126047
0.054160345 0.0087194433 0.39600003 4279257631
0.055446554 0.0087194433 0.39600003 4279258144
0.056732766 0.0087194433 0.39600003 4279126558
0.058165487 0.0087414617 0.39700001 4279126812
0.059454937 0.0087414617 0.39700001 4279061019
0.060897406 0.0087634809 0.39800003 4279192351
0.062346369 0.0087854993 0.39900002 4278929179
0.063642316 0.0087854993 0.39900002 4278994459
0.06510102 0.0088075176 0.40000001 4279255836
0.066400222 0.0088075176 0.40000001 4280437805
0.067868672 0.0088295368 0.40100002 4279912485
0.069343619 0.0088515552 0.40200001 4278197254
0.070825063 0.0088735744 0.40300003 4279644445
0.072313003 0.0088955928 0.40400001 4280697133
0.073807433 0.008917612 0.40500003 4280433961
0.07530836 0.0089396304 0.40600002 4278853648
0.076815784 0.0089616496 0.40700001 4278918928
0.078137718 0.0089616496 0.40700001 4278655756
0.079654895 0.0089836689 0.40800002 4278327304
0.081178561 0.0090056872 0.40900001 4278787853
0.082506984 0.0090056872 0.40900001 4280501290
0.084040403 0.0090277065 0.41000003 4278726675
0.085580304 0.0090497248 0.41100001 4278198276
0.086915232 0.0090497248 0.41100001 4278462736
0.088464886 0.009071744 0.41200003 4280305194
0.090021029 0.0090937624 0.41300002 4280042787
0.091583677 0.0091157816 0.41400003 4280108578
0.093152806 0.0091378 0.41500002 4279846690
0.09472844 0.0091598183 0.41600001 4279782182
0.096310571 0.0091818376 0.41700003 4280045354
0.097899191 0.0092038559 0.41800001 4279453217
0.099494316 0.0092258751 0.41900003 4280042535
0.10109594 0.0092478935 0.42000002 4282147146
0.10246009 0.0092478935 0.42000002 4285961859
0.038006898 0.010157694 0.40200001 4280693542
0.039214805 0.010132426 0.40100002 4282075706
0.040416211 0.010107159 0.40000001 4282536771
0.04171541 0.010107159 0.40000001 4282734150
0.043014612 0.010107159 0.40000001 4283262029
0.044203028 0.010081891 0.39900002 4279250453
0.045498982 0.010081891 0.39900002 4279319064
0.046794936 0.010081891 0.39900002 4279319576
0.047970362 0.010056623 0.39800003 4278794515
0.049263064 0.010056623 0.39800003 4278927386
0.050428741 0.010031355 0.39700001 4278993949
0.051718198 0.010031355 0.39700001 4278928668
0.053007659 0.010031355 0.39700001 4279257631
0.054160345 0.010006087 0.39600003 4279126045
0.055446554 0.010006087 0.39600003 4279191838
0.056876026 0.010031355 0.39700001 4279060765
0.058165487 0.010031355 0.39700001 4279060765
0.059604701 0.010056623 0.39800003 4279192351
0.060897406 0.010056623 0.39800003 4279060765
0.062346369 0.010081891 0.39900002 4279060765
0.063642316 0.010081891 0.39900002 4279126047
0.06510102 0.010107159 0.40000001 4278198016
0.066566229 0.010132426 0.40100002 4280307243
0.067868672 0.010132426 0.40100002 4279320348
0.069343619 0.010157694 0.40200001 4278722830
0.070825063 0.010182963 0.40300003 4278853648
0.072313003 0.01020823 0.40400001 4278589963
0.073807433 0.010233498 0.40500003 4278853135
0.07530836 0.010258766 0.40600002 4279049744
0.076815784 0.010284034 0.40700001 4278983437
0.078329705 0.010309302 0.40800002 4278589193
0.079654895 0.010309302 0.40800002 4278986002
0.081178561 0.010334569 0.40900001 4279843873
0.082506984 0.010334569 0.40900001 4280174119
0.084040403 0.010359838 0.41000003 4280306219
0.085372083 0.010359838 0.41000003 4279780645
0.086915232 0.010385105 0.41100001 4279650342
0.088464886 0.010410374 0.41200003 4279716135
0.090021029 0.010435641 0.41300002 4279912996
0.091583677 0.010460909 0.41400003 4280044582
0.093152806 0.010486177 0.41500002 4279846438
0.09472844 0.010511445 0.41600001 4280108588
0.096310571 0.010536713 0.41700003 4283330135
0.097899191 0.01056198 0.41800001 4285697913
0.099494316 0.010587249 0.41900003 4285632124
0.10109594 0.010612517 0.42000002 4285697917
0.10246009 0.010612517 0.42000002 4285894528
0.038101446 0.011492351 0.40300003 4285169776
0.039312594 0.011463834 0.40200001 4281155890
0.040517252 0.011435317 0.40100002 4282931529
0.041819703 0.011435317 0.40100002 4282800713
0.043014612 0.0114068 0.40000001 4280367907
0.044313814 0.0114068 0.40000001 4279711772
0.045613013 0.0114068 0.40000001 4279122199
0.046794936 0.011378283 0.39900002 4279057176
0.048090886 0.011378283 0.39900002 4278729494
0.049263064 0.011349767 0.39800003 4278795800
0.050555769 0.011349767 0.39800003 4278928668
0.051848475 0.011349767 0.39800003 4279126045
0.053007659 0.011321248 0.39700001 4279324191
0.054297112 0.011321248 0.39700001 4279126812
0.055586569 0.011321248 0.39700001 4279389984
0.056876026 0.011321248 0.39700001 4279126812
0.058312003 0.011349767 0.39800003 4279061019
0.059604701 0.011349767 0.39800003 4279126558
0.061050415 0.011378283 0.39900002 4279126558
0.062346369 0.011378283 0.39900002 4279126558
0.063801818 0.0114068 0.40000001 4279190558
0.06510102 0.0114068 0.40000001 4278198532
0.066566229 0.011435317 0.40100002 4279386141
0.067868672 0.011435317 0.40100002 4278859027
0.069343619 0.011463834 0.40200001 4278984719
0.070825063 0.011492351 0.40300003 4278655756
0.072313003 0.011520868 0.40400001 4278984721
0.073807433 0.011549385 0.40500003 4278920209
0.07530836 0.011577902 0.40600002 4280698415
0.076815784 0.011606419 0.40700001 4280634672
0.078329705 0.011634936 0.40800002 4279978278
0.079654895 0.011634936 0.40800002 4279781412
0.081178561 0.011663453 0.40900001 4279912998
0.082506984 0.011663453 0.40900001 4279781410
0.084040403 0.01169197 0.41000003 4279847203
0.085372083 0.01169197 0.41000003 4280176168
0.086915232 0.011720487 0.41100001 4280307754
0.088464886 0.011749004 0.41200003 4279386400
0.090021029 0.011777521 0.41300002 4281423421
0.091583677 0.011806038 0.41400003 4284645997
0.040618293 0.012769973 0.40200001 4280695337
0.041819703 0.012738207 0.40100002 4283129678
0.04312215 0.012738207 0.40100002 4278988051
0.044313814 0.012706441 0.40000001 4279252506
0.045613013 0.012706441 0.40000001 4278925336
0.046912216 0.012706441 0.40000001 4278926103
0.048090886 0.012674675 0.39900002 4278597908
0.04938684 0.012674675 0.39900002 4278927386
0.050555769 0.01264291 0.39800003 4278994459
0.051848475 0.01264291 0.39800003 4278929179
0.05314118 0.01264291 0.39800003 4279192605
0.054433882 0.01264291 0.39800003 4279126812
0.055726588 0.01264291 0.39800003 4278797847
0.057019293 0.01264291 0.39800003 4279126812
0.058312003 0.01264291 0.39800003 4279126812
0.059754461 0.012674675 0.39900002 4279126812
0.061050415 0.012674675 0.39900002 4279126558
0.062502623 0.012706441 0.40000001 4279191838
0.063801818 0.012706441 0.40000001 4279912231
0.065263778 0.012738207 0.40100002 4279581471
0.066566229 0.012738207 0.40100002 4279649313
0.06803792 0.012769973 0.40200001 4279715106
0.069343619 0.012769973 0.40200001 4280174119
0.070825063 0.012801739 0.40300003 4280043049
0.072313003 0.012833506 0.40400001 4279912233
0.073807433 0.012865272 0.40500003 4279846951
0.07530836 0.012897038 0.40600002 4279650342
0.076815784 0.012928803 0.40700001 4279716135
0.078329705 0.01296057 0.40800002 4279650596
0.079654895 0.01296057 0.40800002 4280176940
0.081178561 0.012992335 0.40900001 4279716135
0.082506984 0.012992335 0.40900001 4279912744
0.084040403 0.013024103 0.41000003 4280437293
0.085372083 0.013024103 0.41000003 4283463258
0.086915232 0.013055868 0.41100001 4285501821
0.088464886 0.013087635 0.41200003 4285567614
0.090021029 0.0131194 0.41300002 4285172343
0.041819703 0.014041097 0.40100002 4279314967
0.04312215 0.014041097 0.40100002 4279515678
0.044313814 0.014006081 0.40000001 4279187740
0.045613013 0.014006081 0.40000001 4279188508
0.046912216 0.014006081 0.40000001 4278926103
0.048090886 0.013971067 0.39900002 4278730007
0.04938684 0.013971067 0.39900002 4278862361
0.050682791 0.013971067 0.39900002 4279322912
0.051848475 0.013936052 0.39800003 4279191840
0.05314118 0.013936052 0.39800003 4279192351
0.054433882 0.013936052 0.39800003 4279126558
0.055726588 0.013936052 0.39800003 4279258144
0.057019293 0.013936052 0.39800003 4279192351
0.058458511 0.013971067 0.39900002 4279192351
0.059754461 0.013971067 0.39900002 4279192351
0.061050415 0.013971067 0.39900002 4279258144
0.062502623 0.014006081 0.40000001 4279389217
0.063801818 0.014006081 0.40000001 4278531345
0.065263778 0.014041097 0.40100002 4278925336
0.066566229 0.014041097 0.40100002 4279519008
0.06803792 0.014076112 0.40200001 4279584801
0.069516115 0.014111128 0.40300003 4279782180
0.070825063 0.014111128 0.40300003 4279651109
0.072313003 0.014146143 0.40400001 4279716902
0.073807433 0.014181159 0.40500003 4279914281
0.07530836 0.014216173 0.40600002 4279584803
0.076815784 0.014251187 0.40700001 4279451682
0.078329705 0.014286203 0.40800002 4280699700
0.079654895 0.014286203 0.40800002 4283988580
0.081178561 0.014321218 0.40900001 4285699198
0.082506984 0.014321218 0.40900001 4285567101
0.084040403 0.014356234 0.41000003 4285171573
0.085372083 0.014356234 0.41000003 4285368438
0.086915232 0.014391249 0.41100001 4285565817
0.088464886 0.014426265 0.41200003 4285631610
0.04312215 0.015343987 0.40100002 4279251484
0.044313814 0.015305722 0.40000001 4279581217
0.045613013 0.015305722 0.40000001 4279189275
0.046912216 0.015305722 0.40000001 4278992666
0.048211414 0.015305722 0.40000001 4278796570
0.04938684 0.015267458 0.39900002 4279059740
0.050682791 0.015267458 0.39900002 4279257117
0.051978745 0.015267458 0.39900002 4279323424
0.05314118 0.015229194 0.39800003 4279323424
0.054433882 0.015229194 0.39800003 4279389217
0.055726588 0.015229194 0.39800003 4279323424
0.057162557 0.015267458 0.39900002 4279389217
0.058458511 0.015267458 0.39900002 4279258144
0.059754461 0.015267458 0.39900002 4279258144
0.06120342 0.015305722 0.40000001 4279455010
0.062502623 0.015305722 0.40000001 4279257633
0.063801818 0.015305722 0.40000001 4279519523
0.065263778 0.015343987 0.40100002 4279781928
0.066566229 0.015343987 0.40100002 4279650344
0.06803792 0.015382251 0.40200001 4279585064
0.069516115 0.015420516 0.40300003 4279255586
0.070825063 0.015420516 0.40300003 4280110125
0.072313003 0.015458779 0.40400001 4282608210
0.073807433 0.015497045 0.40500003 4284844659
0.07530836 0.015535308 0.40600002 4286027650
0.076815784 0.015573572 0.40700001 4285501306
0.078329705 0.015611837 0.40800002 4285435515
0.079654895 0.015611837 0.40800002 4285369722
0.081178561 0.015650101 0.40900001 4285500538
0.082506984 0.015650101 0.40900001 4285434745
0.084040403 0.015688365 0.41000003 4285566331
0.085372083 0.015688365 0.41000003 4285697403
0.044313814 0.016605362 0.40000001 4282672209
0.045613013 0.016605362 0.40000001 4279055638
0.046912216 0.016605362 0.40000001 4279123482
0.048211414 0.016605362 0.40000001 4278599191
0.04938684 0.01656385 0.39900002 4279257119
0.050682791 0.01656385 0.39900002 4279126047
0.051978745 0.01656385 0.39900002 4279455012
0.053274699 0.01656385 0.39900002 4279257631
0.054570649 0.01656385 0.39900002 4279389217
0.055866603 0.01656385 0.39900002 4279323424
0.057162557 0.01656385 0.39900002 4279389217
0.058458511 0.01656385 0.39900002 4279389217
0.059754461 0.01656385 0.39900002 4279652389
0.06120342 0.016605362 0.40000001 4279717672
0.062502623 0.016605362 0.40000001 4279520039
0.063961327 0.016646877 0.40100002 4279320609
0.065263778 0.016646877 0.40100002 4281029176
0.066566229 0.016646877 0.40100002 4283594592
0.06803792 0.01668839 0.40200001 4285962370
0.069516115 0.016729904 0.40300003 4285699198
0.070825063 0.016729904 0.40300003 4285238647
0.072313003 0.016771417 0.40400001 4285369720
0.073807433 0.01681293 0.40500003 4285435513
0.07530836 0.016854443 0.40600002 4285501306
0.076815784 0.016895955 0.40700001 4285566331
0.078329705 0.01693747 0.40800002 4285566331
0.079654895 0.01693747 0.40800002 4285434745
0.081178561 0.016978983 0.40900001 4285434745
0.082506984 0.016978983 0.40900001 4285500538
0.046912216 0.017905002 0.40000001 4279975205
0.048211414 0.017905002 0.40000001 4279386402
0.04938684 0.017860241 0.39900002 4279650342
0.050682791 0.017860241 0.39900002 4279520039
0.051978745 0.017860241 0.39900002 4279652139
0.053274699 0.017860241 0.39900002 4279521320
0.054570649 0.017860241 0.39900002 4279323941
0.055866603 0.017860241 0.39900002 4279323428
0.057162557 0.017860241 0.39900002 4279059742
0.058458511 0.017860241 0.39900002 4279649059
0.059904218 0.017905002 0.40000001 4281819460
0.06120342 0.017905002 0.40000001 4284580719
0.062502623 0.017905002 0.40000001 4285764993
0.063961327 0.017949766 0.40100002 4285764993
0.065263778 0.017949766 0.40100002 4285369722
0.066566229 0.017949766 0.40100002 4285566331
0.073354222 0.0047573475 0.40732187 4294967295
0.073354222 0.0047573475 0.40732187 4294901760
0.073354222 0.0047573475 0.40782186 4294901760
0.073354222 0.0047573475 0.40832186 4294901760
0.073354222 0.0047573475 0.40882188 4294901760
0.073354222 0.0047573475 0.40932187 4294901760
0.073354222 0.0047573475 0.40982187 4294901760
0.073354222 0.0047573475 0.41032186 4294901760
0.073354222 0.0047573475 0.41082188 4294901760
0.073354222 0.0047573475 0.41132188 4294901760
0.073354222 0.0047573475 0.41182187 4294901760
0.073354222 0.0047573475 0.41232187 4294901760
0.073354222 0.0047573475 0.41282186 4294901760
0.073354222 0.0047573475 0.41332188 4294901760
0.073354222 0.0047573475 0.41382188 4294901760
0.073354222 0.0047573475 0.41432187 4294901760
0.073354222 0.0047573475 0.41482186 4294901760
0.073354222 0.0047573475 0.41532189 4294901760
0.073354222 0.0047573475 0.41582188 4294901760
0.073354222 0.0047573475 0.41632187 4294901760
0.073354222 0.0047573475 0.41682187 4294901760
0.073354222 0.0047573475 0.41732186 4294901760
0.073354222 0.0047573475 0.41782188 4294901760
0.073354222 0.0047573475 0.41832188 4294901760
0.073354222 0.0047573475 0.41882187 4294901760
0.073354222 0.0047573475 0.41932186 4294901760
0.073354222 0.0047573475 0.41982186 4294901760
0.073354222 0.0047573475 0.42032188 4294901760
0.073354222 0.0047573475 0.42082188 4294901760
0.073354222 0.0047573475 0.42132187 4294901760
0.073354222 0.0047573475 0.42182186 4294901760
0.073354222 0.0047573475 0.42232189 4294901760
0.073354222 0.0047573475 0.42282188 4294901760
0.073354222 0.0047573475 0.42332187 4294901760
0.073354222 0.0047573475 0.42382187 4294901760
0.073354222 0.0047573475 0.42432189 4294901760
0.073354222 0.0047573475 0.42482188 4294901760
0.073354222 0.0047573475 0.42532188 4294901760
0.073354222 0.0047573475 0.42582187 4294901760
0.073354222 0.0047573475 0.42632186 4294901760
0.073354222 0.0047573475 0.42682189 4294901760
0.073354222 0.0047573475 0.42732188 4294901760
0.073354222 0.0047573475 0.42782187 4294901760
0.073354222 0.0047573475 0.42832187 4294901760
0.073354222 0.0047573475 0.42882186 4294901760
0.073354222 0.0047573475 0.42932189 4294901760
0.073354222 0.0047573475 0.42982188 4294901760
0.073354222 0.0047573475 0.43032187 4294901760
0.073354222 0.0047573475 0.43082187 4294901760
0.073354222 0.0047573475 0.43132189 4294901760
0.073354222 0.0047573475 0.43182188 4294901760
0.073354222 0.0047573475 0.43232188 4294901760
0.073354222 0.0047573475 0.43282187 4294901760
0.073354222 0.0047573475 0.43332186 4294901760
0.073354222 0.0047573475 0.43382189 4294901760
0.073354222 0.0047573475 0.43432188 4294901760
0.073354222 0.0047573475 0.43482187 4294901760
0.073354222 0.0047573475 0.43532187 4294901760
0.073354222 0.0047573475 0.43582189 4294901760
0.073354222 0.0047573475 0.43632188 4294901760
0.073354222 0.0047573475 0.43682188 4294901760
0.073354222 0.0047573475 0.43732187 4294901760
0.073354222 0.0047573475 0.43782187 4294901760
0.073354222 0.0047573475 0.43832189 4294901760
0.073354222 0.0047573475 0.43882188 4294901760
0.073354222 0.0047573475 0.43932188 4294901760
0.073354222 0.0047573475 0.43982187 4294901760
0.073354222 0.0047573475 0.44032189 4294901760
0.073354222 0.0047573475 0.44082189 4294901760
0.073354222 0.0047573475 0.44132188 4294901760
0.073354222 0.0047573475 0.44182187 4294901760
0.073354222 0.0047573475 0.44232187 4294901760
0.073354222 0.0047573475 0.44282189 4294901760
0.073354222 0.0047573475 0.44332188 4294901760
0.073354222 0.0047573475 0.44382188 4294901760
0.073354222 0.0047573475 0.44432187 4294901760
0.073354222 0.0047573475 0.44482189 4294901760
0.073354222 0.0047573475 0.44532189 4294901760
0.073354222 0.0047573475 0.44582188 4294901760
0.073354222 0.0047573475 0.44632187 4294901760
0.073354222 0.0047573475 0.44682187 4294901760
0.073354222 0.0047573475 0.44732189 4294901760
0.073354222 0.0047573475 0.44782189 4294901760
0.073354222 0.0047573475 0.44832188 4294901760
0.073354222 0.0047573475 0.44882187 4294901760
0.073354222 0.0047573475 0.44932187 4294901760
0.073354222 0.0047573475 0.44982189 4294901760
0.073354222 0.0047573475 0.45032188 4294901760
0.073354222 0.0047573475 0.45082188 4294901760
0.073354222 0.0047573475 0.45132187 4294901760
0.073354222 0.0047573475 0.45182186 4294901760
0.073354222 0.0047573475 0.45232189 4294901760
0.073354222 0.0047573475 0.45282188 4294901760
0.073354222 0.0047573475 0.45332187 4294901760
0.073354222 0.0047573475 0.4538219 4294901760
0.073354222 0.0047573475 0.45432189 4294901760
0.073354222 0.0047573475 0.45482188 4294901760
0.073354222 0.0047573475 0.45532188 4294901760
0.073354222 0.0047573475 0.45582187 4294901760
0.073354222 0.0047573475 0.4563219 4294901760
0.073354222 0.0047573475 0.45682189 4294901760
0.073354222 0.0047573475 0.45732188 4294901760
0.073354222 0.0047573475 0.40732187 4278255360
0.073118776 0.0047731888 0.40776268 4278255360
0.07288333 0.0047890302 0.40820348 4278255360
0.072647884 0.004804872 0.40864429 4278255360
0.072412439 0.0048207133 0.40908512 4278255360
0.072176993 0.0048365546 0.40952593 4278255360
0.07194154 0.004852396 0.40996674 4278255360
0.071706094 0.0048682378 0.41040754 4278255360
0.071470648 0.0048840791 0.41084835 4278255360
0.071235202 0.0048999204 0.41128916 4278255360
0.070999756 0.0049157618 0.41172999 4278255360
0.070764311 0.0049316031 0.4121708 4278255360
0.070528865 0.0049474449 0.4126116 4278255360
0.070293419 0.0049632862 0.41305241 4278255360
0.070057973 0.0049791276 0.41349322 4278255360
0.069822527 0.0049949689 0.41393402 4278255360
0.069587082 0.0050108107 0.41437483 4278255360
0.069351628 0.005026652 0.41481566 4278255360
0.069116183 0.0050424933 0.41525647 4278255360
0.068880737 0.0050583347 0.41569728 4278255360
0.068645291 0.005074176 0.41613808 4278255360
0.068409845 0.0050900178 0.41657889 4278255360
0.068174399 0.0051058591 0.4170197 4278255360
0.067938954 0.0051217005 0.4174605 4278255360
0.067703508 0.0051375418 0.41790134 4278255360
0.067468062 0.0051533831 0.41834214 4278255360
0.067232616 0.0051692249 0.41878295 4278255360
0.06699717 0.0051850663 0.41922376 4278255360
0.066761717 0.0052009076 0.41966456 4278255360
0.066526271 0.0052167489 0.42010537 4278255360
0.066290826 0.0052325907 0.4205462 4278255360
0.06605538 0.005248432 0.42098701 4278255360
0.065819934 0.0052642734 0.42142782 4278255360
0.065584488 0.0052801147 0.42186862 4278255360
0.065349042 0.0052959565 0.42230943 4278255360
0.065113597 0.0053117978 0.42275023 4278255360
0.064878151 0.0053276392 0.42319104 4278255360
0.064642705 0.0053434805 0.42363188 4278255360
0.064407259 0.0053593218 0.42407268 4278255360
0.064171806 0.0053751636 0.42451349 4278255360
0.06393636 0.005391005 0.4249543 4278255360
0.063700914 0.0054068463 0.4253951 4278255360
0.063465469 0.0054226876 0.42583591 4278255360
0.063230023 0.005438529 0.42627671 4278255360
0.062994577 0.0054543708 0.42671755 4278255360
0.062759131 0.0054702121 0.42715836 4278255360
0.062523685 0.0054860534 0.42759916 4278255360
0.06228824 0.0055018947 0.42803997 4278255360
0.062052794 0.0055177361 0.42848077 4278255360
0.061817344 0.0055335779 0.42892158 4278255360
0.061581898 0.0055494192 0.42936242 4278255360
0.061346453 0.0055652605 0.42980322 4278255360
0.061111007 0.0055811019 0.43024403 4278255360
0.060875561 0.0055969437 0.43068483 4278255360
0.060640112 0.005612785 0.43112564 4278255360
0.060404666 0.0056286263 0.43156645 4278255360
0.06016922 0.0056444677 0.43200725 4278255360
0.059933774 0.0056603095 0.43244809 4278255360
0.059698328 0.0056761508 0.4328889 4278255360
0.059462883 0.0056919921 0.4333297 4278255360
0.059227433 0.0057078335 0.43377051 4278255360
0.058991987 0.0057236748 0.43421131 4278255360
0.058756541 0.0057395166 0.43465212 4278255360
0.058521096 0.0057553579 0.43509293 4278255360
