# .PCD v0.7 - Point Cloud Data file format
VERSION 0.7
FIELDS x y z rgb
SIZE 4 4 4 4
TYPE F F F U
COUNT 1 1 1 1
WIDTH 867
HEIGHT 1
VIEWPOINT 0 0 0 1 0 0 0
POINTS 867
DATA ascii
-0.10963747 0.025356164 0.43900001 4281022766
-0.10821159 0.025356164 0.43900001 4280037407
-0.10727222 0.025471684 0.44100001 4279452445
-0.10938773 0.026721513 0.43800002 4280759594
-0.1079651 0.026721513 0.43800002 4280958509
-0.10678571 0.02678252 0.43900001 4279452443
-0.10559985 0.026843529 0.44000003 4279125531
-0.10346047 0.026660504 0.43700001 4279059738
-0.10180759 0.026599497 0.43600002 4279388703
-0.10016121 0.026538489 0.43500003 4279059738
-0.11081035 0.02814462 0.43800002 4280694569
-0.10938773 0.02814462 0.43800002 4280890921
-0.1077186 0.028080363 0.43700001 4280761128
-0.10654248 0.02814462 0.43800002 4279715615
-0.10487984 0.028080363 0.43700001 4279190554
-0.10298698 0.02795185 0.43500003 4279190554
-0.10134058 0.027887592 0.43400002 4279190554
-0.099700697 0.027823336 0.43300003 4279124761
-0.097386286 0.027566306 0.42900002 4279058968
-0.09576913 0.027502051 0.42800003 4278993945
-0.094158471 0.027437793 0.42700002 4278201352
-0.092554316 0.027373536 0.42600003 4278197760
-0.090956643 0.027309278 0.42500001 4278993177
-0.11081035 0.029567728 0.43800002 4281285938
-0.10913798 0.02950022 0.43700001 4280825641
-0.1077186 0.02950022 0.43700001 4281682997
-0.10605597 0.029432716 0.43600002 4279452445
-0.10463984 0.029432716 0.43600002 4279190041
-0.10275022 0.029297702 0.43400002 4279256347
-0.10110708 0.029230196 0.43300003 4279387933
-0.099470437 0.02916269 0.43200001 4279453726
-0.097386286 0.028960172 0.42900002 4279124761
-0.095545366 0.028825158 0.42700002 4279124763
-0.093937963 0.028757654 0.42600003 4279913766
-0.09233705 0.028690146 0.42500001 4279320348
-0.090956643 0.028690146 0.42500001 4279124761
-0.089365482 0.02862264 0.42400002 4278597904
-0.087780803 0.028555132 0.42300001 4278465037
-0.086202629 0.028487628 0.42200002 4279386141
-0.067605905 0.027610047 0.40900001 4279059738
-0.066277474 0.027610047 0.40900001 4279059738
-0.064949036 0.027610047 0.40900001 4279059738
-0.063465059 0.027542541 0.40800002 4278994459
-0.062139876 0.027542541 0.40800002 4278862873
-0.06081469 0.027542541 0.40800002 4278863386
-0.0594895 0.027542541 0.40800002 4278666777
-0.058164313 0.027542541 0.40800002 4278798363
-0.11081035 0.030990833 0.43800002 4282075706
-0.10913798 0.030920077 0.43700001 4280562983
-0.10747211 0.030849323 0.43600002 4281947198
-0.10605597 0.030849323 0.43600002 4279519008
-0.10439985 0.030778568 0.43500003 4279387935
-0.10251347 0.030637057 0.43300003 4279519519
-0.10087357 0.030566301 0.43200001 4279387933
-0.099009924 0.03042479 0.43000001 4279190554
-0.097159281 0.030283282 0.42800003 4279058968
-0.095545366 0.030212525 0.42700002 4279124761
-0.093937963 0.030141771 0.42600003 4278199043
-0.09233705 0.030071015 0.42500001 4278726673
-0.090742633 0.03000026 0.42400002 4279780897
-0.089154705 0.029929504 0.42300001 4278723341
-0.087780803 0.029929504 0.42300001 4278656267
-0.086202629 0.029858749 0.42200002 4278655754
-0.084429927 0.029717239 0.42000002 4278655754
-0.082867987 0.029646484 0.41900003 4278525451
-0.081312552 0.029575726 0.41800001 4278459658
-0.079763606 0.029504972 0.41700003 4278460423
-0.078409187 0.029504972 0.41700003 4278197765
-0.076869987 0.029434215 0.41600001 4278660367
-0.075337283 0.029363461 0.41500002 4279320859
-0.073811077 0.029292706 0.41400003 4279386652
-0.072466403 0.029292706 0.41400003 4279584801
-0.067605905 0.028938929 0.40900001 4279124761
-0.066277474 0.028938929 0.40900001 4279058968
-0.064790241 0.028868174 0.40800002 4279256347
-0.063465059 0.028868174 0.40800002 4279256347
-0.062139876 0.028868174 0.40800002 4279190554
-0.06066563 0.028797418 0.40700001 4279125531
-0.059343692 0.028797418 0.40700001 4279126047
-0.057879195 0.028726663 0.40600002 4278994461
-0.056281887 0.028585153 0.40400001 4279126047
-0.054833632 0.028514398 0.40300003 4278994461
-0.053391866 0.028443642 0.40200001 4278928668
-0.051956609 0.028372888 0.40100002 4278929181
-0.050654158 0.028372888 0.40100002 4279126562
-0.11055735 0.032339934 0.43700001 4280692768
-0.10913798 0.032339934 0.43700001 4279971612
-0.10747211 0.032265931 0.43600002 4281159220
-0.10581274 0.032191928 0.43500003 4279256349
-0.10415985 0.032117922 0.43400002 4279059740
-0.10251347 0.032043919 0.43300003 4279125531
-0.10064007 0.031895909 0.43100002 4279125531
-0.099009924 0.031821903 0.43000001 4279059738
-0.097159281 0.031673897 0.42800003 4278993945
-0.095545366 0.03159989 0.42700002 4279124761
-0.093937963 0.031525888 0.42600003 4278199555
-0.09233705 0.031451881 0.42500001 4280042533
-0.090742633 0.031377878 0.42400002 4280109094
-0.089154705 0.031303871 0.42300001 4278656269
-0.087573282 0.03122987 0.42200002 4278852365
-0.085998364 0.031155866 0.42100003 4278983437
-0.084429927 0.031081861 0.42000002 4278851851
-0.082867987 0.031007856 0.41900003 4278851851
-0.081312552 0.030933851 0.41800001 4278983183
-0.079763606 0.030859848 0.41700003 4278851851
-0.078409187 0.030859848 0.41700003 4278917644
-0.076869987 0.030785842 0.41600001 4278655754
-0.075337283 0.030711839 0.41500002 4280500006
-0.073811077 0.030637836 0.41400003 4279253017
-0.072466403 0.030637836 0.41400003 4278199301
-0.070778146 0.030489827 0.41200003 4278196480
-0.069271423 0.03041582 0.41100001 4278196992
-0.067771204 0.030341817 0.41000003 4278196992
-0.066277474 0.03026781 0.40900001 4278198790
-0.064949036 0.03026781 0.40900001 4278529294
-0.063465059 0.030193808 0.40800002 4279385371
-0.062139876 0.030193808 0.40800002 4279386141
-0.06066563 0.030119803 0.40700001 4279649311
-0.059197884 0.030045798 0.40600002 4278927384
-0.057879195 0.030045798 0.40600002 4279256349
-0.056281887 0.029897789 0.40400001 4279190556
-0.054833632 0.029823786 0.40300003 4279125533
-0.053391866 0.029749781 0.40200001 4278993947
-0.052086174 0.029749781 0.40200001 4279454498
-0.050654158 0.029675776 0.40100002 4278994461
-0.049351711 0.029675776 0.40100002 4279126047
-0.04804926 0.029675776 0.40100002 4278863388
-0.046863385 0.029749781 0.40200001 4278863388
-0.045557689 0.029749781 0.40200001 4278863388
-0.044251993 0.029749781 0.40200001 4278732572
-0.042946298 0.029749781 0.40200001 4278798365
-0.041640598 0.029749781 0.40200001 4279061285
-0.04043524 0.029823786 0.40300003 4285372802
-0.11223298 0.033837046 0.43800002 4280890147
-0.11055735 0.033759791 0.43700001 4280232471
-0.10913798 0.033759791 0.43700001 4282406205
-0.10747211 0.03368254 0.43600002 4281159472
-0.10581274 0.033605289 0.43500003 4279387935
-0.10391985 0.033450779 0.43300003 4278993947
-0.10227671 0.033373524 0.43200001 4279059740
-0.10064007 0.033296272 0.43100002 4279125533
-0.098779671 0.033141766 0.42900002 4279125531
-0.097159281 0.033064511 0.42800003 4279059738
-0.095321611 0.032910004 0.42600003 4279058968
-0.093717448 0.032832749 0.42500001 4278197248
-0.09233705 0.032832749 0.42500001 4279451164
-0.090742633 0.032755498 0.42400002 4279516957
-0.089154705 0.032678243 0.42300001 4278657039
-0.087573282 0.032600991 0.42200002 4278524683
-0.085998364 0.032523736 0.42100003 4279774237
-0.084429927 0.032446481 0.42000002 4279840030
-0.082867987 0.03236923 0.41900003 4279840543
-0.081312552 0.032291975 0.41800001 4280301094
-0.079954885 0.032291975 0.41800001 4279511578
-0.078409187 0.032214724 0.41700003 4279116307
-0.076869987 0.032137468 0.41600001 4278786572
-0.075337283 0.032060217 0.41500002 4280499752
-0.073811077 0.031982962 0.41400003 4279255068
-0.072466403 0.031982962 0.41400003 4278991894
-0.070778146 0.031828456 0.41200003 4279123480
-0.069271423 0.031751201 0.41100001 4279451934
-0.067771204 0.031673949 0.41000003 4279517727
-0.066439524 0.031673949 0.41000003 4279582750
-0.064949036 0.031596694 0.40900001 4279779875
-0.063465059 0.031519443 0.40800002 4279581982
-0.061987568 0.031442188 0.40700001 4278858259
-0.06066563 0.031442188 0.40700001 4278529294
-0.059197884 0.031364933 0.40600002 4278265611
-0.057736639 0.031287681 0.40500003 4278198276
-0.056281887 0.031210426 0.40400001 4278198533
-0.054833632 0.031133173 0.40300003 4278198533
-0.053391866 0.03105592 0.40200001 4278924566
-0.052086174 0.03105592 0.40200001 4279319324
-0.050780475 0.03105592 0.40200001 4278860826
-0.04947478 0.03105592 0.40200001 4278927132
-0.04816908 0.03105592 0.40200001 4279257121
-0.046863385 0.03105592 0.40200001 4278993949
-0.045557689 0.03105592 0.40200001 4278993949
-0.044251993 0.03105592 0.40200001 4279126049
-0.042946298 0.03105592 0.40200001 4278862877
-0.041744184 0.031133173 0.40300003 4279257635
-0.04043524 0.031133173 0.40300003 4279257381
-0.039126292 0.031133173 0.40300003 4279323174
-0.037817348 0.031133173 0.40300003 4279191590
-0.036508407 0.031133173 0.40300003 4278598939
-0.11223298 0.035260152 0.43800002 4282602048
-0.11055735 0.035179649 0.43700001 4281812273
-0.10888824 0.035099149 0.43600002 4280365086
-0.10722561 0.035018645 0.43500003 4281092909
-0.10556948 0.034938142 0.43400002 4279124761
-0.10391985 0.034857642 0.43300003 4279190554
-0.10227671 0.034777138 0.43200001 4279256347
-0.10040656 0.034616131 0.43000001 4279387933
-0.098779671 0.034535628 0.42900002 4279256347
-0.097159281 0.034455128 0.42800003 4279124761
-0.095321611 0.034294121 0.42600003 4279387935
-0.093717448 0.034213617 0.42500001 4278195456
-0.09233705 0.034213617 0.42500001 4279320348
-0.090742633 0.034133118 0.42400002 4279845922
-0.089154705 0.034052614 0.42300001 4278458888
-0.087573282 0.033972111 0.42200002 4278458890
-0.085998364 0.033891611 0.42100003 4279183381
-0.084429927 0.033811107 0.42000002 4280038690
-0.082867987 0.033730604 0.41900003 4278194688
-0.081312552 0.0336501 0.41800001 4278195715
-0.079954885 0.0336501 0.41800001 4278590474
-0.078409187 0.033569597 0.41700003 4279907104
-0.076869987 0.033489093 0.41600001 4278787855
-0.075337283 0.033408593 0.41500002 4280566059
-0.073989362 0.033408593 0.41500002 4279189275
-0.072466403 0.03332809 0.41400003 4278199041
-0.070949942 0.033247586 0.41300002 4278526730
-0.06943997 0.033167087 0.41200003 4280107813
-0.067936495 0.033086583 0.41100001 4278464015
-0.066439524 0.033006079 0.41000003 4278266890
-0.064949036 0.032925576 0.40900001 4279320861
-0.063465059 0.032845076 0.40800002 4279255068
-0.062139876 0.032845076 0.40800002 4279386654
-0.06066563 0.032764569 0.40700001 4279452447
-0.059197884 0.032684069 0.40600002 4279452447
-0.057736639 0.032603566 0.40500003 4279255068
-0.056281887 0.032523062 0.40400001 4279451934
-0.054833632 0.032442562 0.40300003 4279254555
-0.053524684 0.032442562 0.40300003 4279582750
-0.052086174 0.032362059 0.40200001 4279779361
-0.050780475 0.032362059 0.40200001 4279713568
-0.04947478 0.032362059 0.40200001 4278595089
-0.04816908 0.032362059 0.40200001 4278199817
-0.046863385 0.032362059 0.40200001 4278200074
-0.045557689 0.032362059 0.40200001 4279124763
-0.044251993 0.032362059 0.40200001 4279058968
-0.042946298 0.032362059 0.40200001 4278862873
-0.041744184 0.032442562 0.40300003 4278928666
-0.04043524 0.032442562 0.40300003 4278862875
-0.039126292 0.032442562 0.40300003 4278928668
-0.037817348 0.032442562 0.40300003 4278862877
-0.036508407 0.032442562 0.40300003 4278599191
-0.11223298 0.036683261 0.43800002 4282995262
-0.11055735 0.036599506 0.43700001 4281943087
-0.10888824 0.036515757 0.43600002 4281878577
-0.10722561 0.036432005 0.43500003 4281223468
-0.10556948 0.036348253 0.43400002 4279519006
-0.10391985 0.036264502 0.43300003 4279190554
-0.10227671 0.03618075 0.43200001 4279124761
-0.10040656 0.036013246 0.43000001 4279453726
-0.098779671 0.035929494 0.42900002 4279256347
-0.09693227 0.03576199 0.42700002 4278928152
-0.095321611 0.035678241 0.42600003 4278992666
-0.093717448 0.035594486 0.42500001 4278199818
-0.092119791 0.035510737 0.42400002 4278661648
-0.090742633 0.035510737 0.42400002 4279187478
-0.089154705 0.035426982 0.42300001 4278852365
-0.087573282 0.035343233 0.42200002 4278983949
-0.085998364 0.035259482 0.42100003 4278721549
-0.084429927 0.03517573 0.42000002 4278918928
-0.082867987 0.035091978 0.41900003 4278786572
-0.081507079 0.035091978 0.41900003 4278720779
-0.079954885 0.035008226 0.41800001 4280104481
-0.078409187 0.034924474 0.41700003 4280105508
-0.076869987 0.034840722 0.41600001 4278853648
-0.075337283 0.03475697 0.41500002 4279711520
-0.073989362 0.03475697 0.41500002 4279320094
-0.072466403 0.034673218 0.41400003 4278526730
-0.070949942 0.034589466 0.41300002 4279051025
-0.06943997 0.034505714 0.41200003 4279644443
-0.067936495 0.034421962 0.41100001 4280042274
-0.066439524 0.034338214 0.41000003 4279779615
-0.064949036 0.034254458 0.40900001 4279647775
-0.063620605 0.034254458 0.40900001 4278990361
-0.062139876 0.03417071 0.40800002 4278661396
-0.06066563 0.034086954 0.40700001 4279057176
-0.059197884 0.034003206 0.40600002 4279452447
-0.057736639 0.033919454 0.40500003 4279255068
-0.056281887 0.033835702 0.40400001 4279255068
-0.054969691 0.033835702 0.40400001 4279255068
-0.053524684 0.03375195 0.40300003 4279124252
-0.052215744 0.03375195 0.40300003 4279190045
-0.050780475 0.033668198 0.40200001 4279321631
-0.04947478 0.033668198 0.40200001 4279255838
-0.04816908 0.033668198 0.40200001 4279452193
-0.046863385 0.033668198 0.40200001 4278196736
-0.045557689 0.033668198 0.40200001 4279058459
-0.044251993 0.033668198 0.40200001 4279124763
-0.042946298 0.033668198 0.40200001 4278928154
-0.041744184 0.03375195 0.40300003 4278993947
-0.04043524 0.03375195 0.40300003 4278731289
-0.039126292 0.03375195 0.40300003 4278797082
-0.037817348 0.03375195 0.40300003 4278862361
-0.036508407 0.03375195 0.40300003 4278795798
-0.11223298 0.038106367 0.43800002 4281873951
-0.11030436 0.037932366 0.43600002 4280097542
-0.1086385 0.037845366 0.43500003 4279903504
-0.10722561 0.037845366 0.43500003 4280697637
-0.10556948 0.037758362 0.43400002 4279255836
-0.10367984 0.037584361 0.43200001 4279125533
-0.10227671 0.037584361 0.43200001 4279125531
-0.10040656 0.03741036 0.43000001 4278993945
-0.098779671 0.037323359 0.42900002 4278993945
-0.09693227 0.037149355 0.42700002 4278993945
-0.095321611 0.037062358 0.42600003 4279519521
-0.093717448 0.036975354 0.42500001 4279319326
-0.09233705 0.036975354 0.42500001 4279516957
-0.090742633 0.036888354 0.42400002 4279319064
-0.089154705 0.036801353 0.42300001 4278787853
-0.087573282 0.036714353 0.42200002 4278853135
-0.085998364 0.036627352 0.42100003 4278853135
-0.084429927 0.036540352 0.42000002 4278852111
-0.083065763 0.036540352 0.42000002 4278917390
-0.081507079 0.036453351 0.41900003 4278917390
-0.079954885 0.036366347 0.41800001 4278786572
-0.078409187 0.036279351 0.41700003 4278720777
-0.076869987 0.036192346 0.41600001 4278589709
-0.075518817 0.036192346 0.41600001 4279777826
-0.073989362 0.036105346 0.41500002 4279516189
-0.072466403 0.036018349 0.41400003 4278723341
-0.070949942 0.035931345 0.41300002 4278919439
-0.06960851 0.035931345 0.41300002 4280236580
-0.068101794 0.035844345 0.41200003 4279515676
-0.066601567 0.035757344 0.41100001 4279581982
-0.065107845 0.035670344 0.41000003 4280371246
-0.063620605 0.03558334 0.40900001 4279516191
-0.062139876 0.035496343 0.40800002 4279648289
-0.06066563 0.035409339 0.40700001 4280569131
-0.059197884 0.035322338 0.40600002 4278923539
-0.057736639 0.035235338 0.40500003 4279186713
-0.056421202 0.035235338 0.40500003 4279187226
-0.054969691 0.035148337 0.40400001 4278792468
-0.053524684 0.035061337 0.40300003 4278200071
-0.052215744 0.035061337 0.40300003 4279188508
-0.050906796 0.035061337 0.40300003 4278398992
-0.049597852 0.035061337 0.40300003 4279190045
-0.04816908 0.034974337 0.40200001 4279190043
-0.046863385 0.034974337 0.40200001 4278198275
-0.045557689 0.034974337 0.40200001 4279124511
-0.044251993 0.034974337 0.40200001 4278993179
-0.043053132 0.035061337 0.40300003 4278993949
-0.041744184 0.035061337 0.40300003 4278862363
-0.04043524 0.035061337 0.40300003 4278796570
-0.039126292 0.035061337 0.40300003 4278796568
-0.037817348 0.035061337 0.40300003 4278795798
-0.036508407 0.035061337 0.40300003 4278729492
-0.03519946 0.035061337 0.40300003 4278856213
-0.11030436 0.039348975 0.43600002 4281412630
-0.1086385 0.039258726 0.43500003 4280298003
-0.10697912 0.039168477 0.43400002 4280500772
-0.10532624 0.039078228 0.43300003 4279255836
-0.10367984 0.038987976 0.43200001 4279125533
-0.10227671 0.038987976 0.43200001 4279125533
-0.10040656 0.038807474 0.43000001 4279125531
-0.098779671 0.038717225 0.42900002 4278993945
-0.097159281 0.038626976 0.42800003 4278862359
-0.095321611 0.038446479 0.42600003 4278662931
-0.093937963 0.038446479 0.42600003 4278792468
-0.09233705 0.038356226 0.42500001 4279582748
-0.090742633 0.038265977 0.42400002 4279320346
-0.089154705 0.038175724 0.42300001 4279582496
-0.087573282 0.038085476 0.42200002 4279582496
-0.086202629 0.038085476 0.42200002 4279515424
-0.084630951 0.037995227 0.42100003 4279054103
-0.083065763 0.037904978 0.42000002 4278723343
-0.081507079 0.037814729 0.41900003 4278393095
-0.079954885 0.037724476 0.41800001 4278589963
-0.078409187 0.037634227 0.41700003 4278917644
-0.076869987 0.037543975 0.41600001 4278655754
-0.075518817 0.037543975 0.41600001 4280369704
-0.073989362 0.037453726 0.41500002 4279450910
-0.072466403 0.037363477 0.41400003 4279514908
-0.071121737 0.037363477 0.41400003 4279513371
-0.06960851 0.037273228 0.41300002 4279909664
-0.068101794 0.037182979 0.41200003 4279779361
-0.066601567 0.037092727 0.41100001 4279516189
-0.065107845 0.037002478 0.41000003 4279582496
-0.063620605 0.036912225 0.40900001 4278266124
-0.062139876 0.036821976 0.40800002 4278792466
-0.06066563 0.036731727 0.40700001 4279713568
-0.059197884 0.036641479 0.40600002 4278199559
-0.057879195 0.036641479 0.40600002 4278198277
-0.056421202 0.03655123 0.40500003 4280633389
-0.054969691 0.036460977 0.40400001 4279976229
-0.053657498 0.036460977 0.40400001 4278198276
-0.052215744 0.036370728 0.40300003 4278199561
-0.050906796 0.036370728 0.40300003 4278594324
-0.049597852 0.036370728 0.40300003 4279779875
-0.048288908 0.036370728 0.40300003 4279320861
-0.046979964 0.036370728 0.40300003 4278197504
-0.045671016 0.036370728 0.40300003 4279256097
-0.044362072 0.036370728 0.40300003 4278993695
-0.043053132 0.036370728 0.40300003 4278927902
-0.041744184 0.036370728 0.40300003 4278862109
-0.04043524 0.036370728 0.40300003 4279257121
-0.039126292 0.036370728 0.40300003 4278796568
-0.037817348 0.036370728 0.40300003 4278862361
-0.036508407 0.036370728 0.40300003 4279058970
-0.03519946 0.036370728 0.40300003 4278331150
-0.10532624 0.040485088 0.43300003 4279451932
-0.10367984 0.040391587 0.43200001 4279190043
-0.10251347 0.040485088 0.43300003 4278928154
-0.10064007 0.040298089 0.43100002 4278928154
-0.098779671 0.040111091 0.42900002 4278928152
-0.097159281 0.040017594 0.42800003 4278993945
-0.095545366 0.039924093 0.42700002 4279058970
-0.093937963 0.039830595 0.42600003 4279255836
-0.09233705 0.039737094 0.42500001 4279255064
-0.090742633 0.039643597 0.42400002 4279124248
-0.089154705 0.039550096 0.42300001 4279190556
-0.087780803 0.039550096 0.42300001 4279124765
-0.086202629 0.039456598 0.42200002 4279058718
-0.084630951 0.039363101 0.42100003 4278993179
-0.083065763 0.0392696 0.42000002 4279124252
-0.081507079 0.039176103 0.41900003 4279190045
-0.079954885 0.039082602 0.41800001 4279386141
-0.078597218 0.039082602 0.41800001 4279320348
-0.077054776 0.038989104 0.41700003 4280108580
-0.075518817 0.038895603 0.41600001 4279911201
-0.073989362 0.038802106 0.41500002 4279054873
-0.07264144 0.038802106 0.41500002 4278462738
-0.071121737 0.038708605 0.41400003 4278196482
-0.06960851 0.038615108 0.41300002 4278195456
-0.068101794 0.038521606 0.41200003 4278195968
-0.066601567 0.038428109 0.41100001 4278593806
-0.065107845 0.038334608 0.41000003 4279120918
-0.063620605 0.038241111 0.40900001 4280108326
-0.062139876 0.03814761 0.40800002 4279977508
-0.06066563 0.038054112 0.40700001 4279386141
-0.059197884 0.037960611 0.40600002 4279451934
-0.057879195 0.037960611 0.40600002 4279386141
-0.056421202 0.037867114 0.40500003 4279451934
-0.054969691 0.037773613 0.40400001 4279385117
-0.053657498 0.037773613 0.40400001 4279648289
-0.052345309 0.037773613 0.40400001 4279385119
-0.050906796 0.037680116 0.40300003 4278199566
-0.049597852 0.037680116 0.40300003 4279648291
-0.048288908 0.037680116 0.40300003 4279386654
-0.046979964 0.037680116 0.40300003 4278199817
-0.045671016 0.037680116 0.40300003 4278992925
-0.044362072 0.037680116 0.40300003 4278862109
-0.043053132 0.037680116 0.40300003 4278927902
-0.041744184 0.037680116 0.40300003 4278862109
-0.04043524 0.037680116 0.40300003 4278927902
-0.039126292 0.037680116 0.40300003 4278862363
-0.037817348 0.037680116 0.40300003 4278862363
-0.036508407 0.037680116 0.40300003 4278862363
-0.03519946 0.037680116 0.40300003 4278462736
-0.10275022 0.041988697 0.43400002 4279648541
-0.10087357 0.041795198 0.43200001 4279516955
-0.099009924 0.041601703 0.43000001 4279255066
-0.097159281 0.041408207 0.42800003 4279189273
-0.095545366 0.041311458 0.42700002 4279058457
-0.093937963 0.041214712 0.42600003 4279190043
-0.09233705 0.041117962 0.42500001 4279124250
-0.090742633 0.041021217 0.42400002 4278992664
-0.089365482 0.041021217 0.42400002 4278993177
-0.087780803 0.040924467 0.42300001 4278993177
-0.086202629 0.040827718 0.42200002 4278993177
-0.084630951 0.040730972 0.42100003 4278993177
-0.083263539 0.040730972 0.42100003 4278927384
-0.081701607 0.040634222 0.42000002 4279124763
-0.080146164 0.040537477 0.41900003 4278993177
-0.078597218 0.040440727 0.41800001 4279124763
-0.077054776 0.040343978 0.41700003 4279190041
-0.075700358 0.040343978 0.41700003 4279190041
-0.074167646 0.040247228 0.41600001 4279386652
-0.07264144 0.040150482 0.41500002 4279517725
-0.071293525 0.040150482 0.41500002 4279649313
-0.069777057 0.040053736 0.41400003 4279451934
-0.068267085 0.039956983 0.41300002 4279451680
-0.066763617 0.039860237 0.41200003 4279912231
-0.065107845 0.039666742 0.41000003 4279385117
-0.063620605 0.039569993 0.40900001 4279121947
-0.062139876 0.039473243 0.40800002 4278858261
-0.06066563 0.039376494 0.40700001 4278199047
-0.059197884 0.039279748 0.40600002 4278196992
-0.057879195 0.039279748 0.40600002 4278196737
-0.056421202 0.039183002 0.40500003 4278396427
-0.055105757 0.039183002 0.40500003 4278791955
-0.053657498 0.039086252 0.40400001 4279647777
-0.052345309 0.039086252 0.40400001 4279845670
-0.051033117 0.039086252 0.40400001 4279780647
-0.049597852 0.038989503 0.40300003 4279517475
-0.048288908 0.038989503 0.40300003 4279450910
-0.046979964 0.038989503 0.40300003 4278266638
-0.045671016 0.038989503 0.40300003 4279058720
-0.044362072 0.038989503 0.40300003 4279190304
-0.043053132 0.038989503 0.40300003 4278993695
-0.041744184 0.038989503 0.40300003 4278927902
-0.04043524 0.038989503 0.40300003 4278993949
-0.039126292 0.038989503 0.40300003 4278796570
-0.037817348 0.038989503 0.40300003 4278927386
-0.036508407 0.038989503 0.40300003 4278729240
-0.097159281 0.042798825 0.42800003 4279514645
-0.095545366 0.042698827 0.42700002 4280108065
-0.093937963 0.042598829 0.42600003 4279253269
-0.09233705 0.042498831 0.42500001 4278991383
-0.090742633 0.042398833 0.42400002 4279123482
-0.089365482 0.042398833 0.42400002 4279123482
-0.087780803 0.042298835 0.42300001 4278861080
-0.086406901 0.042298835 0.42300001 4278992666
-0.084831975 0.042198841 0.42200002 4278992666
-0.083263539 0.042098843 0.42100003 4278730005
-0.081701607 0.041998845 0.42000002 4279058970
-0.080146164 0.04189885 0.41900003 4278993177
-0.078785248 0.04189885 0.41900003 4278927384
-0.077239558 0.041798849 0.41800001 4278993175
-0.075700358 0.041698854 0.41700003 4278598417
-0.074345939 0.041698854 0.41700003 4279190041
-0.072816476 0.041598856 0.41600001 4279255834
-0.071465313 0.041598856 0.41600001 4279190043
-0.069945604 0.041498858 0.41500002 4279255836
-0.068432383 0.041398864 0.41400003 4279058972
-0.066925667 0.041298863 0.41300002 4279256351
-0.065107845 0.040998872 0.41000003 4279124765
-0.063620605 0.040898874 0.40900001 4279190558
-0.062139876 0.040798876 0.40800002 4279256351
-0.06066563 0.040698878 0.40700001 4279190558
-0.059197884 0.040598884 0.40600002 4279123998
-0.057879195 0.040598884 0.40600002 4279255584
-0.056421202 0.040498886 0.40500003 4279781158
-0.055105757 0.040498886 0.40500003 4280175405
-0.053657498 0.040398888 0.40400001 4279581984
-0.052345309 0.040398888 0.40400001 4278858261
-0.051033117 0.040398888 0.40400001 4278198536
-0.049597852 0.040298894 0.40300003 4278197765
-0.048288908 0.040298894 0.40300003 4278264589
-0.046979964 0.040298894 0.40300003 4279778596
-0.045671016 0.040298894 0.40300003 4279124511
-0.044362072 0.040298894 0.40300003 4279059488
-0.043053132 0.040298894 0.40300003 4279059488
-0.041744184 0.040298894 0.40300003 4278796570
-0.04043524 0.040298894 0.40300003 4278928156
-0.039126292 0.040298894 0.40300003 4278664984
-0.037817348 0.040298894 0.40300003 4278729242
-0.036508407 0.040298894 0.40300003 4278597656
-0.093937963 0.043982945 0.42600003 4279312137
-0.09233705 0.043879699 0.42500001 4278655234
-0.090956643 0.043879699 0.42500001 4278919176
-0.089365482 0.043776453 0.42400002 4278788873
-0.087988324 0.043776453 0.42400002 4279579416
-0.086406901 0.043673206 0.42300001 4279449113
-0.084831975 0.04356996 0.42200002 4279318810
-0.083461314 0.04356996 0.42200002 4279318810
-0.081896134 0.043466717 0.42100003 4279121945
-0.080337442 0.043363467 0.42000002 4279057176
-0.078785248 0.04326022 0.41900003 4279320348
-0.077239558 0.043156974 0.41800001 4279320861
-0.075881891 0.043156974 0.41800001 4279452445
-0.074345939 0.043053728 0.41700003 4279452443
-0.07299152 0.043053728 0.41700003 4279255834
-0.071637109 0.043053728 0.41700003 4279321629
-0.070114143 0.042950481 0.41600001 4279255836
-0.068597674 0.042847235 0.41500002 4279255838
-0.067087717 0.042743992 0.41400003 4279255838
-0.065107845 0.042331006 0.41000003 4279124765
-0.063465059 0.04212451 0.40800002 4279124765
-0.061987568 0.042021263 0.40700001 4279190558
-0.06066563 0.042021263 0.40700001 4279190558
-0.059197884 0.041918017 0.40600002 4279124765
-0.057879195 0.041918017 0.40600002 4279190558
-0.056421202 0.041814774 0.40500003 4279190558
-0.055105757 0.041814774 0.40500003 4279387937
-0.053657498 0.041711524 0.40400001 4279255838
-0.052345309 0.041711524 0.40400001 4279321631
-0.051033117 0.041711524 0.40400001 4279386400
-0.049597852 0.041608281 0.40300003 4279583779
-0.048288908 0.041608281 0.40300003 4279517473
-0.046979964 0.041608281 0.40300003 4279386400
-0.045671016 0.041608281 0.40300003 4279256097
-0.044362072 0.041608281 0.40300003 4279124511
-0.043053132 0.041608281 0.40300003 4279190304
-0.041744184 0.041608281 0.40300003 4278796316
-0.04043524 0.041608281 0.40300003 4278862363
-0.039126292 0.041608281 0.40300003 4278796570
-0.037817348 0.041608281 0.40300003 4278663449
-0.036508407 0.041608281 0.40300003 4278858521
-0.090956643 0.045260567 0.42500001 4279179270
-0.089365482 0.045154072 0.42400002 4279376395
-0.087988324 0.045154072 0.42400002 4279244809
-0.086406901 0.045047574 0.42300001 4278982920
-0.085032992 0.045047574 0.42300001 4279312398
-0.083461314 0.044941083 0.42200002 4279247371
-0.081896134 0.044834588 0.42100003 4279444750
-0.080337442 0.044728089 0.42000002 4279775252
-0.078973278 0.044728089 0.42000002 4279841815
-0.07742434 0.044621594 0.41900003 4280238118
-0.075881891 0.044515099 0.41800001 4279514395
-0.074524224 0.044515099 0.41800001 4279514647
-0.07299152 0.044408605 0.41700003 4280042787
-0.071808897 0.044515099 0.41800001 4279911715
-0.07028269 0.044408605 0.41700003 4280109094
-0.068762973 0.044302106 0.41600001 4279780645
-0.06741181 0.044302106 0.41600001 4279715365
-0.066219442 0.044408605 0.41700003 4279583779
-0.063465059 0.043450143 0.40800002 4279649572
-0.061987568 0.043343648 0.40700001 4279583779
-0.060516577 0.043237153 0.40600002 4279518756
-0.059197884 0.043237153 0.40600002 4279452963
-0.057736639 0.043130659 0.40500003 4279123998
-0.056421202 0.043130659 0.40500003 4279255586
-0.055105757 0.043130659 0.40500003 4279387685
-0.053657498 0.043024164 0.40400001 4279453478
-0.052345309 0.043024164 0.40400001 4279453478
-0.051033117 0.043024164 0.40400001 4279453478
-0.049720924 0.043024164 0.40400001 4279256097
-0.048408728 0.043024164 0.40400001 4279321377
-0.047096539 0.043024164 0.40400001 4279321377
-0.045784343 0.043024164 0.40400001 4279256097
-0.044472151 0.043024164 0.40400001 4279256097
-0.043159962 0.043024164 0.40400001 4279124511
-0.041847765 0.043024164 0.40400001 4279058718
-0.040535573 0.043024164 0.40400001 4279058718
-0.03922338 0.043024164 0.40400001 4278992925
-0.037817348 0.042917669 0.40300003 4278991131
-0.036508407 0.042917669 0.40300003 4279644959
-0.071808897 0.045873221 0.41800001 4286026368
-0.07045123 0.045873221 0.41800001 4285236852
-0.068928272 0.045763481 0.41700003 4284513643
-0.06757386 0.045763481 0.41700003 4282803795
-0.066219442 0.045763481 0.41700003 4281555009
-0.061987568 0.044666033 0.40700001 4279974692
-0.060516577 0.04455629 0.40600002 4280237864
-0.059197884 0.04455629 0.40600002 4279515424
-0.057736639 0.044446547 0.40500003 4279515426
-0.056421202 0.044446547 0.40500003 4279581732
-0.055105757 0.044446547 0.40500003 4279450662
-0.053657498 0.0443368 0.40400001 4279977006
-0.052345309 0.0443368 0.40400001 4279845418
-0.051033117 0.0443368 0.40400001 4279845416
-0.049720924 0.0443368 0.40400001 4279648291
-0.048408728 0.0443368 0.40400001 4279977256
-0.047096539 0.0443368 0.40400001 4279648291
-0.045784343 0.0443368 0.40400001 4279780647
-0.044472151 0.0443368 0.40400001 4279583781
-0.043159962 0.0443368 0.40400001 4279452195
-0.041847765 0.0443368 0.40400001 4279452195
-0.040535573 0.0443368 0.40400001 4279452195
-0.03922338 0.0443368 0.40400001 4278859804
-0.037911188 0.0443368 0.40400001 4280433961
-0.059197884 0.045875423 0.40600002 4285434745
-0.057736639 0.045762431 0.40500003 4286026882
-0.056421202 0.045762431 0.40500003 4286026882
-0.055105757 0.045762431 0.40500003 4286092161
-0.053790316 0.045762431 0.40500003 4286092675
-0.052345309 0.045649435 0.40400001 4286092673
-0.051033117 0.045649435 0.40400001 4285763708
-0.049720924 0.045649435 0.40400001 4285566327
-0.048408728 0.045649435 0.40400001 4284776811
-0.047096539 0.045649435 0.40400001 4284316260
-0.045784343 0.045649435 0.40400001 4284053090
-0.044472151 0.045649435 0.40400001 4282606414
-0.043159962 0.045649435 0.40400001 4282080070
-0.041847765 0.045649435 0.40400001 4282211656
-0.040535573 0.045649435 0.40400001 4282145861
-0.03922338 0.045649435 0.40400001 4284184162
-0.056421202 0.047078319 0.40500003 4285828476
-0.055105757 0.047078319 0.40500003 4285762683
-0.053790316 0.047078319 0.40500003 4285762683
-0.052345309 0.046962075 0.40400001 4285696890
-0.051033117 0.046962075 0.40400001 4285499511
-0.049720924 0.046962075 0.40400001 4285433718
-0.048408728 0.046962075 0.40400001 4285236339
-0.047096539 0.046962075 0.40400001 4284973678
-0.044472151 0.046962075 0.40400001 4284842092
-0.043159962 0.046962075 0.40400001 4284776299
-0.041847765 0.046962075 0.40400001 4284710506
-0.040535573 0.046962075 0.40400001 4284842092
-0.070707016 0.036609065 0.41464469 4294967295
-0.070707016 0.036609065 0.41464469 4294901760
-0.070707016 0.036609065 0.41514468 4294901760
-0.070707016 0.036609065 0.41564468 4294901760
-0.070707016 0.036609065 0.4161447 4294901760
-0.070707016 0.036609065 0.41664469 4294901760
-0.070707016 0.036609065 0.41714469 4294901760
-0.070707016 0.036609065 0.41764468 4294901760
-0.070707016 0.036609065 0.4181447 4294901760
-0.070707016 0.036609065 0.4186447 4294901760
-0.070707016 0.036609065 0.41914469 4294901760
-0.070707016 0.036609065 0.41964468 4294901760
-0.070707016 0.036609065 0.42014468 4294901760
-0.070707016 0.036609065 0.4206447 4294901760
-0.070707016 0.036609065 0.42114469 4294901760
-0.070707016 0.036609065 0.42164469 4294901760
-0.070707016 0.036609065 0.42214468 4294901760
-0.070707016 0.036609065 0.42264467 4294901760
-0.070707016 0.036609065 0.4231447 4294901760
-0.070707016 0.036609065 0.42364469 4294901760
-0.070707016 0.036609065 0.42414469 4294901760
-0.070707016 0.036609065 0.42464468 4294901760
-0.070707016 0.036609065 0.4251447 4294901760
-0.070707016 0.036609065 0.4256447 4294901760
-0.070707016 0.036609065 0.42614469 4294901760
-0.070707016 0.036609065 0.42664468 4294901760
-0.070707016 0.036609065 0.42714471 4294901760
-0.070707016 0.036609065 0.4276447 4294901760
-0.070707016 0.036609065 0.42814469 4294901760
-0.070707016 0.036609065 0.42864469 4294901760
-0.070707016 0.036609065 0.42914468 4294901760
-0.070707016 0.036609065 0.4296447 4294901760
-0.070707016 0.036609065 0.4301447 4294901760
-0.070707016 0.036609065 0.43064469 4294901760
-0.070707016 0.036609065 0.43114468 4294901760
-0.070707016 0.036609065 0.43164468 4294901760
-0.070707016 0.036609065 0.4321447 4294901760
-0.070707016 0.036609065 0.4326447 4294901760
-0.070707016 0.036609065 0.43314469 4294901760
-0.070707016 0.036609065 0.43364468 4294901760
-0.070707016 0.036609065 0.43414471 4294901760
-0.070707016 0.036609065 0.4346447 4294901760
-0.070707016 0.036609065 0.43514469 4294901760
-0.070707016 0.036609065 0.43564469 4294901760
-0.070707016 0.036609065 0.43614471 4294901760
-0.070707016 0.036609065 0.4366447 4294901760
-0.070707016 0.036609065 0.4371447 4294901760
-0.070707016 0.036609065 0.43764469 4294901760
-0.070707016 0.036609065 0.43814468 4294901760
-0.070707016 0.036609065 0.43864471 4294901760
-0.070707016 0.036609065 0.4391447 4294901760
-0.070707016 0.036609065 0.43964469 4294901760
-0.070707016 0.036609065 0.44014469 4294901760
-0.070707016 0.036609065 0.44064468 4294901760
-0.070707016 0.036609065 0.4411447 4294901760
-0.070707016 0.036609065 0.4416447 4294901760
-0.070707016 0.036609065 0.44214469 4294901760
-0.070707016 0.036609065 0.44264469 4294901760
-0.070707016 0.036609065 0.44314468 4294901760
-0.070707016 0.036609065 0.4436447 4294901760
-0.070707016 0.036609065 0.4441447 4294901760
-0.070707016 0.036609065 0.44464469 4294901760
-0.070707016 0.036609065 0.44514468 4294901760
-0.070707016 0.036609065 0.44564471 4294901760
-0.070707016 0.036609065 0.4461447 4294901760
-0.070707016 0.036609065 0.44664469 4294901760
-0.070707016 0.036609065 0.44714469 4294901760
-0.070707016 0.036609065 0.44764471 4294901760
-0.070707016 0.036609065 0.4481447 4294901760
-0.070707016 0.036609065 0.4486447 4294901760
-0.070707016 0.036609065 0.44914469 4294901760
-0.070707016 0.036609065 0.44964468 4294901760
-0.070707016 0.036609065 0.45014471 4294901760
-0.070707016 0.036609065 0.4506447 4294901760
-0.070707016 0.036609065 0.4511447 4294901760
-0.070707016 0.036609065 0.45164469 4294901760
-0.070707016 0.036609065 0.45214468 4294901760
-0.070707016 0.036609065 0.45264471 4294901760
-0.070707016 0.036609065 0.4531447 4294901760
-0.070707016 0.036609065 0.45364469 4294901760
-0.070707016 0.036609065 0.45414469 4294901760
-0.070707016 0.036609065 0.45464471 4294901760
-0.070707016 0.036609065 0.4551447 4294901760
-0.070707016 0.036609065 0.4556447 4294901760
-0.070707016 0.036609065 0.45614469 4294901760
-0.070707016 0.036609065 0.45664468 4294901760
-0.070707016 0.036609065 0.45714471 4294901760
-0.070707016 0.036609065 0.4576447 4294901760
-0.070707016 0.036609065 0.45814469 4294901760
-0.070707016 0.036609065 0.45864469 4294901760
-0.070707016 0.036609065 0.45914471 4294901760
-0.070707016 0.036609065 0.45964471 4294901760
-0.070707016 0.036609065 0.4601447 4294901760
-0.070707016 0.036609065 0.46064469 4294901760
-0.070707016 0.036609065 0.46114469 4294901760
-0.070707016 0.036609065 0.46164471 4294901760
-0.070707016 0.036609065 0.4621447 4294901760
-0.070707016 0.036609065 0.4626447 4294901760
-0.070707016 0.036609065 0.46314469 4294901760
-0.070707016 0.036609065 0.46364471 4294901760
-0.070707016 0.036609065 0.46414471 4294901760
-0.070707016 0.036609065 0.4646447 4294901760
-0.070707016 0.036609065 0.41464469 4278255360
-0.070455357 0.03658497 0.41507608 4278255360
-0.070203699 0.036560878 0.41550744 4278255360
-0.069952048 0.036536783 0.41593882 4278255360
-0.06970039 0.036512688 0.41637021 4278255360
-0.069448732 0.036488593 0.41680157 4278255360
-0.069197074 0.036464501 0.41723296 4278255360
-0.068945423 0.036440406 0.41766435 4278255360
-0.068693765 0.036416311 0.41809574 4278255360
-0.068442106 0.036392219 0.4185271 4278255360
-0.068190448 0.036368124 0.41895849 4278255360
-0.067938797 0.036344029 0.41938987 4278255360
-0.067687139 0.036319938 0.41982123 4278255360
-0.067435481 0.036295842 0.42025262 4278255360
-0.067183822 0.036271747 0.42068401 4278255360
-0.066932172 0.036247656 0.4211154 4278255360
-0.066680513 0.036223561 0.42154676 4278255360
-0.066428855 0.036199465 0.42197815 4278255360
-0.066177197 0.03617537 0.42240953 4278255360
-0.065925546 0.036151279 0.42284089 4278255360
-0.065673888 0.036127184 0.42327228 4278255360
-0.065422229 0.036103088 0.42370367 4278255360
-0.065170571 0.036078997 0.42413503 4278255360
-0.06491892 0.036054902 0.42456642 4278255360
-0.064667262 0.036030807 0.42499781 4278255360
-0.064415604 0.036006711 0.42542917 4278255360
-0.064163946 0.03598262 0.42586055 4278255360
-0.063912287 0.035958525 0.42629194 4278255360
-0.063660637 0.03593443 0.42672333 4278255360
-0.063408978 0.035910338 0.42715469 4278255360
-0.06315732 0.035886243 0.42758608 4278255360
-0.062905662 0.035862148 0.42801747 4278255360
-0.062654011 0.035838056 0.42844883 4278255360
-0.062402353 0.035813961 0.42888021 4278255360
-0.062150694 0.035789866 0.4293116 4278255360
-0.06189904 0.035765775 0.42974299 4278255360
-0.061647382 0.035741679 0.43017435 4278255360
-0.061395727 0.035717584 0.43060574 4278255360
-0.061144069 0.035693489 0.43103713 4278255360
-0.060892414 0.035669398 0.43146849 4278255360
-0.060640756 0.035645302 0.43189988 4278255360
-0.060389102 0.035621207 0.43233126 4278255360
-0.060137443 0.035597116 0.43276262 4278255360
-0.059885785 0.035573021 0.43319401 4278255360
-0.05963413 0.035548925 0.4336254 4278255360
-0.059382476 0.03552483 0.43405676 4278255360
-0.059130818 0.035500739 0.43448815 4278255360
-0.058879159 0.035476644 0.43491954 4278255360
-0.058627505 0.035452548 0.43535092 4278255360
-0.05837585 0.035428457 0.43578228 4278255360
-0.058124192 0.035404362 0.43621367 4278255360
-0.057872534 0.035380267 0.43664506 4278255360
-0.057620879 0.035356175 0.43707642 4278255360
-0.057369225 0.03533208 0.43750781 4278255360
-0.057117566 0.035307985 0.4379392 4278255360
-0.056865908 0.035283893 0.43837059 4278255360
-0.056614254 0.035259798 0.43880194 4278255360
-0.056362599 0.035235703 0.43923333 4278255360
-0.056110941 0.035211608 0.43966472 4278255360
-0.055859283 0.035187516 0.44009608 4278255360
-0.055607628 0.035163421 0.44052747 4278255360
-0.05535597 0.035139326 0.44095886 4278255360
-0.055104315 0.035115235 0.44139022 4278255360
-0.054852657 0.035091139 0.4418216 4278255360
-0.054601002 0.035067044 0.44225299 4278255360
-0.054349348 0.035042949 0.44268435 4278255360
-0.05409769 0.035018858 0.44311574 4278255360
-0.053846031 0.034994762 0.44354713 4278255360
-0.053594373 0.034970667 0.44397852 4278255360
-0.053342719 0.034946576 0.44440988 4278255360
-0.053091064 0.034922481 0.44484127 4278255360
-0.052839406 0.034898385 0.44527265 4278255360
-0.052587748 0.034874294 0.44570401 4278255360
-0.052336093 0.034850199 0.4461354 4278255360
-0.052084439 0.034826104 0.44656679 4278255360
-0.05183278 0.034802012 0.44699818 4278255360
-0.051581122 0.034777917 0.44742954 4278255360
-0.051329467 0.034753822 0.44786093 4278255360
-0.051077813 0.034729727 0.44829232 4278255360
-0.050826155 0.034705635 0.44872367 4278255360
-0.050574496 0.03468154 0.44915506 4278255360
-0.050322842 0.034657445 0.44958645 4278255360
-0.050071187 0.034633353 0.45001781 4278255360
-0.049819529 0.034609258 0.4504492 4278255360
-0.049567871 0.034585163 0.45088059 4278255360
-0.049316213 0.034561068 0.45131195 4278255360
-0.049064558 0.034536976 0.45174333 4278255360
-0.048812903 0.034512881 0.45217472 4278255360
-0.048561245 0.034488786 0.45260611 4278255360
-0.048309591 0.034464695 0.45303747 4278255360
-0.048057936 0.034440599 0.45346886 4278255360
-0.047806278 0.034416504 0.45390025 4278255360
-0.04755462 0.034392413 0.45433161 4278255360
-0.047302961 0.034368318 0.454763 4278255360
-0.047051307 0.034344222 0.45519438 4278255360
-0.046799652 0.034320131 0.45562577 4278255360
-0.046547994 0.034296036 0.45605713 4278255360
-0.046296336 0.034271941 0.45648852 4278255360
-0.046044681 0.034247845 0.45691991 4278255360
-0.045793027 0.034223754 0.45735127 4278255360
-0.045541368 0.034199659 0.45778266 4278255360
