# .PCD v0.7 - Point Cloud Data file format
VERSION 0.7
FIELDS x y z rgb
SIZE 4 4 4 4
TYPE F F F U
COUNT 1 1 1 1
WIDTH 1060
HEIGHT 1
VIEWPOINT 0 0 0 1 0 0 0
POINTS 1060
DATA ascii
0.07947281 0.064858548 0.26000002 4283066183
0.080317289 0.064858548 0.26000002 4284906593
0.081473932 0.065108001 0.26100001 4285366120
0.038234387 0.076064222 0.30100003 4280034590
0.039212037 0.076064222 0.30100003 4280034590
0.040189687 0.076064222 0.30100003 4279837211
0.041167334 0.076064222 0.30100003 4279903774
0.042284999 0.076316923 0.30200002 4279837981
0.043552425 0.076822333 0.30400002 4279640602
0.04453982 0.076822333 0.30400002 4279443223
0.044628642 0.075306103 0.29800001 4279837211
0.045443542 0.075053401 0.29700002 4279772188
0.046251941 0.074800692 0.296 4279772186
0.047053844 0.074547991 0.29500002 4279774235
0.048012007 0.074547991 0.29500002 4280038942
0.048804164 0.074295282 0.294 4279976992
0.049589828 0.074042581 0.29300001 4279780897
0.050541494 0.074042581 0.29300001 4279650594
0.051141668 0.073537171 0.29100001 4279782180
0.051907849 0.07328447 0.29000002 4279914279
0.052485283 0.072779052 0.28800002 4279651107
0.053235218 0.072526343 0.287 4279980072
0.053978663 0.072273642 0.28600001 4279979559
0.054715607 0.07202094 0.28500003 4280108580
0.055446051 0.071768232 0.28400001 4279580188
0.056170009 0.07151553 0.28300002 4278263044
0.056887455 0.071262822 0.28200001 4279645209
0.057803396 0.071262822 0.28200001 4280372266
0.058511112 0.07101012 0.28100002 4280438059
0.059212323 0.070757411 0.28 4278397197
0.059907045 0.07050471 0.27900001 4279120920
0.060813237 0.07050471 0.27900001 4280107297
0.061498217 0.070252009 0.27800003 4279844123
0.062401161 0.070252009 0.27800003 4280108576
0.063076392 0.0699993 0.27700001 4280043299
0.063745126 0.069746599 0.27600002 4278728722
0.064641573 0.069746599 0.27600002 4279255836
0.065300561 0.06949389 0.27500001 4279256347
0.065953061 0.069241188 0.27400002 4279190554
0.066599056 0.068988472 0.273 4279255836
0.067238562 0.068735771 0.27200001 4279452445
0.067871571 0.06848307 0.27100003 4279449113
0.068751782 0.06848307 0.27100003 4278395914
0.069375046 0.068230361 0.27000001 4278725392
0.06999182 0.067977659 0.26900002 4279385371
0.070865527 0.067977659 0.26900002 4279519260
0.071472548 0.067724951 0.26800001 4279125015
0.072343014 0.067724951 0.26800001 4279125785
0.07294029 0.067472249 0.26700002 4278994199
0.073531076 0.06721954 0.266 4279323162
0.074115366 0.066966839 0.26500002 4279126810
0.074693151 0.06671413 0.264 4279652641
0.075264454 0.066461429 0.26300001 4279849506
0.07582926 0.066208728 0.26200002 4280571178
0.076680228 0.066208728 0.26200002 4284583014
0.077235281 0.065956019 0.26100001 4288267172
0.078083009 0.065956019 0.26100001 4282542919
0.078930743 0.065956019 0.26100001 4280373286
0.07977847 0.065956019 0.26100001 4281096755
0.080626197 0.065956019 0.26100001 4281884476
0.081473932 0.065956019 0.26100001 4282868804
0.045443542 0.076018386 0.29700002 4280298532
0.046251941 0.075762428 0.296 4280298532
0.047213346 0.075762428 0.296 4280364323
0.048012007 0.075506479 0.29500002 4280233250
0.048970167 0.075506479 0.29500002 4279774748
0.049759075 0.075250521 0.294 4279446553
0.050541494 0.074994572 0.29300001 4279582750
0.051317416 0.074738614 0.29200003 4279846692
0.051907849 0.074226707 0.29000002 4279716900
0.052667525 0.07397075 0.289 4279716900
0.053235218 0.073458843 0.287 4279848486
0.053978663 0.073202886 0.28600001 4279914279
0.054715607 0.072946936 0.28500003 4279716900
0.055446051 0.072690979 0.28400001 4279979559
0.056170009 0.072435029 0.28300002 4280371498
0.056887455 0.072179072 0.28200001 4279119637
0.057598419 0.071923122 0.28100002 4278789902
0.058511112 0.071923122 0.28100002 4279712287
0.059212323 0.071667165 0.28 4279649059
0.059907045 0.071411207 0.27900001 4279912231
0.060813237 0.071411207 0.27900001 4279977508
0.061498217 0.071155258 0.27800003 4278594828
0.06217669 0.0708993 0.27700001 4279845920
0.063076392 0.0708993 0.27700001 4280043299
0.063745126 0.07064335 0.27600002 4278661394
0.064407364 0.070387393 0.27500001 4278201097
0.065300561 0.070387393 0.27500001 4279124502
0.065953061 0.070131443 0.27400002 4278862613
0.066599056 0.069875479 0.273 4278928406
0.067238562 0.069619529 0.27200001 4279059992
0.067871571 0.069363579 0.27100003 4279452443
0.068751782 0.069363579 0.27100003 4279648539
0.069375046 0.069107622 0.27000001 4279383320
0.06999182 0.068851672 0.26900002 4278197762
0.070865527 0.068851672 0.26900002 4278263558
0.071472548 0.068595715 0.26800001 4279319578
0.07207308 0.068339765 0.26700002 4278993429
0.07294029 0.068339765 0.26700002 4279125015
0.073531076 0.0680838 0.266 4279059222
0.074115366 0.067827851 0.26500002 4278994199
0.074693151 0.067571893 0.264 4279125785
0.075550631 0.067571893 0.264 4279323162
0.076118678 0.067315944 0.26300001 4279586334
0.076680228 0.067059994 0.26200002 4280507184
0.077531204 0.067059994 0.26200002 4282148677
0.078382187 0.067059994 0.26200002 4286753419
0.078930743 0.066804036 0.26100001 4287674773
0.07977847 0.066804036 0.26100001 4280307241
0.080626197 0.066804036 0.26100001 4280571694
0.081473932 0.066804036 0.26100001 4280703280
0.082321651 0.066804036 0.26100001 4280897583
0.046251941 0.076724164 0.296 4280364325
0.047213346 0.076724164 0.296 4280298532
0.048012007 0.076464966 0.29500002 4280364325
0.048970167 0.076464966 0.29500002 4280233252
0.049928326 0.076464966 0.29500002 4280035871
0.050713986 0.07620576 0.294 4279971614
0.05149316 0.075946555 0.29300001 4280039455
0.051907849 0.075168952 0.29000002 4279978024
0.052485283 0.074650541 0.28800002 4280110377
0.053235218 0.074391335 0.287 4279979559
0.053978663 0.074132137 0.28600001 4279979559
0.054715607 0.073872931 0.28500003 4279848486
0.055446051 0.073613726 0.28400001 4279914279
0.056170009 0.073354527 0.28300002 4279913766
0.056887455 0.073095322 0.28200001 4279782180
0.057598419 0.072836116 0.28100002 4280371752
0.058302883 0.07257691 0.28 4279449115
0.059212323 0.07257691 0.28 4278658316
0.059907045 0.072317712 0.27900001 4279777819
0.060813237 0.072317712 0.27900001 4279912481
0.061498217 0.072058514 0.27800003 4279978274
0.06217669 0.071799301 0.27700001 4278725644
0.063076392 0.071799301 0.27700001 4278461705
0.063745126 0.071540102 0.27600002 4279515676
0.064407364 0.071280897 0.27500001 4279779102
0.065300561 0.071280897 0.27500001 4278923023
0.065953061 0.071021698 0.27400002 4278199043
0.066599056 0.070762493 0.273 4279189273
0.067238562 0.070503287 0.27200001 4279058455
0.067871571 0.070244089 0.27100003 4279519006
0.068498082 0.069984883 0.27000001 4279584029
0.069375046 0.069984883 0.27000001 4279452443
0.06999182 0.069725685 0.26900002 4279648539
0.070602082 0.069466472 0.26800001 4279843612
0.071472548 0.069466472 0.26800001 4278329351
0.07207308 0.069207273 0.26700002 4278198532
0.07294029 0.069207273 0.26700002 4279253269
0.073531076 0.068948068 0.266 4279453467
0.074395046 0.068948068 0.266 4278993429
0.074976087 0.068688869 0.26500002 4279388187
0.075550631 0.068429656 0.264 4279125785
0.076408103 0.068429656 0.264 4279125785
0.076972902 0.068170458 0.26300001 4279192092
0.077827126 0.068170458 0.26300001 4279914531
0.078382187 0.06791126 0.26200002 4280768557
0.079233162 0.06791126 0.26200002 4285964157
0.080084138 0.06791126 0.26200002 4287016332
0.080935121 0.06791126 0.26200002 4281688122
0.081473932 0.067652054 0.26100001 4280242213
0.082637064 0.06791126 0.26200002 4279914018
0.08348804 0.06791126 0.26200002 4280964399
0.049136166 0.077685893 0.296 4280298530
0.049928326 0.077423446 0.29500002 4280364323
0.050886486 0.077423446 0.29500002 4280364577
0.051844649 0.077423446 0.29500002 4280364575
0.052802812 0.077423446 0.29500002 4280104485
0.053760968 0.077423446 0.29500002 4280830518
0.054719131 0.077423446 0.29500002 4280765227
0.053789929 0.074798919 0.28500003 4280634922
0.054523617 0.074536465 0.28400001 4279781410
0.055250823 0.074274018 0.28300002 4279782180
0.055971522 0.074011557 0.28200001 4279914277
0.056887455 0.074011557 0.28200001 4279980070
0.057598419 0.07374911 0.28100002 4279716900
0.058302883 0.073486656 0.28 4280374317
0.059212323 0.073486656 0.28 4280568877
0.059907045 0.073224202 0.27900001 4278790670
0.06059527 0.072961755 0.27800003 4278263296
0.061498217 0.072961755 0.27800003 4280040989
0.06217669 0.072699301 0.27700001 4280304672
0.06284868 0.072436847 0.27600002 4280239649
0.063745126 0.072436847 0.27600002 4279911711
0.064407364 0.072174393 0.27500001 4279780127
0.065063111 0.071911946 0.27400002 4278723847
0.065953061 0.071911946 0.27400002 4280171293
0.066599056 0.071649484 0.273 4279645463
0.067238562 0.071387038 0.27200001 4278461959
0.067871571 0.071124591 0.27100003 4279582748
0.068498082 0.070862129 0.27000001 4279386139
0.069375046 0.070862129 0.27000001 4279124248
0.06999182 0.070599683 0.26900002 4279321627
0.070602082 0.070337228 0.26800001 4279452184
0.071472548 0.070337228 0.26800001 4279582746
0.07207308 0.070074782 0.26700002 4279515676
0.07294029 0.070074782 0.26700002 4278527500
0.073531076 0.06981232 0.266 4278526728
0.074395046 0.06981232 0.266 4279187478
0.074976087 0.069549873 0.26500002 4279058455
0.075836807 0.069549873 0.26500002 4279190554
0.076408103 0.069287419 0.264 4279059992
0.077265568 0.069287419 0.264 4279059992
0.077827126 0.069024965 0.26300001 4279257369
0.07868135 0.069024965 0.26300001 4279848990
0.079233162 0.068762518 0.26200002 4280109594
0.080084138 0.068762518 0.26200002 4284384344
0.080935121 0.068762518 0.26200002 4287542424
0.081786096 0.068762518 0.26200002 4280700725
0.082637064 0.068762518 0.26200002 4279914018
0.083169378 0.068500064 0.26100001 4279717152
0.084017113 0.068500064 0.26100001 4281028395
0.055250823 0.075193517 0.28300002 4280372264
0.055971522 0.074927807 0.28200001 4280044582
0.056887455 0.074927807 0.28200001 4280374315
0.057393439 0.074396402 0.28 4279979557
0.058302883 0.074396402 0.28 4279979557
0.059000853 0.074130706 0.27900001 4279913766
0.059907045 0.074130706 0.27900001 4280110375
0.06059527 0.073865011 0.27800003 4280568364
0.061498217 0.073865011 0.27800003 4279185943
0.06217669 0.073599301 0.27700001 4278921486
0.06284868 0.073333606 0.27600002 4280171807
0.063745126 0.073333606 0.27600002 4279649309
0.064407364 0.073067896 0.27500001 4279780895
0.065063111 0.072802201 0.27400002 4280108576
0.065953061 0.072802201 0.27400002 4280173856
0.066599056 0.072536491 0.273 4278790154
0.067238562 0.072270796 0.27200001 4279712026
0.067871571 0.072005101 0.27100003 4278396679
0.068498082 0.07173939 0.27000001 4279318297
0.069375046 0.07173939 0.27000001 4278529294
0.06999182 0.071473695 0.26900002 4279254551
0.070602082 0.071207985 0.26800001 4278992914
0.071472548 0.071207985 0.26800001 4279321881
0.07207308 0.07094229 0.26700002 4279517977
0.07294029 0.07094229 0.26700002 4279386137
0.073531076 0.070676588 0.266 4279646492
0.074395046 0.070676588 0.266 4278658316
0.074976087 0.070410885 0.26500002 4278791437
0.075836807 0.070410885 0.26500002 4279386139
0.076697528 0.070410885 0.26500002 4279190043
0.077265568 0.070145182 0.264 4279190041
0.07812304 0.070145182 0.264 4279125013
0.07868135 0.06987948 0.26300001 4279256599
0.079535574 0.06987948 0.26300001 4279453978
0.080084138 0.069613785 0.26200002 4279585564
0.080935121 0.069613785 0.26200002 4279847201
0.081786096 0.069613785 0.26200002 4280769336
0.082637064 0.069613785 0.26200002 4279848484
0.083169378 0.069348082 0.26100001 4279453980
0.084017113 0.069348082 0.26100001 4279781149
0.057393439 0.075306155 0.28 4280307752
0.058302883 0.075306155 0.28 4280110373
0.059000853 0.075037211 0.27900001 4279716385
0.059907045 0.075037211 0.27900001 4279782180
0.06059527 0.07476826 0.27800003 4280044582
0.061276998 0.074499309 0.27700001 4280109862
0.06217669 0.074499309 0.27700001 4280437032
0.06284868 0.074230358 0.27600002 4278988564
0.063514166 0.073961407 0.27500001 4278593293
0.064407364 0.073961407 0.27500001 4280238370
0.065063111 0.073692456 0.27400002 4279780125
0.065712355 0.073423505 0.273 4279715102
0.066599056 0.073423505 0.273 4279187476
0.067238562 0.073154554 0.27200001 4279713820
0.067871571 0.07288561 0.27100003 4278198532
0.068498082 0.072616652 0.27000001 4279516189
0.069375046 0.072616652 0.27000001 4280108067
0.06999182 0.072347708 0.26900002 4279055892
0.070865527 0.072347708 0.26900002 4279320857
0.071472548 0.07207875 0.26800001 4278926353
0.07207308 0.071809806 0.26700002 4279321109
0.07294029 0.071809806 0.26700002 4279386902
0.073807508 0.071809806 0.26700002 4279452443
0.074395046 0.071540847 0.266 4279451932
0.075259015 0.071540847 0.266 4278659084
0.075836807 0.071271904 0.26500002 4279186711
0.076697528 0.071271904 0.26500002 4279255836
0.077558242 0.071271904 0.26500002 4279255836
0.07812304 0.071002945 0.264 4279190041
0.078980513 0.071002945 0.264 4279190041
0.079535574 0.070734002 0.26300001 4279190554
0.080389798 0.070734002 0.26300001 4279125785
0.080935121 0.070465051 0.26200002 4279059990
0.081786096 0.070465051 0.26200002 4279323162
0.082321651 0.0701961 0.26100001 4279586334
0.083169378 0.0701961 0.26100001 4279257369
0.084017113 0.0701961 0.26100001 4279190554
0.08486484 0.0701961 0.26100001 4279781408
0.057393439 0.076215908 0.28 4281094960
0.058302883 0.076215908 0.28 4280306471
0.059000853 0.075943708 0.27900001 4280044582
0.059692327 0.075671516 0.27800003 4279913766
0.06059527 0.075671516 0.27800003 4279716385
0.061276998 0.075399309 0.27700001 4279782178
0.06195223 0.07512711 0.27600002 4279649822
0.06284868 0.07512711 0.27600002 4280110373
0.063514166 0.07485491 0.27500001 4280437545
0.064407364 0.07485491 0.27500001 4279053072
0.065063111 0.074582711 0.27400002 4278197249
0.065712355 0.074310511 0.273 4278988562
0.066599056 0.074310511 0.273 4279648541
0.067238562 0.074038312 0.27200001 4279911713
0.067871571 0.073766112 0.27100003 4279647516
0.068498082 0.073493913 0.27000001 4278463242
0.069375046 0.073493913 0.27000001 4278725390
0.06999182 0.073221713 0.26900002 4279383061
0.070865527 0.073221713 0.26900002 4278593545
0.071472548 0.072949514 0.26800001 4279251475
0.072343014 0.072949514 0.26800001 4278858511
0.07294029 0.072677314 0.26700002 4279255066
0.073807508 0.072677314 0.26700002 4279124248
0.074395046 0.072405107 0.266 4279124248
0.075259015 0.072405107 0.266 4279052558
0.076122984 0.072405107 0.266 4279119637
0.076697528 0.072132915 0.26500002 4279386137
0.077558242 0.072132915 0.26500002 4279255064
0.07812304 0.071860708 0.264 4279058968
0.078980513 0.071860708 0.264 4279124763
0.079535574 0.071588516 0.26300001 4279059740
0.080389798 0.071588516 0.26300001 4278993945
0.080935121 0.071316317 0.26200002 4278928406
0.081786096 0.071316317 0.26200002 4279059992
0.082321651 0.07104411 0.26100001 4279455002
0.083169378 0.07104411 0.26100001 4279323416
0.084017113 0.07104411 0.26100001 4279256601
0.08486484 0.07104411 0.26100001 4279255834
0.0603773 0.07629931 0.27700001 4280307752
0.061276998 0.07629931 0.27700001 4280110373
0.06195223 0.076023869 0.27600002 4280308006
0.06284868 0.076023869 0.27600002 4280044580
0.063514166 0.075748414 0.27500001 4279912994
0.064173155 0.075472966 0.27400002 4280175653
0.065063111 0.075472966 0.27400002 4280765995
0.065712355 0.075197518 0.273 4279186195
0.066355109 0.07492207 0.27200001 4278197249
0.067238562 0.07492207 0.27200001 4279383320
0.067871571 0.074646622 0.27100003 4280372264
0.068498082 0.074371174 0.27000001 4279780127
0.069375046 0.074371174 0.27000001 4279976994
0.06999182 0.074095726 0.26900002 4279713820
0.070865527 0.074095726 0.26900002 4278988301
0.071472548 0.073820271 0.26800001 4279317268
0.072343014 0.073820271 0.26800001 4278923023
0.07294029 0.07354483 0.26700002 4279385369
0.073807508 0.07354483 0.26700002 4278992664
0.074674726 0.07354483 0.26700002 4279190043
0.075259015 0.073269375 0.266 4278987281
0.076122984 0.073269375 0.266 4279711774
0.076986954 0.073269375 0.266 4279255064
0.077558242 0.072993927 0.26500002 4279124502
0.078418963 0.072993927 0.26500002 4279256347
0.078980513 0.072718471 0.264 4278993945
0.079837985 0.072718471 0.264 4278731287
0.080389798 0.072443031 0.26300001 4278993945
0.081244029 0.072443031 0.26300001 4279059738
0.081786096 0.072167583 0.26200002 4279059992
0.082637064 0.072167583 0.26200002 4279059990
0.083169378 0.071892127 0.26100001 4279323162
0.084017113 0.071892127 0.26100001 4279256601
0.08486484 0.071892127 0.26100001 4279125015
0.0603773 0.07719931 0.27700001 4281028399
0.061276998 0.07719931 0.27700001 4280306471
0.06195223 0.076920614 0.27600002 4280373032
0.06262096 0.07664191 0.27500001 4280109860
0.063514166 0.07664191 0.27500001 4280110373
0.064173155 0.076363213 0.27400002 4280176166
0.065063111 0.076363213 0.27400002 4280175653
0.065712355 0.076084509 0.273 4279977504
0.066355109 0.075805821 0.27200001 4280173860
0.067238562 0.075805821 0.27200001 4278330119
0.067871571 0.075527124 0.27100003 4278196997
0.068498082 0.07524842 0.27000001 4279449113
0.069375046 0.07524842 0.27000001 4279254551
0.06999182 0.074969731 0.26900002 4279517723
0.070865527 0.074969731 0.26900002 4279713307
0.071472548 0.074691027 0.26800001 4278922510
0.072343014 0.074691027 0.26800001 4278790670
0.07294029 0.074412331 0.26700002 4279253271
0.073807508 0.074412331 0.26700002 4279320857
0.074674726 0.074412331 0.26700002 4279320346
0.075259015 0.074133627 0.266 4278658316
0.076122984 0.074133627 0.266 4279646494
0.076986954 0.074133627 0.266 4279255834
0.077558242 0.073854931 0.26500002 4279256347
0.078418963 0.073854931 0.26500002 4279190554
0.079279691 0.073854931 0.26500002 4279124761
0.079837985 0.073576234 0.264 4279124761
0.080389798 0.073297538 0.26300001 4279190554
0.081244029 0.073297538 0.26300001 4279190554
0.081786096 0.073018841 0.26200002 4279453467
0.082637064 0.073018841 0.26200002 4279256088
0.083169378 0.072740138 0.26100001 4279124500
0.084017113 0.072740138 0.26100001 4279190293
0.08486484 0.072740138 0.26100001 4278860558
0.06195223 0.077817366 0.27600002 4280896300
0.06262096 0.077535413 0.27500001 4280963887
0.063514166 0.077535413 0.27500001 4279978274
0.064173155 0.077253468 0.27400002 4280044580
0.065063111 0.077253468 0.27400002 4279847455
0.065712355 0.076971523 0.273 4280044834
0.066355109 0.076689579 0.27200001 4279846688
0.067238562 0.076689579 0.27200001 4279912483
0.067871571 0.076407634 0.27100003 4281225778
0.068498082 0.076125681 0.27000001 4279184144
0.069118105 0.075843737 0.26900002 4278855433
0.06999182 0.075843737 0.26900002 4279251988
0.070865527 0.075843737 0.26900002 4279516953
0.071472548 0.075561784 0.26800001 4279713818
0.072343014 0.075561784 0.26800001 4279713822
0.07294029 0.075279839 0.26700002 4279386141
0.073807508 0.075279839 0.26700002 4279255836
0.074674726 0.075279839 0.26700002 4279189271
0.075541943 0.075279839 0.26700002 4278658316
0.076122984 0.074997894 0.266 4279647264
0.076986954 0.074997894 0.266 4279190043
0.077850915 0.074997894 0.266 4278993175
0.078418963 0.07471595 0.26500002 4279058968
0.079279691 0.07471595 0.26500002 4279124761
0.079837985 0.074433997 0.264 4279256347
0.080695465 0.074433997 0.264 4279190295
0.081244029 0.074152052 0.26300001 4279321879
0.081786096 0.073870108 0.26200002 4279715867
0.082637064 0.073870108 0.26200002 4279912733
0.083169378 0.073588155 0.26100001 4279320598
0.084017113 0.073588155 0.26100001 4279189525
0.08486484 0.073588155 0.26100001 4278860560
0.06262096 0.078428917 0.27500001 4284576352
0.063514166 0.078428917 0.27500001 4281092393
0.064173155 0.078143731 0.27400002 4280699430
0.065063111 0.078143731 0.27400002 4279978274
0.065712355 0.07785853 0.273 4280109860
0.066355109 0.077573337 0.27200001 4279847201
0.066991366 0.077288143 0.27100003 4279715615
0.067621119 0.077002943 0.27000001 4279912481
0.068498082 0.077002943 0.27000001 4280043297
0.069118105 0.076717749 0.26900002 4280502825
0.06999182 0.076717749 0.26900002 4278724107
0.070602082 0.076432548 0.26800001 4278920972
0.071472548 0.076432548 0.26800001 4279515160
0.072343014 0.076432548 0.26800001 4279386139
0.07294029 0.076147355 0.26700002 4279058457
0.073807508 0.076147355 0.26700002 4279256349
0.074674726 0.076147355 0.26700002 4279123480
0.075541943 0.076147355 0.26700002 4278593293
0.076122984 0.075862154 0.266 4279713568
0.076986954 0.075862154 0.266 4279124250
0.077850915 0.075862154 0.266 4279190043
0.078714885 0.075862154 0.266 4278927384
0.079279691 0.075576961 0.26500002 4279058970
0.080140412 0.075576961 0.26500002 4278928152
0.080695465 0.07529176 0.264 4278993945
0.081244029 0.075006567 0.26300001 4279190554
0.082098253 0.075006567 0.26300001 4279584799
0.082637064 0.074721374 0.26200002 4279847201
0.08348804 0.074721374 0.26200002 4279584031
0.084017113 0.074436173 0.26100001 4279386652
0.08486484 0.074436173 0.26100001 4279057172
0.085712567 0.074436173 0.26100001 4279186961
0.063514166 0.079322428 0.27500001 4287537809
0.064173155 0.079033986 0.27400002 4285958777
0.065063111 0.079033986 0.27400002 4281881144
0.065712355 0.078745537 0.273 4280829735
0.066355109 0.078457095 0.27200001 4280307752
0.066991366 0.078168653 0.27100003 4279847201
0.067621119 0.077880204 0.27000001 4280044580
0.06824439 0.077591762 0.26900002 4279847201
0.069118105 0.077591762 0.26900002 4279781408
0.06999182 0.077591762 0.26900002 4279847201
0.070602082 0.077303305 0.26800001 4279779102
0.071472548 0.077303305 0.26800001 4278593291
0.072343014 0.077303305 0.26800001 4278658314
0.073213473 0.077303305 0.26800001 4279383574
0.073807508 0.077014871 0.26700002 4279189273
0.074674726 0.077014871 0.26700002 4278990613
0.075541943 0.077014871 0.26700002 4278790924
0.076409161 0.077014871 0.26700002 4279647514
0.076986954 0.076726414 0.266 4279386650
0.077850915 0.076726414 0.266 4279255834
0.078714885 0.076726414 0.266 4279190554
0.079279691 0.076437972 0.26500002 4279190554
0.080140412 0.076437972 0.26500002 4278796820
0.080695465 0.076149523 0.264 4278994199
0.081552938 0.076149523 0.264 4278927382
0.082098253 0.075861081 0.26300001 4279651107
0.082637064 0.07557264 0.26200002 4279912996
0.08348804 0.07557264 0.26200002 4279846690
0.084339023 0.07557264 0.26200002 4279517727
0.08486484 0.07528419 0.26100001 4279319578
0.085712567 0.07528419 0.26100001 4279318551
0.067621119 0.07875745 0.27000001 4280569641
0.06824439 0.07846576 0.26900002 4279846688
0.069118105 0.07846576 0.26900002 4279846688
0.069731623 0.078174062 0.26800001 4279912481
0.070602082 0.078174062 0.26800001 4279847203
0.071472548 0.078174062 0.26800001 4279715617
0.072343014 0.078174062 0.26800001 4279844125
0.073213473 0.078174062 0.26800001 4279053072
0.073807508 0.077882372 0.26700002 4278525703
0.074674726 0.077882372 0.26700002 4278722828
0.075541943 0.077882372 0.26700002 4279119119
0.076409161 0.077882372 0.26700002 4279779865
0.077276379 0.077882372 0.26700002 4279256088
0.077850915 0.077590674 0.266 4279124502
0.078714885 0.077590674 0.266 4279321627
0.079578854 0.077590674 0.266 4279453726
0.080140412 0.077298984 0.26500002 4279059222
0.081001133 0.077298984 0.26500002 4278993429
0.081552938 0.077007286 0.264 4279256601
0.082098253 0.076715589 0.26300001 4279913764
0.08295247 0.076715589 0.26300001 4279912483
0.08348804 0.076423898 0.26200002 4279648541
0.084339023 0.076423898 0.26200002 4279582236
0.085189998 0.076423898 0.26200002 4279648027
0.086040974 0.076423898 0.26200002 4279318549
0.06824439 0.079339772 0.26900002 4281092393
0.068861157 0.079044826 0.26800001 4280634409
0.069731623 0.079044826 0.26800001 4280043299
0.070602082 0.079044826 0.26800001 4279715617
0.071472548 0.079044826 0.26800001 4279781410
0.072343014 0.079044826 0.26800001 4279649824
0.073213473 0.079044826 0.26800001 4279780897
0.073807508 0.07874988 0.26700002 4279844641
0.074674726 0.07874988 0.26700002 4280238631
0.075541943 0.07874988 0.26700002 4280042272
0.076409161 0.07874988 0.26700002 4279780379
0.077276379 0.07874988 0.26700002 4279321881
0.078143589 0.07874988 0.26700002 4279256088
0.078714885 0.078454934 0.266 4279584283
0.079578854 0.078454934 0.266 4279584283
0.080442823 0.078454934 0.266 4279255834
0.081001133 0.078159995 0.26500002 4279255834
0.081552938 0.077865049 0.264 4279519006
0.08241041 0.077865049 0.264 4279781408
0.08295247 0.077570111 0.26300001 4280044582
0.08348804 0.077275164 0.26200002 4279780127
0.084339023 0.077275164 0.26200002 4279451164
0.085189998 0.077275164 0.26200002 4279187990
0.086040974 0.077275164 0.26200002 4279450648
0.06824439 0.080213785 0.26900002 4286286456
0.068861157 0.079915583 0.26800001 4284247641
0.069731623 0.079915583 0.26800001 4281419564
0.070602082 0.079915583 0.26800001 4280634409
0.071472548 0.079915583 0.26800001 4280371750
0.072343014 0.079915583 0.26800001 4280043299
0.073213473 0.079915583 0.26800001 4279846690
0.074083939 0.079915583 0.26800001 4279649824
0.074674726 0.079617396 0.26700002 4279584031
0.075541943 0.079617396 0.26700002 4279780897
0.076409161 0.079617396 0.26700002 4279584031
0.077276379 0.079617396 0.26700002 4279321627
0.078143589 0.079617396 0.26700002 4279321627
0.079010807 0.079617396 0.26700002 4279256088
0.079578854 0.079319201 0.266 4279190295
0.080442823 0.079319201 0.266 4279124502
0.081001133 0.079021007 0.26500002 4279321881
0.081552938 0.078722812 0.264 4279453213
0.08241041 0.078722812 0.264 4279782178
0.08295247 0.078424625 0.26300001 4279847203
0.083806694 0.078424625 0.26300001 4279780899
0.084339023 0.078126438 0.26200002 4279715104
0.085189998 0.078126438 0.26200002 4279517725
0.086040974 0.078126438 0.26200002 4279646744
0.068861157 0.080786347 0.26800001 4286351738
0.069731623 0.080786347 0.26800001 4286153589
0.070602082 0.080786347 0.26800001 4285562472
0.071472548 0.080786347 0.26800001 4281880115
0.072343014 0.080786347 0.26800001 4280896811
0.073213473 0.080786347 0.26800001 4280700200
0.074083939 0.080786347 0.26800001 4279912481
0.074954405 0.080786347 0.26800001 4279649822
0.075541943 0.080484904 0.26700002 4279650592
0.076409161 0.080484904 0.26700002 4279584799
0.077276379 0.080484904 0.26700002 4279190043
0.078143589 0.080484904 0.26700002 4279453215
0.079010807 0.080484904 0.26700002 4279519006
0.079578854 0.080183461 0.266 4279124502
0.080442823 0.080183461 0.266 4279321881
0.081001133 0.079882026 0.26500002 4279321881
0.081861854 0.079882026 0.26500002 4279321881
0.08241041 0.079580575 0.264 4279715869
0.08295247 0.07927914 0.26300001 4279649824
0.083806694 0.07927914 0.26300001 4279715104
0.084339023 0.078977704 0.26200002 4279715104
0.085189998 0.078977704 0.26200002 4279649311
0.086040974 0.078977704 0.26200002 4279712537
0.069731623 0.081657097 0.26800001 4286482041
0.070602082 0.081657097 0.26800001 4286087794
0.071472548 0.081657097 0.26800001 4285693036
0.072343014 0.081657097 0.26800001 4285891950
0.07294029 0.081352413 0.26700002 4282076722
0.073807508 0.081352413 0.26700002 4281487403
0.074674726 0.081352413 0.26700002 4280503075
0.075541943 0.081352413 0.26700002 4279781408
0.076409161 0.081352413 0.26700002 4279519008
0.077276379 0.081352413 0.26700002 4279519010
0.078143589 0.081352413 0.26700002 4279584801
0.079010807 0.081352413 0.26700002 4279190295
0.079578854 0.081047714 0.266 4279256086
0.080442823 0.081047714 0.266 4279321111
0.081001133 0.08074303 0.26500002 4279189525
0.081861854 0.08074303 0.26500002 4279846688
0.08241041 0.080438331 0.264 4280109860
0.08295247 0.080133647 0.26300001 4279780897
0.083806694 0.080133647 0.26300001 4279451932
0.084660918 0.080133647 0.26300001 4279780897
0.085189998 0.079828963 0.26200002 4279648541
0.086040974 0.079828963 0.26200002 4280236319
0.069731623 0.082527861 0.26800001 4286087796
0.070602082 0.082527861 0.26800001 4286153587
0.071472548 0.082527861 0.26800001 4286022001
0.07207308 0.082219921 0.26700002 4285956208
0.07294029 0.082219921 0.26700002 4285627243
0.073807508 0.082219921 0.26700002 4285496681
0.074674726 0.082219921 0.26700002 4284247127
0.075541943 0.082219921 0.26700002 4281026085
0.076409161 0.082219921 0.26700002 4280370465
0.077276379 0.082219921 0.26700002 4280043299
0.078143589 0.082219921 0.26700002 4279846690
0.078714885 0.081911981 0.266 4279649311
0.079578854 0.081911981 0.266 4279715615
0.080442823 0.081911981 0.266 4279452697
0.081001133 0.081604041 0.26500002 4279649563
0.081552938 0.081296101 0.264 4280240416
0.08241041 0.081296101 0.264 4280569381
0.08295247 0.080988161 0.26300001 4279715102
0.083806694 0.080988161 0.26300001 4279517723
0.084660918 0.080988161 0.26300001 4279451162
0.085189998 0.080680229 0.26200002 4279450648
0.086040974 0.080680229 0.26200002 4279906586
0.07207308 0.083087437 0.26700002 4285955697
0.07294029 0.083087437 0.26700002 4285758318
0.073807508 0.083087437 0.26700002 4285495657
0.074674726 0.083087437 0.26700002 4285561450
0.075541943 0.083087437 0.26700002 4285693542
0.076409161 0.083087437 0.26700002 4284444243
0.077276379 0.083087437 0.26700002 4281618226
0.078143589 0.083087437 0.26700002 4281026602
0.078714885 0.082776241 0.266 4280437032
0.079578854 0.082776241 0.266 4280306473
0.080140412 0.08246506 0.26500002 4279977504
0.081001133 0.08246506 0.26500002 4280372262
0.081552938 0.082153864 0.264 4280503334
0.08241041 0.082153864 0.264 4280240162
0.08295247 0.081842676 0.26300001 4279911199
0.083806694 0.081842676 0.26300001 4279648541
0.084660918 0.081842676 0.26300001 4279385371
0.085189998 0.081531495 0.26200002 4279186965
0.086040974 0.081531495 0.26200002 4284707678
0.07294029 0.083954945 0.26700002 4285627245
0.073807508 0.083954945 0.26700002 4285627245
0.074674726 0.083954945 0.26700002 4285561450
0.075541943 0.083954945 0.26700002 4285495398
0.076409161 0.083954945 0.26700002 4285298019
0.077276379 0.083954945 0.26700002 4285036130
0.077850915 0.083640508 0.266 4284576090
0.078714885 0.083640508 0.266 4282735424
0.079578854 0.083640508 0.266 4281551663
0.080140412 0.083326072 0.26500002 4280831018
0.081001133 0.083326072 0.26500002 4280633639
0.081552938 0.083011627 0.264 4280567846
0.08241041 0.083011627 0.264 4280370467
0.08295247 0.08269719 0.26300001 4279515928
0.083806694 0.08269719 0.26300001 4279647514
0.084660918 0.08269719 0.26300001 4279645209
0.085189998 0.082382761 0.26200002 4282669892
0.086040974 0.082382761 0.26200002 4285297765
0.076409161 0.084822461 0.26700002 4285429605
0.077276379 0.084822461 0.26700002 4285560937
0.077850915 0.084504768 0.266 4285298019
0.078714885 0.084504768 0.266 4285100638
0.079279691 0.084187083 0.26500002 4284771673
0.080140412 0.084187083 0.26500002 4284311889
0.080695465 0.08386939 0.264 4281680937
0.081552938 0.08386939 0.264 4280893731
0.082098253 0.083551712 0.26300001 4280762147
0.08295247 0.083551712 0.26300001 4280302112
0.083806694 0.083551712 0.26300001 4281156138
0.084339023 0.083234027 0.26200002 4285365095
0.085189998 0.083234027 0.26200002 4284838751
0.086040974 0.083234027 0.26200002 4285625960
0.077850915 0.085369021 0.266 4285495398
0.078714885 0.085369021 0.266 4285232226
0.079279691 0.085048094 0.26500002 4285429605
0.080140412 0.085048094 0.26500002 4285298019
0.080695465 0.084727146 0.264 4285100640
0.081552938 0.084727146 0.264 4284311635
0.082098253 0.084406219 0.26300001 4284838749
0.08295247 0.084406219 0.26300001 4284576092
0.083806694 0.084406219 0.26300001 4284970850
0.084339023 0.084085286 0.26200002 4285299302
0.085189998 0.084085286 0.26200002 4285495911
0.086040974 0.084085286 0.26200002 4285824622
0.082098253 0.085260734 0.26300001 4285099870
0.08295247 0.085260734 0.26300001 4285363042
0.08348804 0.084936552 0.26200002 4285363042
0.084660918 0.085260734 0.26300001 4285626214
0.085515149 0.085260734 0.26300001 4285691753
0.086369373 0.085260734 0.26300001 4285691755
0.059038173 0.06868393 0.28263333 4294967295
0.059038173 0.06868393 0.28263333 4294901760
0.059174865 0.06820567 0.28258252 4294901760
0.059311561 0.067727409 0.28253174 4294901760
0.059448253 0.067249142 0.28248093 4294901760
0.059584949 0.066770881 0.28243014 4294901760
0.059721641 0.066292621 0.28237933 4294901760
0.059858337 0.065814361 0.28232855 4294901760
0.059995029 0.065336101 0.28227773 4294901760
0.060131725 0.064857833 0.28222695 4294901760
0.060268417 0.064379573 0.28217614 4294901760
0.060405113 0.063901313 0.28212535 4294901760
0.060541805 0.063423052 0.28207454 4294901760
0.060678501 0.062944792 0.28202376 4294901760
0.060815193 0.062466528 0.28197294 4294901760
0.060951889 0.061988264 0.28192216 4294901760
0.061088581 0.061510004 0.28187135 4294901760
0.061225273 0.061031744 0.28182057 4294901760
0.061361969 0.06055348 0.28176975 4294901760
0.061498664 0.06007522 0.28171894 4294901760
0.061635356 0.059596956 0.28166816 4294901760
0.061772048 0.059118696 0.28161734 4294901760
0.061908744 0.058640435 0.28156656 4294901760
0.062045436 0.058162175 0.28151575 4294901760
0.062182132 0.057683911 0.28146496 4294901760
0.062318824 0.057205651 0.28141415 4294901760
0.06245552 0.056727387 0.28136337 4294901760
0.062592216 0.056249127 0.28131256 4294901760
0.062728904 0.055770863 0.28126177 4294901760
0.0628656 0.055292603 0.28121096 4294901760
0.063002296 0.054814342 0.28116018 4294901760
0.063138992 0.054336078 0.28110936 4294901760
0.06327568 0.053857818 0.28105858 4294901760
0.063412376 0.053379558 0.28100777 4294901760
0.063549072 0.052901294 0.28095698 4294901760
0.06368576 0.05242303 0.28090617 4294901760
0.063822456 0.05194477 0.28085536 4294901760
0.063959152 0.05146651 0.28080457 4294901760
0.064095847 0.050988249 0.28075376 4294901760
0.064232536 0.050509986 0.28070298 4294901760
0.064369231 0.050031725 0.28065217 4294901760
0.064505927 0.049553461 0.28060138 4294901760
0.064642623 0.049075201 0.28055057 4294901760
0.064779311 0.048596941 0.28049979 4294901760
0.064916007 0.048118677 0.28044897 4294901760
0.065052703 0.047640417 0.28039819 4294901760
0.065189399 0.047162153 0.28034738 4294901760
0.065326087 0.046683893 0.28029659 4294901760
0.065462783 0.046205632 0.28024578 4294901760
0.065599479 0.045727372 0.280195 4294901760
0.065736175 0.045249108 0.28014418 4294901760
0.065872863 0.044770844 0.28009337 4294901760
0.066009559 0.044292584 0.28004259 4294901760
0.066146255 0.043814324 0.27999178 4294901760
0.066282943 0.043336064 0.27994099 4294901760
0.066419639 0.042857796 0.27989018 4294901760
0.066556334 0.042379536 0.2798394 4294901760
0.06669303 0.041901276 0.27978858 4294901760
0.066829719 0.041423015 0.2797378 4294901760
0.066966414 0.040944755 0.27968699 4294901760
0.06710311 0.040466495 0.2796362 4294901760
0.067239806 0.039988227 0.27958539 4294901760
0.067376494 0.039509967 0.27953461 4294901760
0.06751319 0.039031707 0.2794838 4294901760
0.067649886 0.038553447 0.27943301 4294901760
0.067786574 0.038075183 0.2793822 4294901760
0.06792327 0.037596922 0.27933142 4294901760
0.068059966 0.037118658 0.2792806 4294901760
0.068196662 0.036640398 0.27922979 4294901760
0.068333358 0.036162134 0.27917901 4294901760
0.068470046 0.035683874 0.27912819 4294901760
0.068606742 0.035205614 0.27907741 4294901760
0.068743438 0.034727354 0.2790266 4294901760
0.068880126 0.03424909 0.27897581 4294901760
0.069016822 0.033770826 0.278925 4294901760
0.069153517 0.033292565 0.27887422 4294901760
0.069290213 0.032814305 0.27882341 4294901760
0.069426902 0.032336041 0.27877262 4294901760
0.069563597 0.031857781 0.27872181 4294901760
0.069700293 0.031379521 0.27867103 4294901760
0.069836989 0.030901257 0.27862021 4294901760
0.069973677 0.030422997 0.27856943 4294901760
0.070110373 0.029944733 0.27851862 4294901760
0.070247069 0.029466473 0.27846783 4294901760
0.070383757 0.028988212 0.27841702 4294901760
0.070520453 0.028509952 0.27836621 4294901760
0.070657149 0.028031688 0.27831542 4294901760
0.070793845 0.027553424 0.27826461 4294901760
0.070930541 0.027075164 0.27821383 4294901760
0.071067229 0.026596904 0.27816302 4294901760
0.071203925 0.02611864 0.27811223 4294901760
0.071340621 0.02564038 0.27806142 4294901760
0.071477309 0.025162116 0.27801064 4294901760
0.071614005 0.024683855 0.27795982 4294901760
0.0717507 0.024205595 0.27790904 4294901760
0.071887396 0.023727331 0.27785823 4294901760
0.072024085 0.023249071 0.27780744 4294901760
0.07216078 0.022770811 0.27775663 4294901760
0.072297476 0.022292547 0.27770585 4294901760
0.072434172 0.021814287 0.27765504 4294901760
0.07257086 0.021336023 0.27760425 4294901760
0.072707556 0.020857763 0.27755344 4294901760
0.059038173 0.06868393 0.28263333 4278255360
0.059379116 0.068817534 0.28229287 4278255360
0.059720054 0.068951145 0.28195244 4278255360
0.060060997 0.069084749 0.28161198 4278255360
0.060401939 0.06921836 0.28127152 4278255360
0.060742881 0.069351964 0.28093106 4278255360
0.061083823 0.069485575 0.28059062 4278255360
0.061424762 0.069619179 0.28025016 4278255360
0.061765704 0.06975279 0.2799097 4278255360
0.062106647 0.069886394 0.27956927 4278255360
0.062447585 0.070020005 0.27922881 4278255360
0.062788531 0.070153609 0.27888834 4278255360
0.06312947 0.07028722 0.27854791 4278255360
0.063470408 0.070420824 0.27820745 4278255360
0.063811354 0.070554428 0.27786699 4278255360
0.064152293 0.070688039 0.27752656 4278255360
0.064493239 0.070821643 0.2771861 4278255360
0.064834177 0.070955254 0.27684563 4278255360
0.065175116 0.071088858 0.27650517 4278255360
0.065516062 0.071222469 0.27616474 4278255360
0.065857001 0.071356073 0.27582428 4278255360
0.066197939 0.071489684 0.27548382 4278255360
0.066538885 0.071623288 0.27514338 4278255360
0.066879824 0.071756899 0.27480292 4278255360
0.067220762 0.071890503 0.27446246 4278255360
0.067561708 0.072024107 0.274122 4278255360
0.067902647 0.072157718 0.27378157 4278255360
0.068243593 0.072291322 0.27344111 4278255360
0.068584532 0.072424933 0.27310064 4278255360
0.06892547 0.072558537 0.27276021 4278255360
0.069266416 0.072692148 0.27241975 4278255360
0.069607355 0.072825752 0.27207929 4278255360
0.069948301 0.072959363 0.27173886 4278255360
0.070289239 0.073092967 0.2713984 4278255360
0.070630178 0.073226579 0.27105793 4278255360
0.070971124 0.073360182 0.2707175 4278255360
0.071312062 0.073493794 0.27037704 4278255360
0.071653001 0.073627397 0.27003658 4278255360
0.071993947 0.073761001 0.26969612 4278255360
0.072334886 0.073894612 0.26935568 4278255360
0.072675824 0.074028216 0.26901522 4278255360
0.07301677 0.074161828 0.26867476 4278255360
0.073357709 0.074295431 0.26833433 4278255360
0.073698655 0.074429043 0.26799387 4278255360
0.074039593 0.074562646 0.26765341 4278255360
0.074380532 0.074696258 0.26731294 4278255360
0.074721478 0.074829862 0.26697251 4278255360
0.075062416 0.074963473 0.26663205 4278255360
0.075403363 0.075097077 0.26629159 4278255360
0.075744301 0.075230688 0.26595116 4278255360
0.07608524 0.075364292 0.26561069 4278255360
0.076426178 0.075497895 0.26527023 4278255360
0.076767124 0.075631507 0.2649298 4278255360
0.077108063 0.075765111 0.26458934 4278255360
0.077449009 0.075898722 0.26424888 4278255360
0.077789947 0.076032326 0.26390845 4278255360
0.078130886 0.076165937 0.26356798 4278255360
0.078471832 0.076299541 0.26322752 4278255360
0.078812771 0.076433152 0.26288706 4278255360
0.079153717 0.076566756 0.26254663 4278255360
0.079494655 0.076700367 0.26220617 4278255360
0.079835594 0.076833971 0.26186571 4278255360
0.08017654 0.076967582 0.26152527 4278255360
0.080517478 0.077101186 0.26118481 4278255360
0.080858424 0.07723479 0.26084435 4278255360
0.081199363 0.077368401 0.26050389 4278255360
0.081540301 0.077502005 0.26016346 4278255360
0.081881247 0.077635616 0.25982299 4278255360
0.082222186 0.07776922 0.25948253 4278255360
0.082563125 0.077902831 0.2591421 4278255360
0.082904071 0.078036435 0.25880164 4278255360
0.083245009 0.078170046 0.25846118 4278255360
0.083585955 0.07830365 0.25812075 4278255360
0.083926894 0.078437261 0.25778028 4278255360
0.084267832 0.078570865 0.25743982 4278255360
0.084608778 0.078704476 0.25709939 4278255360
0.084949717 0.07883808 0.25675893 4278255360
0.085290655 0.078971684 0.25641847 4278255360
0.085631594 0.079105295 0.256078 4278255360
0.08597254 0.079238899 0.25573757 4278255360
0.086313486 0.07937251 0.25539711 4278255360
0.086654425 0.079506114 0.25505665 4278255360
0.086995363 0.079639725 0.25471622 4278255360
0.087336302 0.079773329 0.25437576 4278255360
0.087677248 0.07990694 0.25403529 4278255360
0.088018194 0.080040544 0.25369483 4278255360
0.088359132 0.080174156 0.2533544 4278255360
0.088700071 0.080307759 0.25301394 4278255360
0.08904101 0.080441371 0.25267348 4278255360
0.089381956 0.080574974 0.25233305 4278255360
0.089722894 0.080708578 0.25199258 4278255360
0.09006384 0.080842189 0.25165212 4278255360
0.090404779 0.080975793 0.25131169 4278255360
0.090745717 0.081109405 0.25097123 4278255360
0.091086656 0.081243008 0.25063077 4278255360
0.091427602 0.08137662 0.25029033 4278255360
0.091768548 0.081510223 0.24994987 4278255360
0.092109486 0.081643835 0.24960941 4278255360
0.092450425 0.081777439 0.24926896 4278255360
0.092791364 0.081911042 0.24892852 4278255360
0.09313231 0.082044654 0.24858806 4278255360
0.059038173 0.06868393 0.28263333 4278190335
0.059391249 0.068747856 0.28298154 4278190335
0.059744325 0.068811789 0.28332976 4278190335
0.0600974 0.068875715 0.28367797 4278190335
0.060450472 0.068939641 0.28402618 4278190335
0.060803548 0.069003567 0.28437439 4278190335
0.061156623 0.069067501 0.2847226 4278190335
0.061509699 0.069131427 0.28507081 4278190335
0.061862774 0.069195352 0.28541902 4278190335
0.06221585 0.069259286 0.28576723 4278190335
0.062568925 0.069323212 0.28611544 4278190335
0.062922001 0.069387138 0.28646365 4278190335
0.063275076 0.069451064 0.28681186 4278190335
0.063628152 0.069514997 0.28716007 4278190335
0.063981228 0.069578923 0.28750828 4278190335
0.064334303 0.069642849 0.28785649 4278190335
0.064687371 0.069706783 0.2882047 4278190335
0.065040447 0.069770709 0.28855294 4278190335
0.065393522 0.069834635 0.28890115 4278190335
0.065746598 0.069898568 0.28924936 4278190335
0.066099674 0.069962494 0.28959757 4278190335
0.066452749 0.07002642 0.28994578 4278190335
0.066805825 0.070090346 0.29029399 4278190335
0.0671589 0.070154279 0.2906422 4278190335
0.067511976 0.070218205 0.29099041 4278190335
0.067865051 0.070282131 0.29133862 4278190335
0.068218127 0.070346065 0.29168683 4278190335
0.068571202 0.070409991 0.29203504 4278190335
0.068924278 0.070473917 0.29238325 4278190335
0.069277354 0.070537843 0.29273146 4278190335
0.069630429 0.070601776 0.29307967 4278190335
0.069983497 0.070665702 0.29342788 4278190335
0.070336573 0.070729628 0.29377609 4278190335
0.070689648 0.070793562 0.29412431 4278190335
0.071042724 0.070857488 0.29447252 4278190335
0.0713958 0.070921414 0.29482073 4278190335
0.071748875 0.07098534 0.29516894 4278190335
0.072101951 0.071049273 0.29551715 4278190335
0.072455026 0.071113199 0.29586536 4278190335
0.072808102 0.071177125 0.29621357 4278190335
0.073161177 0.071241058 0.29656178 4278190335
0.073514253 0.071304984 0.29690999 4278190335
0.073867328 0.07136891 0.2972582 4278190335
0.074220404 0.071432836 0.29760641 4278190335
0.07457348 0.07149677 0.29795462 4278190335
0.074926555 0.071560696 0.29830283 4278190335
0.075279623 0.071624622 0.29865104 4278190335
0.075632706 0.071688555 0.29899925 4278190335
0.075985774 0.071752481 0.29934746 4278190335
0.07633885 0.071816407 0.29969567 4278190335
0.076691926 0.071880341 0.30004388 4278190335
0.077045001 0.071944267 0.30039209 4278190335
0.077398077 0.072008193 0.30074033 4278190335
0.077751152 0.072072119 0.30108854 4278190335
0.078104228 0.072136052 0.30143675 4278190335
0.078457303 0.072199978 0.30178496 4278190335
0.078810379 0.072263904 0.30213317 4278190335
0.079163454 0.072327837 0.30248138 4278190335
0.07951653 0.072391763 0.30282959 4278190335
0.079869598 0.072455689 0.3031778 4278190335
0.080222681 0.072519615 0.30352601 4278190335
0.080575749 0.072583549 0.30387422 4278190335
0.080928832 0.072647475 0.30422243 4278190335
0.0812819 0.072711401 0.30457065 4278190335
0.081634976 0.072775334 0.30491886 4278190335
0.081988052 0.07283926 0.30526707 4278190335
0.082341127 0.072903186 0.30561528 4278190335
0.082694203 0.072967112 0.30596349 4278190335
0.083047278 0.073031045 0.3063117 4278190335
0.083400354 0.073094971 0.30665991 4278190335
0.083753429 0.073158897 0.30700812 4278190335
0.084106505 0.073222831 0.30735633 4278190335
0.08445958 0.073286757 0.30770454 4278190335
0.084812656 0.073350683 0.30805275 4278190335
0.085165732 0.073414609 0.30840096 4278190335
0.085518807 0.073478542 0.30874917 4278190335
0.085871875 0.073542468 0.30909738 4278190335
0.086224958 0.073606394 0.30944559 4278190335
0.086578026 0.073670328 0.3097938 4278190335
0.086931109 0.073734254 0.31014201 4278190335
0.087284178 0.07379818 0.31049022 4278190335
0.087637253 0.073862106 0.31083843 4278190335
0.087990329 0.073926039 0.31118664 4278190335
0.088343404 0.073989965 0.31153488 4278190335
0.08869648 0.074053891 0.31188309 4278190335
0.089049555 0.074117824 0.3122313 4278190335
0.089402631 0.07418175 0.31257951 4278190335
0.089755706 0.074245676 0.31292772 4278190335
0.090108782 0.074309602 0.31327593 4278190335
0.09046185 0.074373536 0.31362414 4278190335
0.090814933 0.074437462 0.31397235 4278190335
0.091168001 0.074501388 0.31432056 4278190335
0.091521084 0.074565321 0.31466877 4278190335
0.091874152 0.074629247 0.31501698 4278190335
0.092227235 0.074693173 0.3153652 4278190335
0.092580304 0.074757107 0.31571341 4278190335
0.092933379 0.074821033 0.31606162 4278190335
0.093286455 0.074884959 0.31640983 4278190335
0.09363953 0.074948885 0.31675804 4278190335
0.093992606 0.075012818 0.31710625 4278190335
0.094345681 0.075076744 0.31745446 4278190335
0.059038173 0.06868393 0.28263333 4294967295
0.056919724 0.068300359 0.28054407 4294967295
0.05480127 0.067916788 0.27845481 4294967295
0.052682821 0.067533225 0.27636552 4294967295
0.050564371 0.067149654 0.27427626 4294967295
0.048445921 0.066766083 0.27218699 4294967295
0.046327472 0.066382512 0.27009773 4294967295
0.044209018 0.065998949 0.26800847 4294967295
0.042090569 0.065615378 0.26591918 4294967295
0.039972119 0.065231808 0.26382992 4294967295
0.037853666 0.064848237 0.26174065 4294967295
0.03573522 0.064464673 0.25965139 4294967295
0.033616766 0.064081103 0.2575621 4294967295
0.031498317 0.063697532 0.25547284 4294967295
0.029379865 0.063313961 0.25338358 4294967295
0.027261414 0.06293039 0.25129431 4294967295
0.025142964 0.062546827 0.24920504 4294967295
0.023024514 0.062163256 0.24711578 4294967295
0.020906061 0.061779685 0.2450265 4294967295
0.018787615 0.061396118 0.24293724 4294967295
0.016669162 0.061012547 0.24084796 4294967295
0.014550712 0.06062898 0.2387587 4294967295
0.012432262 0.06024541 0.23666942 4294967295
0.010313809 0.059861839 0.23458016 4294967295
0.008195363 0.059478272 0.2324909 4294967295
0.0060769096 0.059094705 0.23040162 4294967295
0.0039584599 0.058711134 0.22831236 4294967295
0.0018400066 0.058327563 0.22622308 4294967295
-0.0002784431 0.057943996 0.22413382 4294967295
-0.002396889 0.057560429 0.22204456 4294967295
-0.0045153461 0.057176858 0.21995528 4294967295
-0.0066337921 0.056793287 0.217866 4294967295
-0.0087522455 0.05640972 0.21577674 4294967295
-0.010870699 0.05602615 0.21368748 4294967295
-0.012989145 0.055642582 0.21159822 4294967295
-0.015107598 0.055259012 0.20950894 4294967295
-0.017226052 0.054875441 0.20741966 4294967295
-0.019344497 0.054491874 0.2053304 4294967295
-0.021462943 0.054108307 0.20324114 4294967295
-0.023581397 0.053724736 0.20115188 4294967295
-0.02569985 0.053341165 0.19906259 4294967295
-0.027818296 0.052957598 0.19697332 4294967295
-0.029936749 0.052574031 0.19488406 4294967295
-0.032055203 0.05219046 0.1927948 4294967295
-0.034173649 0.051806889 0.19070552 4294967295
-0.036292102 0.051423322 0.18861626 4294967295
-0.038410556 0.051039752 0.18652698 4294967295
-0.040529002 0.050656185 0.18443772 4294967295
-0.042647447 0.050272614 0.18234846 4294967295
-0.044765908 0.049889043 0.18025918 4294967295
-0.046884354 0.049505476 0.17816991 4294967295
-0.0490028 0.049121909 0.17608064 4294967295
-0.051121254 0.048738338 0.17399138 4294967295
-0.053239699 0.048354767 0.17190212 4294967295
-0.05535816 0.047971196 0.16981283 4294967295
-0.057476606 0.047587629 0.16772357 4294967295
