# .PCD v0.7 - Point Cloud Data file format
VERSION 0.7
FIELDS x y z rgb
SIZE 4 4 4 4
TYPE F F F U
COUNT 1 1 1 1
WIDTH 1034
HEIGHT 1
VIEWPOINT 0 0 0 1 0 0 0
POINTS 1034
DATA ascii
-0.024377245 0.024197852 0.50400001 4286815371
-0.025962623 0.02578414 0.50300002 4286157187
-0.024328878 0.02578414 0.50300002 4287143564
-0.025859393 0.02730942 0.50100005 4285959808
-0.024232144 0.02730942 0.50100005 4287011978
-0.019273149 0.027200399 0.49900001 4282599214
-0.027157461 0.028590666 0.49500003 4286157441
-0.025704546 0.028763942 0.49800003 4286157441
-0.02408704 0.028763942 0.49800003 4287208844
-0.020852031 0.028763942 0.49800003 4282467630
-0.019195903 0.028706182 0.49700001 4283322682
-0.01754627 0.028648423 0.49600002 4283256887
-0.015903134 0.028590666 0.49500003 4282730543
-0.014295373 0.028590666 0.49500003 4282665007
-0.01266198 0.028532906 0.49400002 4282862386
-0.028532773 0.029954938 0.49100003 4286749578
-0.027047733 0.030076955 0.49300003 4286552199
-0.0255497 0.030198971 0.49500003 4286881164
-0.023941938 0.030198971 0.49500003 4286945672
-0.020726418 0.030198971 0.49500003 4283128133
-0.019080032 0.030137962 0.49400002 4284378198
-0.017475519 0.030137962 0.49400002 4283981137
-0.010990317 0.029954938 0.49100003 4284379225
-0.0093955481 0.029954938 0.49100003 4285628778
-0.0078007788 0.029954938 0.49100003 4286286962
-0.0062060105 0.029954938 0.49100003 4284378450
-0.0046112416 0.029954938 0.49100003 4282140205
-0.030004824 0.031421736 0.48900002 4287012750
-0.028474661 0.03148599 0.49000001 4282471496
-0.026938006 0.031550247 0.49100003 4282733900
-0.025394851 0.031614505 0.49200001 4282339912
-0.023796834 0.031614505 0.49200001 4282339910
-0.022198817 0.031614505 0.49200001 4282603336
-0.020600801 0.031614505 0.49200001 4282536771
-0.018964162 0.031550247 0.49100003 4283062349
-0.017369393 0.031550247 0.49100003 4290302400
-0.015742496 0.03148599 0.49000001 4285301610
-0.014122096 0.031421736 0.48900002 4286156154
-0.012533822 0.031421736 0.48900002 4284050780
-0.010923167 0.031357478 0.48800004 4283853403
-0.0093381414 0.031357478 0.48800004 4283853401
-0.0045830673 0.031357478 0.48800004 4281813818
-0.0030041856 0.031421736 0.48900002 4281616950
-0.0014188081 0.03148599 0.49000001 4280565284
0.00017306513 0.031550247 0.49100003 4280302112
0.0017750349 0.031678762 0.49300003 4280498208
-0.030004824 0.033010546 0.48900002 4286814088
-0.02841655 0.033010546 0.48900002 4282865484
-0.02682828 0.033010546 0.48900002 4282733900
-0.02529162 0.033078052 0.49000001 4282536519
-0.023651732 0.033010546 0.48900002 4282471750
-0.022063458 0.033010546 0.48900002 4282602816
-0.020475188 0.033010546 0.48900002 4285956962
-0.015646113 0.032875534 0.48700002 4284050528
-0.012456928 0.032808028 0.48600003 4280432167
-0.0108784 0.032808028 0.48600003 4281418810
-0.0092807347 0.032740518 0.48500001 4280958257
-0.0077054533 0.032740518 0.48500001 4280695339
-0.0061301733 0.032740518 0.48500001 4280958511
-0.0045548924 0.032740518 0.48500001 4281223475
-0.002985755 0.032808028 0.48600003 4280437291
0.0017678339 0.033145558 0.49100003 4280111660
0.0049876608 0.033348076 0.49400002 4280502571
0.006618863 0.033483088 0.49600002 4279909151
-0.031593099 0.034599356 0.48900002 4286289027
-0.029943464 0.034528602 0.48800004 4285826939
-0.028358439 0.034528602 0.48800004 4282930765
-0.026773416 0.034528602 0.48800004 4282141247
-0.02518839 0.034528602 0.48800004 4282931531
-0.020349573 0.034387089 0.48600003 4281808664
-0.017157139 0.034316335 0.48500001 4281417774
-0.015581857 0.034316335 0.48500001 4282471750
-0.013977698 0.03424558 0.48400003 4284117088
-0.012405665 0.03424558 0.48400003 4280234534
-0.010811249 0.034174822 0.48300001 4280562729
-0.009223328 0.034104068 0.48200002 4280562729
-0.007657791 0.034104068 0.48200002 4280695339
-0.0060922545 0.034104068 0.48200002 4281155890
-0.0045267181 0.034104068 0.48200002 4282213189
-0.0029673243 0.034174822 0.48300001 4279584801
-0.0014043306 0.034316335 0.48500001 4278995744
0.00017165522 0.034457844 0.48700002 4279061537
0.001760633 0.034599356 0.48900002 4278995742
0.0033626028 0.034740865 0.49100003 4279127328
-0.031593099 0.036188167 0.48900002 4286157700
-0.029943464 0.036114164 0.48800004 4286945933
-0.028358439 0.036114164 0.48800004 4282274117
-0.026718551 0.036040157 0.48700002 4284181598
-0.025136774 0.036040157 0.48700002 4283786838
-0.021882981 0.035892148 0.48500001 4282336037
-0.015517603 0.035744138 0.48300001 4282601535
-0.013919939 0.035670135 0.48200002 4283590742
-0.012354402 0.035670135 0.48200002 4279906082
-0.010766482 0.035596132 0.48100004 4279707422
-0.0091850571 0.035522126 0.48000002 4279510041
-0.0076260157 0.035522126 0.48000002 4280366374
-0.0060543362 0.035448123 0.47900003 4280958509
-0.0045079347 0.035522126 0.48000002 4280304422
-0.0029550374 0.035596132 0.48100004 4279190043
-0.0013985395 0.035744138 0.48300001 4278928668
0.00017095027 0.035892148 0.48500001 4278863388
0.001753432 0.036040157 0.48700002 4278731800
0.0033557541 0.036262169 0.49000001 4278929179
0.0049674679 0.036410179 0.49200001 4278929951
0.0065921741 0.036558188 0.49400002 4278666779
0.0082298713 0.036706198 0.49600002 4278799650
0.0098607214 0.036780201 0.49700001 4278733857
0.011521155 0.03692821 0.49900001 4278931236
0.013168244 0.037002213 0.5 4278997029
-0.029943464 0.037699725 0.48800004 4286157187
-0.028300326 0.03762247 0.48700002 4286814347
-0.026718551 0.03762247 0.48700002 4282734922
-0.025085159 0.037545215 0.48600003 4282075706
-0.021882981 0.037467964 0.48500001 4282598439
-0.018655173 0.037313454 0.48300001 4282861600
-0.017086387 0.037313454 0.48300001 4281874968
-0.015485475 0.037236203 0.48200002 4280889368
-0.01389106 0.037158951 0.48100004 4282144066
-0.012303138 0.037081696 0.48000002 4280235047
-0.010744099 0.037081696 0.48000002 4280300329
-0.0091659222 0.037004441 0.47900003 4280431145
-0.0075942408 0.036927186 0.47800002 4280365350
-0.0060416963 0.036927186 0.47800002 4281024302
-0.0044891518 0.036927186 0.47800002 4280174373
-0.0029488937 0.037081696 0.48000002 4279320857
-0.001395644 0.037236203 0.48200002 4279125531
0.00017059781 0.037390709 0.48400003 4279059738
0.0017498316 0.037545215 0.48600003 4278862359
0.0033489058 0.037776977 0.48900002 4278928152
0.0049674679 0.038008738 0.49200001 4278731802
0.0065921741 0.038163245 0.49400002 4278731802
0.0082298713 0.038317751 0.49600002 4278206230
0.0098607214 0.038395002 0.49700001 4278666781
0.011521155 0.038549513 0.49900001 4278929183
0.013168244 0.038626764 0.5 4279126562
0.014821831 0.038704023 0.50100005 4279126560
-0.029943464 0.039285287 0.48800004 4286222980
-0.028300326 0.039204784 0.48700002 4286617738
-0.026663689 0.03912428 0.48600003 4282733898
-0.025085159 0.03912428 0.48600003 4283457359
-0.020223958 0.03888277 0.48300001 4282664223
-0.018655173 0.03888277 0.48300001 4282532637
-0.015453348 0.038721766 0.48100004 4281217565
-0.01389106 0.038721766 0.48100004 4282473031
-0.012303138 0.038641263 0.48000002 4280762161
-0.010721715 0.038560763 0.47900003 4280167973
-0.0091467863 0.038480259 0.47800002 4280364838
-0.0075783534 0.038399756 0.47700003 4279970592
-0.0060164174 0.038319252 0.47600001 4280893231
-0.0044703684 0.038319252 0.47600001 4280963887
-0.0029488937 0.038641263 0.48000002 4279124761
-0.001395644 0.03880227 0.48200002 4278993945
0.00017059781 0.038963273 0.48400003 4278928152
0.0017498316 0.03912428 0.48600003 4278928152
0.0033489058 0.039365787 0.48900002 4278796566
0.0049674679 0.039607294 0.49200001 4278928152
0.0065921741 0.039768301 0.49400002 4278665496
0.0082298713 0.039929304 0.49600002 4278993947
0.0098607214 0.040009808 0.49700001 4278201098
0.011521155 0.040170815 0.49900001 4278203406
0.013168244 0.040251315 0.5 4278468119
0.014821831 0.040331822 0.50100005 4278731287
-0.028300326 0.040787093 0.48700002 4286157187
-0.026663689 0.040703345 0.48600003 4282799691
-0.025033543 0.040619589 0.48500001 4283720020
-0.020223958 0.040452085 0.48300001 4282598691
-0.018655173 0.040452085 0.48300001 4282598691
-0.012277507 0.040117081 0.47900003 4280432428
-0.010699331 0.040033329 0.47800002 4280298792
-0.0091276504 0.039949577 0.47700003 4279377430
-0.0075624655 0.039865825 0.47600001 4280957487
-0.006003778 0.039782073 0.47500002 4280630829
-0.0044609774 0.039782073 0.47500002 4280306473
-0.0029488937 0.040200833 0.48000002 4278993177
-0.001395644 0.040368337 0.48200002 4279257117
0.00017059781 0.040535841 0.48400003 4278993945
0.0017498316 0.040703345 0.48600003 4278928152
0.0033489058 0.040954597 0.48900002 4278862361
0.0049674679 0.041205853 0.49200001 4278928152
0.0065921741 0.041373357 0.49400002 4278862359
0.0082298713 0.041540861 0.49600002 4279058970
0.0098607214 0.041624609 0.49700001 4278200328
0.011521155 0.041792113 0.49900001 4278399505
0.013168244 0.041875865 0.5 4278795800
0.014821831 0.041959621 0.50100005 4278664980
-0.028242216 0.042282406 0.48600003 4286157441
-0.026663689 0.042282406 0.48600003 4282273349
-0.025033543 0.042195406 0.48500001 4283194451
-0.023458261 0.042195406 0.48500001 4285760116
-0.020223958 0.042021401 0.48300001 4279440902
-0.018655173 0.042021401 0.48300001 4279309059
-0.017051013 0.041934405 0.48200002 4280561182
-0.015453348 0.041847404 0.48100004 4281813816
-0.012277507 0.0416734 0.47900003 4281023280
-0.010699331 0.041586399 0.47800002 4281088561
-0.0091085145 0.041412398 0.47600001 4279838494
-0.0075465781 0.041325398 0.47500002 4280891694
-0.0059911385 0.041238397 0.47400004 4280959022
-0.004442194 0.041151397 0.47300002 4279978278
-0.0029488937 0.0417604 0.48000002 4278928154
-0.001395644 0.041934405 0.48200002 4279059740
0.00017059781 0.042108405 0.48400003 4278993947
0.0017498316 0.042282406 0.48600003 4278993947
0.0033489058 0.042543408 0.48900002 4278993947
0.0049674679 0.042804409 0.49200001 4278796568
0.0065921741 0.042978413 0.49400002 4278862359
0.0074998024 0.039324377 0.45200002 4278991894
0.0089678997 0.039324377 0.45200002 4278198787
0.010435997 0.039324377 0.45200002 4279189021
0.011877757 0.03923738 0.45100003 4279453217
0.013342606 0.03923738 0.45100003 4278198273
0.014807455 0.03923738 0.45100003 4278196480
0.016236221 0.039150376 0.45000002 4278198789
0.033827551 0.037584361 0.43200001 4278533910
0.035149135 0.03749736 0.43100002 4278533910
0.036379423 0.037323359 0.42900002 4278402324
0.037684768 0.037236359 0.42800003 4278797082
0.038983613 0.037149355 0.42700002 4278797082
0.040275969 0.037062358 0.42600003 4279126562
0.041659616 0.037062358 0.42600003 4278731550
0.045703024 0.036975354 0.42500001 4281822796
0.047083426 0.036975354 0.42500001 4285441411
0.049257826 0.036540352 0.42000002 4285635200
0.050621986 0.036540352 0.42000002 4281359938
-0.028242216 0.043861475 0.48600003 4286222980
-0.026663689 0.043861475 0.48600003 4286353283
-0.025033543 0.043771222 0.48500001 4282997072
-0.023458261 0.043771222 0.48500001 4282866256
-0.021882981 0.043771222 0.48500001 4283392852
-0.020265831 0.043680973 0.48400003 4283327055
-0.018655173 0.043590721 0.48300001 4282931527
-0.017086387 0.043590721 0.48300001 4282405957
-0.015485475 0.043500472 0.48200002 4282801226
-0.01389106 0.043410223 0.48100004 4281419062
-0.012277507 0.043229725 0.47900003 4280957741
-0.010699331 0.043139473 0.47800002 4280234018
-0.0091085145 0.042958971 0.47600001 4280365090
-0.0075306911 0.042778477 0.47400004 4280891948
-0.0059784986 0.042688224 0.47300002 4280828204
-0.0044328026 0.042597976 0.47200003 4279386654
-0.0028813148 0.042327221 0.46900001 4278993947
-0.001395644 0.043500472 0.48200002 4278862875
0.00017059781 0.043680973 0.48400003 4278797082
0.0017498316 0.043861475 0.48600003 4278665496
0.0033489058 0.044132221 0.48900002 4278797082
0.0049674679 0.044402972 0.49200001 4278928154
0.006031706 0.040792976 0.45200002 4278664980
0.0074998024 0.040792976 0.45200002 4279453213
0.0089678997 0.040792976 0.45200002 4278196480
0.010435997 0.040792976 0.45200002 4279319324
0.011877757 0.040702727 0.45100003 4278793750
0.013342606 0.040702727 0.45100003 4278524683
0.014774622 0.040612474 0.45000002 4278589963
0.016236221 0.040612474 0.45000002 4278654734
0.017619165 0.040431976 0.44800001 4278720527
0.019031694 0.040341727 0.44700003 4278786318
0.020437727 0.040251475 0.44600001 4278655756
0.021837264 0.040161226 0.44500002 4278196486
0.023230303 0.040070977 0.44400004 4278195972
0.024616847 0.039980724 0.44300002 4278196999
0.025996897 0.039890476 0.44200003 4278725908
0.027370447 0.039800227 0.44100001 4278399507
0.028737504 0.039709978 0.44000003 4278860056
0.030098066 0.039619725 0.43900001 4278861080
0.031380318 0.039439224 0.43700001 4278795287
0.032724638 0.039348975 0.43600002 4278335249
0.033905856 0.039078228 0.43300003 4278599191
0.035230685 0.038987976 0.43200001 4278664982
0.036464226 0.038807474 0.43000001 4278796568
0.037772816 0.038717225 0.42900002 4278533910
0.039074913 0.038626976 0.42800003 4278402324
0.040370513 0.038536727 0.42700002 4278731289
0.041757409 0.038536727 0.42700002 4278731289
0.043144308 0.038536727 0.42700002 4278402837
0.044426914 0.038446479 0.42600003 4278863388
0.045703024 0.038356226 0.42500001 4278731802
0.047083426 0.038356226 0.42500001 4279060769
0.048349794 0.038265977 0.42400002 4279520041
0.049492389 0.038085476 0.42200002 4279322662
0.050742518 0.037995227 0.42100003 4280965950
0.052109923 0.037995227 0.42100003 4284518002
0.053604353 0.038085476 0.42200002 4286688142
-0.028242216 0.045440536 0.48600003 4286157187
-0.026663689 0.045440536 0.48600003 4286288773
-0.025085159 0.045440536 0.48600003 4287011728
-0.02350663 0.045440536 0.48600003 4282538574
-0.021928102 0.045440536 0.48600003 4282866767
-0.020307701 0.045347035 0.48500001 4281879613
-0.018693797 0.045253538 0.48400003 4281748027
-0.017086387 0.045160037 0.48300001 4284708708
-0.015485475 0.045066539 0.48200002 4279773465
-0.01389106 0.044973042 0.48100004 4281615671
-0.012303138 0.044879541 0.48000002 4280168225
-0.010699331 0.044692542 0.47800002 4280430370
-0.0090893796 0.044412047 0.47500002 4281614903
-0.0075148032 0.044225048 0.47300002 4280892977
-0.0059658596 0.044131551 0.47200003 4280959794
-0.0044140196 0.043944553 0.47000003 4279584033
-0.0028751716 0.043757554 0.46800002 4278993947
-0.001395644 0.045066539 0.48200002 4278862875
0.00017059781 0.045253538 0.48400003 4278797082
0.0017498316 0.045440536 0.48600003 4278731289
0.0033489058 0.045721035 0.48900002 4278731289
0.0045737051 0.042355068 0.45300001 4278533910
0.0060450505 0.042355068 0.45300001 4278533910
0.0074998024 0.042261571 0.45200002 4278795798
0.0089678997 0.042261571 0.45200002 4278196480
0.010435997 0.042261571 0.45200002 4278859543
0.011877757 0.04216807 0.45100003 4278199301
0.013342606 0.04216807 0.45100003 4278392330
0.014774622 0.042074572 0.45000002 4278786572
0.016200142 0.041981071 0.44900003 4278720525
0.017619165 0.041887574 0.44800001 4278786318
0.019031694 0.041794073 0.44700003 4278654732
0.020437727 0.041700576 0.44600001 4278588939
0.021837264 0.041607074 0.44500002 4278522632
0.023230303 0.041513577 0.44400004 4278851597
0.024616847 0.041420076 0.44300002 4278785806
0.025996897 0.041326579 0.44200003 4278262027
0.027370447 0.041233078 0.44100001 4279845670
0.028737504 0.04113958 0.44000003 4278924568
0.030098066 0.041046079 0.43900001 4278397710
0.031452131 0.040952582 0.43800002 4278198535
0.032724638 0.040765584 0.43600002 4278196224
0.033984162 0.040578585 0.43400002 4278195968
0.035312239 0.040485088 0.43300003 4278198278
0.036633827 0.040391587 0.43200001 4278398224
0.037948914 0.040298089 0.43100002 4278728211
0.039166208 0.040111091 0.42900002 4278991896
0.040559601 0.040111091 0.42900002 4278532628
0.041855201 0.040017594 0.42800003 4278599191
0.043245349 0.040017594 0.42800003 4278401812
0.044531204 0.039924093 0.42700002 4278599189
0.045810562 0.039830595 0.42600003 4278993947
0.047194213 0.039830595 0.42600003 4278664982
0.048463825 0.039737094 0.42500001 4278665498
0.049726948 0.039643597 0.42400002 4278797084
0.051104102 0.039643597 0.42400002 4278796830
0.052481253 0.039643597 0.42400002 4278927902
0.053858403 0.039643597 0.42400002 4279387683
0.055626374 0.039924093 0.42700002 4279123228
0.057280317 0.040111091 0.42900002 4280373297
0.058810472 0.040204588 0.43000001 4283794533
0.060347132 0.040298089 0.43100002 4284849022
0.061747022 0.040298089 0.43100002 4279915061
0.063146912 0.040298089 0.43100002 4279388455
-0.026663689 0.047019601 0.48600003 4286222980
-0.025085159 0.047019601 0.48600003 4286288773
-0.023603365 0.047213096 0.48800004 4284906604
-0.020349573 0.047019601 0.48600003 4283193408
-0.018771045 0.047019601 0.48600003 4284575577
-0.017157139 0.046922851 0.48500001 4280430366
-0.015517603 0.046729356 0.48300001 4281023016
-0.013919939 0.046632607 0.48200002 4280101916
-0.012303138 0.046439111 0.48000002 4280693542
-0.010699331 0.046245612 0.47800002 4280890921
-0.0090893796 0.045955371 0.47500002 4280957741
-0.0075148032 0.045761872 0.47300002 4280695085
-0.0059405803 0.045471631 0.47000003 4280958770
-0.0044046277 0.045374881 0.46900001 4279321631
-0.0028690279 0.045181382 0.46700001 4278928154
-0.001340629 0.044794392 0.46300003 4278862875
0.0001621384 0.044504147 0.46000001 4278731289
0.0016490183 0.044310652 0.45800003 4278797082
0.003122906 0.044117156 0.45600003 4278797082
0.0045838016 0.043923661 0.45400003 4278665498
0.0060450505 0.043826912 0.45300001 4278731291
0.0075163944 0.043826912 0.45300001 4279321629
0.0089678997 0.043730162 0.45200002 4278198016
0.010435997 0.043730162 0.45200002 4279188762
0.011877757 0.043633416 0.45100003 4278200843
0.013313021 0.043536667 0.45000002 4278195718
0.014774622 0.043536667 0.45000002 4279708955
0.016200142 0.043439921 0.44900003 4278393095
0.017619165 0.043343168 0.44800001 4279840543
0.019031694 0.043246422 0.44700003 4278524170
0.020437727 0.043149672 0.44600001 4279511578
0.021837264 0.043052927 0.44500002 4278984721
0.023230303 0.042956181 0.44400004 4279181846
0.024616847 0.042859428 0.44300002 4279246869
0.025996897 0.042762682 0.44200003 4279642651
0.027370447 0.042665932 0.44100001 4278925849
0.028737504 0.042569187 0.44000003 4279189021
0.030098066 0.042472437 0.43900001 4278727957
0.031452131 0.042375688 0.43800002 4278859545
0.032799695 0.042278938 0.43700001 4278859545
0.034062468 0.042085446 0.43500003 4278925338
0.035393793 0.041988697 0.43400002 4279385887
0.036718626 0.041891947 0.43300003 4279320094
0.038036961 0.041795198 0.43200001 4279318812
0.0393488 0.041698452 0.43100002 4278660369
0.040654145 0.041601703 0.43000001 4278331404
0.041952994 0.041504957 0.42900002 4278197248
0.043346386 0.041504957 0.42900002 4278195968
0.044635493 0.041408207 0.42800003 4278197250
0.046025638 0.041408207 0.42800003 4278266638
0.047304995 0.041311458 0.42700002 4279056154
0.048691891 0.041311458 0.42700002 4279452195
0.049961511 0.041214712 0.42600003 4279254814
0.051345158 0.041214712 0.42600003 4278927386
0.052728806 0.041214712 0.42600003 4278993179
0.054112453 0.041214712 0.42600003 4278796570
0.055756651 0.041408207 0.42800003 4278862363
0.057280317 0.041504957 0.42900002 4278862363
0.058810472 0.041601703 0.43000001 4278928156
0.060347132 0.041698452 0.43100002 4278862623
0.061747022 0.041698452 0.43100002 4278467865
0.063146912 0.041698452 0.43100002 4279126562
0.064546801 0.041698452 0.43100002 4278863390
0.065946691 0.041698452 0.43100002 4279845670
-0.025136774 0.04869866 0.48700002 4287078289
-0.017192515 0.048598666 0.48600003 4281612321
-0.015581857 0.048498664 0.48500001 4280691991
-0.013948818 0.048298672 0.48300001 4279837198
-0.010721715 0.047898684 0.47900003 4282929984
-0.0090893796 0.047498692 0.47500002 4282733121
-0.0074989158 0.047198702 0.47200003 4281483567
-0.0059405803 0.046998709 0.47000003 4281156399
-0.0043952363 0.046798714 0.46800002 4279058459
-0.0028628844 0.046598718 0.46600002 4278862363
-0.0013377335 0.046198729 0.46200001 4278797084
0.0001621384 0.045998733 0.46000001 4278797597
0.0016490183 0.045798741 0.45800003 4278731802
0.003122906 0.045598745 0.45600003 4278600216
0.0045838016 0.045398753 0.45400003 4278468630
0.0060450505 0.045298751 0.45300001 4278600216
0.0075163944 0.045298751 0.45300001 4278200072
0.0089678997 0.045198757 0.45200002 4278263558
0.010435997 0.045198757 0.45200002 4278925851
0.011877757 0.045098759 0.45100003 4278199817
0.013313021 0.044998761 0.45000002 4278721549
0.014774622 0.044998761 0.45000002 4278458377
0.016200142 0.044898767 0.44900003 4279774748
0.017619165 0.044798765 0.44800001 4279117588
0.019031694 0.044698771 0.44700003 4278327304
0.020437727 0.044598773 0.44600001 4278590476
0.021837264 0.044498775 0.44500002 4278655756
0.023230303 0.044398781 0.44400004 4279446553
0.024616847 0.044298783 0.44300002 4278589963
0.025996897 0.044198785 0.44200003 4279445783
0.027370447 0.044098787 0.44100001 4279123998
0.028802816 0.044098787 0.44100001 4278201355
0.030166626 0.043998789 0.44000003 4278460169
0.031523935 0.043898791 0.43900001 4278195200
0.032799695 0.043698795 0.43700001 4279187226
0.034140769 0.043598801 0.43600002 4278198789
0.035475347 0.043498803 0.43500003 4278398994
0.036803428 0.043398805 0.43400002 4279188508
0.038125012 0.043298811 0.43300003 4278661394
0.039440095 0.043198809 0.43200001 4279450910
0.040843233 0.043198809 0.43200001 4279254553
0.042148579 0.043098815 0.43100002 4279057174
0.043447427 0.042998817 0.43000001 4279189273
0.044739779 0.042898819 0.42900002 4279123480
0.046133172 0.042898819 0.42900002 4279516957
0.047415782 0.042798825 0.42800003 4279450650
0.048805926 0.042798825 0.42800003 4280107815
0.050196074 0.042798825 0.42800003 4278923541
0.051465686 0.042698827 0.42700002 4278197762
0.052852582 0.042698827 0.42700002 4278195712
0.054366503 0.042798825 0.42800003 4278199046
0.055886921 0.042898819 0.42900002 4279189275
0.057413835 0.042998817 0.43000001 4279256349
0.058947243 0.043098815 0.43100002 4279058970
0.060347132 0.043098815 0.43100002 4278599191
0.061747022 0.043098815 0.43100002 4278599191
0.063146912 0.043098815 0.43100002 4278665496
0.064546801 0.043098815 0.43100002 4278862873
0.065946691 0.043098815 0.43100002 4279124763
0.06734658 0.043098815 0.43100002 4280371498
-0.0059279404 0.048422538 0.46900001 4280892966
-0.0043952363 0.048319291 0.46800002 4279255838
-0.002856741 0.048009556 0.46500003 4278993949
-0.001340629 0.047803063 0.46300003 4278797084
0.0001621384 0.04749332 0.46000001 4278731804
0.0016490183 0.047286831 0.45800003 4278666009
0.003122906 0.047080338 0.45600003 4278666009
0.0045938981 0.046977088 0.45500001 4278600216
0.0060583949 0.046873845 0.45400003 4278533910
0.0075163944 0.046770595 0.45300001 4279188508
0.0089678997 0.046667352 0.45200002 4278923541
0.010435997 0.046667352 0.45200002 4278991644
0.011877757 0.046564106 0.45100003 4278200074
0.013313021 0.046460856 0.45000002 4278983437
0.01474179 0.046357613 0.44900003 4278851597
0.016164061 0.046254363 0.44800001 4278917390
0.017579837 0.04615112 0.44700003 4278785804
0.018989118 0.04604787 0.44600001 4278785804
0.020391902 0.045944627 0.44500002 4278720011
0.021837264 0.045944627 0.44500002 4278194951
0.023230303 0.045841381 0.44400004 4278524683
0.024616847 0.045738135 0.44300002 4278590476
0.025996897 0.045634888 0.44200003 4279776031
0.027370447 0.045531642 0.44100001 4279123228
0.028802816 0.045531642 0.44100001 4278198534
0.030166626 0.045428395 0.44000003 4278917642
0.031523935 0.045325149 0.43900001 4278720779
0.032874752 0.045221902 0.43800002 4278198280
0.034219075 0.045118652 0.43700001 4279319326
0.035556898 0.04501541 0.43600002 4278199817
0.036888227 0.044912163 0.43500003 4278200331
0.038213059 0.044808917 0.43400002 4279121947
0.039531395 0.04470567 0.43300003 4278198532
0.040937781 0.04470567 0.43300003 4278728211
0.042246372 0.044602424 0.43200001 4279057174
0.043548469 0.044499177 0.43100002 4278861078
0.044948358 0.044499177 0.43100002 4279058457
0.046240706 0.044395931 0.43000001 4279189273
0.047637347 0.044395931 0.43000001 4279386139
0.048919957 0.044292685 0.42900002 4279386139
0.050313354 0.044292685 0.42900002 4279451934
0.051706742 0.044292685 0.42900002 4279386141
0.053100135 0.044292685 0.42900002 4279451934
0.054493528 0.044292685 0.42900002 4279055125
0.05601719 0.044395931 0.43000001 4279976740
0.057413835 0.044395931 0.43000001 4279255836
0.058947243 0.044499177 0.43100002 4279190043
0.060347132 0.044499177 0.43100002 4279058970
0.061747022 0.044499177 0.43100002 4278795798
0.063146912 0.044499177 0.43100002 4278730005
0.064546801 0.044499177 0.43100002 4278730005
0.065946691 0.044499177 0.43100002 4278729492
0.06734658 0.044499177 0.43100002 4278200838
-0.0059279404 0.049946368 0.46900001 4281418280
-0.0043952363 0.049839873 0.46800002 4279058457
-0.0028628844 0.049626879 0.46600002 4278928154
-0.001340629 0.049307395 0.46300003 4278731289
0.00016249088 0.049094405 0.46100003 4278797082
0.0016490183 0.04877492 0.45800003 4278468117
0.0031297544 0.048668422 0.45700002 4278665496
0.0045938981 0.048455428 0.45500001 4278665496
0.0060583949 0.048348937 0.45400003 4278665496
0.0075163944 0.048242439 0.45300001 4278200841
0.0089877397 0.048242439 0.45300001 4278529296
0.010435997 0.048135944 0.45200002 4278860056
0.011877757 0.048029449 0.45100003 4278925849
0.013313021 0.047922954 0.45000002 4279843871
0.01474179 0.047816459 0.44900003 4279382039
0.016164061 0.04770996 0.44800001 4278657035
0.017579837 0.047603469 0.44700003 4278195203
0.018989118 0.047496971 0.44600001 4278786318
0.020391902 0.047390476 0.44500002 4278786572
0.021788191 0.047283981 0.44400004 4278720525
0.023177981 0.047177486 0.44300002 4278786318
0.024616847 0.047177486 0.44300002 4278720525
0.025996897 0.047070991 0.44200003 4279776031
0.027370447 0.046964493 0.44100001 4278991129
0.028737504 0.046858002 0.44000003 4278198791
0.030166626 0.046858002 0.44000003 4278786572
0.031523935 0.046751503 0.43900001 4278458375
0.032874752 0.046645008 0.43800002 4278923541
0.034219075 0.046538509 0.43700001 4278858259
0.035556898 0.046432018 0.43600002 4278398222
0.036973029 0.046432018 0.43600002 4278199046
0.038301107 0.046325523 0.43500003 4278990361
0.039622691 0.046219025 0.43400002 4278200074
0.041032325 0.046219025 0.43400002 4280042022
0.042344164 0.04611253 0.43300003 4278528013
0.04364951 0.046006035 0.43200001 4278726675
0.044948358 0.04589954 0.43100002 4278529810
0.046348244 0.04589954 0.43100002 4278200586
0.047637347 0.045793042 0.43000001 4278199301
0.049033988 0.045793042 0.43000001 4279977508
0.050430629 0.045793042 0.43000001 4278199041
0.051827271 0.045793042 0.43000001 4279320861
0.053223912 0.045793042 0.43000001 4279320861
0.054620549 0.045793042 0.43000001 4279055638
0.05601719 0.045793042 0.43000001 4279713568
0.057547357 0.04589954 0.43100002 4279058457
0.058947243 0.04589954 0.43100002 4279058457
0.060347132 0.04589954 0.43100002 4279058455
0.061890285 0.046006035 0.43200001 4278992662
0.063146912 0.04589954 0.43100002 4278795796
0.064546801 0.04589954 0.43100002 4278664210
0.065946691 0.04589954 0.43100002 4278728722
0.06734658 0.04589954 0.43100002 4278201610
-0.0074671404 0.051579941 0.47000003 4280164618
-0.0059279404 0.051470194 0.46900001 4279639301
-0.0044046277 0.051470194 0.46900001 4279648027
-0.0028628844 0.05114096 0.46600002 4278991894
-0.0013435245 0.050921474 0.46400002 4279058970
0.00016249088 0.05059224 0.46100003 4278598419
0.0016526188 0.05037275 0.45900002 4278599189
0.0031297544 0.050153259 0.45700002 4278599189
0.0045938981 0.049933773 0.45500001 4278599189
0.0060583949 0.049824029 0.45400003 4278599189
0.0075163944 0.049714282 0.45300001 4278795800
0.0089877397 0.049714282 0.45300001 4278927386
0.010435997 0.049604539 0.45200002 4278795033
0.011877757 0.049494796 0.45100003 4278992666
0.013313021 0.049385048 0.45000002 4278861078
0.01474179 0.049275305 0.44900003 4279058457
0.016164061 0.049165558 0.44800001 4278597906
0.017579837 0.049055815 0.44700003 4278992666
0.018989118 0.048946071 0.44600001 4279056922
0.020391902 0.048836328 0.44500002 4279385119
0.021788191 0.048726585 0.44400004 4279515678
0.023177981 0.048616838 0.44300002 4279449115
0.024561279 0.048507094 0.44200003 4278329097
0.025938079 0.048397347 0.44100001 4279712033
0.027370447 0.048397347 0.44100001 4278196480
0.028737504 0.048287604 0.44000003 4278198023
0.030098066 0.048177857 0.43900001 4279184406
0.031523935 0.048177857 0.43900001 4279579164
0.032874752 0.048068114 0.43800002 4279384092
0.034219075 0.04795837 0.43700001 4279253019
0.035556898 0.047848627 0.43600002 4279319326
0.036973029 0.047848627 0.43600002 4279056154
0.038301107 0.047738884 0.43500003 4278595349
0.039713986 0.047738884 0.43500003 4279319326
0.041032325 0.047629137 0.43400002 4279121945
0.042344164 0.047519393 0.43300003 4278595601
0.043750551 0.047519393 0.43300003 4278197506
0.045052644 0.047409646 0.43200001 4279318299
0.046455778 0.047409646 0.43200001 4278792468
0.047748134 0.047299903 0.43100002 4278595087
0.049148023 0.047299903 0.43100002 4278791183
0.050547913 0.047299903 0.43100002 4279778080
0.051827271 0.047190156 0.43000001 4279254303
0.053223912 0.047190156 0.43000001 4279189275
0.054747578 0.047299903 0.43100002 4278199815
0.056147467 0.047299903 0.43100002 4279910947
0.057547357 0.047299903 0.43100002 4279124252
0.058947243 0.047299903 0.43100002 4279058457
0.060487147 0.047409646 0.43200001 4278927382
0.061890285 0.047409646 0.43200001 4279058968
0.063146912 0.047299903 0.43100002 4278795796
0.064546801 0.047299903 0.43100002 4278532624
0.065946691 0.047299903 0.43100002 4278531345
0.06734658 0.047299903 0.43100002 4278793750
-0.0044140196 0.05310702 0.47000003 4279903756
-0.0028690279 0.052768037 0.46700001 4279050244
-0.0013435245 0.052429054 0.46400002 4279251473
0.00016284335 0.052203067 0.46200001 4279121170
0.0016526188 0.051864088 0.45900002 4279057174
0.0031297544 0.0516381 0.45700002 4279255066
0.0045938981 0.051412113 0.45500001 4278597906
0.0060583949 0.051299121 0.45400003 4278927384
0.0075329873 0.051299121 0.45400003 4278730007
0.0089877397 0.051186126 0.45300001 4278730007
0.010435997 0.051073134 0.45200002 4279124765
0.011877757 0.050960138 0.45100003 4278795800
0.013342606 0.050960138 0.45100003 4278862363
0.014774622 0.050847143 0.45000002 4278796570
0.016164061 0.050621156 0.44800001 4278664984
0.017579837 0.050508164 0.44700003 4278796570
0.018989118 0.050395168 0.44600001 4278862363
0.020391902 0.050282177 0.44500002 4278928156
0.021788191 0.050169185 0.44400004 4278927386
0.023177981 0.050056189 0.44300002 4278993179
0.024561279 0.049943198 0.44200003 4279058459
0.025938079 0.049830202 0.44100001 4279123482
0.027308384 0.04971721 0.44000003 4279715619
0.028737504 0.04971721 0.44000003 4279123482
0.030098066 0.049604215 0.43900001 4279516703
0.031452131 0.049491223 0.43800002 4279319324
0.032874752 0.049491223 0.43800002 4278792468
0.034219075 0.049378227 0.43700001 4278198019
0.035556898 0.049265232 0.43600002 4278196481
0.036973029 0.049265232 0.43600002 4278196224
0.038301107 0.04915224 0.43500003 4278197766
0.039713986 0.04915224 0.43500003 4278527759
0.041032325 0.049039245 0.43400002 4279516191
0.042441957 0.049039245 0.43400002 4279845668
0.043750551 0.048926253 0.43300003 4279648289
0.045156933 0.048926253 0.43300003 4279385117
0.046455778 0.048813257 0.43200001 4279780129
0.04785892 0.048813257 0.43200001 4279648543
0.049148023 0.048700266 0.43100002 4279648543
0.050547913 0.048700266 0.43100002 4278529548
0.051947802 0.048700266 0.43100002 4279187224
0.053347688 0.048700266 0.43100002 4279254555
0.054747578 0.048700266 0.43100002 4278199559
0.056147467 0.048700266 0.43100002 4279779875
0.057680875 0.048813257 0.43200001 4279058972
0.059084009 0.048813257 0.43200001 4278993177
0.060487147 0.048813257 0.43200001 4278927382
0.061890285 0.048813257 0.43200001 4278927382
0.063146912 0.048700266 0.43100002 4278598417
0.064546801 0.048700266 0.43100002 4278598419
0.065946691 0.048700266 0.43100002 4278729494
0.06734658 0.048700266 0.43100002 4278728724
-0.0028813148 0.05451785 0.46900001 4279639303
-0.00134642 0.054052882 0.46500003 4279311369
0.00016284335 0.053704154 0.46200001 4278917894
0.0016562191 0.053471666 0.46000001 4278721799
0.0031297544 0.053122938 0.45700002 4278590724
0.004603995 0.053006697 0.45600003 4278657800
0.0060717394 0.052890453 0.45500001 4278988049
0.0075329873 0.052774213 0.45400003 4279055638
0.0089877397 0.052657969 0.45300001 4279187224
0.010459085 0.052657969 0.45300001 4279385117
0.011904093 0.052541725 0.45200002 4279320094
0.013342606 0.052425485 0.45100003 4279583779
0.014774622 0.052309241 0.45000002 4279058205
0.016164061 0.052076753 0.44800001 4279255586
0.017579837 0.051960513 0.44700003 4279124000
0.018989118 0.051844269 0.44600001 4278860826
0.020391902 0.051728029 0.44500002 4278992412
0.021739118 0.051495541 0.44300002 4278927386
0.023125662 0.051379301 0.44200003 4278730007
0.02450571 0.051263057 0.44100001 4278795800
0.025879264 0.051146813 0.44000003 4278795800
0.027308384 0.051146813 0.44000003 4278730007
0.02867219 0.051030569 0.43900001 4278730007
0.030098066 0.051030569 0.43900001 4278927382
0.031452131 0.050914329 0.43800002 4278795796
0.032799695 0.050798085 0.43700001 4278993177
0.034219075 0.050798085 0.43700001 4278992664
0.035556898 0.050681841 0.43600002 4279189275
0.036973029 0.050681841 0.43600002 4278991129
0.038301107 0.0505656 0.43500003 4279187740
0.039713986 0.0505656 0.43500003 4279319326
0.041032325 0.050449356 0.43400002 4279647777
0.042441957 0.050449356 0.43400002 4278858261
0.043851592 0.050449356 0.43400002 4278198790
0.045156933 0.050333116 0.43300003 4278196736
0.04656332 0.050333116 0.43300003 4278196481
0.04785892 0.050216869 0.43200001 4278198280
0.049262054 0.050216869 0.43200001 4278594574
0.050665192 0.050216869 0.43200001 4279186711
0.051947802 0.050100628 0.43100002 4279976994
0.053347688 0.050100628 0.43100002 4279648029
0.054747578 0.050100628 0.43100002 4278196480
0.056277737 0.050216869 0.43200001 4279385117
0.057680875 0.050216869 0.43200001 4279058970
0.059084009 0.050216869 0.43200001 4278993177
0.060487147 0.050216869 0.43200001 4279124761
0.061890285 0.050216869 0.43200001 4278993175
0.063293427 0.050216869 0.43200001 4278795796
0.064546801 0.050100628 0.43100002 4278532626
0.065946691 0.050100628 0.43100002 4278663701
0.06734658 0.050100628 0.43100002 4278267660
0.0045938981 0.054368794 0.45500001 4279180299
0.0060583949 0.054249305 0.45400003 4279377678
0.0075329873 0.054249305 0.45400003 4279772949
0.0089877397 0.054129809 0.45300001 4279116557
0.010459085 0.054129809 0.45300001 4285895032
0.016164061 0.053532351 0.44800001 4279252254
0.017579837 0.053412862 0.44700003 4279121179
0.018989118 0.053293366 0.44600001 4279516451
0.020346079 0.053054389 0.44400004 4279582244
0.021739118 0.052934892 0.44300002 4279386400
0.023125662 0.052815404 0.44200003 4279320607
0.024450142 0.052576419 0.44000003 4279189791
0.025879264 0.052576419 0.44000003 4278992412
0.027246319 0.052456923 0.43900001 4278795546
0.02867219 0.052456923 0.43900001 4278927386
0.030029505 0.052337434 0.43800002 4279058972
0.031452131 0.052337434 0.43800002 4278664214
0.032799695 0.052217942 0.43700001 4278795798
0.034140769 0.052098449 0.43600002 4278795798
0.035556898 0.052098449 0.43600002 4278927384
0.036888227 0.051978961 0.43500003 4278927384
0.038301107 0.051978961 0.43500003 4278730005
0.039713986 0.051978961 0.43500003 4278927384
0.041032325 0.051859464 0.43400002 4278927384
0.042441957 0.051859464 0.43400002 4278861078
0.043851592 0.051859464 0.43400002 4278926101
0.045156933 0.051739976 0.43300003 4279123480
0.04656332 0.051739976 0.43300003 4278991129
0.047969706 0.051739976 0.43300003 4279582496
0.049262054 0.051620483 0.43200001 4279976740
0.050665192 0.051620483 0.43200001 4279713568
0.052068327 0.051620483 0.43200001 4279054355
0.053471465 0.051620483 0.43200001 4278197763
0.054874599 0.051620483 0.43200001 4279055640
0.056277737 0.051620483 0.43200001 4279385887
0.057680875 0.051620483 0.43200001 4279453213
0.059084009 0.051620483 0.43200001 4279124761
0.060487147 0.051620483 0.43200001 4278927382
0.061890285 0.051620483 0.43200001 4279058968
0.063293427 0.051620483 0.43200001 4278927382
0.064696558 0.051620483 0.43200001 4278795283
0.065946691 0.051500991 0.43100002 4278794002
0.06734658 0.051500991 0.43100002 4279251482
0.023073342 0.054128762 0.44100001 4281423686
0.024450142 0.054006021 0.44000003 4279450146
0.025820445 0.053883281 0.43900001 4279121695
0.027246319 0.053883281 0.43900001 4279516453
0.028606879 0.05376054 0.43800002 4279451428
0.030029505 0.05376054 0.43800002 4279254303
0.031380318 0.053637799 0.43700001 4279452195
0.032799695 0.053637799 0.43700001 4279189021
0.034140769 0.053515058 0.43600002 4279058205
0.035556898 0.053515058 0.43600002 4279058459
0.036888227 0.053392321 0.43500003 4278861080
0.038301107 0.053392321 0.43500003 4278993179
0.039713986 0.053392321 0.43500003 4278993179
0.04112687 0.053392321 0.43500003 4278795800
0.042441957 0.053269576 0.43400002 4278927386
0.043851592 0.053269576 0.43400002 4278993179
0.045261223 0.053269576 0.43400002 4278927386
0.04656332 0.053146835 0.43300003 4278992666
0.047969706 0.053146835 0.43300003 4279124252
0.049376089 0.053146835 0.43300003 4278795287
0.050665192 0.053024095 0.43200001 4278992666
0.052068327 0.053024095 0.43200001 4279058459
0.053471465 0.053024095 0.43200001 4279189275
0.054874599 0.053024095 0.43200001 4278795287
0.056277737 0.053024095 0.43200001 4278992666
0.057680875 0.053024095 0.43200001 4278927384
0.059084009 0.053024095 0.43200001 4279058968
0.060487147 0.053024095 0.43200001 4278993175
0.061890285 0.053024095 0.43200001 4278795796
0.063293427 0.053024095 0.43200001 4278729490
0.064696558 0.053024095 0.43200001 4278663699
0.066099696 0.053024095 0.43200001 4279121431
0.067502834 0.053024095 0.43200001 4282343242
0.024450142 0.055435631 0.44000003 4284776813
0.025820445 0.055309638 0.43900001 4284776813
0.027246319 0.055309638 0.43900001 4284776813
0.028606879 0.055183649 0.43800002 4285105264
0.030029505 0.055183649 0.43800002 4284185446
0.031380318 0.05505766 0.43700001 4282277449
0.032799695 0.05505766 0.43700001 4280567596
0.034140769 0.05493167 0.43600002 4279318299
0.035556898 0.05493167 0.43600002 4278924314
0.036888227 0.054805681 0.43500003 4279319072
0.038301107 0.054805681 0.43500003 4279121693
0.039713986 0.054805681 0.43500003 4279516451
0.04112687 0.054805681 0.43500003 4279385635
0.042539749 0.054805681 0.43500003 4279517221
0.043851592 0.054679688 0.43400002 4279649574
0.045261223 0.054679688 0.43400002 4279386402
0.046670854 0.054679688 0.43400002 4279583781
0.047969706 0.054553702 0.43300003 4279386402
0.049376089 0.054553702 0.43300003 4279190045
0.050782476 0.054553702 0.43300003 4279321631
0.052068327 0.054427709 0.43200001 4279255838
0.053471465 0.054427709 0.43200001 4279190045
0.054874599 0.054427709 0.43200001 4279189791
0.056408014 0.054553702 0.43300003 4279123998
0.057814401 0.054553702 0.43300003 4279058459
0.05922078 0.054553702 0.43300003 4279058457
0.060627166 0.054553702 0.43300003 4278992664
0.062033553 0.054553702 0.43300003 4278992664
0.063439943 0.054553702 0.43300003 4278925849
0.064846322 0.054553702 0.43300003 4278925336
0.066099696 0.054427709 0.43200001 4279514145
0.067502834 0.054427709 0.43200001 4283329115
0.028606879 0.056606755 0.43800002 4284775786
0.030029505 0.056606755 0.43800002 4284709993
0.031452131 0.056606755 0.43800002 4284709993
0.032724638 0.056348275 0.43600002 4284578407
0.034140769 0.056348275 0.43600002 4284513127
0.035556898 0.056348275 0.43600002 4284513127
0.036888227 0.056219038 0.43500003 4284513127
0.038301107 0.056219038 0.43500003 4284842090
0.039713986 0.056219038 0.43500003 4285171055
0.04112687 0.056219038 0.43500003 4285171571
0.042539749 0.056219038 0.43500003 4284842608
0.043952633 0.056219038 0.43500003 4284054373
0.045261223 0.056089796 0.43400002 4283396443
0.046670854 0.056089796 0.43400002 4282738000
0.047969706 0.055960558 0.43300003 4281553726
0.049376089 0.055960558 0.43300003 4280041770
0.050782476 0.055960558 0.43300003 4279515428
0.052188858 0.055960558 0.43300003 4279450146
0.053595241 0.055960558 0.43300003 4279186972
0.055001624 0.055960558 0.43300003 4279121179
0.056408014 0.055960558 0.43300003 4279121179
0.057814401 0.055960558 0.43300003 4279515937
0.05922078 0.055960558 0.43300003 4279647777
0.060627166 0.055960558 0.43300003 4279910949
0.062033553 0.055960558 0.43300003 4279582498
0.063439943 0.055960558 0.43300003 4278856724
0.064846322 0.055960558 0.43300003 4280830005
0.066252708 0.055960558 0.43300003 4283723359
0.063439943 0.057367422 0.43300003 4284907887
0.064846322 0.057367422 0.43300003 4283920738
0.019310847 0.043865807 0.45496786 4294967295
0.019310847 0.043865807 0.45496786 4294901760
0.019310847 0.043865807 0.45546785 4294901760
0.019310847 0.043865807 0.45596784 4294901760
0.019310847 0.043865807 0.45646787 4294901760
0.019310847 0.043865807 0.45696786 4294901760
0.019310847 0.043865807 0.45746785 4294901760
0.019310847 0.043865807 0.45796785 4294901760
0.019310847 0.043865807 0.45846787 4294901760
0.019310847 0.043865807 0.45896786 4294901760
0.019310847 0.043865807 0.45946786 4294901760
0.019310847 0.043865807 0.45996785 4294901760
0.019310847 0.043865807 0.46046785 4294901760
0.019310847 0.043865807 0.46096787 4294901760
0.019310847 0.043865807 0.46146786 4294901760
0.019310847 0.043865807 0.46196786 4294901760
0.019310847 0.043865807 0.46246785 4294901760
0.019310847 0.043865807 0.46296787 4294901760
0.019310847 0.043865807 0.46346787 4294901760
0.019310847 0.043865807 0.46396786 4294901760
0.019310847 0.043865807 0.46446785 4294901760
0.019310847 0.043865807 0.46496785 4294901760
0.019310847 0.043865807 0.46546787 4294901760
0.019310847 0.043865807 0.46596786 4294901760
0.019310847 0.043865807 0.46646786 4294901760
0.019310847 0.043865807 0.46696785 4294901760
0.019310847 0.043865807 0.46746784 4294901760
0.019310847 0.043865807 0.46796787 4294901760
0.019310847 0.043865807 0.46846786 4294901760
0.019310847 0.043865807 0.46896785 4294901760
0.019310847 0.043865807 0.46946785 4294901760
0.019310847 0.043865807 0.46996787 4294901760
0.019310847 0.043865807 0.47046787 4294901760
0.019310847 0.043865807 0.47096786 4294901760
0.019310847 0.043865807 0.47146785 4294901760
0.019310847 0.043865807 0.47196788 4294901760
0.019310847 0.043865807 0.47246787 4294901760
0.019310847 0.043865807 0.47296786 4294901760
0.019310847 0.043865807 0.47346786 4294901760
0.019310847 0.043865807 0.47396785 4294901760
0.019310847 0.043865807 0.47446787 4294901760
0.019310847 0.043865807 0.47496787 4294901760
0.019310847 0.043865807 0.47546786 4294901760
0.019310847 0.043865807 0.47596785 4294901760
0.019310847 0.043865807 0.47646785 4294901760
0.019310847 0.043865807 0.47696787 4294901760
0.019310847 0.043865807 0.47746786 4294901760
0.019310847 0.043865807 0.47796786 4294901760
0.019310847 0.043865807 0.47846785 4294901760
0.019310847 0.043865807 0.47896788 4294901760
0.019310847 0.043865807 0.47946787 4294901760
0.019310847 0.043865807 0.47996786 4294901760
0.019310847 0.043865807 0.48046786 4294901760
0.019310847 0.043865807 0.48096785 4294901760
0.019310847 0.043865807 0.48146787 4294901760
0.019310847 0.043865807 0.48196787 4294901760
0.019310847 0.043865807 0.48246786 4294901760
0.019310847 0.043865807 0.48296785 4294901760
0.019310847 0.043865807 0.48346788 4294901760
0.019310847 0.043865807 0.48396787 4294901760
0.019310847 0.043865807 0.48446786 4294901760
0.019310847 0.043865807 0.48496786 4294901760
0.019310847 0.043865807 0.48546785 4294901760
0.019310847 0.043865807 0.48596787 4294901760
0.019310847 0.043865807 0.48646787 4294901760
0.019310847 0.043865807 0.48696786 4294901760
0.019310847 0.043865807 0.48746786 4294901760
0.019310847 0.043865807 0.48796788 4294901760
0.019310847 0.043865807 0.48846787 4294901760
0.019310847 0.043865807 0.48896787 4294901760
0.019310847 0.043865807 0.48946786 4294901760
0.019310847 0.043865807 0.48996785 4294901760
0.019310847 0.043865807 0.49046788 4294901760
0.019310847 0.043865807 0.49096787 4294901760
0.019310847 0.043865807 0.49146786 4294901760
0.019310847 0.043865807 0.49196786 4294901760
0.019310847 0.043865807 0.49246788 4294901760
0.019310847 0.043865807 0.49296787 4294901760
0.019310847 0.043865807 0.49346787 4294901760
0.019310847 0.043865807 0.49396786 4294901760
0.019310847 0.043865807 0.49446785 4294901760
0.019310847 0.043865807 0.49496788 4294901760
0.019310847 0.043865807 0.49546787 4294901760
0.019310847 0.043865807 0.49596786 4294901760
0.019310847 0.043865807 0.49646786 4294901760
0.019310847 0.043865807 0.49696785 4294901760
0.019310847 0.043865807 0.49746788 4294901760
0.019310847 0.043865807 0.49796787 4294901760
0.019310847 0.043865807 0.49846786 4294901760
0.019310847 0.043865807 0.49896786 4294901760
0.019310847 0.043865807 0.49946785 4294901760
0.019310847 0.043865807 0.49996787 4294901760
0.019310847 0.043865807 0.5004679 4294901760
0.019310847 0.043865807 0.50096786 4294901760
0.019310847 0.043865807 0.50146788 4294901760
0.019310847 0.043865807 0.50196785 4294901760
0.019310847 0.043865807 0.50246787 4294901760
0.019310847 0.043865807 0.50296789 4294901760
0.019310847 0.043865807 0.50346786 4294901760
0.019310847 0.043865807 0.50396788 4294901760
0.019310847 0.043865807 0.50446784 4294901760
0.019310847 0.043865807 0.50496787 4294901760
0.019310847 0.043865807 0.45496786 4278255360
0.019584415 0.043888927 0.45538574 4278255360
0.019857982 0.043912042 0.45580363 4278255360
0.020131551 0.043935161 0.45622149 4278255360
0.020405119 0.04395828 0.45663938 4278255360
0.020678686 0.043981396 0.45705727 4278255360
0.020952255 0.044004515 0.45747516 4278255360
0.021225823 0.04402763 0.45789304 4278255360
0.02149939 0.044050749 0.45831093 4278255360
0.021772958 0.044073869 0.45872879 4278255360
0.022046527 0.044096984 0.45914668 4278255360
0.022320095 0.044120103 0.45956457 4278255360
0.022593662 0.044143222 0.45998245 4278255360
0.022867231 0.044166338 0.46040034 4278255360
0.023140799 0.044189457 0.4608182 4278255360
0.023414366 0.044212572 0.46123609 4278255360
0.023687935 0.044235691 0.46165398 4278255360
0.023961503 0.044258811 0.46207187 4278255360
0.02423507 0.044281926 0.46248975 4278255360
0.024508638 0.044305045 0.46290764 4278255360
0.024782207 0.044328164 0.4633255 4278255360
0.025055774 0.04435128 0.46374339 4278255360
0.025329342 0.044374399 0.46416128 4278255360
0.025602911 0.044397518 0.46457916 4278255360
0.025876477 0.044420633 0.46499705 4278255360
0.026150046 0.044443753 0.46541494 4278255360
0.026423614 0.044466868 0.4658328 4278255360
0.026697181 0.044489987 0.46625069 4278255360
0.02697075 0.044513106 0.46666858 4278255360
0.027244318 0.044536222 0.46708646 4278255360
0.027517885 0.044559341 0.46750435 4278255360
0.027791454 0.04458246 0.46792221 4278255360
0.028065022 0.044605576 0.4683401 4278255360
0.028338589 0.044628695 0.46875799 4278255360
0.028612157 0.04465181 0.46917588 4278255360
0.028885726 0.044674929 0.46959376 4278255360
0.029159293 0.044698048 0.47001165 4278255360
0.029432861 0.044721164 0.47042951 4278255360
0.02970643 0.044744283 0.4708474 4278255360
0.029979996 0.044767402 0.47126529 4278255360
0.030253567 0.044790518 0.47168317 4278255360
0.030527133 0.044813637 0.47210106 4278255360
0.0308007 0.044836752 0.47251892 4278255360
0.031074271 0.044859871 0.47293681 4278255360
0.031347837 0.04488299 0.4733547 4278255360
0.031621404 0.044906106 0.47377259 4278255360
0.031894974 0.044929225 0.47419047 4278255360
0.032168541 0.044952344 0.47460836 4278255360
0.032442108 0.04497546 0.47502622 4278255360
0.032715678 0.044998579 0.47544411 4278255360
0.032989245 0.045021698 0.475862 4278255360
0.033262812 0.045044813 0.47627988 4278255360
0.033536382 0.045067932 0.47669777 4278255360
0.033809949 0.045091048 0.47711563 4278255360
0.034083515 0.045114167 0.47753352 4278255360
0.034357086 0.045137286 0.47795141 4278255360
0.034630653 0.045160402 0.4783693 4278255360
0.034904219 0.045183521 0.47878718 4278255360
0.03517779 0.04520664 0.47920507 4278255360
0.035451356 0.045229755 0.47962293 4278255360
0.035724923 0.045252874 0.48004082 4278255360
