# .PCD v0.7 - Point Cloud Data file format
VERSION 0.7
FIELDS x y z rgb
SIZE 4 4 4 4
TYPE F F F U
COUNT 1 1 1 1
WIDTH 1032
HEIGHT 1
VIEWPOINT 0 0 0 1 0 0 0
POINTS 1032
DATA ascii
0.06050387 0.05800923 0.33200002 4281088298
0.061582208 0.05800923 0.33200002 4280495393
0.062660545 0.05800923 0.33200002 4280429600
0.063738875 0.05800923 0.33200002 4281286190
0.06481722 0.05800923 0.33200002 4282734148
0.06050387 0.059087936 0.33200002 4280890149
0.061582208 0.059087936 0.33200002 4281219116
0.062660545 0.059087936 0.33200002 4280693540
0.063738875 0.059087936 0.33200002 4281549099
0.06481722 0.059087936 0.33200002 4281090858
0.065895557 0.059087936 0.33200002 4279912485
0.06050387 0.060166635 0.33200002 4280627749
0.061582208 0.060166635 0.33200002 4281219886
0.062660545 0.060166635 0.33200002 4281088298
0.063738875 0.060166635 0.33200002 4281024552
0.06481722 0.060166635 0.33200002 4280304163
0.065895557 0.060166635 0.33200002 4279649824
0.06050387 0.061245337 0.33200002 4281022507
0.061582208 0.061245337 0.33200002 4280891694
0.062660545 0.061245337 0.33200002 4280892716
0.063738875 0.061245337 0.33200002 4280303909
0.06481722 0.061245337 0.33200002 4279648289
0.065895557 0.061245337 0.33200002 4279584033
0.06050387 0.06232404 0.33200002 4281220399
0.061582208 0.06232404 0.33200002 4280892716
0.062660545 0.06232404 0.33200002 4280499239
0.063738875 0.06232404 0.33200002 4279648543
0.06481722 0.06232404 0.33200002 4279321631
0.065895557 0.06232404 0.33200002 4279256351
0.06050387 0.063402742 0.33200002 4281023020
0.061582208 0.063402742 0.33200002 4280827688
0.062660545 0.063402742 0.33200002 4280368932
0.063738875 0.063402742 0.33200002 4279321629
0.06481722 0.063402742 0.33200002 4279059740
0.065895557 0.063402742 0.33200002 4278928668
0.06050387 0.064481445 0.33200002 4281549874
0.061582208 0.064481445 0.33200002 4280236321
0.062660545 0.064481445 0.33200002 4279909664
0.063546896 0.064287223 0.33100003 4278928154
0.064621985 0.064287223 0.33100003 4279322912
0.060321633 0.065362677 0.33100003 4280958507
0.061396722 0.065362677 0.33100003 4280763690
0.062471811 0.065362677 0.33100003 4279911715
0.063546896 0.065362677 0.33100003 4278928154
0.064621985 0.065362677 0.33100003 4279059740
0.060321633 0.066438131 0.33100003 4281090860
0.061396722 0.066438131 0.33100003 4281423673
0.062471811 0.066438131 0.33100003 4279254555
0.063546896 0.066438131 0.33100003 4279125785
0.064621985 0.066438131 0.33100003 4279059992
0.058347199 0.067717552 0.33200002 4281023020
0.060321633 0.067513585 0.33100003 4281946937
0.061396722 0.067513585 0.33100003 4280502823
0.062471811 0.067513585 0.33100003 4279846688
0.063546896 0.067513585 0.33100003 4278994713
0.06442675 0.067309611 0.33000001 4279389471
0.058171455 0.068589032 0.33100003 4282140984
0.059246548 0.068589032 0.33100003 4281881144
0.060321633 0.068589032 0.33100003 4281685816
0.061396722 0.068589032 0.33100003 4280240162
0.062283073 0.068381809 0.33000001 4279649309
0.063354909 0.068381809 0.33000001 4278928666
0.06442675 0.068381809 0.33000001 4279257631
0.065300114 0.068174601 0.32900003 4279192092
0.058171455 0.069664486 0.33100003 4282339382
0.059246548 0.069664486 0.33100003 4282013497
0.060321633 0.069664486 0.33100003 4280830507
0.061211228 0.069454014 0.33000001 4280964401
0.062283073 0.069454014 0.33000001 4280109860
0.063354909 0.069454014 0.33000001 4279323424
0.06442675 0.069454014 0.33000001 4279783977
0.065300114 0.06924355 0.32900003 4278664982
0.066368707 0.06924355 0.32900003 4279256347
0.058171455 0.07073994 0.33100003 4282734140
0.059246548 0.07073994 0.33100003 4281290288
0.060321633 0.07073994 0.33100003 4280238883
0.061211228 0.070526227 0.33000001 4281424186
0.062283073 0.070526227 0.33000001 4280833587
0.063354909 0.070526227 0.33000001 4279914277
0.064231522 0.070312507 0.32900003 4278993945
0.065300114 0.070312507 0.32900003 4284915579
0.066368707 0.070312507 0.32900003 4279717672
0.067232318 0.070098795 0.32800001 4278993945
0.068297662 0.070098795 0.32800001 4279584799
0.069363013 0.070098795 0.32800001 4280303391
0.058171455 0.071815394 0.33100003 4283326025
0.059246548 0.071815394 0.33100003 4280632106
0.060139388 0.071598426 0.33000001 4281159731
0.061211228 0.071598426 0.33000001 4281621306
0.062283073 0.071598426 0.33000001 4281556026
0.063162923 0.071381465 0.32900003 4280111145
0.064231522 0.071381465 0.32900003 4279454496
0.065300114 0.071381465 0.32900003 4279256349
0.066166975 0.071164496 0.32800001 4282282827
0.067232318 0.071164496 0.32800001 4278928152
0.068297662 0.071164496 0.32800001 4279125531
0.069363013 0.071164496 0.32800001 4279255318
0.070213631 0.070947535 0.32700002 4279911711
0.071275733 0.070947535 0.32700002 4280237086
0.059246548 0.072890848 0.33100003 4281486899
0.060139388 0.072670631 0.33000001 4281948218
0.061211228 0.072670631 0.33000001 4281883706
0.062283073 0.072670631 0.33000001 4282015292
0.063162923 0.072450422 0.32900003 4281556024
0.064231522 0.072450422 0.32900003 4279979559
0.065101631 0.072230205 0.32800001 4279783461
0.066166975 0.072230205 0.32800001 4281757251
0.067232318 0.072230205 0.32800001 4281164864
0.068297662 0.072230205 0.32800001 4279059488
0.069151543 0.072009988 0.32700002 4279387933
0.070213631 0.072009988 0.32700002 4279387933
0.071275733 0.072009988 0.32700002 4279584029
0.072116606 0.071789771 0.32600001 4279780897
0.073175453 0.071789771 0.32600001 4280238881
0.059067551 0.073742829 0.33000001 4282407490
0.060139388 0.073742829 0.33000001 4282211390
0.061211228 0.073742829 0.33000001 4282081085
0.062094338 0.073519371 0.32900003 4281884476
0.063162923 0.073519371 0.32900003 4281687612
0.064231522 0.073519371 0.32900003 4281424954
0.065101631 0.073295906 0.32800001 4281097270
0.066166975 0.073295906 0.32800001 4279584801
0.067232318 0.073295906 0.32800001 4279060769
0.06808944 0.073072441 0.32700002 4279587113
0.069151543 0.073072441 0.32700002 4279521316
0.070213631 0.073072441 0.32700002 4279192351
0.071057759 0.072848976 0.32600001 4278994459
0.072116606 0.072848976 0.32600001 4279125531
0.073175453 0.072848976 0.32600001 4279256347
0.074006595 0.072625518 0.32500002 4279584799
0.074831232 0.072402053 0.324 4279845918
0.075883582 0.072402053 0.324 4279779098
0.059067551 0.074815035 0.33000001 4283261262
0.060139388 0.074815035 0.33000001 4282408001
0.061211228 0.074815035 0.33000001 4282015810
0.062094338 0.074588329 0.32900003 4281818944
0.063162923 0.074588329 0.32900003 4281950784
0.064036287 0.074361615 0.32800001 4281950782
0.065101631 0.074361615 0.32800001 4281294136
0.066166975 0.074361615 0.32800001 4281294649
0.067027345 0.074134901 0.32700002 4280506418
0.06808944 0.074134901 0.32700002 4279257635
0.069151543 0.074134901 0.32700002 4278798365
0.069998913 0.073908187 0.32600001 4279127328
0.071057759 0.073908187 0.32600001 4279258144
0.072116606 0.073908187 0.32600001 4278929433
0.072950989 0.073681481 0.32500002 4278994459
0.074006595 0.073681481 0.32500002 4279125531
0.074831232 0.07345476 0.324 4279256601
0.075883582 0.07345476 0.324 4279453980
0.076935932 0.07345476 0.324 4279715617
0.077988289 0.07345476 0.324 4279845920
0.079040639 0.07345476 0.324 4279842842
0.060139388 0.07588724 0.33000001 4282605382
0.061211228 0.07588724 0.33000001 4282081603
0.062094338 0.075657278 0.32900003 4281884991
0.063162923 0.075657278 0.32900003 4281950784
0.064036287 0.075427316 0.32800001 4281621819
0.065101631 0.075427316 0.32800001 4281621819
0.066166975 0.075427316 0.32800001 4281293366
0.067027345 0.075197354 0.32700002 4280965684
0.06808944 0.075197354 0.32700002 4280636719
0.069151543 0.075197354 0.32700002 4280045863
0.069998913 0.074967392 0.32600001 4279651105
0.071057759 0.074967392 0.32600001 4279455264
0.071895398 0.074737437 0.32500002 4279323678
0.072950989 0.074737437 0.32500002 4279323678
0.074006595 0.074737437 0.32500002 4279323164
0.074831232 0.074507467 0.324 4279454750
0.075883582 0.074507467 0.324 4279125785
0.076935932 0.074507467 0.324 4279059738
0.077988289 0.074507467 0.324 4279256347
0.079040639 0.074507467 0.324 4279584799
0.080092989 0.074507467 0.324 4279715615
0.081145339 0.074507467 0.324 4279581723
0.082197696 0.074507467 0.324 4280697385
0.062970936 0.076493025 0.32800001 4281752888
0.064036287 0.076493025 0.32800001 4281621815
0.065101631 0.076493025 0.32800001 4281556026
0.065965243 0.076259814 0.32700002 4281556026
0.067027345 0.076259814 0.32700002 4281490231
0.06808944 0.076259814 0.32700002 4281161266
0.068940066 0.076026604 0.32600001 4280964399
0.069998913 0.076026604 0.32600001 4280899376
0.071057759 0.076026604 0.32600001 4280702510
0.071895398 0.075793393 0.32500002 4279321627
0.072950989 0.075793393 0.32500002 4279520289
0.074006595 0.075793393 0.32500002 4279388703
0.0750622 0.075793393 0.32500002 4278994459
0.076117791 0.075793393 0.32500002 4279323424
0.076935932 0.075560182 0.324 4279126045
0.077988289 0.075560182 0.324 4278862875
0.079040639 0.075560182 0.324 4279059738
0.080092989 0.075560182 0.324 4279322910
0.081145339 0.075560182 0.324 4279321627
0.082197696 0.075560182 0.324 4279781408
0.083507001 0.075793393 0.32500002 4280042272
0.0845626 0.075793393 0.32500002 4280238370
0.062970936 0.077558726 0.32800001 4282146876
0.064036287 0.077558726 0.32800001 4282015544
0.065101631 0.077558726 0.32800001 4281423925
0.065965243 0.077322267 0.32700002 4281424440
0.067027345 0.077322267 0.32700002 4281424438
0.06808944 0.077322267 0.32700002 4281358645
0.069151543 0.077322267 0.32700002 4281161266
0.069998913 0.077085808 0.32600001 4280964401
0.071057759 0.077085808 0.32600001 4280833585
0.072116606 0.077085808 0.32600001 4280767792
0.073175453 0.077085808 0.32600001 4280636719
0.074006595 0.076849349 0.32500002 4280111658
0.0750622 0.076849349 0.32500002 4279323426
0.076117791 0.076849349 0.32500002 4279126047
0.077173397 0.076849349 0.32500002 4278994461
0.078228995 0.076849349 0.32500002 4279191840
0.079284593 0.076849349 0.32500002 4279257631
0.080092989 0.076612882 0.324 4279257885
0.081145339 0.076612882 0.324 4278994713
0.082197696 0.076612882 0.324 4279059738
0.083250053 0.076612882 0.324 4279321627
0.084302403 0.076612882 0.324 4279650592
0.08535476 0.076612882 0.324 4279846688
0.062970936 0.078624435 0.32800001 4284249174
0.064036287 0.078624435 0.32800001 4282342460
0.065101631 0.078624435 0.32800001 4281687097
0.065965243 0.078384727 0.32700002 4281688124
0.067027345 0.078384727 0.32700002 4281227573
0.06808944 0.078384727 0.32700002 4281161780
0.069151543 0.078384727 0.32700002 4281424438
0.070213631 0.078384727 0.32700002 4281358645
0.071057759 0.078145012 0.32600001 4281095473
0.072116606 0.078145012 0.32600001 4281161780
0.073175453 0.078145012 0.32600001 4280964401
0.074234307 0.078145012 0.32600001 4280767792
0.075293154 0.078145012 0.32600001 4280505133
0.076352 0.078145012 0.32600001 4280045352
0.077173397 0.077905312 0.32500002 4279717670
0.078228995 0.077905312 0.32500002 4279191838
0.079284593 0.077905312 0.32500002 4279191838
0.080340199 0.077905312 0.32500002 4279191838
0.081145339 0.077665597 0.324 4279323678
0.082197696 0.077665597 0.324 4279257885
0.083250053 0.077665597 0.324 4279191838
0.084302403 0.077665597 0.324 4278994459
0.08535476 0.077665597 0.324 4279257117
0.08640711 0.077665597 0.324 4279454496
0.087729409 0.077905312 0.32500002 4279649822
0.088785 0.077905312 0.32500002 4279977504
0.089840598 0.077905312 0.32500002 4280368934
0.064036287 0.079690143 0.32800001 4285365606
0.065101631 0.079690143 0.32800001 4284118108
0.066166975 0.079690143 0.32800001 4282211136
0.067027345 0.079447187 0.32700002 4281817915
0.06808944 0.079447187 0.32700002 4281687099
0.069151543 0.079447187 0.32700002 4281621306
0.070213631 0.079447187 0.32700002 4281555511
0.071275733 0.079447187 0.32700002 4281226544
0.072337829 0.079447187 0.32700002 4281423923
0.073399924 0.079447187 0.32700002 4281095471
0.074462019 0.079447187 0.32700002 4281029680
0.075293154 0.079204224 0.32600001 4280699434
0.076352 0.079204224 0.32600001 4280502571
0.077410847 0.079204224 0.32600001 4280503850
0.078469701 0.079204224 0.32600001 4280440108
0.079284593 0.078961268 0.32500002 4280046633
0.080340199 0.078961268 0.32500002 4279388703
0.081145339 0.078718305 0.324 4279257885
0.082197696 0.078718305 0.324 4279192092
0.083250053 0.078718305 0.324 4279192092
0.084302403 0.078718305 0.324 4279126299
0.08535476 0.078718305 0.324 4278994713
0.08640711 0.078718305 0.324 4278863125
0.087459467 0.078718305 0.324 4279125783
0.08851181 0.078718305 0.324 4279453978
0.089564167 0.078718305 0.324 4279781662
0.090616517 0.078718305 0.324 4279781149
0.06808944 0.08050964 0.32700002 4282998855
0.069363013 0.080755845 0.32800001 4281554230
0.070428349 0.080755845 0.32800001 4281751607
0.0714937 0.080755845 0.32800001 4281817911
0.072559044 0.080755845 0.32800001 4281357360
0.073624387 0.080755845 0.32800001 4281357362
0.074462019 0.08050964 0.32700002 4281752122
0.075524122 0.08050964 0.32700002 4280171041
0.076586209 0.08050964 0.32700002 4280237864
0.077410847 0.080263428 0.32600001 4281094708
0.078469701 0.080263428 0.32600001 4281161266
0.079284593 0.080017224 0.32500002 4280570411
0.080340199 0.080017224 0.32500002 4280701997
0.081145339 0.079771012 0.324 4280374315
0.082197696 0.079771012 0.324 4279782178
0.083250053 0.079771012 0.324 4279585566
0.084302403 0.079771012 0.324 4279388957
0.085091323 0.079524808 0.32300001 4279520543
0.086140424 0.079524808 0.32300001 4279257371
0.087459467 0.079771012 0.324 4279323162
0.08851181 0.079771012 0.324 4279257369
0.089564167 0.079771012 0.324 4279125013
0.090616517 0.079771012 0.324 4279125013
0.091385946 0.079524808 0.32300001 4279453726
0.092435054 0.079524808 0.32300001 4279519008
0.069363013 0.081821553 0.32800001 4285893236
0.070428349 0.081821553 0.32800001 4283525199
0.0714937 0.081821553 0.32800001 4281948218
0.072559044 0.081821553 0.32800001 4281553460
0.073624387 0.081821553 0.32800001 4281289007
0.074689731 0.081821553 0.32800001 4280301092
0.075755075 0.081821553 0.32800001 4281816126
0.076586209 0.081572101 0.32700002 4281817663
0.077648312 0.081572101 0.32700002 4280897583
0.078469701 0.08132264 0.32600001 4281029169
0.079528548 0.08132264 0.32600001 4280633639
0.080340199 0.081073187 0.32500002 4281358132
0.081145339 0.080823727 0.324 4280767790
0.082197696 0.080823727 0.324 4280701997
0.082993105 0.080574274 0.32300001 4280373545
0.084042214 0.080574274 0.32300001 4280111143
0.085091323 0.080574274 0.32300001 4279848738
0.086140424 0.080574274 0.32300001 4279388185
0.087189533 0.080574274 0.32300001 4279586334
0.088238627 0.080574274 0.32300001 4279323162
0.089287736 0.080574274 0.32300001 4279125783
0.090336844 0.080574274 0.32300001 4279388955
0.091385946 0.080574274 0.32300001 4279125785
0.092148878 0.080324821 0.32200003 4279125785
0.092905305 0.080075361 0.32100001 4279256601
0.09394791 0.080075361 0.32100001 4279453980
0.094990522 0.080075361 0.32100001 4279649309
0.096033126 0.080075361 0.32100001 4279911711
0.097075738 0.080075361 0.32100001 4281024552
0.071711667 0.083139963 0.32900003 4285431401
0.072559044 0.082887255 0.32800001 4285036643
0.073624387 0.082887255 0.32800001 4283064650
0.074689731 0.082887255 0.32800001 4281617204
0.075755075 0.082887255 0.32800001 4281816380
0.076820418 0.082887255 0.32800001 4281554489
0.077648312 0.082634553 0.32700002 4281488696
0.078469701 0.082381845 0.32600001 4280038172
0.079528548 0.082381845 0.32600001 4279707924
0.080340199 0.082129143 0.32500002 4280300577
0.081145339 0.081876434 0.324 4279775770
0.082197696 0.081876434 0.324 4280499493
0.082993105 0.081623733 0.32300001 4281161266
0.084042214 0.081623733 0.32300001 4280701997
0.085091323 0.081623733 0.32300001 4280636971
0.085873738 0.081371032 0.32200003 4280373799
0.086919598 0.081371032 0.32200003 4279586334
0.087965451 0.081371032 0.32200003 4279388955
0.089011304 0.081371032 0.32200003 4279454748
0.090057164 0.081371032 0.32200003 4279323162
0.091103025 0.081371032 0.32200003 4279520541
0.091862701 0.081118323 0.32100001 4279323162
0.092905305 0.081118323 0.32100001 4279125783
0.09394791 0.081118323 0.32100001 4279125013
0.094990522 0.081118323 0.32100001 4279321879
0.095733963 0.080865614 0.32000002 4279386902
0.096773326 0.080865614 0.32000002 4279845918
0.09781269 0.080865614 0.32000002 4280239649
0.098852053 0.080865614 0.32000002 4280369182
0.075755075 0.083952963 0.32800001 4283327307
0.076820418 0.083952963 0.32800001 4282210109
0.077648312 0.083697014 0.32700002 4282210876
0.078710407 0.083697014 0.32700002 4280235551
0.079528548 0.083441056 0.32600001 4280826151
0.080340199 0.083185099 0.32500002 4281154602
0.081145339 0.082929142 0.324 4280562979
0.082197696 0.082929142 0.324 4280562465
0.082993105 0.082673192 0.32300001 4280299547
0.084042214 0.082673192 0.32300001 4279709975
0.084827885 0.082417242 0.32200003 4280436260
0.085873738 0.082417242 0.32200003 4281622069
0.086919598 0.082417242 0.32200003 4280570665
0.087692261 0.082161285 0.32100001 4280308006
0.088734865 0.082161285 0.32100001 4279914018
0.089777477 0.082161285 0.32100001 4279519773
0.090820089 0.082161285 0.32100001 4279454750
0.091576524 0.081905335 0.32000002 4279125785
0.092615888 0.081905335 0.32000002 4279257371
0.093655244 0.081905335 0.32000002 4279256601
0.0946946 0.081905335 0.32000002 4279125015
0.095733963 0.081905335 0.32000002 4279256601
0.096773326 0.081905335 0.32000002 4279190554
0.09781269 0.081905335 0.32000002 4279386650
0.09854313 0.08164937 0.31900001 4279649563
0.099579245 0.08164937 0.31900001 4279517977
0.10029995 0.081393421 0.31800002 4280173856
0.10133281 0.081393421 0.31800002 4280633128
0.077648312 0.084759474 0.32700002 4284181846
0.078710407 0.084759474 0.32700002 4282340412
0.079528548 0.084500261 0.32600001 4282538052
0.080340199 0.084241062 0.32500002 4280695337
0.081145339 0.083981857 0.324 4280627745
0.082197696 0.083981857 0.324 4280627745
0.082993105 0.083722658 0.32300001 4281023530
0.084042214 0.083722658 0.32300001 4280431647
0.084827885 0.083463453 0.32200003 4280234268
0.085873738 0.083463453 0.32200003 4279709205
0.086649656 0.083204247 0.32100001 4280173090
0.087692261 0.083204247 0.32100001 4280701229
0.088458441 0.082945049 0.32000002 4280636717
0.089497805 0.082945049 0.32000002 4280373545
0.090537161 0.082945049 0.32000002 4279979811
0.091576524 0.082945049 0.32000002 4279782432
0.092615888 0.082945049 0.32000002 4279519260
0.093655244 0.082945049 0.32000002 4279519773
0.0946946 0.082945049 0.32000002 4279519773
0.095733963 0.082945049 0.32000002 4279519773
0.096773326 0.082945049 0.32000002 4279256601
0.097507015 0.082685843 0.31900001 4279256601
0.09854313 0.082685843 0.31900001 4279125015
0.099579245 0.082685843 0.31900001 4279058709
0.10029995 0.082426637 0.31800002 4279386904
0.10133281 0.082426637 0.31800002 4279649822
0.10236568 0.082426637 0.31800002 4279976479
0.080340199 0.085297011 0.32500002 4283590481
0.081145339 0.085034557 0.324 4281286954
0.082197696 0.085034557 0.324 4280366624
0.082993105 0.08477211 0.32300001 4280366883
0.084042214 0.08477211 0.32300001 4279840539
0.084827885 0.084509656 0.32200003 4280365854
0.085873738 0.084509656 0.32200003 4280498210
0.086649656 0.084247202 0.32100001 4280498210
0.087419078 0.083984755 0.32000002 4279577108
0.088458441 0.083984755 0.32000002 4279513625
0.089218117 0.083722293 0.31900001 4281225011
0.090254232 0.083722293 0.31900001 4280964653
0.091290347 0.083722293 0.31900001 4280702251
0.092326455 0.083722293 0.31900001 4279847455
0.093362562 0.083722293 0.31900001 4280176420
0.0946946 0.083984755 0.32000002 4279651359
0.095434792 0.083722293 0.31900001 4279585566
0.096470907 0.083722293 0.31900001 4279651359
0.097507015 0.083722293 0.31900001 4279257371
0.09854313 0.083722293 0.31900001 4279125785
0.099267088 0.083459847 0.31800002 4278994199
0.10029995 0.083459847 0.31800002 4279125013
0.10133281 0.083459847 0.31800002 4279125013
0.10204377 0.083197393 0.317 4279321881
0.10307339 0.083197393 0.317 4279452697
0.10410301 0.083197393 0.317 4279779615
0.10513262 0.083197393 0.317 4280108328
0.082197696 0.086087264 0.324 4284707678
0.082993105 0.085821569 0.32300001 4281354032
0.084042214 0.085821569 0.32300001 4281025583
0.084827885 0.085555874 0.32200003 4280366883
0.085873738 0.085555874 0.32200003 4279511061
0.086919598 0.085555874 0.32200003 4280167707
0.087419078 0.085024469 0.32000002 4280497186
0.088182002 0.084758759 0.31900001 4280037659
0.089218117 0.084758759 0.31900001 4280103198
0.090254232 0.084758759 0.31900001 4279643153
0.091290347 0.084758759 0.31900001 4280895014
0.092326455 0.084758759 0.31900001 4280634922
0.093362562 0.084758759 0.31900001 4280964399
0.0946946 0.085024469 0.32000002 4280636717
0.095434792 0.084758759 0.31900001 4280110373
0.096470907 0.084758759 0.31900001 4279913764
0.097507015 0.084758759 0.31900001 4279256347
0.09854313 0.084758759 0.31900001 4279322910
0.099267088 0.084493063 0.31800002 4279322910
0.10029995 0.084493063 0.31800002 4279257371
0.10133281 0.084493063 0.31800002 4279190808
0.10204377 0.084227361 0.317 4279125015
0.10307339 0.084227361 0.317 4279256088
0.10410301 0.084227361 0.317 4279386650
0.10513262 0.084227361 0.317 4279715104
0.10649713 0.084493063 0.31800002 4279517473
0.10753 0.084493063 0.31800002 4279516703
0.10890425 0.084758759 0.31900001 4280370217
0.10994036 0.084758759 0.31900001 4281487161
0.11097648 0.084758759 0.31900001 4281616441
0.097507015 0.085795231 0.31900001 4280373032
0.098234221 0.08552628 0.31800002 4279782178
0.099267088 0.08552628 0.31800002 4279387933
0.10029995 0.08552628 0.31800002 4279125533
0.10101415 0.085257329 0.317 4279322910
0.10204377 0.085257329 0.317 4279454496
0.10307339 0.085257329 0.317 4279257371
0.10443141 0.08552628 0.31800002 4279125015
0.10546428 0.08552628 0.31800002 4279124248
0.10649713 0.08552628 0.31800002 4279058455
0.10753 0.08552628 0.31800002 4279321627
0.10890425 0.085795231 0.31900001 4279320857
0.10994036 0.085795231 0.31900001 4279780125
0.1106286 0.08552628 0.31800002 4280172323
0.11166146 0.08552628 0.31800002 4280894762
0.11269433 0.08552628 0.31800002 4281551161
0.11372718 0.08552628 0.31800002 4281616187
0.099267088 0.086559497 0.31800002 4280570413
0.10029995 0.086559497 0.31800002 4280176938
0.10101415 0.08628729 0.317 4279650594
0.10204377 0.08628729 0.317 4279717152
0.10307339 0.08628729 0.317 4279454750
0.10443141 0.086559497 0.31800002 4279257117
0.10546428 0.086559497 0.31800002 4279257371
0.10649713 0.086559497 0.31800002 4279257371
0.10753 0.086559497 0.31800002 4278993429
0.10890425 0.086831696 0.31900001 4279255318
0.10959573 0.086559497 0.31800002 4279517977
0.1106286 0.086559497 0.31800002 4279582746
0.11166146 0.086559497 0.31800002 4279582746
0.11269433 0.086559497 0.31800002 4279975711
0.11372718 0.086559497 0.31800002 4280632104
0.11476005 0.086559497 0.31800002 4281288755
0.10101415 0.087317258 0.317 4280701999
0.10204377 0.087317258 0.317 4280307239
0.10339855 0.087592714 0.31800002 4280044580
0.10443141 0.087592714 0.31800002 4279453726
0.10546428 0.087592714 0.31800002 4279848484
0.10649713 0.087592714 0.31800002 4279650076
0.10786814 0.087868161 0.31900001 4279715867
0.10890425 0.087868161 0.31900001 4279321111
0.10959573 0.087592714 0.31800002 4279255318
0.1106286 0.087592714 0.31800002 4278861330
0.11166146 0.087592714 0.31800002 4278992916
0.11269433 0.087592714 0.31800002 4279321111
0.11372718 0.087592714 0.31800002 4279582746
0.11476005 0.087592714 0.31800002 4279844123
0.11542878 0.087317258 0.317 4280040991
0.1164584 0.087317258 0.317 4282077242
0.11748802 0.087317258 0.317 4285496427
0.11851764 0.087317258 0.317 4285364071
0.11917014 0.087041818 0.31600001 4285561450
0.10443141 0.088625923 0.31800002 4280241446
0.10546428 0.088625923 0.31800002 4280241446
0.10649713 0.088625923 0.31800002 4280043551
0.10786814 0.088904612 0.31900001 4280110112
0.10890425 0.088904612 0.31900001 4280044834
0.10959573 0.088625923 0.31800002 4279255834
0.1106286 0.088625923 0.31800002 4279124761
0.11166146 0.088625923 0.31800002 4278993175
0.11269433 0.088625923 0.31800002 4278992662
0.11372718 0.088625923 0.31800002 4279058455
0.11476005 0.088625923 0.31800002 4279320344
0.11542878 0.088347219 0.317 4279780125
0.1164584 0.088347219 0.317 4280238368
0.11748802 0.088347219 0.317 4280500256
0.11851764 0.088347219 0.317 4281024300
0.11954726 0.088347219 0.317 4284378459
0.12057687 0.088347219 0.317 4285890669
0.10959573 0.08965914 0.31800002 4279716385
0.1106286 0.08965914 0.31800002 4279913764
0.11166146 0.08965914 0.31800002 4279584799
0.11269433 0.08965914 0.31800002 4279321627
0.11372718 0.08965914 0.31800002 4279124248
0.11476005 0.08965914 0.31800002 4279190041
0.11542878 0.089377187 0.317 4279189271
0.1164584 0.089377187 0.317 4279648539
0.11748802 0.089377187 0.317 4279779611
0.11851764 0.089377187 0.317 4279976479
0.11954726 0.089377187 0.317 4280434979
0.12057687 0.089377187 0.317 4280431393
0.12160648 0.089377187 0.317 4282932297
0.11269433 0.090692356 0.31800002 4280044834
0.11372718 0.090692356 0.31800002 4279781662
0.11476005 0.090692356 0.31800002 4279453213
0.11579292 0.090692356 0.31800002 4279058455
0.11682578 0.090692356 0.31800002 4279321111
0.11748802 0.090407155 0.317 4279517207
0.11851764 0.090407155 0.317 4279583000
0.11954726 0.090407155 0.317 4279976477
0.12057687 0.090407155 0.317 4280107295
0.12160648 0.090407155 0.317 4280040989
0.1226361 0.090407155 0.317 4280499493
0.11304871 0.092014015 0.31900001 4280110114
0.11408481 0.092014015 0.31900001 4279912735
0.11476005 0.091725573 0.31800002 4279650846
0.11579292 0.091725573 0.31800002 4279453980
0.11682578 0.091725573 0.31800002 4279979811
0.11785865 0.091725573 0.31800002 4279517975
0.11889151 0.091725573 0.31800002 4279452182
0.11992438 0.091725573 0.31800002 4279386389
0.12095724 0.091725573 0.31800002 4279582746
0.12199011 0.091725573 0.31800002 4279451160
0.12302297 0.091725573 0.31800002 4280173086
0.11062965 0.09363386 0.32100001 4280895276
0.11167226 0.09363386 0.32100001 4281026862
0.11236374 0.09334217 0.32000002 4280764714
0.11304871 0.093050465 0.31900001 4281094190
0.11408481 0.093050465 0.31900001 4281028395
0.11512093 0.093050465 0.31900001 4280372516
0.11615704 0.093050465 0.31900001 4279846942
0.11719315 0.093050465 0.31900001 4279846942
0.11785865 0.092758775 0.31800002 4279913248
0.11889151 0.092758775 0.31800002 4279584029
0.11992438 0.092758775 0.31800002 4279320857
0.12095724 0.092758775 0.31800002 4279452445
0.12199011 0.092758775 0.31800002 4279189273
0.12302297 0.092758775 0.31800002 4279320346
0.11062965 0.094676822 0.32100001 4279580186
0.11167226 0.094676822 0.32100001 4281487153
0.11236374 0.094381884 0.32000002 4281421360
0.1134031 0.094381884 0.32000002 4280961323
0.11444245 0.094381884 0.32000002 4281092905
0.11512093 0.094086938 0.31900001 4281159722
0.11615704 0.094086938 0.31900001 4281028649
0.11719315 0.094086938 0.31900001 4280766247
0.11822927 0.094086938 0.31900001 4280372002
0.11926538 0.094086938 0.31900001 4279715104
0.11992438 0.093791991 0.31800002 4280044582
0.12095724 0.093791991 0.31800002 4279912996
0.12199011 0.093791991 0.31800002 4279649824
0.12302297 0.093791991 0.31800002 4279320861
0.11062965 0.095719784 0.32100001 4280303139
0.11167226 0.095719784 0.32100001 4280631590
0.11236374 0.095421597 0.32000002 4280500004
0.1134031 0.095421597 0.32000002 4280960296
0.11444245 0.095421597 0.32000002 4281289259
0.11548182 0.095421597 0.32000002 4281092907
0.11652118 0.095421597 0.32000002 4280961321
0.11719315 0.095123403 0.31900001 4281290286
0.11822927 0.095123403 0.31900001 4281290286
0.11926538 0.095123403 0.31900001 4280963887
0.1203015 0.095123403 0.31900001 4280372264
0.1213376 0.095123403 0.31900001 4279912998
0.12199011 0.094825208 0.31800002 4279847205
0.12302297 0.094825208 0.31800002 4279781410
0.1134031 0.096461311 0.32000002 4280565797
0.11444245 0.096461311 0.32000002 4281092395
0.11548182 0.096461311 0.32000002 4280895016
0.11652118 0.096461311 0.32000002 4281224495
0.11756054 0.096461311 0.32000002 4281617972
0.11822927 0.096159868 0.31900001 4281420593
0.11926538 0.096159868 0.31900001 4281223214
0.1203015 0.096159868 0.31900001 4281552692
0.1213376 0.096159868 0.31900001 4281028399
0.12237372 0.096159868 0.31900001 4280765995
0.12340983 0.096159868 0.31900001 4280569641
0.086127855 0.080030292 0.32372984 4294967295
0.086127855 0.080030292 0.32372984 4294901760
0.086318903 0.079569198 0.3237597 4294901760
0.08650995 0.079108097 0.32378954 4294901760
0.086700998 0.078647003 0.3238194 4294901760
0.086892046 0.078185908 0.32384923 4294901760
0.087083094 0.077724814 0.32387909 4294901760
0.087274142 0.077263713 0.32390895 4294901760
0.087465189 0.076802619 0.32393879 4294901760
0.087656237 0.076341525 0.32396865 4294901760
0.087847285 0.075880423 0.32399848 4294901760
0.088038333 0.075419329 0.32402834 4294901760
0.088229381 0.074958235 0.3240582 4294901760
0.088420428 0.074497133 0.32408804 4294901760
0.088611476 0.074036039 0.3241179 4294901760
0.088802524 0.073574945 0.32414773 4294901760
0.088993572 0.073113851 0.32417759 4294901760
0.089184619 0.07265275 0.32420745 4294901760
0.089375667 0.072191656 0.32423729 4294901760
0.089566715 0.071730562 0.32426715 4294901760
0.089757763 0.07126946 0.32429698 4294901760
0.089948811 0.070808366 0.32432684 4294901760
0.090139858 0.070347272 0.3243567 4294901760
0.090330906 0.069886178 0.32438654 4294901760
0.090521954 0.069425076 0.3244164 4294901760
0.090712994 0.068963982 0.32444623 4294901760
0.090904042 0.068502888 0.32447609 4294901760
0.09109509 0.068041787 0.32450595 4294901760
0.091286138 0.067580692 0.32453579 4294901760
0.091477185 0.067119598 0.32456565 4294901760
0.091668233 0.066658497 0.32459548 4294901760
0.091859281 0.066197403 0.32462534 4294901760
0.092050329 0.065736309 0.32465521 4294901760
0.092241377 0.065275215 0.32468504 4294901760
0.092432424 0.064814113 0.3247149 4294901760
0.092623472 0.064353019 0.32474473 4294901760
0.09281452 0.063891925 0.32477459 4294901760
0.093005568 0.063430823 0.32480446 4294901760
0.093196616 0.062969729 0.32483429 4294901760
0.093387663 0.062508635 0.32486415 4294901760
0.093578711 0.062047537 0.32489398 4294901760
0.093769759 0.06158644 0.32492384 4294901760
0.093960807 0.061125346 0.32495371 4294901760
0.094151855 0.060664251 0.32498354 4294901760
0.094342902 0.06020315 0.3250134 4294901760
0.09453395 0.059742056 0.32504323 4294901760
0.094724998 0.059280962 0.32507309 4294901760
0.094916046 0.058819864 0.32510296 4294901760
0.095107093 0.058358766 0.32513279 4294901760
0.095298141 0.057897672 0.32516265 4294901760
0.095489189 0.057436574 0.32519248 4294901760
0.095680237 0.056975476 0.32522234 4294901760
0.095871285 0.056514382 0.32525221 4294901760
0.096062332 0.056053288 0.32528204 4294901760
0.09625338 0.05559219 0.3253119 4294901760
0.096444428 0.055131093 0.32534173 4294901760
0.096635476 0.054669999 0.32537159 4294901760
0.096826524 0.054208901 0.32540146 4294901760
0.097017571 0.053747803 0.32543129 4294901760
0.097208619 0.053286709 0.32546115 4294901760
0.097399667 0.052825615 0.32549098 4294901760
0.097590715 0.052364513 0.32552084 4294901760
0.097781762 0.051903419 0.32555071 4294901760
0.09797281 0.051442325 0.32558054 4294901760
0.098163858 0.050981227 0.3256104 4294901760
0.098354906 0.05052013 0.32564023 4294901760
0.098545954 0.050059035 0.32567009 4294901760
0.098737001 0.049597934 0.32569996 4294901760
0.098928049 0.04913684 0.32572979 4294901760
0.099119097 0.048675746 0.32575965 4294901760
0.099310145 0.048214648 0.32578948 4294901760
0.099501193 0.047753554 0.32581934 4294901760
0.09969224 0.047292456 0.32584921 4294901760
0.099883288 0.046831358 0.32587904 4294901760
0.10007434 0.046370264 0.3259089 4294901760
0.10026538 0.045909166 0.32593873 4294901760
0.10045643 0.045448072 0.32596859 4294901760
0.10064748 0.044986974 0.32599846 4294901760
0.10083852 0.04452588 0.32602829 4294901760
0.10102957 0.044064783 0.32605815 4294901760
0.10122062 0.043603685 0.32608798 4294901760
0.10141166 0.043142591 0.32611784 4294901760
0.10160271 0.042681493 0.32614771 4294901760
0.10179376 0.042220399 0.32617754 4294901760
0.10198481 0.041759301 0.3262074 4294901760
0.10217585 0.041298207 0.32623723 4294901760
0.1023669 0.040837109 0.32626709 4294901760
0.10255795 0.040376011 0.32629696 4294901760
0.102749 0.039914917 0.32632679 4294901760
0.10294005 0.039453819 0.32635665 4294901760
0.10313109 0.038992725 0.32638648 4294901760
0.10332214 0.038531628 0.32641634 4294901760
0.10351319 0.03807053 0.32644621 4294901760
0.10370424 0.037609436 0.32647604 4294901760
0.10389528 0.037148338 0.3265059 4294901760
0.10408633 0.036687244 0.32653573 4294901760
0.10427738 0.036226146 0.32656559 4294901760
0.10446843 0.035765052 0.32659546 4294901760
0.10465948 0.03530395 0.32662529 4294901760
0.10485052 0.034842856 0.32665515 4294901760
0.10504157 0.034381758 0.32668498 4294901760
0.10523262 0.033920664 0.32671484 4294901760
0.086127855 0.080030292 0.32372984 4278255360
0.086581908 0.080211654 0.32362524 4278255360
0.087035969 0.080393009 0.32352063 4278255360
0.087490022 0.080574371 0.32341602 4278255360
0.087944075 0.080755726 0.32331142 4278255360
0.088398129 0.080937088 0.32320681 4278255360
0.088852189 0.081118442 0.32310221 4278255360
0.089306243 0.081299804 0.3229976 4278255360
0.089760296 0.081481159 0.32289299 4278255360
0.090214357 0.081662521 0.32278839 4278255360
0.09066841 0.081843875 0.32268378 4278255360
0.091122463 0.082025237 0.32257918 4278255360
0.091576517 0.082206592 0.32247457 4278255360
0.092030577 0.082387954 0.32236993 4278255360
0.092484631 0.082569309 0.32226533 4278255360
0.092938684 0.082750671 0.32216072 4278255360
0.093392745 0.082932025 0.32205611 4278255360
0.093846798 0.083113387 0.32195151 4278255360
0.094300851 0.083294742 0.3218469 4278255360
0.094754905 0.083476104 0.3217423 4278255360
0.095208965 0.083657458 0.32163769 4278255360
0.095663019 0.08383882 0.32153308 4278255360
0.096117072 0.084020175 0.32142848 4278255360
0.096571133 0.084201537 0.32132387 4278255360
0.097025186 0.084382892 0.32121927 4278255360
0.097479239 0.084564254 0.32111466 4278255360
0.097933292 0.084745616 0.32101005 4278255360
0.098387353 0.08492697 0.32090545 4278255360
0.098841406 0.085108332 0.32080084 4278255360
0.09929546 0.085289687 0.32069623 4278255360
0.09974952 0.085471049 0.32059163 4278255360
0.10020357 0.085652404 0.32048702 4278255360
0.10065763 0.085833766 0.32038242 4278255360
0.10111169 0.08601512 0.32027781 4278255360
0.10156574 0.086196482 0.3201732 4278255360
0.10201979 0.086377837 0.3200686 4278255360
0.10247386 0.086559199 0.31996399 4278255360
0.10292791 0.086740553 0.31985939 4278255360
0.10338196 0.086921915 0.31975475 4278255360
0.10383601 0.08710327 0.31965014 4278255360
0.10429008 0.087284632 0.31954554 4278255360
0.10474413 0.087465987 0.31944093 4278255360
0.10519818 0.087647349 0.31933632 4278255360
0.10565224 0.087828703 0.31923172 4278255360
0.1061063 0.088010065 0.31912711 4278255360
0.10656035 0.08819142 0.31902251 4278255360
0.1070144 0.088372782 0.3189179 4278255360
0.10746846 0.088554136 0.31881329 4278255360
0.10792252 0.088735498 0.31870869 4278255360
0.10837657 0.088916853 0.31860408 4278255360
0.10883063 0.089098215 0.31849948 4278255360
0.10928468 0.089279577 0.31839487 4278255360
0.10973874 0.089460932 0.31829026 4278255360
0.11019279 0.089642286 0.31818566 4278255360
0.11064685 0.089823648 0.31808105 4278255360
0.1111009 0.09000501 0.31797644 4278255360
0.11155496 0.090186365 0.31787184 4278255360
0.11200902 0.090367727 0.31776723 4278255360
0.11246307 0.090549082 0.31766263 4278255360
0.11291713 0.090730444 0.31755802 4278255360
0.11337118 0.090911798 0.31745341 4278255360
0.11382524 0.09109316 0.31734881 4278255360
0.11427929 0.091274515 0.3172442 4278255360
0.11473335 0.091455877 0.31713957 4278255360
0.11518741 0.091637231 0.31703496 4278255360
0.11564146 0.091818593 0.31693035 4278255360
0.11609551 0.091999948 0.31682575 4278255360
0.11654957 0.09218131 0.31672114 4278255360
0.11700363 0.092362665 0.31661654 4278255360
0.11745768 0.092544027 0.31651193 4278255360
0.11791173 0.092725381 0.31640732 4278255360
0.11836579 0.092906743 0.31630272 4278255360
0.11881985 0.093088105 0.31619811 4278255360
0.1192739 0.09326946 0.3160935 4278255360
0.11972795 0.093450814 0.3159889 4278255360
0.12018202 0.093632177 0.31588429 4278255360
0.12063607 0.093813539 0.31577969 4278255360
0.12109012 0.093994893 0.31567508 4278255360
0.12154418 0.094176248 0.31557047 4278255360
0.12199824 0.09435761 0.31546587 4278255360
0.12245229 0.094538972 0.31536126 4278255360
0.12290634 0.094720326 0.31525666 4278255360
0.1233604 0.094901688 0.31515205 4278255360
0.12381446 0.095083043 0.31504744 4278255360
0.12426851 0.095264405 0.31494284 4278255360
0.12472257 0.09544576 0.31483823 4278255360
0.12517662 0.095627122 0.31473362 4278255360
0.12563068 0.095808476 0.31462902 4278255360
0.12608473 0.095989838 0.31452438 4278255360
0.12653878 0.096171193 0.31441978 4278255360
0.12699285 0.096352555 0.31431517 4278255360
0.1274469 0.096533909 0.31421056 4278255360
0.12790096 0.096715271 0.31410596 4278255360
0.12835501 0.096896634 0.31400135 4278255360
0.12880906 0.097077988 0.31389675 4278255360
0.12926312 0.097259343 0.31379214 4278255360
0.12971717 0.097440705 0.31368753 4278255360
0.13017124 0.097622067 0.31358293 4278255360
0.13062529 0.097803421 0.31347832 4278255360
0.13107935 0.097984776 0.31337371 4278255360
0.1315334 0.098166138 0.31326911 4278255360
0.086127855 0.080030292 0.32372984 4278190335
0.08623983 0.08010783 0.32421094 4278190335
0.086351804 0.080185369 0.32469204 4278190335
0.086463779 0.080262907 0.32517311 4278190335
0.086575754 0.080340452 0.32565421 4278190335
0.086687729 0.080417991 0.32613531 4278190335
0.086799704 0.080495529 0.32661641 4278190335
0.086911678 0.080573067 0.32709748 4278190335
0.087023653 0.080650605 0.32757857 4278190335
0.087135628 0.080728143 0.32805967 4278190335
0.087247603 0.080805682 0.32854077 4278190335
0.087359577 0.080883227 0.32902184 4278190335
0.087471552 0.080960765 0.32950294 4278190335
0.087583527 0.081038304 0.32998404 4278190335
0.087695502 0.081115842 0.33046514 4278190335
0.087807477 0.08119338 0.33094621 4278190335
0.087919451 0.081270918 0.33142731 4278190335
0.088031426 0.081348456 0.3319084 4278190335
0.088143393 0.081426002 0.3323895 4278190335
0.088255368 0.08150354 0.33287057 4278190335
0.088367343 0.081581078 0.33335167 4278190335
0.088479318 0.081658617 0.33383277 4278190335
0.088591293 0.081736155 0.33431387 4278190335
0.088703267 0.081813693 0.33479494 4278190335
0.088815242 0.081891231 0.33527604 4278190335
0.088927217 0.081968769 0.33575714 4278190335
0.089039192 0.082046315 0.33623824 4278190335
0.089151166 0.082123853 0.33671933 4278190335
0.089263141 0.082201391 0.3372004 4278190335
0.089375116 0.08227893 0.3376815 4278190335
0.089487091 0.082356468 0.3381626 4278190335
0.089599065 0.082434006 0.3386437 4278190335
0.08971104 0.082511544 0.33912477 4278190335
0.089823015 0.08258909 0.33960587 4278190335
0.08993499 0.082666628 0.34008697 4278190335
0.090046965 0.082744166 0.34056807 4278190335
0.090158939 0.082821704 0.34104913 4278190335
0.090270914 0.082899243 0.34153023 4278190335
0.090382889 0.082976781 0.34201133 4278190335
0.090494864 0.083054319 0.34249243 4278190335
0.090606838 0.083131865 0.3429735 4278190335
0.090718813 0.083209403 0.3434546 4278190335
0.090830788 0.083286941 0.3439357 4278190335
0.090942763 0.083364479 0.3444168 4278190335
0.091054738 0.083442017 0.34489787 4278190335
0.091166712 0.083519556 0.34537897 4278190335
0.091278687 0.083597094 0.34586006 4278190335
0.091390662 0.083674639 0.34634116 4278190335
0.091502637 0.083752178 0.34682223 4278190335
0.091614611 0.083829716 0.34730333 4278190335
0.091726586 0.083907254 0.34778443 4278190335
0.091838554 0.083984792 0.34826553 4278190335
0.091950528 0.08406233 0.3487466 4278190335
0.092062503 0.084139869 0.3492277 4278190335
0.092174478 0.084217414 0.3497088 4278190335
0.092286453 0.084294952 0.35018989 4278190335
0.092398427 0.084372491 0.35067099 4278190335
0.092510402 0.084450029 0.35115206 4278190335
0.092622377 0.084527567 0.35163316 4278190335
0.092734352 0.084605105 0.35211426 4278190335
0.092846327 0.084682643 0.35259536 4278190335
0.092958301 0.084760189 0.35307643 4278190335
0.093070276 0.084837727 0.35355753 4278190335
0.093182251 0.084915265 0.35403863 4278190335
0.093294226 0.084992804 0.35451972 4278190335
0.0934062 0.085070342 0.35500079 4278190335
0.093518175 0.08514788 0.35548189 4278190335
0.09363015 0.085225418 0.35596299 4278190335
0.093742125 0.085302964 0.35644409 4278190335
0.0938541 0.085380502 0.35692516 4278190335
0.093966074 0.08545804 0.35740626 4278190335
0.094078049 0.085535578 0.35788736 4278190335
0.094190024 0.085613117 0.35836846 4278190335
0.094301999 0.085690655 0.35884953 4278190335
0.094413973 0.085768193 0.35933062 4278190335
0.094525948 0.085845739 0.35981172 4278190335
0.094637923 0.085923277 0.36029282 4278190335
0.094749898 0.086000815 0.36077392 4278190335
0.094861872 0.086078353 0.36125499 4278190335
0.094973847 0.086155891 0.36173609 4278190335
0.095085822 0.08623343 0.36221719 4278190335
0.095197797 0.086310968 0.36269829 4278190335
0.095309764 0.086388513 0.36317936 4278190335
0.095421746 0.086466052 0.36366045 4278190335
0.095533714 0.08654359 0.36414155 4278190335
0.095645696 0.086621128 0.36462265 4278190335
0.095757663 0.086698666 0.36510372 4278190335
0.095869638 0.086776204 0.36558482 4278190335
0.095981613 0.086853743 0.36606592 4278190335
0.096093588 0.086931281 0.36654702 4278190335
0.096205562 0.087008826 0.36702809 4278190335
0.096317537 0.087086365 0.36750919 4278190335
0.096429512 0.087163903 0.36799029 4278190335
0.096541487 0.087241441 0.36847138 4278190335
0.096653461 0.087318979 0.36895245 4278190335
0.096765436 0.087396517 0.36943355 4278190335
0.096877411 0.087474056 0.36991465 4278190335
0.096989386 0.087551601 0.37039575 4278190335
0.097101361 0.087629139 0.37087685 4278190335
0.097213335 0.087706678 0.37135792 4278190335
0.09732531 0.087784216 0.37183902 4278190335
0.086127855 0.080030292 0.32372984 4294967295
0.085456006 0.079565056 0.32084328 4294967295
0.084784158 0.079099819 0.31795675 4294967295
0.084112309 0.078634582 0.31507018 4294967295
0.083440468 0.078169353 0.31218365 4294967295
0.082768619 0.077704117 0.30929708 4294967295
0.08209677 0.07723888 0.30641055 4294967295
0.081424922 0.076773643 0.30352399 4294967295
0.080753073 0.076308407 0.30063742 4294967295
0.080081224 0.07584317 0.29775089 4294967295
0.079409376 0.075377934 0.29486433 4294967295
0.078737535 0.074912697 0.29197779 4294967295
0.078065686 0.074447468 0.28909123 4294967295
0.077393837 0.073982231 0.2862047 4294967295
0.076721989 0.073516995 0.28331813 4294967295
0.07605014 0.073051758 0.28043157 4294967295
0.075378291 0.072586522 0.27754503 4294967295
0.07470645 0.072121285 0.27465847 4294967295
0.074034601 0.071656048 0.27177191 4294967295
0.073362753 0.071190819 0.26888537 4294967295
0.072690904 0.070725583 0.26599881 4294967295
0.072019055 0.070260346 0.26311228 4294967295
0.071347207 0.069795109 0.26022571 4294967295
0.070675358 0.069329873 0.25733918 4294967295
0.070003517 0.068864636 0.25445262 4294967295
0.069331668 0.0683994 0.25156605 4294967295
0.06865982 0.06793417 0.24867952 4294967295
0.067987971 0.067468934 0.24579296 4294967295
0.067316122 0.067003697 0.24290642 4294967295
0.066644281 0.066538461 0.24001986 4294967295
0.065972432 0.066073224 0.23713331 4294967295
0.065300584 0.065607987 0.23424676 4294967295
0.064628735 0.065142751 0.23136021 4294967295
0.063956887 0.064677514 0.22847366 4294967295
0.063285038 0.064212278 0.2255871 4294967295
0.062613189 0.063747048 0.22270057 4294967295
0.061941341 0.063281812 0.219814 4294967295
0.061269496 0.062816575 0.21692745 4294967295
0.060597651 0.062351339 0.21404091 4294967295
0.059925802 0.061886102 0.21115436 4294967295
0.059253953 0.061420865 0.20826781 4294967295
0.058582105 0.060955632 0.20538124 4294967295
0.05791026 0.0604904 0.20249471 4294967295
0.057238411 0.060025163 0.19960815 4294967295
0.056566563 0.059559926 0.1967216 4294967295
0.055894718 0.05909469 0.19383505 4294967295
0.055222869 0.058629453 0.19094849 4294967295
0.05455102 0.058164217 0.18806195 4294967295
0.053879175 0.057698984 0.1851754 4294967295
0.053207327 0.057233747 0.18228884 4294967295
0.052535478 0.056768514 0.17940229 4294967295
0.051863629 0.056303278 0.17651574 4294967295
0.051191784 0.055838041 0.17362919 4294967295
0.050519936 0.055372804 0.17074265 4294967295
0.049848087 0.054907568 0.16785608 4294967295
0.049176238 0.054442331 0.16496953 4294967295
0.048504394 0.053977098 0.16208299 4294967295
0.047832545 0.053511865 0.15919644 4294967295
0.0471607 0.053046629 0.15630989 4294967295
0.046488851 0.052581392 0.15342334 4294967295
0.045817003 0.052116156 0.15053678 4294967295
0.045145154 0.051650919 0.14765023 4294967295
0.044473309 0.051185682 0.14476368 4294967295
0.04380146 0.05072045 0.14187713 4294967295
0.043129612 0.050255217 0.13899058 4294967295
0.042457767 0.04978998 0.13610403 4294967295
0.041785914 0.049324743 0.13321747 4294967295
0.04111407 0.048859507 0.13033092 4294967295
0.040442221 0.04839427 0.12744437 4294967295
0.039770376 0.047929037 0.12455782 4294967295
0.039098527 0.047463801 0.12167127 4294967295
0.038426682 0.046998564 0.11878473 4294967295
0.03775483 0.046533328 0.11589816 4294967295
0.037082985 0.046068091 0.11301161 4294967295
0.036411136 0.045602858 0.11012506 4294967295
0.035739288 0.045137621 0.10723852 4294967295
0.035067443 0.044672389 0.10435197 4294967295
0.034395594 0.044207152 0.10146542 4294967295
0.033723749 0.043741915 0.09857887 4294967295
0.033051897 0.043276679 0.095692307 4294967295
0.032380052 0.042811442 0.092805758 4294967295
0.031708203 0.042346209 0.089919209 4294967295
0.031036358 0.041880973 0.087032661 4294967295
0.03036451 0.04141574 0.084146112 4294967295
0.029692665 0.040950503 0.081259564 4294967295
0.029020812 0.040485267 0.078373 4294967295
0.028348967 0.04002003 0.075486451 4294967295
0.027677119 0.039554793 0.072599888 4294967295
0.02700527 0.039089561 0.069713354 4294967295
0.026333425 0.038624324 0.06682682 4294967295
0.025661577 0.038159091 0.063940257 4294967295
0.024989728 0.037693851 0.061053693 4294967295
0.024317879 0.037228618 0.05816713 4294967295
0.023646034 0.036763381 0.055280596 4294967295
0.022974186 0.036298145 0.052394062 4294967295
0.022302337 0.035832912 0.049507499 4294967295
0.021630496 0.035367675 0.046620965 4294967295
0.02095864 0.034902439 0.043734372 4294967295
0.020286798 0.034437202 0.040847838 4294967295
0.01961495 0.033971969 0.037961274 4294967295
0.018943101 0.033506732 0.035074741 4294967295
