# .PCD v0.7 - Point Cloud Data file format
VERSION 0.7
FIELDS x y z rgb
SIZE 4 4 4 4
TYPE F F F U
COUNT 1 1 1 1
WIDTH 1048
HEIGHT 1
VIEWPOINT 0 0 0 1 0 0 0
POINTS 1048
DATA ascii
-0.017641744 0.026394935 0.39100003 4282208837
-0.016329905 0.026327427 0.39000002 4282536773
-0.015024561 0.026259923 0.38900003 4283194187
-0.013761087 0.026259923 0.38900003 4282865736
-0.012465486 0.026192416 0.38800001 4282931531
-0.021671103 0.027948353 0.39500001 4282668877
-0.020284912 0.027806843 0.39300001 4282866256
-0.018960079 0.027736088 0.39200002 4282404933
-0.017596623 0.027594578 0.39000002 4282536519
-0.016288033 0.027523823 0.38900003 4282734152
-0.015024561 0.027523823 0.38900003 4282536771
-0.013725711 0.027453067 0.38800001 4283193926
-0.012465486 0.027453067 0.38800001 4282733888
-0.011176383 0.027382312 0.38700002 4283193935
-0.0098937741 0.027311556 0.38600001 4283061587
-0.021616241 0.029157747 0.39400002 4282470728
-0.020233298 0.029009737 0.39200002 4282733386
-0.018911714 0.028935732 0.39100003 4281483317
-0.017551504 0.028787725 0.38900003 4282404933
-0.016288033 0.028787725 0.38900003 4282997060
-0.014985936 0.028713718 0.38800001 4286416748
-0.013690336 0.028639715 0.38700002 4288455540
-0.012433359 0.028639715 0.38700002 4284573760
-0.011147503 0.028565709 0.38600001 4283589186
-0.0098937741 0.028565709 0.38600001 4282997058
-0.0086400453 0.028565709 0.38600001 4282405705
-0.0073863165 0.028565709 0.38600001 4283524438
-0.0061325878 0.028565709 0.38600001 4282536257
0.0025544823 0.027603652 0.37300003 4281880122
0.003765987 0.027603652 0.37300003 4280176166
0.0049774921 0.027603652 0.37300003 4279453726
0.0062055886 0.027677657 0.37400001 4279389471
0.0074203415 0.027677657 0.37400001 4279586850
-0.021506514 0.030283384 0.39200002 4282536007
-0.020181682 0.030206133 0.39100003 4282996556
-0.018863345 0.030128878 0.39000002 4282996556
-0.017551504 0.030051624 0.38900003 4283128396
-0.01624616 0.029974369 0.38800001 4280691221
-0.014947313 0.029897118 0.38700002 4280756235
-0.013690336 0.029897118 0.38700002 4280359681
-0.012433359 0.029897118 0.38700002 4279306752
-0.011147503 0.029819863 0.38600001 4278914560
-0.0098937741 0.029819863 0.38600001 4281547048
-0.0086176619 0.02974261 0.38500002 4282931527
-0.0073671811 0.02974261 0.38500002 4283195473
-0.0061167004 0.02974261 0.38500002 4282536519
-0.0048535801 0.029665355 0.384 4280496422
0.00013041566 0.028583806 0.37 4281220399
0.0013321763 0.028583806 0.37 4280827436
0.0025476338 0.028738312 0.37200001 4282342722
0.0037558903 0.028738312 0.37200001 4279059738
0.0049641472 0.028738312 0.37200001 4279126558
0.0061724037 0.028738312 0.37200001 4278732824
0.0073806606 0.028738312 0.37200001 4279061789
0.0085427398 0.028583806 0.37 4279193375
-0.021506514 0.031557031 0.39200002 4282602314
-0.020130066 0.031396028 0.39000002 4281285940
-0.018814977 0.031315524 0.38900003 4282866254
-0.017506385 0.031235021 0.38800001 4281484085
-0.01624616 0.031235021 0.38800001 4282270503
-0.014947313 0.031154519 0.38700002 4281875738
-0.013690336 0.031154519 0.38700002 4283059494
-0.012401231 0.031074015 0.38600001 4283717424
-0.011147503 0.031074015 0.38600001 4283914299
-0.0098681422 0.030993514 0.38500002 4283059508
-0.0086176619 0.030993514 0.38500002 4282009400
-0.0073671811 0.030993514 0.38500002 4282471750
-0.0061008125 0.03091301 0.384 4284313700
-0.0048409407 0.030832509 0.38300002 4280167971
-0.0022792493 0.029866477 0.37100002 4279576086
-0.0010742405 0.029866477 0.37100002 4280759846
0.00013041566 0.029785974 0.37 4280694055
0.0013321763 0.029785974 0.37 4280892716
0.0025407854 0.029866477 0.37100002 4280566313
0.0037457941 0.029866477 0.37100002 4278993947
0.0049508028 0.029866477 0.37100002 4278731802
0.0061558113 0.029866477 0.37100002 4278797593
0.0073608202 0.029866477 0.37100002 4278732054
0.0085427398 0.029785974 0.37 4278732054
-0.02007845 0.032579426 0.38900003 4282207556
-0.01876661 0.032495674 0.38800001 4282931279
-0.017506385 0.032495674 0.38800001 4280365090
-0.01620429 0.032411922 0.38700002 4282796072
-0.014947313 0.032411922 0.38700002 4282532385
-0.013654959 0.03232817 0.38600001 4284242485
-0.012401231 0.03232817 0.38600001 4283058211
-0.011118623 0.032244418 0.38500002 4282861348
-0.0098681422 0.032244418 0.38500002 4281808664
-0.0086176619 0.032244418 0.38500002 4280364055
-0.0073480452 0.032160666 0.384 4282340164
-0.006084925 0.032076914 0.38300002 4284380006
-0.0048283017 0.031993162 0.38200003 4280102432
-0.0035124326 0.03132315 0.37400001 4279311887
-0.0022853927 0.031155644 0.37200001 4280167196
-0.0010742405 0.031071894 0.37100002 4280299297
0.00013076815 0.031071894 0.37100002 4281154866
0.0013321763 0.03098814 0.37 4280893231
0.0025339369 0.03098814 0.37 4280434473
0.0037356974 0.03098814 0.37 4279058457
0.0049374583 0.03098814 0.37 4278796568
0.0061392183 0.03098814 0.37 4278928154
0.0073409793 0.03098814 0.37 4278862359
0.0085196523 0.03090439 0.36900002 4278862873
-0.020026835 0.033756323 0.38800001 4282339910
-0.01876661 0.033756323 0.38800001 4282997070
-0.017461266 0.033669323 0.38700002 4281351468
-0.01620429 0.033669323 0.38700002 4282664486
-0.014908689 0.033582322 0.38600001 4282400799
-0.013654959 0.033582322 0.38600001 4282729762
-0.012401231 0.033582322 0.38600001 4282466590
-0.011118623 0.033495322 0.38500002 4282466590
-0.0098681422 0.033495322 0.38500002 4280558597
-0.0085952785 0.033408321 0.384 4279968014
-0.0073289103 0.033321321 0.38300002 4282734150
-0.0060690381 0.033234321 0.38200003 4283787869
-0.0048156618 0.033147316 0.38100001 4280365350
-0.0035218243 0.032625314 0.37500003 4280298010
-0.0022915362 0.032451313 0.37300003 4280232217
-0.001077136 0.032364309 0.37200001 4280232991
0.00013076815 0.032277312 0.37100002 4280825901
0.0013321763 0.032190308 0.37 4280629805
0.0025339369 0.032190308 0.37 4280369450
0.0037356974 0.032190308 0.37 4279058459
0.0049241139 0.032103308 0.36900002 4278927384
0.0061226264 0.032103308 0.36900002 4279124763
0.0073012989 0.032016307 0.36800003 4279058970
0.0084965639 0.032016307 0.36800003 4278665496
-0.020026835 0.035016976 0.38800001 4282669388
-0.01876661 0.035016976 0.38800001 4283062349
-0.017461266 0.034926727 0.38700002 4281219112
-0.01620429 0.034926727 0.38700002 4282796842
-0.014908689 0.034836479 0.38600001 4283453998
-0.013654959 0.034836479 0.38600001 4282071832
-0.012401231 0.034836479 0.38600001 4282400799
-0.011118623 0.03474623 0.38500002 4282400799
-0.0098681422 0.03474623 0.38500002 4281084687
-0.0085952785 0.034655977 0.384 4280296979
-0.0073289103 0.034565728 0.38300002 4283194439
-0.0060690381 0.034475479 0.38200003 4281484085
-0.0048030224 0.034294982 0.38000003 4280299043
-0.0035312155 0.033933979 0.37600002 4280232989
-0.0022976797 0.033753481 0.37400001 4279903254
-0.001077136 0.033572979 0.37200001 4279969819
0.00013076815 0.03348273 0.37100002 4281023534
0.0013321763 0.033392478 0.37 4280565547
0.0025339369 0.033392478 0.37 4280436010
0.0037256009 0.033302229 0.36900002 4279058718
0.0049241139 0.033302229 0.36900002 4279058972
0.0061060339 0.03321198 0.36800003 4279124763
0.007281458 0.033121731 0.36700001 4278993175
0.008450387 0.033031482 0.36600003 4278796566
0.0095864823 0.032850981 0.36400002 4278862359
0.01073917 0.032760728 0.36300001 4278928152
0.011885363 0.032670479 0.36200002 4278664980
-0.021287059 0.036277629 0.38800001 4286157441
-0.020026835 0.036277629 0.38800001 4283787356
-0.018718243 0.036184132 0.38700002 4283062349
-0.017461266 0.036184132 0.38700002 4283588434
-0.01620429 0.036184132 0.38700002 4281677857
-0.014908689 0.036090631 0.38600001 4282269476
-0.013654959 0.036090631 0.38600001 4282861611
-0.012401231 0.036090631 0.38600001 4282730025
-0.011118623 0.035997134 0.38500002 4282336291
-0.0098681422 0.035997134 0.38500002 4282994221
-0.0085952785 0.035903633 0.384 4283390535
-0.0073289103 0.035810135 0.38300002 4283194439
-0.0060690381 0.035716638 0.38200003 4280298782
-0.0048030224 0.03552964 0.38000003 4280693542
-0.0035312155 0.035155643 0.37600002 4280298530
-0.0022976797 0.034968644 0.37400001 4279508244
-0.0010800316 0.034875143 0.37300003 4280627497
0.00013076815 0.034688145 0.37100002 4280891694
0.0013321763 0.034594648 0.37 4280631338
0.0025270884 0.034501147 0.36900002 4280042020
0.0037256009 0.034501147 0.36900002 4279058972
0.0049107694 0.034407649 0.36800003 4279058972
0.0061060339 0.034407649 0.36800003 4279058968
0.007281458 0.034314148 0.36700001 4278993175
0.008450387 0.034220651 0.36600003 4278796566
0.0095601454 0.033940151 0.36300001 4278862359
0.010709586 0.033846654 0.36200002 4278928152
0.011852531 0.033753157 0.36100003 4278599441
0.012952897 0.033566158 0.35900003 4278599441
0.014079601 0.033472657 0.35800001 4278467855
0.01519981 0.03337916 0.35700002 4278200326
0.016313521 0.033285659 0.35600001 4278594574
0.01746981 0.033285659 0.35600001 4278333712
0.018573778 0.033192161 0.35500002 4278467605
-0.021287059 0.037538283 0.38800001 4286288003
-0.020026835 0.037538283 0.38800001 4286682763
-0.018718243 0.037441533 0.38700002 4283260244
-0.017461266 0.037441533 0.38700002 4282733384
-0.01620429 0.037441533 0.38700002 4285955947
-0.014908689 0.037344784 0.38600001 4282731574
-0.013654959 0.037344784 0.38600001 4279967246
-0.012401231 0.037344784 0.38600001 4279309059
-0.011147503 0.037344784 0.38600001 4279111680
-0.0098681422 0.037248038 0.38500002 4281612841
-0.0086176619 0.037248038 0.38500002 4282208324
-0.0073480452 0.037151288 0.384 4285037677
-0.0060690381 0.036957793 0.38200003 4283062601
-0.0048030224 0.036764298 0.38000003 4281023020
-0.0035406069 0.036474049 0.377 4280364323
-0.0022976797 0.036183808 0.37400001 4279706393
-0.0010800316 0.036087058 0.37300003 4280364836
0.00013076815 0.035893563 0.37100002 4281154866
0.0013321763 0.035796814 0.37 4280434473
0.0025270884 0.035700068 0.36900002 4279976740
0.0037256009 0.035700068 0.36900002 4278928156
0.0049107694 0.035603318 0.36800003 4278928156
0.006089441 0.035506569 0.36700001 4278928154
0.007261618 0.035409823 0.36600003 4278796568
0.0084272977 0.035313074 0.36500001 4278862361
0.0095601454 0.035119578 0.36300001 4278928154
0.010709586 0.035022829 0.36200002 4278664982
0.011819698 0.034829333 0.36000001 4278796568
0.012952897 0.034732588 0.35900003 4278664980
0.014040273 0.034539089 0.35700002 4278664980
0.01519981 0.034539089 0.35700002 4278991381
0.016313521 0.034442339 0.35600001 4278792466
0.017420739 0.034345593 0.35500002 4278991896
0.018573778 0.034345593 0.35500002 4278532628
0.01967125 0.034248844 0.354 4278597906
0.020821042 0.034248844 0.354 4278925588
0.047465611 0.032797623 0.33900002 4279189793
0.048566684 0.032797623 0.33900002 4279320609
-0.021287059 0.038798932 0.38800001 4286353796
-0.020026835 0.038798932 0.38800001 4286749324
-0.018718243 0.038698938 0.38700002 4282536005
-0.017461266 0.038698938 0.38700002 4283588693
-0.01620429 0.038698938 0.38700002 4282930504
-0.014908689 0.038598936 0.38600001 4285365870
-0.013654959 0.038598936 0.38600001 4284049233
-0.012401231 0.038598936 0.38600001 4282404410
-0.011147503 0.038598936 0.38600001 4283127879
-0.0098937741 0.038598936 0.38600001 4282535742
-0.0086176619 0.038498942 0.38500002 4282799943
-0.0073671811 0.038498942 0.38500002 4283326287
-0.006084925 0.038298946 0.38300002 4281089325
-0.0048283017 0.038198952 0.38200003 4280957225
-0.0035406069 0.037698962 0.377 4279575574
-0.0023038234 0.03749897 0.37500003 4280232991
-0.0010800316 0.037298974 0.37300003 4280693288
0.00013076815 0.037098981 0.37100002 4281417524
0.0013321763 0.03699898 0.37 4280500268
0.0025270884 0.036898986 0.36900002 4280042533
0.0037155047 0.036798988 0.36800003 4278796570
0.0049107694 0.036798988 0.36800003 4278862363
0.006089441 0.03669899 0.36700001 4278665498
0.007261618 0.036598995 0.36600003 4278731291
0.0084042093 0.036398999 0.36400002 4278731291
0.0095601454 0.036299001 0.36300001 4278731291
0.010680002 0.036099009 0.36100003 4278731289
0.011819698 0.035999011 0.36000001 4278533910
0.012916816 0.035799015 0.35800001 4278467601
0.014040273 0.035699017 0.35700002 4278599187
0.015157233 0.035599019 0.35600001 4278197767
0.016313521 0.035599019 0.35600001 4278195716
0.017420739 0.035499025 0.35500002 4278794517
0.018573778 0.035499025 0.35500002 4278598419
0.01967125 0.035399023 0.354 4278328837
0.020821042 0.035399023 0.354 4278392582
0.021908771 0.035299029 0.35300002 4278392582
0.022990003 0.035199031 0.35200003 4278458375
0.024133302 0.035199031 0.35200003 4278196742
0.025204787 0.035099033 0.35100001 4278196742
0.026344836 0.035099033 0.35100001 4278197507
0.027484884 0.035099033 0.35100001 4279251736
0.029595383 0.034899037 0.34900001 4279057176
0.032806948 0.034699045 0.347 4278730005
0.033836212 0.034599047 0.34600002 4278730005
0.034960024 0.034599047 0.34600002 4278664980
0.035979543 0.034499053 0.34500003 4278599187
0.037100103 0.034499053 0.34500003 4278401808
0.038999125 0.034199059 0.34200001 4278599187
0.040859174 0.033899069 0.33900002 4278731287
0.041960247 0.033899069 0.33900002 4278533908
0.04306132 0.033899069 0.33900002 4278533908
0.044162393 0.033899069 0.33900002 4278533908
0.046364535 0.033899069 0.33900002 4278664980
0.047465611 0.033899069 0.33900002 4278796568
0.048566684 0.033899069 0.33900002 4278599189
0.049521249 0.033799071 0.33800003 4279125535
0.050619069 0.033799071 0.33800003 4279190558
0.051716894 0.033799071 0.33800003 4279782182
0.052658461 0.033699073 0.33700001 4279320348
0.053753033 0.033699073 0.33700001 4280898610
0.0541966 0.033299085 0.333 4284056674
0.055278186 0.033299085 0.333 4287807143
0.056359768 0.033299085 0.333 4287280795
0.057441354 0.033299085 0.333 4283465055
0.058698688 0.033399083 0.33400002 4280833083
0.059962511 0.033499077 0.33500001 4280240426
0.061232831 0.033599075 0.33600003 4279780645
0.062509649 0.033699073 0.33700001 4280109862
0.063604228 0.033699073 0.33700001 4280570161
-0.020026835 0.040059585 0.38800001 4286288003
-0.018718243 0.039956339 0.38700002 4287011213
-0.017461266 0.039956339 0.38700002 4282602312
-0.01620429 0.039956339 0.38700002 4282997070
-0.014947313 0.039956339 0.38700002 4282603082
-0.013690336 0.039956339 0.38700002 4282405703
-0.012433359 0.039956339 0.38700002 4282142531
-0.011176383 0.039956339 0.38700002 4282602566
-0.0099194059 0.039956339 0.38700002 4283063115
-0.0086400453 0.039853089 0.38600001 4283326287
-0.0073863165 0.039853089 0.38600001 4280562981
-0.0061167004 0.039749846 0.38500002 4281549874
-0.0048535801 0.039646596 0.384 4280957223
-0.0036063476 0.039646596 0.384 4280167709
-0.0023591151 0.039646596 0.384 4280627749
-0.0011118823 0.039646596 0.384 4281022766
0.00013535032 0.039646596 0.384 4281484085
0.0013285758 0.038097903 0.36900002 4280566059
0.0025202399 0.037994657 0.36800003 4279844895
0.0037155047 0.037994657 0.36800003 4278796568
0.004897425 0.03789141 0.36700001 4278796568
0.006089441 0.03789141 0.36700001 4278862875
0.0072417771 0.037684917 0.36500001 4278731289
0.0084042093 0.037581671 0.36400002 4278731289
0.0095601454 0.037478425 0.36300001 4278731289
0.010680002 0.037271935 0.36100003 4278731289
0.011819698 0.037168685 0.36000001 4278665496
0.012916816 0.036962193 0.35800001 4278533394
0.014040273 0.03685895 0.35700002 4278467601
0.015157233 0.0367557 0.35600001 4279514141
0.016313521 0.0367557 0.35600001 4279511576
0.017420739 0.036652453 0.35500002 4279123228
0.018573778 0.036652453 0.35500002 4279123998
0.01967125 0.036549207 0.354 4278654984
0.020821042 0.036549207 0.354 4278851851
0.021908771 0.03644596 0.35300002 4278785291
0.022990003 0.036342718 0.35200003 4278719498
0.024133302 0.036342718 0.35200003 4278851084
0.025204787 0.036239468 0.35100001 4278785804
0.026344836 0.036239468 0.35100001 4278785804
0.027406583 0.036136225 0.35000002 4278720011
0.028461827 0.036032975 0.34900001 4278654986
0.029595383 0.036032975 0.34900001 4278458377
0.030640885 0.035929732 0.34800002 4278196488
0.031679891 0.035826482 0.347 4278197001
0.032806948 0.035826482 0.347 4278197765
0.033836212 0.035723239 0.34600002 4278924568
0.034960024 0.035723239 0.34600002 4278398222
0.035979543 0.035619993 0.34500003 4278990613
0.037100103 0.035619993 0.34500003 4278728211
0.037999097 0.0354135 0.34300002 4279188762
0.038999125 0.03531025 0.34200001 4279058455
0.039992664 0.035207007 0.34100002 4278993175
0.040979702 0.035103757 0.34 4278664980
0.041960247 0.035000514 0.33900002 4278928154
0.04306132 0.035000514 0.33900002 4278862361
0.044162393 0.035000514 0.33900002 4278862361
0.045263465 0.035000514 0.33900002 4278862359
0.046364535 0.035000514 0.33900002 4278664980
0.047465611 0.035000514 0.33900002 4278599187
0.048423421 0.034897268 0.33800003 4278599187
0.049521249 0.034897268 0.33800003 4278664980
0.050619069 0.034897268 0.33800003 4278796566
0.051563885 0.034794021 0.33700001 4278796566
0.052658461 0.034794021 0.33700001 4278796566
0.053593531 0.034690775 0.33600003 4278796050
0.054359358 0.034484282 0.33400002 4279453467
0.055278186 0.034381032 0.333 4279519010
0.056359768 0.034381032 0.333 4279649061
0.057441354 0.034381032 0.333 4280109358
0.058698688 0.034484282 0.33400002 4281951046
0.059962511 0.034587529 0.33500001 4285832831
0.061232831 0.034690775 0.33600003 4286951052
0.062509649 0.034794021 0.33700001 4283860326
0.063604228 0.034794021 0.33700001 4280307504
0.064890787 0.034897268 0.33800003 4279780906
0.065988615 0.034897268 0.33800003 4279846953
0.067086443 0.034897268 0.33800003 4280175916
0.068184264 0.034897268 0.33800003 4280175403
0.069282085 0.034897268 0.33800003 4280502571
-0.020026835 0.041320235 0.38800001 4286353796
-0.018718243 0.04121374 0.38700002 4286288003
-0.017461266 0.04121374 0.38700002 4286354050
-0.01620429 0.04121374 0.38700002 4285694319
-0.014947313 0.04121374 0.38700002 4284180567
-0.013690336 0.04121374 0.38700002 4284509532
-0.012465486 0.041320235 0.38800001 4283194701
-0.011205262 0.041320235 0.38800001 4284248159
-0.0099450368 0.041320235 0.38800001 4282800713
-0.008684813 0.041320235 0.38800001 4280298782
-0.0074245878 0.041320235 0.38800001 4282536773
-0.0061484752 0.04121374 0.38700002 4280628262
-0.0048662201 0.04100075 0.38500002 4280167711
-0.0036251307 0.041107245 0.38600001 4280562469
-0.002371402 0.041107245 0.38600001 4280759848
-0.0011176734 0.041107245 0.38600001 4280693801
0.00012971072 0.03919033 0.36800003 4280628776
0.0013285758 0.039296821 0.36900002 4280762924
0.0025202399 0.03919033 0.36800003 4279976994
0.0037155047 0.03919033 0.36800003 4279058970
0.004897425 0.039083831 0.36700001 4278993947
0.006072849 0.038977336 0.36600003 4278467601
0.0072417771 0.038870838 0.36500001 4278796566
0.0084042093 0.038764346 0.36400002 4278796566
0.0095338086 0.038551353 0.36200002 4278862359
0.010680002 0.038444858 0.36100003 4278862361
0.011786866 0.038231868 0.35900003 4278664982
0.012916816 0.03812537 0.35800001 4278599189
0.014040273 0.038018879 0.35700002 4278664212
0.015157233 0.03791238 0.35600001 4278988051
0.016313521 0.03791238 0.35600001 4279183892
0.017420739 0.037805885 0.35500002 4278991642
0.018521456 0.03769939 0.354 4278333712
0.01967125 0.03769939 0.354 4278720779
0.020762227 0.037592895 0.35300002 4279707674
0.021908771 0.037592895 0.35300002 4278785293
0.022990003 0.0374864 0.35200003 4279048463
0.024133302 0.0374864 0.35200003 4278982670
0.025204787 0.037379902 0.35100001 4278851084
0.026344836 0.037379902 0.35100001 4278851084
0.027406583 0.037273411 0.35000002 4278785291
0.028461827 0.037166912 0.34900001 4278719498
0.029595383 0.037166912 0.34900001 4278785291
0.030640885 0.037060417 0.34800002 4278720011
0.03177119 0.037060417 0.34800002 4278720011
0.032806948 0.036953922 0.347 4278195203
0.033836212 0.036847427 0.34600002 4279384092
0.034960024 0.036847427 0.34600002 4279385119
0.035979543 0.036740933 0.34500003 4278792468
0.036992565 0.036634434 0.34400001 4278198020
0.037999097 0.036527943 0.34300002 4278196224
0.038999125 0.036421444 0.34200001 4278196480
0.039992664 0.036314949 0.34100002 4278195968
0.040979702 0.036208451 0.34 4278196736
0.042084023 0.036208451 0.34 4278725392
0.04306132 0.03610196 0.33900002 4279121685
0.044162393 0.03610196 0.33900002 4279516957
0.045263465 0.03610196 0.33900002 4279386652
0.046364535 0.03610196 0.33900002 4279058457
0.047465611 0.03610196 0.33900002 4279124248
0.048423421 0.035995465 0.33800003 4279058455
0.049521249 0.035995465 0.33800003 4278993177
0.050619069 0.035995465 0.33800003 4278795798
0.051563885 0.035888966 0.33700001 4278795796
0.052658461 0.035888966 0.33700001 4278795796
0.053593531 0.035782471 0.33600003 4278796050
0.054359358 0.035569482 0.33400002 4278730257
0.055444192 0.035569482 0.33400002 4278796566
0.056529019 0.035569482 0.33400002 4278664982
0.057613853 0.035569482 0.33400002 4279124765
0.058698688 0.035569482 0.33400002 4279124765
0.059962511 0.035675976 0.33500001 4279124252
0.061232831 0.035782471 0.33600003 4279715619
0.062324163 0.035782471 0.33600003 4279517725
0.063604228 0.035888966 0.33700001 4280569391
0.0646988 0.035888966 0.33700001 4284122731
0.065988615 0.035995465 0.33800003 4285834368
0.067086443 0.035995465 0.33800003 4282808921
0.067982532 0.035888966 0.33700001 4279519269
0.069077104 0.035888966 0.33700001 4279717670
0.069963463 0.035782471 0.33600003 4279585312
0.071054794 0.035782471 0.33600003 4279650594
-0.017461266 0.042471144 0.38700002 4285893247
-0.01620429 0.042471144 0.38700002 4282468920
-0.014947313 0.042471144 0.38700002 4281546530
-0.013690336 0.042471144 0.38700002 4282138665
-0.012529741 0.042800374 0.39000002 4284179020
-0.011263021 0.042800374 0.39000002 4282733375
-0.0099962996 0.042800374 0.39000002 4281284905
-0.0087071965 0.042690631 0.38900003 4282207031
-0.0074437237 0.042690631 0.38900003 4280957477
-0.0061802506 0.042690631 0.38900003 4280825639
-0.0048788595 0.042361397 0.38600001 4280496676
-0.0036251307 0.042361397 0.38600001 4280167198
-0.002371402 0.042361397 0.38600001 4280562469
-0.001065554 0.040385999 0.36800003 4280694055
0.00012971072 0.040385999 0.36800003 4281023532
0.0013249754 0.040385999 0.36800003 4280368680
0.0025202399 0.040385999 0.36800003 4279517473
0.0037155047 0.040385999 0.36800003 4278928154
0.004897425 0.040276252 0.36700001 4278993947
0.006072849 0.040166508 0.36600003 4278599189
0.0072417771 0.040056761 0.36500001 4278664982
0.0084042093 0.039947018 0.36400002 4278599189
0.0095338086 0.039727528 0.36200002 4278664982
0.010650417 0.039508041 0.36000001 4278533396
0.011786866 0.039398298 0.35900003 4278664982
0.012916816 0.039288551 0.35800001 4278862361
0.014040273 0.039178807 0.35700002 4278664982
0.015157233 0.03906906 0.35600001 4278195968
0.016267698 0.038959317 0.35500002 4279184146
0.017420739 0.038959317 0.35500002 4278991896
0.018521456 0.03884957 0.354 4278925590
0.01967125 0.03884957 0.354 4278786572
0.020762227 0.038739827 0.35300002 4279840030
0.021908771 0.038739827 0.35300002 4279511578
0.022990003 0.038630083 0.35200003 4278392584
0.024133302 0.038630083 0.35200003 4280102432
0.025204787 0.038520336 0.35100001 4279444502
0.026344836 0.038520336 0.35100001 4279313686
0.027406583 0.038410597 0.35000002 4279643934
0.028461827 0.038300849 0.34900001 4278918928
0.029595383 0.038300849 0.34900001 4279905053
0.030640885 0.038191106 0.34800002 4279444502
0.03177119 0.038191106 0.34800002 4278720525
0.032806948 0.038081359 0.347 4278525451
0.033836212 0.037971616 0.34600002 4278792468
0.034960024 0.037971616 0.34600002 4278466835
0.035979543 0.037861872 0.34500003 4278730007
0.037100103 0.037861872 0.34500003 4279386654
0.03810988 0.037752125 0.34400001 4278991129
0.03911316 0.037642382 0.34300002 4279450910
0.040109944 0.037532635 0.34200001 4279582496
0.041100234 0.037422892 0.34100002 4279910947
0.042084023 0.037313148 0.34 4279187226
0.043188341 0.037313148 0.34 4279185943
0.044162393 0.037203405 0.33900002 4278527500
0.045263465 0.037203405 0.33900002 4278196994
0.046364535 0.037203405 0.33900002 4278195712
0.047465611 0.037203405 0.33900002 4278196480
0.048423421 0.037093662 0.33800003 4278197249
0.049521249 0.037093662 0.33800003 4278922769
0.050469305 0.036983915 0.33700001 4279450650
0.051563885 0.036983915 0.33700001 4279057174
0.052502207 0.036874171 0.33600003 4278860308
0.053593531 0.036874171 0.33600003 4278795283
0.054522108 0.036764424 0.33500001 4278729490
0.055444192 0.036654681 0.33400002 4278795796
0.056529019 0.036654681 0.33400002 4278795796
0.057613853 0.036654681 0.33400002 4278928152
0.058698688 0.036654681 0.33400002 4278664980
0.059962511 0.036764424 0.33500001 4278796566
0.06105059 0.036764424 0.33500001 4278598419
0.062324163 0.036874171 0.33600003 4278927384
0.06341549 0.036874171 0.33600003 4279058457
0.0646988 0.036983915 0.33700001 4279320859
0.06579338 0.036983915 0.33700001 4279452443
0.06688796 0.036983915 0.33700001 4278795796
0.0677808 0.036874171 0.33600003 4279059740
0.068872131 0.036874171 0.33600003 4279521318
0.069963463 0.036874171 0.33600003 4279126558
0.070843317 0.036764424 0.33500001 4279126558
-0.01620429 0.043728545 0.38700002 4281349669
-0.014947313 0.043728545 0.38700002 4282137640
-0.0037002631 0.044519503 0.39400002 4282404156
-0.0024205504 0.044519503 0.39400002 4282930500
-0.001065554 0.041581668 0.36800003 4283194699
0.00012971072 0.041581668 0.36800003 4281879093
0.0013249754 0.041581668 0.36800003 4280961071
0.0025202399 0.041581668 0.36800003 4279123482
0.003705408 0.041468672 0.36700001 4278928154
0.004897425 0.041468672 0.36700001 4278993947
0.006072849 0.041355681 0.36600003 4278862361
0.0072417771 0.041242685 0.36500001 4278862361
0.0084042093 0.04112969 0.36400002 4278928154
0.0095338086 0.040903702 0.36200002 4278796568
0.010650417 0.040677715 0.36000001 4278796568
0.011786866 0.040564723 0.35900003 4278664982
0.012916816 0.040451728 0.35800001 4278796568
0.014040273 0.040338736 0.35700002 4278533398
0.015157233 0.040225741 0.35600001 4278196740
0.016267698 0.040112749 0.35500002 4279579164
0.017420739 0.040112749 0.35500002 4278531345
0.018521456 0.039999753 0.354 4278859797
0.01967125 0.039999753 0.354 4278720265
0.020762227 0.039886761 0.35300002 4279445272
0.021908771 0.039886761 0.35300002 4278722832
0.022990003 0.03977377 0.35200003 4278788625
0.024133302 0.03977377 0.35200003 4279906336
0.025204787 0.039660774 0.35100001 4278260998
0.02626978 0.039547779 0.35000002 4279511576
0.027406583 0.039547779 0.35000002 4278262279
0.028461827 0.039434783 0.34900001 4278393095
0.029595383 0.039434783 0.34900001 4278196488
0.030640885 0.039321791 0.34800002 4279710238
0.03177119 0.039321791 0.34800002 4278590474
0.032806948 0.039208796 0.347 4278196999
0.033934005 0.039208796 0.347 4279056152
0.034960024 0.039095804 0.34600002 4278466833
0.035979543 0.038982812 0.34500003 4278203150
0.037100103 0.038982812 0.34500003 4278197761
0.03810988 0.038869817 0.34400001 4278199816
0.03911316 0.038756825 0.34300002 4278926103
0.040109944 0.03864383 0.34200001 4278991896
0.041100234 0.038530838 0.34100002 4278991896
0.0422078 0.038530838 0.34100002 4279320861
0.043188341 0.038417842 0.34 4279255068
0.044292662 0.038417842 0.34 4279255068
0.045263465 0.03830485 0.33900002 4279320348
0.046364535 0.03830485 0.33900002 4279582750
0.047465611 0.03830485 0.33900002 4279516443
0.048423421 0.038191859 0.33800003 4280239653
0.049521249 0.038191859 0.33800003 4279515930
0.050469305 0.038078863 0.33700001 4278725644
0.051563885 0.038078863 0.33700001 4278196992
0.052502207 0.037965868 0.33600003 4278195712
0.053593531 0.037965868 0.33600003 4278194944
0.054522108 0.037852872 0.33500001 4278196225
0.055444192 0.03773988 0.33400002 4278197506
0.056529019 0.03773988 0.33400002 4278397197
0.057613853 0.03773988 0.33400002 4279187738
0.058698688 0.03773988 0.33400002 4278859797
0.059962511 0.037852872 0.33500001 4278991896
0.06105059 0.037852872 0.33500001 4278926103
0.062138673 0.037852872 0.33500001 4278992664
0.06341549 0.037965868 0.33600003 4278795798
0.064506821 0.037965868 0.33600003 4278795798
0.065598145 0.037965868 0.33600003 4278927382
0.066689476 0.037965868 0.33600003 4278993175
0.067579068 0.037852872 0.33500001 4278796566
0.068667151 0.037852872 0.33500001 4278731287
0.069755234 0.037852872 0.33500001 4278665494
0.070631847 0.03773988 0.33400002 4278731541
0.071501955 0.037626885 0.333 4279059992
0.072365575 0.037513893 0.33200002 4279386654
-0.001065554 0.042777337 0.36800003 4282269999
0.00012971072 0.042777337 0.36800003 4279770635
0.0013249754 0.042777337 0.36800003 4280698667
0.0025202399 0.042777337 0.36800003 4279320348
0.003705408 0.042661093 0.36700001 4278862363
0.004897425 0.042661093 0.36700001 4278731291
0.006072849 0.042544849 0.36600003 4278731291
0.0072417771 0.042428605 0.36500001 4278665498
0.0084042093 0.042312365 0.36400002 4278665498
0.0095338086 0.042079877 0.36200002 4278665498
0.010650417 0.041847393 0.36000001 4278468117
0.011754032 0.041614905 0.35800001 4278533910
0.012880736 0.041498665 0.35700002 4278468117
0.014000944 0.041382421 0.35600001 4278664982
0.015157233 0.041382421 0.35600001 4278195459
0.016267698 0.041266181 0.35500002 4278327302
0.017420739 0.041266181 0.35500002 4278794004
0.018521456 0.041149933 0.354 4278661134
0.01967125 0.041149933 0.354 4278851597
0.020762227 0.041033693 0.35300002 4278851084
0.021908771 0.041033693 0.35300002 4278654732
0.022990003 0.040917452 0.35200003 4278654732
0.024133302 0.040917452 0.35200003 4278589963
0.025204787 0.040801208 0.35100001 4278654986
0.02626978 0.040684965 0.35000002 4279444500
0.027406583 0.040684965 0.35000002 4278589193
0.028461827 0.040568721 0.34900001 4278919439
0.029595383 0.040568721 0.34900001 4279381785
0.030640885 0.04045248 0.34800002 4278657550
0.03177119 0.04045248 0.34800002 4278524168
0.032806948 0.040336236 0.347 4278921234
0.033934005 0.040336236 0.347 4278990359
0.034960024 0.040219992 0.34600002 4279254301
0.036083832 0.040219992 0.34600002 4278198024
0.037100103 0.040103752 0.34500003 4278589963
0.03810988 0.039987508 0.34400001 4278524683
0.03911316 0.039871268 0.34300002 4279515424
0.040227227 0.039871268 0.34300002 4278199820
0.041220758 0.03975502 0.34200001 4278989847
0.0422078 0.03963878 0.34100002 4278199816
0.04331537 0.03963878 0.34100002 4278925590
0.044292662 0.039522536 0.34 4278728211
0.045396984 0.039522536 0.34 4278199303
0.046364535 0.039406296 0.33900002 4279582496
0.047465611 0.039406296 0.33900002 4279255066
0.048423421 0.039290052 0.33800003 4279189273
0.049521249 0.039290052 0.33800003 4279320859
0.050469305 0.039173808 0.33700001 4279189273
0.051563885 0.039173808 0.33700001 4279254553
0.052502207 0.039057568 0.33600003 4279319576
0.053593531 0.039057568 0.33600003 4279319064
0.054522108 0.038941324 0.33500001 4279581982
0.055610187 0.038941324 0.33500001 4279120920
0.056529019 0.03882508 0.33400002 4279383322
0.057613853 0.03882508 0.33400002 4279053590
0.058698688 0.03882508 0.33400002 4278592269
0.059783522 0.03882508 0.33400002 4278196997
0.06105059 0.038941324 0.33500001 4278194688
0.062138673 0.038941324 0.33500001 4278198274
0.063226752 0.038941324 0.33500001 4279057174
0.064314827 0.038941324 0.33500001 4278795798
0.06540291 0.038941324 0.33500001 4279058968
0.066490993 0.038941324 0.33500001 4278795796
0.067377344 0.03882508 0.33400002 4278795796
0.068462178 0.03882508 0.33400002 4278927382
0.069547012 0.03882508 0.33400002 4278730003
0.07042037 0.038708836 0.333 4278795796
0.071287237 0.038592596 0.33200002 4278795796
0.072365575 0.038592596 0.33200002 4278992664
0.073222697 0.038476355 0.33100003 4279187990
-0.001065554 0.043973006 0.36800003 4280822550
0.00012971072 0.043973006 0.36800003 4280230413
0.0013249754 0.043973006 0.36800003 4280830253
0.0025133914 0.04385351 0.36700001 4279320348
0.003705408 0.04385351 0.36700001 4278797082
0.004897425 0.04385351 0.36700001 4278731289
0.006072849 0.043734021 0.36600003 4278600216
0.0072417771 0.043614529 0.36500001 4278600216
0.0084042093 0.043495037 0.36400002 4278468117
0.0095338086 0.043256052 0.36200002 4278533910
0.010620832 0.042897578 0.35900003 4278270738
0.011754032 0.042778086 0.35800001 4278336531
0.012880736 0.042658594 0.35700002 4278533396
0.014000944 0.042539101 0.35600001 4278401810
0.015157233 0.042539101 0.35600001 4279252504
0.016267698 0.042419609 0.35500002 4279186713
0.017420739 0.042419609 0.35500002 4278991896
0.018521456 0.042300116 0.354 4278924820
0.01967125 0.042300116 0.354 4278917644
0.020762227 0.042180628 0.35300002 4278917390
0.021908771 0.042180628 0.35300002 4278916877
0.022990003 0.042061135 0.35200003 4278851086
0.024133302 0.042061135 0.35200003 4278851086
0.025204787 0.041941643 0.35100001 4278719500
0.02626978 0.04182215 0.35000002 4278719498
0.027406583 0.04182215 0.35000002 4278719498
0.028461827 0.041702658 0.34900001 4278654986
0.029595383 0.041702658 0.34900001 4278194691
0.030640885 0.041583166 0.34800002 4278194947
0.03177119 0.041583166 0.34800002 4278524170
0.032806948 0.041463673 0.347 4279052820
0.033934005 0.041463673 0.347 4279122199
0.034960024 0.041344184 0.34600002 4278396943
0.036083832 0.041344184 0.34600002 4278458890
0.037100103 0.041224692 0.34500003 4278917390
0.03810988 0.0411052 0.34400001 4278917390
0.039227191 0.0411052 0.34400001 4279841824
0.040227227 0.040985707 0.34300002 4278987797
0.041220758 0.040866215 0.34200001 4279121945
0.042331576 0.040866215 0.34200001 4279647775
0.04331537 0.040746726 0.34100002 4279185943
0.044422939 0.040746726 0.34100002 4278791955
0.045396984 0.04062723 0.34 4279319326
0.046501301 0.04062723 0.34 4278397710
0.047465611 0.040507741 0.33900002 4280109862
0.048423421 0.040388249 0.33800003 4279255066
0.049521249 0.040388249 0.33800003 4278927384
0.050469305 0.040268756 0.33700001 4279058970
0.051563885 0.040268756 0.33700001 4278992662
0.052502207 0.040149264 0.33600003 4278795283
0.053593531 0.040149264 0.33600003 4279124248
0.054522108 0.040029772 0.33500001 4279058457
0.055610187 0.040029772 0.33500001 4278861078
0.056698266 0.040029772 0.33500001 4279058457
0.057613853 0.039910283 0.33400002 4279189275
0.058698688 0.039910283 0.33400002 4279254555
0.059783522 0.039910283 0.33400002 4279385371
0.060868353 0.039910283 0.33400002 4279648029
0.061953187 0.039910283 0.33400002 4278196994
0.063038021 0.039910283 0.33400002 4279055379
0.064122848 0.039910283 0.33400002 4278992664
0.065207683 0.039910283 0.33400002 4279058457
0.066292517 0.039910283 0.33400002 4278993177
0.067377344 0.039910283 0.33400002 4278730005
0.068257198 0.039790787 0.333 4278795798
0.069338784 0.039790787 0.333 4278664212
0.0702089 0.039671298 0.33200002 4278269454
0.071287237 0.039671298 0.33200002 4278664212
0.072147608 0.039551806 0.33100003 4278860310
0.073222697 0.039551806 0.33100003 4279189021
0.00012971072 0.045168675 0.36800003 4280427792
0.0013213749 0.045045931 0.36700001 4281553460
0.0025133914 0.045045931 0.36700001 4279056404
0.003705408 0.045045931 0.36700001 4278993177
0.004897425 0.045045931 0.36700001 4278927384
0.006072849 0.044923194 0.36600003 4278665496
0.007261618 0.044923194 0.36600003 4278533910
0.0084272977 0.044800449 0.36500001 4278468117
0.0096128182 0.044800449 0.36500001 4278468117
0.010620832 0.044064008 0.35900003 4278664982
0.011754032 0.043941263 0.35800001 4278599189
0.012880736 0.043818522 0.35700002 4278533396
0.014000944 0.043695781 0.35600001 4278201092
0.015114657 0.043573041 0.35500002 4278528013
0.016267698 0.043573041 0.35500002 4278265611
0.017420739 0.043573041 0.35500002 4278663701
0.018521456 0.0434503 0.354 4278729494
0.01967125 0.0434503 0.354 4279318299
0.020762227 0.043327559 0.35300002 4278921234
0.021908771 0.043327559 0.35300002 4278524683
0.022990003 0.043204818 0.35200003 4278589963
0.024133302 0.043204818 0.35200003 4278851597
0.025204787 0.043082077 0.35100001 4278851597
0.026344836 0.043082077 0.35100001 4278851084
0.027406583 0.042959336 0.35000002 4278851084
0.028461827 0.042836595 0.34900001 4278785291
0.029595383 0.042836595 0.34900001 4278785291
0.030640885 0.042713854 0.34800002 4278851597
0.03177119 0.042713854 0.34800002 4278785804
0.032806948 0.04259111 0.347 4279053074
0.033934005 0.04259111 0.347 4279122199
0.034960024 0.042468373 0.34600002 4279187224
0.036083832 0.042468373 0.34600002 4278524683
0.037100103 0.042345632 0.34500003 4278654732
0.038220666 0.042345632 0.34500003 4279114769
0.039227191 0.042222891 0.34400001 4279184406
0.040227227 0.04210015 0.34300002 4278264587
0.04134129 0.04210015 0.34300002 4279450398
0.042331576 0.041977406 0.34200001 4278200074
0.043442391 0.041977406 0.34200001 4279055127
0.044422939 0.041854668 0.34100002 4279120920
0.045396984 0.041731924 0.34 4279188762
0.046501301 0.041731924 0.34 4279187738
0.047465611 0.041609187 0.33900002 4279055638
0.048566684 0.041609187 0.33900002 4278198273
0.049521249 0.041486446 0.33800003 4278528011
0.050469305 0.041363701 0.33700001 4278725392
0.051563885 0.041363701 0.33700001 4278200069
0.052502207 0.041240964 0.33600003 4278924820
0.053593531 0.041240964 0.33600003 4278199044
0.054522108 0.041118219 0.33500001 4278398222
0.055610187 0.041118219 0.33500001 4278926103
0.056698266 0.041118219 0.33500001 4278794517
0.057786349 0.041118219 0.33500001 4279189275
0.058698688 0.040995482 0.33400002 4279189275
0.059783522 0.040995482 0.33400002 4279123482
0.060868353 0.040995482 0.33400002 4278991383
0.061953187 0.040995482 0.33400002 4278194688
0.063038021 0.040995482 0.33400002 4279580186
0.064122848 0.040995482 0.33400002 4279057176
0.065207683 0.040995482 0.33400002 4279123480
0.066094033 0.040872738 0.333 4279124250
0.067175612 0.040872738 0.333 4278861078
0.068257198 0.040872738 0.333 4278795287
0.069130562 0.040750001 0.33200002 4278729494
0.0702089 0.040750001 0.33200002 4278597908
0.071072519 0.04062726 0.33100003 4278597908
0.072147608 0.04062726 0.33100003 4278728724
0.073222697 0.04062726 0.33100003 4278793750
0.074073315 0.040504515 0.33000001 4280039203
0.00012935825 0.046238355 0.36700001 4280033034
0.0013213749 0.046238355 0.36700001 4279840530
0.0025133914 0.046238355 0.36700001 4279777817
0.003705408 0.046238355 0.36700001 4279123480
0.004897425 0.046238355 0.36700001 4279123480
0.006072849 0.046112366 0.36600003 4278795798
0.007261618 0.046112366 0.36600003 4278599189
0.0084272977 0.045986373 0.36500001 4278401810
0.0096128182 0.045986373 0.36500001 4278203917
0.010591248 0.045104444 0.35800001 4278533396
0.0117212 0.044978455 0.35700002 4278401810
0.012880736 0.044978455 0.35700002 4278730003
0.014000944 0.044852462 0.35600001 4279058968
0.015114657 0.044726476 0.35500002 4279254555
0.016267698 0.044726476 0.35500002 4278990359
0.017420739 0.044726476 0.35500002 4278795287
0.018521456 0.044600483 0.354 4278861080
0.01967125 0.044600483 0.354 4278992664
0.020762227 0.044474494 0.35300002 4278992664
0.021908771 0.044474494 0.35300002 4278991896
0.022990003 0.044348504 0.35200003 4278991896
0.024133302 0.044348504 0.35200003 4279188508
0.025204787 0.044222515 0.35100001 4279581984
0.026344836 0.044222515 0.35100001 4279448348
0.027406583 0.044096526 0.35000002 4278921234
0.028543381 0.044096526 0.35000002 4278787853
0.029595383 0.043970533 0.34900001 4278391812
0.030728932 0.043970533 0.34900001 4278720265
0.03177119 0.043844543 0.34800002 4278851851
0.032806948 0.04371855 0.347 4278987027
0.033934005 0.04371855 0.347 4278726675
0.034960024 0.043592565 0.34600002 4279516189
0.036083832 0.043592565 0.34600002 4279317529
0.037100103 0.043466575 0.34500003 4278658064
0.038220666 0.043466575 0.34500003 4279250199
0.039227191 0.043340582 0.34400001 4279253017
0.040227227 0.043214593 0.34300002 4279318810
0.04134129 0.043214593 0.34300002 4278792466
0.042331576 0.043088604 0.34200001 4279055638
0.043442391 0.043088604 0.34200001 4279187478
0.044422939 0.042962614 0.34100002 4278200329
0.045396984 0.042836621 0.34 4278594576
0.046501301 0.042836621 0.34 4278594576
0.047465611 0.042710632 0.33900002 4278990359
0.048566684 0.042710632 0.33900002 4278199815
0.049521249 0.042584646 0.33800003 4279118353
0.050469305 0.042458653 0.33700001 4278328837
0.051563885 0.042458653 0.33700001 4278198791
0.052502207 0.042332664 0.33600003 4278196480
0.053593531 0.042332664 0.33600003 4279252506
0.054522108 0.042206671 0.33500001 4278857748
0.055610187 0.042206671 0.33500001 4279252504
0.056698266 0.042206671 0.33500001 4278265609
0.057786349 0.042206671 0.33500001 4278462988
0.058698688 0.042080685 0.33400002 4279056152
0.059783522 0.042080685 0.33400002 4278926103
0.060868353 0.042080685 0.33400002 4278991894
0.061953187 0.042080685 0.33400002 4278195712
0.063038021 0.042080685 0.33400002 4279778078
0.064122848 0.042080685 0.33400002 4279386139
0.065012448 0.041954692 0.333 4279254553
0.066094033 0.041954692 0.333 4279123480
0.066973887 0.041828703 0.33200002 4278992664
0.068052225 0.041828703 0.33200002 4278861078
0.069130562 0.041828703 0.33200002 4278597906
0.06999743 0.041702714 0.33100003 4278794515
0.071072519 0.041702714 0.33100003 4278794002
0.072147608 0.041702714 0.33100003 4278727441
0.073222697 0.041702714 0.33100003 4278924820
0.074073315 0.041576721 0.33000001 4279315482
0.0013213749 0.047430772 0.36700001 4280165647
0.0025133914 0.047430772 0.36700001 4279970319
0.003705408 0.047430772 0.36700001 4279842838
0.004897425 0.047430772 0.36700001 4279186961
0.006072849 0.047301535 0.36600003 4278925586
0.007261618 0.047301535 0.36600003 4278991892
0.0084272977 0.047172293 0.36500001 4278795283
0.0096128182 0.047172293 0.36500001 4278795283
0.010591248 0.046267621 0.35800001 4278729490
0.0117212 0.046138383 0.35700002 4278663697
0.012880736 0.046138383 0.35700002 4278597904
0.014000944 0.046009142 0.35600001 4278729490
0.015114657 0.045879904 0.35500002 4278861076
0.016267698 0.045879904 0.35500002 4278729492
0.017420739 0.045879904 0.35500002 4278861078
0.018521456 0.045750663 0.354 4278598419
0.01967125 0.045750663 0.354 4278795798
0.020762227 0.045621425 0.35300002 4278795798
0.021908771 0.045621425 0.35300002 4278664982
0.022990003 0.045492187 0.35200003 4278599189
0.024133302 0.045492187 0.35200003 4278795285
0.025204787 0.045362946 0.35100001 4278729492
0.026344836 0.045362946 0.35100001 4278861078
0.027406583 0.045233708 0.35000002 4278991894
0.028543381 0.045233708 0.35000002 4279254553
0.029595383 0.045104466 0.34900001 4278925588
0.030728932 0.045104466 0.34900001 4279253017
0.03177119 0.044975229 0.34800002 4279581469
0.032901496 0.044975229 0.34800002 4279055640
0.033934005 0.044845987 0.347 4278397710
0.035061061 0.044845987 0.347 4278198535
0.036083832 0.044716749 0.34600002 4278196482
0.037207641 0.044716749 0.34600002 4278195456
0.038220666 0.044587512 0.34500003 4278196740
0.039227191 0.04445827 0.34400001 4278196740
0.040344507 0.04445827 0.34400001 4278527500
0.04134129 0.044329032 0.34300002 4279383320
0.042331576 0.044199791 0.34200001 4279384090
0.043442391 0.044199791 0.34200001 4279187992
0.044422939 0.044070557 0.34100002 4278990613
0.045396984 0.043941315 0.34 4279516957
0.046501301 0.043941315 0.34 4279188762
0.047465611 0.043812077 0.33900002 4279123482
0.048566684 0.043812077 0.33900002 4278991896
0.049521249 0.04368284 0.33800003 4279253271
0.050469305 0.043553598 0.33700001 4279186965
0.051563885 0.043553598 0.33700001 4279449113
0.052502207 0.04342436 0.33600003 4278857746
0.053593531 0.04342436 0.33600003 4278330632
0.054522108 0.043295119 0.33500001 4278397195
0.055610187 0.043295119 0.33500001 4279449115
0.056698266 0.043295119 0.33500001 4278528013
0.057786349 0.043295119 0.33500001 4278198535
0.058698688 0.043165881 0.33400002 4278198532
0.059783522 0.043165881 0.33400002 4279123480
0.060868353 0.043165881 0.33400002 4278926101
0.061953187 0.043165881 0.33400002 4278195200
0.063038021 0.043165881 0.33400002 4279581469
0.063930862 0.04303664 0.333 4279123482
0.065012448 0.04303664 0.333 4279189273
0.066094033 0.04303664 0.333 4279189273
0.066973887 0.042907402 0.33200002 4279189273
0.068052225 0.042907402 0.33200002 4278992664
0.069130562 0.042907402 0.33200002 4278861078
0.06999743 0.042778164 0.33100003 4278926101
0.071072519 0.042778164 0.33100003 4278728209
0.072147608 0.042778164 0.33100003 4278924818
0.073222697 0.042778164 0.33100003 4279319578
0.074073315 0.042648923 0.33000001 4278988312
0.0025133914 0.048623197 0.36700001 4279968268
0.003705408 0.048623197 0.36700001 4279311621
0.0048840805 0.048490711 0.36600003 4278851840
0.006072849 0.048490711 0.36600003 4278656258
0.0072417771 0.048358217 0.36500001 4279184398
0.0084042093 0.048225731 0.36400002 4278922510
0.0095074726 0.047828268 0.36100003 4278923793
0.010620832 0.047563292 0.35900003 4278924818
0.011754032 0.047430802 0.35800001 4279122197
0.012880736 0.047298312 0.35700002 4278859795
0.014000944 0.047165822 0.35600001 4278925588
0.015114657 0.047033336 0.35500002 4278794515
0.016267698 0.047033336 0.35500002 4278991894
0.017420739 0.047033336 0.35500002 4278861080
0.018521456 0.046900846 0.354 4278730007
0.01967125 0.046900846 0.354 4278795798
0.020762227 0.04676836 0.35300002 4278664212
0.021908771 0.04676836 0.35300002 4278730005
0.022990003 0.046635874 0.35200003 4278795798
0.024133302 0.046635874 0.35200003 4278993177
0.025204787 0.046503384 0.35100001 4278466833
0.026344836 0.046503384 0.35100001 4278729492
0.027406583 0.046370897 0.35000002 4278795285
0.028543381 0.046370897 0.35000002 4278861078
0.029595383 0.046238404 0.34900001 4278795285
0.030728932 0.046238404 0.34900001 4278795285
0.03177119 0.046105918 0.34800002 4278795285
0.032901496 0.046105918 0.34800002 4278795798
0.033934005 0.045973428 0.347 4278597906
0.035061061 0.045973428 0.347 4278860308
0.036083832 0.045840941 0.34600002 4278991894
0.037207641 0.045840941 0.34600002 4278662931
0.038220666 0.045708455 0.34500003 4279188508
0.039227191 0.045575965 0.34400001 4279253019
0.040344507 0.045575965 0.34400001 4278858261
0.04134129 0.045443479 0.34300002 4278330121
0.042331576 0.045310989 0.34200001 4278197764
0.043442391 0.045310989 0.34200001 4278196225
0.044422939 0.045178503 0.34100002 4278195456
0.045396984 0.045046009 0.34 4278196997
0.046501301 0.045046009 0.34 4278198281
0.047465611 0.044913523 0.33900002 4278462988
0.048423421 0.044781037 0.33800003 4278726673
0.049521249 0.044781037 0.33800003 4279187992
0.050469305 0.044648547 0.33700001 4279319578
0.051563885 0.044648547 0.33700001 4279187992
0.052502207 0.044516061 0.33600003 4279056406
0.053593531 0.044516061 0.33600003 4279319578
0.054522108 0.044383571 0.33500001 4279253271
0.055610187 0.044383571 0.33500001 4279187478
0.056698266 0.044383571 0.33500001 4279253017
0.057786349 0.044383571 0.33500001 4278198278
0.058698688 0.044251084 0.33400002 4278528013
0.059783522 0.044251084 0.33400002 4278926101
0.060868353 0.044251084 0.33400002 4279255066
0.061953187 0.044251084 0.33400002 4278198023
0.063038021 0.044251084 0.33400002 4279121433
0.063930862 0.044118594 0.333 4279058459
0.065012448 0.044118594 0.333 4279190043
0.066094033 0.044118594 0.333 4278992664
0.066973887 0.043986108 0.33200002 4279058457
0.068052225 0.043986108 0.33200002 4278729492
0.069130562 0.043986108 0.33200002 4279058457
0.06999743 0.043853618 0.33100003 4278860308
0.071072519 0.043853618 0.33100003 4278794002
0.072147608 0.043853618 0.33100003 4278859795
0.073222697 0.043853618 0.33100003 4278991383
0.074073315 0.043721128 0.33000001 4278594324
0.0095074726 0.049001191 0.36100003 4278983174
0.010620832 0.048729714 0.35900003 4278853383
0.011754032 0.048593976 0.35800001 4278788103
0.012880736 0.048458241 0.35700002 4279315217
0.014000944 0.048322503 0.35600001 4279315730
0.015114657 0.048186764 0.35500002 4279186711
0.016267698 0.048186764 0.35500002 4279055640
0.017420739 0.048186764 0.35500002 4279779623
0.018573778 0.048186764 0.35500002 4279648037
0.019726818 0.048186764 0.35500002 4279451682
0.020879859 0.048186764 0.35500002 4279649061
0.021908771 0.047915291 0.35300002 4279254814
0.022990003 0.047779553 0.35200003 4279123228
0.024133302 0.047779553 0.35200003 4278992412
0.025276598 0.047779553 0.35200003 4278992412
0.026344836 0.047643814 0.35100001 4278992666
0.027484884 0.047643814 0.35100001 4278861080
0.028543381 0.04750808 0.35000002 4278795287
0.029680183 0.04750808 0.35000002 4278729494
0.030728932 0.047372341 0.34900001 4278795287
