# .PCD v0.7 - Point Cloud Data file format
VERSION 0.7
FIELDS x y z rgb
SIZE 4 4 4 4
TYPE F F F U
COUNT 1 1 1 1
WIDTH 862
HEIGHT 1
VIEWPOINT 0 0 0 1 0 0 0
POINTS 862
DATA ascii
-0.020871572 0.041745644 0.59000003 4279387935
-0.018955249 0.041745644 0.59000003 4279060765
-0.01701005 0.04167489 0.58900005 4278667290
-0.020765444 0.043440599 0.58700001 4279256351
-0.01882674 0.043366596 0.58600003 4278731800
-0.016894532 0.043292593 0.58500004 4278863386
-0.014943186 0.04314458 0.583 4278731802
-0.0071792542 0.042034514 0.56800002 4278928416
-0.0053156065 0.041886508 0.56600004 4278994209
-0.0034710935 0.041812502 0.565 4278994209
-0.022594776 0.045193318 0.58500004 4280302887
-0.020694694 0.045193318 0.58500004 4279059740
-0.018762486 0.045116063 0.58400005 4278797595
-0.016807893 0.044961553 0.58200002 4278929181
-0.014866293 0.04480705 0.58000004 4278731802
-0.012915301 0.044575289 0.57700002 4278862875
-0.010983797 0.044343524 0.574 4278862875
-0.0090400064 0.04395726 0.56900001 4278731291
-0.0071666148 0.043802753 0.56700003 4278862875
-0.0053062146 0.043648243 0.565 4278201608
-0.0034649502 0.043570992 0.56400001 4279124252
-0.0016301817 0.043493737 0.56300002 4278731291
0.00019809084 0.043416485 0.56200004 4278797084
-0.022556152 0.04701354 0.58400005 4280172073
-0.020623941 0.046933033 0.583 4278993949
-0.018698229 0.046852533 0.58200002 4278929183
-0.016750135 0.046691529 0.58000004 4278797597
-0.014815029 0.046530519 0.57800001 4278862875
-0.012870535 0.046289016 0.57500005 4278797082
-0.010945526 0.046047505 0.57200003 4278797082
-0.0090400064 0.045805998 0.56900001 4278862875
-0.0071539758 0.045564491 0.56600004 4279257119
-0.0053062146 0.045483984 0.565 4278200583
-0.0034649502 0.045403484 0.56400001 4279188762
-0.0016272862 0.045242481 0.56200004 4278927386
0.00019773837 0.045161977 0.56100005 4279058972
0.0020126663 0.04500097 0.55900002 4278927386
0.0038214508 0.044920471 0.55800003 4278796570
0.0056237392 0.044839967 0.55700004 4278797082
0.0074195326 0.044759467 0.55600005 4278665496
0.011051151 0.044839967 0.55700004 4278731289
-0.022517527 0.048827261 0.583 4280106791
-0.020588567 0.048743509 0.58200002 4278796830
-0.018666102 0.048659757 0.58100003 4278863136
-0.016721256 0.048492257 0.57900006 4278797597
-0.014763767 0.048241001 0.57600003 4278928670
-0.012825768 0.047989741 0.57300001 4278862875
-0.010926391 0.047822241 0.57100004 4278862875
-0.009024119 0.047570985 0.56800002 4278862875
-0.0071539758 0.047403485 0.56600004 4278467603
-0.0052968231 0.047235977 0.56400001 4278197248
-0.0034588068 0.047152225 0.56300002 4279450910
-0.0016272862 0.047068477 0.56200004 4278198020
0.00019773837 0.046984725 0.56100005 4278394376
0.0020162668 0.046900969 0.56 4278328072
0.0038214508 0.046733469 0.55800003 4278196484
0.0056237392 0.046649717 0.55700004 4278198276
0.0074195326 0.046565969 0.55600005 4278462218
0.0092420131 0.046649717 0.55700004 4279055892
0.011051151 0.046649717 0.55700004 4279516957
0.014616751 0.046482213 0.55500001 4278927384
0.016419392 0.046482213 0.55500001 4278796568
-0.022517527 0.050721485 0.583 4279844389
-0.020588567 0.050634485 0.58200002 4278928670
-0.018633975 0.050460488 0.58000004 4278797597
-0.016692374 0.050286483 0.57800001 4278731804
-0.014763767 0.050112482 0.57600003 4278797597
-0.012825768 0.049851477 0.57300001 4278928670
-0.010907256 0.04959048 0.57000005 4278797084
-0.009024119 0.049416475 0.56800002 4278862875
-0.0071539758 0.049242474 0.56600004 4279125533
-0.0052968231 0.04906847 0.56400001 4278594576
-0.0034588068 0.048981469 0.56300002 4279516703
-0.0016272862 0.048894472 0.56200004 4278195712
0.00019773837 0.048807472 0.56100005 4279050514
0.0020162668 0.048720468 0.56 4278983951
0.0038282992 0.048633467 0.55900002 4278852365
0.0056338357 0.048546467 0.55800003 4278654986
0.0074328766 0.048459467 0.55700004 4278786572
0.0092420131 0.048459467 0.55700004 4278655756
0.011051151 0.048459467 0.55700004 4278655756
0.012860288 0.048459467 0.55700004 4278197513
0.014643088 0.048372466 0.55600005 4278595089
0.016419392 0.048285462 0.55500001 4278198016
0.018222034 0.048285462 0.55500001 4278196480
0.019988593 0.048198462 0.55400002 4278198532
0.02170933 0.048024464 0.55200005 4278727189
0.023459649 0.047937457 0.551 4278991383
0.025203474 0.04785046 0.55000001 4279386652
0.026940804 0.047763459 0.54900002 4279058457
0.028723955 0.047763459 0.54900002 4278730005
0.03045154 0.047676459 0.54800004 4278533394
0.032231446 0.047676459 0.54800004 4278796566
0.034011353 0.047676459 0.54800004 4278468115
0.035791256 0.047676459 0.54800004 4278533908
0.037571162 0.047676459 0.54800004 4278731287
0.039351065 0.047676459 0.54800004 4278862873
0.041130971 0.047676459 0.54800004 4278862875
0.042910878 0.047676459 0.54800004 4279126047
0.04460923 0.047589459 0.54700005 4279850283
0.046385888 0.047589459 0.54700005 4280113457
0.04825059 0.047676459 0.54800004 4279784238
-0.022517527 0.052615717 0.583 4279910949
-0.020588567 0.052525468 0.58200002 4278928154
-0.018633975 0.05234497 0.58000004 4278797082
-0.016692374 0.052164465 0.57800001 4278797082
-0.014738135 0.051893719 0.57500005 4278994461
-0.012825768 0.051713217 0.57300001 4278928668
-0.010907256 0.05144247 0.57000005 4278862875
-0.009024119 0.051261969 0.56800002 4278862875
-0.0071539758 0.051081471 0.56600004 4279717670
-0.0052968231 0.050900966 0.56400001 4278858259
-0.0034588068 0.050810717 0.56300002 4279649059
-0.0016272862 0.050720468 0.56200004 4278460169
0.00019773837 0.050630223 0.56100005 4279709725
0.0020162668 0.050539967 0.56 4278787853
0.0038282992 0.050449718 0.55900002 4279840541
0.0056338357 0.050359469 0.55800003 4278984719
0.0074462211 0.050359469 0.55800003 4279971614
0.0092420131 0.05026922 0.55700004 4279840030
0.011051151 0.05026922 0.55700004 4279642651
0.012860288 0.05026922 0.55700004 4278195457
0.014643088 0.050178971 0.55600005 4279318810
0.016448978 0.050178971 0.55600005 4279451164
0.018222034 0.050088719 0.55500001 4279451164
0.019988593 0.04999847 0.55400002 4279319324
0.021748658 0.049908221 0.55300003 4279319324
0.023502227 0.049817972 0.55200005 4279319324
0.025249299 0.049727716 0.551 4279187738
0.026989875 0.049637467 0.55000001 4279253017
0.028723955 0.049547222 0.54900002 4278199301
0.030507108 0.049547222 0.54900002 4278197504
0.032290261 0.049547222 0.54900002 4278199046
0.034073416 0.049547222 0.54900002 4278199044
0.035856567 0.049547222 0.54900002 4278595855
0.037571162 0.049456973 0.54800004 4278926103
0.039351065 0.049456973 0.54800004 4279058459
0.041130971 0.049456973 0.54800004 4279256349
0.042910878 0.049456973 0.54800004 4279058968
0.04469078 0.049456973 0.54800004 4278862359
0.046470687 0.049456973 0.54800004 4278928152
0.04825059 0.049456973 0.54800004 4278863388
0.050121788 0.049547222 0.54900002 4278731802
0.051999487 0.049637467 0.55000001 4279717932
0.053785887 0.049637467 0.55000001 4279322662
-0.022517527 0.054509941 0.583 4279779877
-0.020588567 0.054416444 0.58200002 4278928154
-0.018633975 0.054229449 0.58000004 4278862361
-0.016692374 0.054042447 0.57800001 4278797082
-0.014763767 0.053855453 0.57600003 4279126047
-0.012825768 0.053574953 0.57300001 4278862875
-0.010907256 0.053294457 0.57000005 4278994461
-0.009024119 0.053107459 0.56800002 4278993947
-0.0071539758 0.052920461 0.56600004 4278202122
-0.0052968231 0.052733462 0.56400001 4278198536
-0.0034588068 0.052639961 0.56300002 4279779875
-0.0016272862 0.052546464 0.56200004 4278591755
0.00019773837 0.052452967 0.56100005 4278788623
0.0020162668 0.052359466 0.56 4278787853
0.0038282992 0.052265964 0.55900002 4278919441
0.0056338357 0.052172467 0.55800003 4279379479
0.0074462211 0.052172467 0.55800003 4278721549
0.0092420131 0.05207897 0.55700004 4280104483
0.011051151 0.05207897 0.55700004 4278195972
0.012860288 0.05207897 0.55700004 4278460683
0.014643088 0.051985472 0.55600005 4279648543
0.016448978 0.051985472 0.55600005 4278526982
0.018222034 0.051891968 0.55500001 4278657035
0.020024672 0.051891968 0.55500001 4279187226
0.021787986 0.05179847 0.55400002 4278529810
0.023544803 0.051704973 0.55300003 4278398224
0.025295125 0.051611476 0.55200005 4278727187
0.027038947 0.051517971 0.551 4278199044
0.028776275 0.051424474 0.55000001 4279056922
0.030562676 0.051424474 0.55000001 4279189021
0.032349076 0.051424474 0.55000001 4279189275
0.034073416 0.051330976 0.54900002 4279124252
0.035856567 0.051330976 0.54900002 4279584033
0.037639722 0.051330976 0.54900002 4279714852
0.039422873 0.051330976 0.54900002 4279385887
0.041206025 0.051330976 0.54900002 4278661394
0.042989179 0.051330976 0.54900002 4278200072
0.044772331 0.051330976 0.54900002 4278859797
0.046555486 0.051330976 0.54900002 4278927382
0.048338637 0.051330976 0.54900002 4278731289
0.050213084 0.051424474 0.55000001 4278731289
0.051999487 0.051424474 0.55000001 4278862877
0.053883679 0.051517971 0.551 4279191588
0.055673331 0.051517971 0.551 4278530843
-0.022556152 0.056500919 0.58400005 4279649059
-0.020623941 0.05640417 0.583 4278993947
-0.018666102 0.056210674 0.58100003 4278797082
-0.016721256 0.056017179 0.57900006 4278797082
-0.014763767 0.055726934 0.57600003 4278797082
-0.01284815 0.055533435 0.574 4278797084
-0.010926391 0.055243194 0.57100004 4278862877
-0.009024119 0.054952946 0.56800002 4278928156
-0.0071539758 0.054759454 0.56600004 4278663701
-0.0052968231 0.054565955 0.56400001 4279385119
-0.0034588068 0.054469205 0.56300002 4279582496
-0.0016243907 0.054275714 0.56100005 4278196740
0.00019738587 0.054178961 0.56 4278458888
0.0020162668 0.054178961 0.56 4278852111
0.0038282992 0.054082215 0.55900002 4278983183
0.0056338357 0.053985465 0.55800003 4278917390
0.0074462211 0.053985465 0.55800003 4278720525
0.0092420131 0.05388872 0.55700004 4278524170
0.011051151 0.05388872 0.55700004 4278524170
0.012860288 0.05388872 0.55700004 4279580188
0.014643088 0.053791974 0.55600005 4279780129
0.016448978 0.053791974 0.55600005 4278590472
0.018254867 0.053791974 0.55600005 4278918926
0.020024672 0.053695221 0.55500001 4279251736
0.021787986 0.053598475 0.55400002 4279713570
0.023544803 0.053501725 0.55300003 4278200845
0.025295125 0.053404979 0.55200005 4279055640
0.027088022 0.053404979 0.55200005 4279845670
0.028828595 0.053308226 0.551 4279187740
0.030618245 0.053308226 0.551 4278859543
0.032349076 0.05321148 0.55000001 4278727957
0.034135479 0.05321148 0.55000001 4279188508
0.035921879 0.05321148 0.55000001 4278200071
0.037708282 0.05321148 0.55000001 4278991129
0.039494682 0.05321148 0.55000001 4279385887
0.041281082 0.05321148 0.55000001 4279255068
0.043067485 0.05321148 0.55000001 4279847205
0.044853885 0.05321148 0.55000001 4278200329
0.046640288 0.05321148 0.55000001 4278992664
0.048426684 0.05321148 0.55000001 4278796568
0.050304379 0.053308226 0.551 4278862361
0.052094031 0.053308226 0.551 4278862361
0.053981476 0.053404979 0.55200005 4278862363
0.055774376 0.053404979 0.55200005 4278597402
0.057671558 0.053501725 0.55300003 4285766022
-0.022594776 0.058498394 0.58500004 4279778850
-0.020659318 0.058398396 0.58400005 4279124765
-0.018730355 0.058298394 0.583 4278928156
-0.016750135 0.057998408 0.58000004 4278401812
-0.014815029 0.057798408 0.57800001 4278928156
-0.012870535 0.057498422 0.57500005 4278862363
-0.010945526 0.057198428 0.57200003 4278927902
-0.0090558939 0.056998435 0.57000005 4278927902
-0.0071539758 0.056598444 0.56600004 4279058718
-0.0052968231 0.056398448 0.56400001 4278465300
-0.0034526633 0.056198455 0.56200004 4279189021
-0.0016243907 0.056098457 0.56100005 4279124252
0.00019738587 0.055998456 0.56 4279058459
0.0020126663 0.055898461 0.55900002 4279715106
0.0038214508 0.055798467 0.55800003 4279977254
0.0056338357 0.055798467 0.55800003 4280107815
0.0074328766 0.055698469 0.55700004 4279251736
0.0092420131 0.055698469 0.55700004 4278592271
0.011051151 0.055698469 0.55700004 4278263308
0.012860288 0.055698469 0.55700004 4279185689
0.014643088 0.055598475 0.55600005 4278594576
0.016448978 0.055598475 0.55600005 4279447832
0.018254867 0.055598475 0.55600005 4280434213
0.020024672 0.055498473 0.55500001 4279778850
0.021827314 0.055498473 0.55500001 4279713570
0.02358738 0.055398475 0.55400002 4279910949
0.025340948 0.055298481 0.55300003 4278726675
0.027088022 0.055198483 0.55200005 4278200074
0.028880918 0.055198483 0.55200005 4279319326
0.030618245 0.055098481 0.551 4278200591
0.032407895 0.055098481 0.551 4278199563
0.034197543 0.055098481 0.551 4278265870
0.035987191 0.055098481 0.551 4279186972
0.037776843 0.055098481 0.551 4278791955
0.039566487 0.055098481 0.551 4279120920
0.041356135 0.055098481 0.551 4279320861
0.043145787 0.055098481 0.551 4279321631
0.044935435 0.055098481 0.551 4279319578
0.046725087 0.055098481 0.551 4278992664
0.048514735 0.055098481 0.551 4278993177
0.050395682 0.055198483 0.55200005 4279058970
0.052188579 0.055198483 0.55200005 4278993177
0.053981476 0.055198483 0.55200005 4279058970
0.055875413 0.055298481 0.55300003 4279190054
0.057671558 0.055298481 0.55300003 4285569927
-0.016836772 0.060192619 0.583 4278990877
-0.014866293 0.059882887 0.58000004 4279714600
-0.012937685 0.05967639 0.57800001 4279321125
-0.011002934 0.059366655 0.57500005 4279650090
-0.0090876687 0.059056912 0.57200003 4279255332
-0.0071666148 0.058540683 0.56700003 4279189539
-0.0052968231 0.05823094 0.56400001 4278992160
-0.0034588068 0.058127694 0.56300002 4278992414
-0.0016243907 0.057921205 0.56100005 4278992925
0.00019738587 0.057817955 0.56 4278992925
0.0020126663 0.057714708 0.55900002 4279058972
0.0038214508 0.057611465 0.55800003 4279124765
0.0056237392 0.057508219 0.55700004 4278993179
0.0074328766 0.057508219 0.55700004 4278993179
0.0092420131 0.057508219 0.55700004 4279124511
0.01103131 0.057404973 0.55600005 4279123998
0.012837199 0.057404973 0.55600005 4279123998
0.014643088 0.057404973 0.55600005 4279583779
0.016448978 0.057404973 0.55600005 4279385887
0.018254867 0.057404973 0.55600005 4279779363
0.020024672 0.057301722 0.55500001 4279120920
0.021827314 0.057301722 0.55500001 4278199047
0.02358738 0.057198476 0.55400002 4278196480
0.025340948 0.057095233 0.55300003 4278197762
0.027137095 0.057095233 0.55300003 4278199047
0.028880918 0.056991987 0.55200005 4278529296
0.030673815 0.056991987 0.55200005 4279647777
0.032466713 0.056991987 0.55200005 4279516191
0.034197543 0.056888737 0.551 4279056924
0.035987191 0.056888737 0.551 4279320096
0.037776843 0.056888737 0.551 4278991129
0.039566487 0.056888737 0.551 4278661394
0.041356135 0.056888737 0.551 4279123228
0.043145787 0.056888737 0.551 4279320607
0.044935435 0.056888737 0.551 4279715106
0.046725087 0.056888737 0.551 4278861080
0.048602786 0.056991987 0.55200005 4278927384
0.050395682 0.056991987 0.55200005 4279058970
0.052283123 0.057095233 0.55300003 4279124763
0.054079268 0.057095233 0.55300003 4279058970
0.055875413 0.057095233 0.55300003 4279781676
0.057671558 0.057095233 0.55300003 4285372032
-0.0071792542 0.060489416 0.56800002 4279844393
-0.0053062146 0.060169928 0.565 4279252767
-0.0034588068 0.059956938 0.56300002 4279779109
-0.0016243907 0.059743952 0.56100005 4279714600
0.00019738587 0.05963745 0.56 4280109871
0.0020126663 0.059530959 0.55900002 4279715365
0.0038214508 0.059424464 0.55800003 4279452193
0.0056237392 0.059317969 0.55700004 4279452963
0.0074328766 0.059317969 0.55700004 4279321377
0.0092254207 0.059211474 0.55600005 4279124511
0.01103131 0.059211474 0.55600005 4278992925
0.012837199 0.059211474 0.55600005 4278992925
0.014643088 0.059211474 0.55600005 4278992925
0.016448978 0.059211474 0.55600005 4279124765
0.018254867 0.059211474 0.55600005 4278927386
0.020024672 0.059104975 0.55500001 4279058459
0.021827314 0.059104975 0.55500001 4279124252
0.02358738 0.05899848 0.55400002 4278991896
0.025386773 0.05899848 0.55400002 4279189275
0.027137095 0.058891986 0.55300003 4279320607
0.028933238 0.058891986 0.55300003 4279386400
0.030673815 0.058785491 0.55200005 4279385887
0.032466713 0.058785491 0.55200005 4279977254
0.034197543 0.058678992 0.551 4278726673
0.035987191 0.058678992 0.551 4278197504
0.037776843 0.058678992 0.551 4278196480
0.039566487 0.058678992 0.551 4278196736
0.041356135 0.058678992 0.551 4278199820
0.043145787 0.058678992 0.551 4278397456
0.044935435 0.058678992 0.551 4278795035
0.046809889 0.058785491 0.55200005 4278862109
0.048602786 0.058785491 0.55200005 4278862361
0.050486978 0.058891986 0.55300003 4278993947
0.052283123 0.058891986 0.55300003 4279124763
0.054177057 0.05899848 0.55400002 4279124765
0.055976454 0.05899848 0.55400002 4278858523
-0.0053062146 0.062005669 0.565 4284842092
-0.0034588068 0.061786182 0.56300002 4284513127
-0.0016243907 0.061566696 0.56100005 4285368436
0.00019738587 0.061456949 0.56 4284711790
0.0020126663 0.061347205 0.55900002 4283133271
0.0038214508 0.061237462 0.55800003 4281226044
0.0056237392 0.061127719 0.55700004 4279647012
0.0074195326 0.061017975 0.55600005 4279252254
0.0092254207 0.061017975 0.55600005 4279384867
0.01103131 0.061017975 0.55600005 4279714602
0.012837199 0.061017975 0.55600005 4279780906
0.014643088 0.061017975 0.55600005 4279518504
0.016419392 0.060908224 0.55500001 4279650344
0.018222034 0.060908224 0.55500001 4279124000
0.020024672 0.060908224 0.55500001 4279255586
0.021827314 0.060908224 0.55500001 4279189793
0.02358738 0.060798481 0.55400002 4279124000
0.025386773 0.060798481 0.55400002 4279124000
0.027137095 0.060688738 0.55300003 4278992927
0.028933238 0.060688738 0.55300003 4278729755
0.030673815 0.060578994 0.55200005 4279190304
0.032466713 0.060578994 0.55200005 4279123998
0.034197543 0.060469247 0.551 4278992412
0.035987191 0.060469247 0.551 4278860826
0.037776843 0.060469247 0.551 4279123998
0.039566487 0.060469247 0.551 4279254814
0.041356135 0.060469247 0.551 4279451680
0.043145787 0.060469247 0.551 4278728472
0.045016989 0.060578994 0.55200005 4278992925
0.046809889 0.060578994 0.55200005 4278927902
0.048690833 0.060688738 0.55300003 4278928156
0.050486978 0.060688738 0.55300003 4278993949
0.052377667 0.060798481 0.55400002 4279059742
0.054177057 0.060798481 0.55400002 4278993695
0.056077491 0.060908224 0.55500001 4281226046
-0.0052874316 0.063615426 0.56300002 4284841579
-0.0034526633 0.063502438 0.56200004 4284775786
-0.0016243907 0.063389443 0.56100005 4284709993
0.0001970334 0.063163452 0.55900002 4284775786
0.0020090658 0.063050456 0.55800003 4284710506
0.0038214508 0.063050456 0.55800003 4284842092
0.0056237392 0.062937468 0.55700004 4284907885
0.0074195326 0.062824473 0.55600005 4285236850
0.0092254207 0.062824473 0.55600005 4285894780
0.01103131 0.062824473 0.55600005 4286289538
0.012837199 0.062824473 0.55600005 4285173626
0.014616751 0.062711477 0.55500001 4284318830
0.016419392 0.062711477 0.55500001 4282147146
0.018222034 0.062711477 0.55500001 4280567342
0.020024672 0.062711477 0.55500001 4279318560
0.021827314 0.062711477 0.55500001 4279055904
0.02358738 0.062598482 0.55400002 4279254053
0.025340948 0.062485494 0.55300003 4279254051
0.027137095 0.062485494 0.55300003 4279319842
0.028880918 0.062372498 0.55200005 4279451428
0.030673815 0.062372498 0.55200005 4279386148
0.032466713 0.062372498 0.55200005 4279452195
0.034197543 0.062259503 0.551 4279386400
0.035987191 0.062259503 0.551 4279452963
0.037776843 0.062259503 0.551 4279321379
0.039566487 0.062259503 0.551 4279452965
0.041356135 0.062259503 0.551 4279255586
0.043145787 0.062259503 0.551 4279255586
0.045016989 0.062372498 0.55200005 4279255584
0.046809889 0.062372498 0.55200005 4279256097
0.048690833 0.062485494 0.55300003 4279190304
0.05057827 0.062598482 0.55400002 4279453476
0.052377667 0.062598482 0.55400002 4279321377
0.05427485 0.062711477 0.55500001 4278991392
0.056077491 0.062711477 0.55500001 4286355593
-0.0034526633 0.065328434 0.56200004 4284512616
-0.001621495 0.065095939 0.56 4284578409
0.0001970334 0.064979702 0.55900002 4284973167
0.0020090658 0.064863458 0.55800003 4284775788
0.0038214508 0.064863458 0.55800003 4284841581
0.0056237392 0.064747214 0.55700004 4285038960
0.0074195326 0.064630978 0.55600005 4285236339
0.0092254207 0.064630978 0.55600005 4285433718
0.01103131 0.064630978 0.55600005 4285762683
0.01281411 0.064514726 0.55500001 4285697403
0.014616751 0.064514726 0.55500001 4285566331
0.016419392 0.064514726 0.55500001 4285632124
0.02358738 0.06439849 0.55400002 4284514159
0.025340948 0.064282246 0.55300003 4284579182
0.027137095 0.064282246 0.55300003 4284381803
0.028880918 0.064166002 0.55200005 4283790436
0.030673815 0.064166002 0.55200005 4283988580
0.032466713 0.064166002 0.55200005 4281883204
0.034197543 0.064049758 0.551 4283066965
0.035987191 0.064049758 0.551 4283593822
0.037776843 0.064049758 0.551 4282936664
0.039566487 0.064049758 0.551 4282081101
0.041356135 0.064049758 0.551 4281159999
0.043145787 0.064049758 0.551 4280634168
0.045016989 0.064166002 0.55200005 4279976752
0.046809889 0.064166002 0.55200005 4279516201
0.048690833 0.064282246 0.55300003 4279450408
0.05057827 0.06439849 0.55400002 4279647787
0.052472211 0.064514726 0.55500001 4282606675
0.05427485 0.064514726 0.55500001 4285764226
0.016246049 0.05464749 0.55888122 4294967295
0.016246049 0.05464749 0.55888122 4294901760
0.016297758 0.054150801 0.55890626 4294901760
0.016349468 0.053654112 0.55893123 4294901760
0.016401177 0.053157423 0.55895627 4294901760
0.016452888 0.052660733 0.55898124 4294901760
0.016504597 0.052164041 0.55900627 4294901760
0.016556306 0.051667351 0.55903131 4294901760
0.016608017 0.051170662 0.55905628 4294901760
0.016659725 0.050673973 0.55908132 4294901760
0.016711436 0.050177284 0.55910629 4294901760
0.016763145 0.049680594 0.55913132 4294901760
0.016814854 0.049183905 0.55915636 4294901760
0.016866565 0.048687216 0.55918133 4294901760
0.016918274 0.048190527 0.55920637 4294901760
0.016969983 0.047693834 0.5592314 4294901760
0.017021693 0.047197144 0.55925637 4294901760
0.017073402 0.046700455 0.55928141 4294901760
0.017125113 0.046203766 0.55930638 4294901760
0.017176822 0.045707077 0.55933142 4294901760
0.017228531 0.045210388 0.55935645 4294901760
0.017280241 0.044713698 0.55938143 4294901760
0.01733195 0.044217009 0.55940646 4294901760
0.017383661 0.04372032 0.55943143 4294901760
0.01743537 0.043223627 0.55945647 4294901760
0.017487079 0.042726941 0.5594815 4294901760
0.01753879 0.042230248 0.55950648 4294901760
0.017590499 0.041733559 0.55953151 4294901760
0.017642209 0.04123687 0.55955648 4294901760
0.017693918 0.040740181 0.55958152 4294901760
0.017745627 0.040243492 0.55960655 4294901760
0.017797338 0.039746799 0.55963153 4294901760
0.017849047 0.039250113 0.55965656 4294901760
0.017900756 0.03875342 0.55968159 4294901760
0.017952466 0.038256731 0.55970657 4294901760
0.018004175 0.037760042 0.5597316 4294901760
0.018055886 0.037263352 0.55975658 4294901760
0.018107595 0.036766663 0.55978161 4294901760
0.018159304 0.036269974 0.55980664 4294901760
0.018211015 0.035773285 0.55983162 4294901760
0.018262723 0.035276596 0.55985665 4294901760
0.018314434 0.034779906 0.55988163 4294901760
0.018366143 0.034283213 0.55990666 4294901760
0.018417852 0.033786528 0.5599317 4294901760
0.018469563 0.033289835 0.55995667 4294901760
0.018521272 0.032793146 0.5599817 4294901760
0.018572982 0.032296456 0.56000668 4294901760
0.018624691 0.031799767 0.56003171 4294901760
0.0186764 0.031303078 0.56005675 4294901760
0.018728111 0.030806389 0.56008172 4294901760
0.01877982 0.030309698 0.56010675 4294901760
0.018831529 0.029813008 0.56013179 4294901760
0.018883239 0.029316319 0.56015676 4294901760
0.018934948 0.02881963 0.5601818 4294901760
0.018986659 0.028322941 0.56020677 4294901760
0.019038368 0.02782625 0.5602318 4294901760
0.019090079 0.02732956 0.56025684 4294901760
0.019141788 0.026832871 0.56028181 4294901760
0.019193497 0.026336182 0.56030685 4294901760
0.019245207 0.025839493 0.56033182 4294901760
0.019296916 0.025342803 0.56035686 4294901760
0.019348625 0.02484611 0.56038189 4294901760
0.019400336 0.024349421 0.56040686 4294901760
0.019452045 0.023852732 0.5604319 4294901760
0.019503754 0.023356043 0.56045687 4294901760
0.019555464 0.022859354 0.56048191 4294901760
0.019607173 0.022362664 0.56050694 4294901760
0.019658884 0.021865971 0.56053191 4294901760
0.019710593 0.021369282 0.56055695 4294901760
0.019762304 0.020872593 0.56058192 4294901760
0.019814013 0.020375904 0.56060696 4294901760
0.019865721 0.019879214 0.56063199 4294901760
0.019917432 0.019382525 0.56065696 4294901760
0.019969141 0.018885836 0.560682 4294901760
0.02002085 0.018389147 0.56070703 4294901760
0.020072561 0.017892458 0.56073201 4294901760
0.02012427 0.017395768 0.56075704 4294901760
0.020175979 0.016899079 0.56078202 4294901760
0.020227689 0.01640239 0.56080705 4294901760
0.020279398 0.015905701 0.56083208 4294901760
0.020331109 0.015409008 0.56085706 4294901760
0.020382818 0.014912318 0.56088209 4294901760
0.020434529 0.014415629 0.56090707 4294901760
0.020486237 0.01391894 0.5609321 4294901760
0.020537946 0.013422251 0.56095713 4294901760
0.020589657 0.012925562 0.56098211 4294901760
0.020641366 0.012428869 0.56100714 4294901760
0.020693075 0.011932179 0.56103212 4294901760
0.020744786 0.01143549 0.56105715 4294901760
0.020796495 0.010938801 0.56108218 4294901760
0.020848205 0.010442112 0.56110716 4294901760
0.020899914 0.0099454224 0.56113219 4294901760
0.020951625 0.0094487332 0.56115723 4294901760
0.021003334 0.008952044 0.5611822 4294901760
0.021055043 0.0084553547 0.56120723 4294901760
0.021106753 0.0079586655 0.56123221 4294901760
0.021158462 0.0074619763 0.56125724 4294901760
0.021210171 0.006965287 0.56128228 4294901760
0.021261882 0.0064685941 0.56130725 4294901760
0.021313591 0.0059719048 0.56133229 4294901760
0.021365302 0.0054752156 0.56135726 4294901760
0.021417011 0.0049785264 0.56138229 4294901760
0.016246049 0.05464749 0.55888122 4278255360
0.016709719 0.054686546 0.55869824 4278255360
0.017173389 0.054725606 0.55851525 4278255360
0.017637061 0.054764662 0.55833226 4278255360
0.018100731 0.054803722 0.55814928 4278255360
0.018564401 0.054842778 0.55796629 4278255360
0.019028071 0.054881837 0.55778331 4278255360
0.019491741 0.054920893 0.55760032 4278255360
0.019955412 0.054959953 0.55741733 4278255360
0.020419084 0.054999009 0.55723435 4278255360
0.020882754 0.055038068 0.55705136 4278255360
0.021346424 0.055077124 0.55686837 4278255360
0.021810094 0.055116184 0.55668539 4278255360
0.022273764 0.05515524 0.5565024 4278255360
0.022737436 0.0551943 0.55631942 4278255360
0.023201106 0.055233356 0.55613643 4278255360
0.023664776 0.055272415 0.55595344 4278255360
0.024128448 0.055311471 0.55577046 4278255360
0.024592118 0.055350531 0.55558747 4278255360
0.025055788 0.055389587 0.55540448 4278255360
0.025519459 0.055428647 0.5552215 4278255360
0.025983129 0.055467702 0.55503851 4278255360
0.026446801 0.055506762 0.55485553 4278255360
0.026910469 0.055545818 0.55467254 4278255360
0.027374141 0.055584878 0.55448955 4278255360
0.027837811 0.055623934 0.55430657 4278255360
0.028301481 0.05566299 0.55412358 4278255360
0.028765153 0.055702049 0.55394059 4278255360
0.029228821 0.055741105 0.55375761 4278255360
0.029692493 0.055780165 0.55357462 4278255360
0.030156165 0.055819221 0.55339164 4278255360
0.030619834 0.055858281 0.55320865 4278255360
0.031083504 0.055897336 0.55302566 4278255360
0.031547174 0.055936396 0.55284268 4278255360
0.032010846 0.055975452 0.55265969 4278255360
0.032474518 0.056014512 0.5524767 4278255360
0.03293819 0.056053568 0.55229372 4278255360
0.033401858 0.056092627 0.55211073 4278255360
0.033865526 0.056131683 0.55192775 4278255360
0.034329198 0.056170743 0.55174476 4278255360
0.03479287 0.056209799 0.55156177 4278255360
0.035256539 0.056248859 0.55137879 4278255360
0.035720207 0.056287915 0.5511958 4278255360
0.036183879 0.056326974 0.55101281 4278255360
0.036647551 0.05636603 0.55082983 4278255360
0.037111223 0.05640509 0.55064684 4278255360
0.037574891 0.056444146 0.55046386 4278255360
0.038038559 0.056483205 0.55028087 4278255360
0.038502231 0.056522261 0.55009788 4278255360
0.038965903 0.056561321 0.54991484 4278255360
0.039429575 0.056600377 0.54973185 4278255360
0.039893243 0.056639433 0.54954886 4278255360
0.040356912 0.056678493 0.54936588 4278255360
0.040820584 0.056717549 0.54918289 4278255360
0.041284256 0.056756608 0.54899991 4278255360
0.041747928 0.056795664 0.54881692 4278255360
0.042211596 0.056834724 0.54863393 4278255360
0.042675264 0.05687378 0.54845095 4278255360
0.043138936 0.056912839 0.54826796 4278255360
0.043602608 0.056951895 0.54808497 4278255360
0.04406628 0.056990955 0.54790199 4278255360
0.044529952 0.057030011 0.547719 4278255360
0.04499362 0.057069071 0.54753602 4278255360
0.045457289 0.057108127 0.54735303 4278255360
0.045920961 0.057147186 0.54717004 4278255360
0.046384629 0.057186242 0.54698706 4278255360
0.046848305 0.057225302 0.54680407 4278255360
0.047311973 0.057264358 0.54662108 4278255360
0.047775641 0.057303417 0.5464381 4278255360
0.048239313 0.057342473 0.54625511 4278255360
0.048702985 0.057381533 0.54607213 4278255360
0.04916665 0.057420589 0.54588914 4278255360
0.049630329 0.057459649 0.54570615 4278255360
0.050093994 0.057498705 0.54552317 4278255360
0.050557666 0.057537764 0.54534018 4278255360
0.051021338 0.05757682 0.54515719 4278255360
0.051485002 0.057615876 0.54497421 4278255360
0.051948674 0.057654936 0.54479122 4278255360
0.052412346 0.057693992 0.54460824 4278255360
0.052876018 0.057733051 0.54442525 4278255360
0.05333969 0.057772107 0.54424226 4278255360
0.053803362 0.057811167 0.54405928 4278255360
0.054267026 0.057850223 0.54387629 4278255360
0.054730698 0.057889283 0.5436933 4278255360
0.05519437 0.057928339 0.54351032 4278255360
0.055658042 0.057967398 0.54332733 4278255360
0.056121714 0.058006454 0.54314435 4278255360
0.056585379 0.058045514 0.54296136 4278255360
0.057049051 0.05808457 0.54277837 4278255360
0.057512723 0.05812363 0.54259539 4278255360
0.057976395 0.058162685 0.5424124 4278255360
0.058440067 0.058201745 0.54222941 4278255360
0.058903731 0.058240801 0.54204643 4278255360
0.059367403 0.058279861 0.54186344 4278255360
0.059831075 0.058318917 0.54168046 4278255360
0.060294747 0.058357976 0.54149747 4278255360
0.060758412 0.058397032 0.54131448 4278255360
0.061222091 0.058436092 0.5411315 4278255360
0.061685756 0.058475148 0.54094851 4278255360
0.062149428 0.058514208 0.54076552 4278255360
0.0626131 0.058553264 0.54058254 4278255360
0.016246049 0.05464749 0.55888122 4278190335
0.016340958 0.054682031 0.55937093 4278190335
0.016435867 0.054716568 0.55986059 4278190335
0.016530776 0.054751109 0.5603503 4278190335
0.016625686 0.054785646 0.56084001 4278190335
0.016720595 0.054820187 0.56132966 4278190335
0.016815504 0.054854728 0.56181937 4278190335
0.016910413 0.054889265 0.56230909 4278190335
0.017005323 0.054923806 0.5627988 4278190335
0.017100232 0.054958344 0.56328845 4278190335
0.017195141 0.054992884 0.56377816 4278190335
0.01729005 0.055027425 0.56426787 4278190335
0.017384959 0.055061962 0.56475753 4278190335
0.017479869 0.055096503 0.56524724 4278190335
0.017574778 0.055131041 0.56573695 4278190335
0.017669687 0.055165581 0.5662266 4278190335
0.017764596 0.055200122 0.56671631 4278190335
0.017859505 0.055234659 0.56720603 4278190335
0.017954415 0.0552692 0.56769568 4278190335
0.018049324 0.055303738 0.56818539 4278190335
0.018144233 0.055338278 0.5686751 4278190335
0.018239142 0.055372819 0.56916475 4278190335
0.018334052 0.055407356 0.56965446 4278190335
0.018428961 0.055441897 0.57014418 4278190335
0.01852387 0.055476435 0.57063389 4278190335
0.018618779 0.055510975 0.57112354 4278190335
0.018713688 0.055545516 0.57161325 4278190335
0.018808598 0.055580053 0.57210296 4278190335
0.018903507 0.055614594 0.57259262 4278190335
0.018998416 0.055649132 0.57308233 4278190335
0.019093325 0.055683672 0.57357204 4278190335
0.019188235 0.055718213 0.57406169 4278190335
0.019283144 0.05575275 0.5745514 4278190335
0.019378053 0.055787291 0.57504112 4278190335
0.019472962 0.055821829 0.57553077 4278190335
0.019567871 0.055856369 0.57602048 4278190335
0.019662781 0.05589091 0.57651019 4278190335
0.01975769 0.055925447 0.5769999 4278190335
0.019852599 0.055959988 0.57748955 4278190335
0.019947508 0.055994526 0.57797927 4278190335
0.020042418 0.056029066 0.57846898 4278190335
0.020137327 0.056063607 0.57895863 4278190335
0.020232236 0.056098145 0.57944834 4278190335
0.020327147 0.056132685 0.57993805 4278190335
0.020422056 0.056167223 0.58042771 4278190335
0.020516966 0.056201763 0.58091742 4278190335
0.020611875 0.056236304 0.58140713 4278190335
0.020706784 0.056270842 0.58189678 4278190335
0.020801693 0.056305382 0.58238649 4278190335
0.020896602 0.05633992 0.58287621 4278190335
0.020991512 0.05637446 0.58336592 4278190335
0.021086421 0.056409001 0.58385557 4278190335
0.02118133 0.056443539 0.58434528 4278190335
0.021276239 0.056478079 0.58483499 4278190335
0.021371149 0.056512617 0.58532465 4278190335
0.021466058 0.056547157 0.58581436 4278190335
0.021560967 0.056581698 0.58630407 4278190335
0.021655876 0.056616236 0.58679372 4278190335
0.021750785 0.056650776 0.58728343 4278190335
0.021845695 0.056685314 0.58777314 4278190335
0.021940604 0.056719854 0.5882628 4278190335
0.022035513 0.056754395 0.58875251 4278190335
0.022130422 0.056788933 0.58924222 4278190335
0.022225332 0.056823473 0.58973187 4278190335
0.022320241 0.056858011 0.59022158 4278190335
0.02241515 0.056892551 0.5907113 4278190335
0.022510059 0.056927092 0.59120101 4278190335
0.022604968 0.05696163 0.59169066 4278190335
0.022699878 0.05699617 0.59218037 4278190335
0.022794787 0.057030708 0.59267008 4278190335
0.022889696 0.057065248 0.59315974 4278190335
0.022984605 0.057099789 0.59364945 4278190335
0.023079515 0.057134327 0.59413916 4278190335
0.023174424 0.057168867 0.59462881 4278190335
0.023269333 0.057203405 0.59511852 4278190335
0.023364242 0.057237945 0.59560823 4278190335
0.023459151 0.057272486 0.59609789 4278190335
0.023554061 0.057307024 0.5965876 4278190335
0.02364897 0.057341564 0.59707731 4278190335
0.023743879 0.057376102 0.59756696 4278190335
0.023838788 0.057410643 0.59805667 4278190335
0.023933697 0.057445183 0.59854639 4278190335
0.024028607 0.057479721 0.5990361 4278190335
0.024123516 0.057514261 0.59952575 4278190335
0.024218425 0.057548799 0.60001546 4278190335
0.024313334 0.05758334 0.60050517 4278190335
0.024408244 0.05761788 0.60099483 4278190335
0.024503153 0.057652418 0.60148454 4278190335
0.024598062 0.057686958 0.60197425 4278190335
0.024692971 0.057721496 0.6024639 4278190335
0.02478788 0.057756037 0.60295361 4278190335
0.02488279 0.057790577 0.60344332 4278190335
0.024977699 0.057825115 0.60393298 4278190335
0.025072608 0.057859655 0.60442269 4278190335
0.025167517 0.057894193 0.6049124 4278190335
0.025262427 0.057928734 0.60540211 4278190335
0.025357336 0.057963274 0.60589176 4278190335
0.025452245 0.057997812 0.60638148 4278190335
0.025547154 0.058032352 0.60687119 4278190335
0.025642063 0.05806689 0.60736084 4278190335
0.025736973 0.058101431 0.60785055 4278190335
0.016246049 0.05464749 0.55888122 4294967295
0.015676593 0.054440252 0.55594307 4294967295
0.015107138 0.054233018 0.55300492 4294967295
0.014537682 0.05402578 0.55006677 4294967295
0.013968226 0.053818546 0.54712862 4294967295
0.013398771 0.053611308 0.54419041 4294967295
0.012829316 0.05340407 0.54125226 4294967295
0.01225986 0.053196836 0.5383141 4294967295
0.011690404 0.052989598 0.53537595 4294967295
0.011120949 0.052782364 0.5324378 4294967295
0.010551494 0.052575126 0.52949965 4294967295
0.0099820383 0.052367888 0.5265615 4294967295
0.009412583 0.052160654 0.52362335 4294967295
0.0088431267 0.051953416 0.52068514 4294967295
0.0082736714 0.051746182 0.51774698 4294967295
0.0077042151 0.051538944 0.51480883 4294967295
0.0071347598 0.051331706 0.51187068 4294967295
0.0065653045 0.051124472 0.50893253 4294967295
0.0059958482 0.050917234 0.50599438 4294967295
0.0054263938 0.05071 0.50305623 4294967295
0.0048569376 0.050502762 0.50011808 4294967295
0.0042874822 0.050295524 0.4971799 4294967295
0.0037180269 0.05008829 0.49424174 4294967295
0.0031485707 0.049881052 0.49130356 4294967295
0.0025791163 0.049673818 0.48836541 4294967295
0.00200966 0.04946658 0.48542726 4294967295
0.0014402047 0.049259342 0.48248911 4294967295
0.00087074842 0.049052108 0.47955096 4294967295
0.00030129403 0.04884487 0.47661278 4294967295
-0.0002681613 0.048637636 0.47367463 4294967295
-0.00083761849 0.048430398 0.47073647 4294967295
-0.0014070738 0.04822316 0.46779829 4294967295
-0.0019765291 0.048015926 0.46486014 4294967295
-0.0025459845 0.047808688 0.46192199 4294967295
-0.0031154398 0.047601454 0.45898384 4294967295
-0.0036848951 0.047394216 0.45604569 4294967295
-0.0042543523 0.047186978 0.45310751 4294967295
-0.0048238076 0.046979744 0.45016935 4294967295
-0.0053932611 0.046772506 0.4472312 4294967295
-0.0059627164 0.046565272 0.44429305 4294967295
-0.0065321736 0.046358034 0.44135487 4294967295
-0.0071016289 0.046150796 0.43841672 4294967295
-0.0076710843 0.045943562 0.43547857 4294967295
-0.0082405396 0.045736324 0.43254042 4294967295
-0.0088099949 0.04552909 0.42960227 4294967295
-0.0093794502 0.045321852 0.42666411 4294967295
-0.0099489074 0.045114614 0.42372593 4294967295
-0.010518363 0.04490738 0.42078775 4294967295
-0.011087816 0.044700142 0.4178496 4294967295
-0.011657273 0.044492908 0.41491145 4294967295
-0.012226729 0.04428567 0.4119733 4294967295
-0.012796184 0.044078432 0.40903515 4294967295
-0.013365639 0.043871198 0.40609699 4294967295
-0.013935093 0.04366396 0.40315884 4294967295
-0.014504552 0.043456726 0.40022066 4294967295
-0.015074005 0.043249488 0.39728248 4294967295
-0.015643461 0.04304225 0.39434433 4294967295
-0.016212916 0.042835016 0.39140618 4294967295
-0.016782371 0.042627778 0.38846803 4294967295
-0.017351827 0.042420544 0.38552988 4294967295
-0.017921286 0.042213306 0.38259172 4294967295
-0.018490741 0.042006068 0.37965354 4294967295
-0.019060196 0.041798834 0.37671539 4294967295
-0.019629652 0.041591596 0.37377724 4294967295
-0.020199107 0.041384362 0.37083909 4294967295
-0.020768562 0.041177124 0.36790091 4294967295
-0.021338018 0.040969886 0.36496276 4294967295
-0.021907473 0.040762652 0.36202461 4294967295
-0.022476928 0.040555414 0.35908645 4294967295
-0.023046384 0.04034818 0.3561483 4294967295
-0.023615839 0.040140942 0.35321015 4294967295
-0.024185294 0.039933704 0.35027197 4294967295
-0.024754753 0.03972647 0.34733379 4294967295
-0.025324209 0.039519232 0.34439564 4294967295
-0.025893664 0.039311998 0.34145749 4294967295
-0.026463116 0.03910476 0.33851933 4294967295
-0.027032571 0.038897522 0.33558118 4294967295
-0.027602026 0.038690288 0.33264303 4294967295
-0.028171482 0.038483053 0.32970488 4294967295
-0.028740941 0.038275816 0.3267667 4294967295
-0.029310396 0.038068578 0.32382852 4294967295
-0.029879851 0.03786134 0.32089037 4294967295
-0.030449307 0.037654106 0.31795222 4294967295
-0.031018762 0.037446871 0.31501406 4294967295
-0.031588219 0.037239634 0.31207591 4294967295
-0.032157674 0.037032396 0.30913776 4294967295
-0.03272713 0.036825158 0.30619958 4294967295
-0.033296585 0.036617924 0.30326143 4294967295
-0.03386604 0.036410686 0.30032328 4294967295
-0.034435496 0.036203451 0.29738513 4294967295
-0.035004951 0.035996214 0.29444697 4294967295
-0.035574406 0.035788976 0.29150879 4294967295
-0.036143862 0.035581738 0.28857064 4294967295
-0.036713317 0.035374504 0.28563249 4294967295
-0.037282772 0.035167269 0.28269431 4294967295
-0.037852228 0.034960032 0.27975616 4294967295
-0.038421683 0.034752794 0.27681801 4294967295
-0.038991138 0.034545556 0.27387983 4294967295
-0.039560594 0.034338322 0.27094167 4294967295
-0.040130049 0.034131087 0.26800352 4294967295
-0.040699504 0.033923849 0.26506537 4294967295
