# .PCD v0.7 - Point Cloud Data file format
VERSION 0.7
FIELDS x y z rgb
SIZE 4 4 4 4
TYPE F F F U
COUNT 1 1 1 1
WIDTH 1066
HEIGHT 1
VIEWPOINT 0 0 0 1 0 0 0
POINTS 1066
DATA ascii
0.044449776 0.04833848 0.32500002 4278402322
0.04536536 0.048189744 0.324 4278205199
0.046417713 0.048189744 0.324 4278402835
0.047470067 0.048189744 0.324 4278666007
0.048522417 0.048189744 0.324 4278928668
0.049421765 0.048041012 0.32300001 4279454246
0.050627124 0.048189744 0.324 4281493829
0.037174605 0.049546417 0.32600001 4281879863
0.038233455 0.049546417 0.32600001 4280105760
0.039292302 0.049546417 0.32600001 4278991894
0.040351149 0.049546417 0.32600001 4279189271
0.041282974 0.049394436 0.32500002 4279058968
0.042338576 0.049394436 0.32500002 4278993175
0.043394178 0.049394436 0.32500002 4278598417
0.044449776 0.049394436 0.32500002 4278335247
0.04536536 0.049242452 0.324 4278466831
0.046417713 0.049242452 0.324 4278336015
0.047470067 0.049242452 0.324 4278336015
0.048372656 0.049090471 0.32300001 4278533394
0.049421765 0.049090471 0.32300001 4278533394
0.050627124 0.049242452 0.324 4278928668
0.037174605 0.050605629 0.32600001 4282670144
0.038233455 0.050605629 0.32600001 4280435747
0.039292302 0.050605629 0.32600001 4278860308
0.040227376 0.050450396 0.32500002 4278992664
0.041282974 0.050450396 0.32500002 4278927382
0.042338576 0.050450396 0.32500002 4278927382
0.043394178 0.050450396 0.32500002 4278730003
0.044449776 0.050450396 0.32500002 4278664210
0.04536536 0.050295163 0.324 4278663697
0.046417713 0.050295163 0.324 4278334732
0.047323558 0.050139934 0.32300001 4278400525
0.048372656 0.050139934 0.32300001 4278532111
0.049421765 0.050139934 0.32300001 4278532111
0.050627124 0.050295163 0.324 4278532624
0.051679473 0.050295163 0.324 4278533394
0.037174605 0.051664833 0.32600001 4278985736
0.038233455 0.051664833 0.32600001 4280107295
0.039292302 0.051664833 0.32600001 4279123478
0.040227376 0.051506352 0.32500002 4279190041
0.041282974 0.051506352 0.32500002 4278993175
0.042338576 0.051506352 0.32500002 4278795796
0.043394178 0.051506352 0.32500002 4278795283
0.044449776 0.051506352 0.32500002 4278663697
0.04536536 0.05134787 0.324 4278597904
0.04627445 0.051189389 0.32300001 4278728720
0.047323558 0.051189389 0.32300001 4278662927
0.048222899 0.051030912 0.32200003 4278532111
0.049268756 0.051030912 0.32200003 4278334734
0.05047087 0.051189389 0.32300001 4278334734
0.051679473 0.05134787 0.324 4278203148
0.045225345 0.052238852 0.32300001 4278728722
0.04627445 0.052238852 0.32300001 4278662929
0.047177047 0.052077126 0.32200003 4278662929
0.048222899 0.052077126 0.32200003 4278400527
0.049115747 0.051915392 0.32100001 4278334734
0.05047087 0.052238852 0.32300001 4278532113
0.051679473 0.052400582 0.324 4278399246
0.036337327 0.054113206 0.32800001 4280163848
0.03728864 0.053948227 0.32700002 4279906325
0.038350739 0.053948227 0.32700002 4279516441
0.039412834 0.053948227 0.32700002 4278729492
0.040351149 0.053783245 0.32600001 4279058455
0.041409999 0.053783245 0.32600001 4279124248
0.042338576 0.053618267 0.32500002 4279124248
0.043260656 0.053453285 0.324 4278795283
0.044313006 0.053453285 0.324 4278729490
0.045225345 0.053288311 0.32300001 4278663699
0.046131186 0.053123333 0.32200003 4278663699
0.047030531 0.052958351 0.32100001 4278268941
0.047923379 0.052793372 0.32000002 4278334734
0.048962738 0.052793372 0.32000002 4278334734
0.049689587 0.052463412 0.31800002 4278662929
0.050562941 0.05229843 0.317 4278658062
0.051592559 0.05229843 0.317 4279053590
0.036337327 0.055178914 0.32800001 4280164620
0.03728864 0.055010688 0.32700002 4280762917
0.038350739 0.055010688 0.32700002 4279516957
0.039412834 0.055010688 0.32700002 4278991894
0.040351149 0.054842453 0.32600001 4279123480
0.041409999 0.054842453 0.32600001 4278992664
0.042338576 0.054674231 0.32500002 4278992664
0.043260656 0.054505996 0.324 4278992664
0.04417624 0.05433777 0.32300001 4278597906
0.045225345 0.05433777 0.32300001 4278663699
0.045987923 0.054001313 0.32100001 4278400527
0.046884019 0.05383309 0.32000002 4278400527
0.047923379 0.05383309 0.32000002 4278532113
0.04880973 0.053664856 0.31900001 4278531343
0.049689587 0.053496629 0.31800002 4278465037
0.050562941 0.053328399 0.317 4278528013
0.051592559 0.053328399 0.317 4278197253
0.036337327 0.056244615 0.32800001 4280032780
0.03728864 0.05607314 0.32700002 4281223981
0.038350739 0.05607314 0.32700002 4279516441
0.039412834 0.05607314 0.32700002 4279123478
0.040351149 0.055901662 0.32600001 4279189271
0.041409999 0.055901662 0.32600001 4279058455
0.042338576 0.055730186 0.32500002 4278992662
0.043260656 0.055558704 0.324 4278992662
0.04417624 0.055387229 0.32300001 4278532113
0.04508533 0.055215754 0.32200003 4278662929
0.045987923 0.055044275 0.32100001 4278531343
0.046884019 0.0548728 0.32000002 4278728722
0.047773615 0.054701317 0.31900001 4278794515
0.048656721 0.054529842 0.31800002 4278728722
0.04953333 0.054358363 0.317 4278268171
0.050562941 0.054358363 0.317 4278396425
0.051592559 0.054358363 0.317 4278659086
0.052456178 0.054186888 0.31600001 4278792466
0.075635478 0.051786203 0.30200002 4280764460
0.076616377 0.051786203 0.30200002 4282276931
0.036337327 0.057310324 0.32800001 4280164620
0.03728864 0.057135601 0.32700002 4281291056
0.038350739 0.057135601 0.32700002 4279451160
0.039412834 0.057135601 0.32700002 4279189271
0.040351149 0.05696087 0.32600001 4279189525
0.041409999 0.05696087 0.32600001 4279189525
0.042338576 0.056786146 0.32500002 4279123732
0.043260656 0.056611415 0.324 4278991892
0.04417624 0.056436691 0.32300001 4278860306
0.04508533 0.056261968 0.32200003 4278728722
0.045844659 0.055912513 0.32000002 4278465550
0.046737507 0.055737782 0.31900001 4278728722
0.047773615 0.055737782 0.31900001 4278662929
0.048656721 0.055563059 0.31800002 4278531343
0.04953333 0.055388328 0.317 4278794004
0.050562941 0.055388328 0.317 4278260996
0.051592559 0.055388328 0.317 4278194177
0.052456178 0.055213604 0.31600001 4278726673
0.053482544 0.055213604 0.31600001 4278660880
0.074901782 0.052942157 0.303 4279649313
0.075635478 0.052767433 0.30200002 4279911715
0.076616377 0.052767433 0.30200002 4280240680
0.077854216 0.052942157 0.303 4280963372
0.078838356 0.052942157 0.303 4281291571
0.03728864 0.058198057 0.32700002 4280238368
0.038350739 0.058198057 0.32700002 4279187990
0.039412834 0.058198057 0.32700002 4279058455
0.040351149 0.058020078 0.32600001 4279124248
0.041409999 0.058020078 0.32600001 4279124248
0.042338576 0.057842106 0.32500002 4278861076
0.043260656 0.057664126 0.324 4278861076
0.044313006 0.057664126 0.324 4278860306
0.04536536 0.057664126 0.324 4278662927
0.045844659 0.056952227 0.32000002 4278794515
0.046737507 0.056774247 0.31900001 4278531343
0.047623854 0.056596275 0.31800002 4278465550
0.048656721 0.056596275 0.31800002 4278794517
0.04953333 0.056418296 0.317 4278465552
0.050562941 0.056418296 0.317 4278260744
0.051429808 0.056240324 0.31600001 4279248406
0.052456178 0.056240324 0.31600001 4278857746
0.053482544 0.056240324 0.31600001 4278792207
0.054336421 0.056062352 0.31500003 4278194432
0.055359542 0.056062352 0.31500003 4278457091
0.056382664 0.056062352 0.31500003 4278391300
0.062927812 0.054638542 0.30700001 4278596623
0.063924946 0.054638542 0.30700001 4278596623
0.068461701 0.054282591 0.30500001 4278532113
0.069452338 0.054282591 0.30500001 4278597906
0.070442982 0.054282591 0.30500001 4278795283
0.071199417 0.054104615 0.30400002 4279189271
0.072186805 0.054104615 0.30400002 4279319574
0.073174201 0.054104615 0.30400002 4279516443
0.073917635 0.053926639 0.303 4282477136
0.074901782 0.053926639 0.303 4287477404
0.075885922 0.053926639 0.303 4283857762
0.076870069 0.053926639 0.303 4280239912
0.077854216 0.053926639 0.303 4279911965
0.078838356 0.053926639 0.303 4279977758
0.079822503 0.053926639 0.303 4280175655
0.081073344 0.054104615 0.30400002 4280700717
0.038350739 0.05926051 0.32700002 4279188762
0.039412834 0.05926051 0.32700002 4279058457
0.040351149 0.059079282 0.32600001 4279190043
0.041409999 0.059079282 0.32600001 4279124248
0.042338576 0.058898062 0.32500002 4279058455
0.043260656 0.058716834 0.324 4278992662
0.04417624 0.058535609 0.32300001 4278663697
0.044945311 0.058173161 0.32100001 4278597906
0.045844659 0.057991937 0.32000002 4278597906
0.046737507 0.057810709 0.31900001 4278794515
0.047623854 0.057629488 0.31800002 4278531343
0.048656721 0.057629488 0.31800002 4278728722
0.04953333 0.05744826 0.317 4278465039
0.050562941 0.05744826 0.317 4278327304
0.051429808 0.057267036 0.31600001 4279118615
0.052456178 0.057267036 0.31600001 4278727187
0.053482544 0.057267036 0.31600001 4278792466
0.054336421 0.057085816 0.31500003 4278457091
0.055359542 0.057085816 0.31500003 4278522373
0.056203667 0.056904588 0.31400001 4278522119
0.05722354 0.056904588 0.31400001 4278456326
0.058057927 0.056723364 0.31300002 4278522121
0.062132403 0.055817243 0.30800003 4279185941
0.062927812 0.055636015 0.30700001 4278464269
0.063924946 0.055636015 0.30700001 4278727441
0.064710617 0.055454791 0.30600002 4278794004
0.065704502 0.055454791 0.30600002 4278794004
0.066698395 0.055454791 0.30600002 4278530830
0.067471065 0.055273563 0.30500001 4278596623
0.068461701 0.055273563 0.30500001 4278728722
0.069452338 0.055273563 0.30500001 4278465550
0.070442982 0.055273563 0.30500001 4278794513
0.071199417 0.055092342 0.30400002 4278662927
0.072186805 0.055092342 0.30400002 4278728720
0.073174201 0.055092342 0.30400002 4278991892
0.073917635 0.054911114 0.303 4279123480
0.074901782 0.054911114 0.303 4278794004
0.075885922 0.054911114 0.303 4280305192
0.076870069 0.054911114 0.303 4284384610
0.077854216 0.054911114 0.303 4284583788
0.078838356 0.054911114 0.303 4280702010
0.079822503 0.054911114 0.303 4279649824
0.081073344 0.055092342 0.30400002 4279847201
0.082060739 0.055092342 0.30400002 4279912481
0.08304812 0.055092342 0.30400002 4280372262
0.084035516 0.055092342 0.30400002 4280303911
0.038350739 0.06032297 0.32700002 4279255068
0.039412834 0.06032297 0.32700002 4278861080
0.040351149 0.060138494 0.32600001 4279058457
0.041409999 0.060138494 0.32600001 4279058457
0.042338576 0.059954021 0.32500002 4278992664
0.043260656 0.059769545 0.324 4278663699
0.04417624 0.059585072 0.32300001 4278400527
0.044945311 0.059216123 0.32100001 4278400529
0.045844659 0.059031654 0.32000002 4278400527
0.046737507 0.058847174 0.31900001 4278662929
0.047623854 0.058662705 0.31800002 4278662929
0.048656721 0.058662705 0.31800002 4278531343
0.04953333 0.058478229 0.317 4278399246
0.050562941 0.058478229 0.317 4278262281
0.051429808 0.058293756 0.31600001 4278987797
0.052456178 0.058293756 0.31600001 4278727187
0.053482544 0.058293756 0.31600001 4278792466
0.054336421 0.058109283 0.31500003 4278654472
0.055359542 0.058109283 0.31500003 4279246609
0.056203667 0.057924807 0.31400001 4278720011
0.057041299 0.057740334 0.31300002 4278522119
0.058057927 0.057740334 0.31300002 4278522121
0.058885813 0.057555858 0.31200001 4278456328
0.059707202 0.057371385 0.31100002 4278522121
0.060522098 0.057186909 0.31 4278522121
0.061330501 0.05700244 0.30900002 4278718728
0.062132403 0.056817967 0.30800003 4278391300
0.063132793 0.056817967 0.30800003 4278195202
0.063924946 0.056633491 0.30700001 4278723341
0.064922087 0.056633491 0.30700001 4278857746
0.065704502 0.056449018 0.30600002 4278661648
0.066698395 0.056449018 0.30600002 4278530830
0.067471065 0.056264542 0.30500001 4278596623
0.068461701 0.056264542 0.30500001 4278465039
0.069452338 0.056264542 0.30500001 4278530832
0.070212021 0.056080069 0.30400002 4278530830
0.071199417 0.056080069 0.30400002 4278530830
0.072186805 0.056080069 0.30400002 4278596623
0.072933495 0.055895593 0.303 4278728209
0.073917635 0.055895593 0.303 4278728722
0.074901782 0.055895593 0.303 4278926101
0.075885922 0.055895593 0.303 4278926101
0.076870069 0.055895593 0.303 4279189273
0.077854216 0.055895593 0.303 4279189275
0.078838356 0.055895593 0.303 4278992412
0.079822503 0.055895593 0.303 4283795303
0.081073344 0.056080069 0.30400002 4281887306
0.082060739 0.056080069 0.30400002 4279255838
0.08304812 0.056080069 0.30400002 4279321629
0.084035516 0.056080069 0.30400002 4278794515
0.085022911 0.056080069 0.30400002 4279978276
0.086010307 0.056080069 0.30400002 4280108067
0.086997695 0.056080069 0.30400002 4280764208
0.038350739 0.061385423 0.32700002 4279122199
0.039412834 0.061385423 0.32700002 4279058459
0.040474929 0.061385423 0.32700002 4279124252
0.041409999 0.061197698 0.32600001 4278992664
0.04246885 0.061197698 0.32600001 4278861078
0.043394178 0.061009977 0.32500002 4278729492
0.04417624 0.060634531 0.32300001 4278532113
0.044945311 0.060259085 0.32100001 4278532113
0.045844659 0.060071364 0.32000002 4278400527
0.046737507 0.059883635 0.31900001 4278400527
0.047623854 0.059695914 0.31800002 4278532113
0.048656721 0.059695914 0.31800002 4278399759
0.04953333 0.05950819 0.317 4278199307
0.050562941 0.05950819 0.317 4278195718
0.051429808 0.059320468 0.31600001 4278987797
0.052456178 0.059320468 0.31600001 4278727187
0.053482544 0.059320468 0.31600001 4278726673
0.054336421 0.059132747 0.31500003 4278523398
0.055359542 0.059132747 0.31500003 4279115537
0.056203667 0.058945023 0.31400001 4278655756
0.057041299 0.058757301 0.31300002 4278721549
0.058057927 0.058757301 0.31300002 4279246869
0.058885813 0.058569577 0.31200001 4279181076
0.059707202 0.058381855 0.31100002 4278391048
0.060522098 0.058194131 0.31 4278587912
0.061528981 0.058194131 0.31 4278652935
0.062334131 0.05800641 0.30900002 4278652935
0.063132793 0.057818688 0.30800003 4278587396
0.063924946 0.057630964 0.30700001 4278587396
0.064922087 0.057630964 0.30700001 4278260228
0.065704502 0.057443243 0.30600002 4278195203
0.066698395 0.057443243 0.30600002 4278330121
0.067471065 0.057255514 0.30500001 4278792720
0.068461701 0.057255514 0.30500001 4278530832
0.069452338 0.057255514 0.30500001 4278465039
0.070212021 0.057067793 0.30400002 4278596625
0.071199417 0.057067793 0.30400002 4278465037
0.072186805 0.057067793 0.30400002 4278465037
0.072933495 0.056880068 0.303 4278530830
0.073917635 0.056880068 0.303 4278399757
0.074901782 0.056880068 0.303 4278531343
0.075885922 0.056880068 0.303 4278728722
0.076870069 0.056880068 0.303 4278531343
0.077854216 0.056880068 0.303 4278794515
0.078838356 0.056880068 0.303 4278991894
0.079822503 0.056880068 0.303 4278795798
0.08080665 0.056880068 0.303 4278532626
0.081790797 0.056880068 0.303 4279783979
0.08304812 0.057067793 0.30400002 4281955148
0.084035516 0.057067793 0.30400002 4280506934
0.085022911 0.057067793 0.30400002 4279322914
0.086010307 0.057067793 0.30400002 4279190045
0.086997695 0.057067793 0.30400002 4279255838
0.087695666 0.056880068 0.303 4279845668
0.088679798 0.056880068 0.303 4280303911
0.038468018 0.062638849 0.32800001 4279712026
0.039533362 0.062638849 0.32800001 4278794517
0.040474929 0.062447883 0.32700002 4279190043
0.041537024 0.062447883 0.32700002 4279058457
0.04246885 0.062256906 0.32600001 4278795285
0.043394178 0.062065937 0.32500002 4278861078
0.044449776 0.062065937 0.32500002 4278662929
0.045505378 0.062065937 0.32500002 4278662929
0.045844659 0.061111078 0.32000002 4278662929
0.046884019 0.061111078 0.32000002 4278399757
0.047773615 0.060920101 0.31900001 4278531343
0.048656721 0.060729131 0.31800002 4278530832
0.04953333 0.060538158 0.317 4278595089
0.050562941 0.060538158 0.317 4278392584
0.051592559 0.060538158 0.317 4278195713
0.052456178 0.060347188 0.31600001 4278661648
0.053482544 0.060347188 0.31600001 4278265611
0.054336421 0.060156219 0.31500003 4278391814
0.055359542 0.060156219 0.31500003 4279247123
0.056203667 0.059965242 0.31400001 4278393097
0.057041299 0.059774272 0.31300002 4278985234
0.058057927 0.059774272 0.31300002 4278523400
0.058885813 0.059583299 0.31200001 4279576858
0.059707202 0.059392329 0.31100002 4278654732
0.060522098 0.059201352 0.31 4278720779
0.061528981 0.059201352 0.31 4279312914
0.062334131 0.059010383 0.30900002 4278522886
0.063132793 0.058819413 0.30800003 4278653189
0.064133175 0.058819413 0.30800003 4278718728
0.064922087 0.05862844 0.30700001 4278652935
0.06591922 0.05862844 0.30700001 4278652935
0.066698395 0.05843747 0.30600002 4278260996
0.06769228 0.05843747 0.30600002 4279119637
0.068461701 0.058246493 0.30500001 4278196736
0.069452338 0.058246493 0.30500001 4278197765
0.070212021 0.058055524 0.30400002 4279055125
0.071199417 0.058055524 0.30400002 4278399246
0.071949348 0.057864547 0.303 4278465039
0.072933495 0.057864547 0.303 4278530832
0.073917635 0.057864547 0.303 4278728209
0.074901782 0.057864547 0.303 4278596623
0.075635478 0.057673577 0.30200002 4278728209
0.076616377 0.057673577 0.30200002 4278728722
0.077597275 0.057673577 0.30200002 4278531343
0.078838356 0.057864547 0.303 4278531343
0.079822503 0.057864547 0.303 4278663697
0.08080665 0.057864547 0.303 4278467085
0.081790797 0.057864547 0.303 4278467855
0.082774937 0.057864547 0.303 4278665234
0.083759077 0.057864547 0.303 4278466833
0.084743224 0.057864547 0.303 4280507186
0.085727371 0.057864547 0.303 4281888841
0.086711518 0.057864547 0.303 4280046637
0.087695666 0.057864547 0.303 4279585316
0.088679798 0.057864547 0.303 4279584033
0.08936803 0.057673577 0.30200002 4279846690
0.090348929 0.057673577 0.30200002 4279978276
0.091027409 0.057482608 0.30100003 4280961071
0.037516706 0.063898779 0.32900003 4279310084
0.038585298 0.063898779 0.32900003 4278851586
0.039533362 0.063704558 0.32800001 4279055379
0.040598705 0.063704558 0.32800001 4279056404
0.041537024 0.063510336 0.32700002 4279122197
0.04246885 0.063316114 0.32600001 4279057174
0.043394178 0.063121893 0.32500002 4278662929
0.044313006 0.062927671 0.324 4278662931
0.045225345 0.062733449 0.32300001 4278531345
0.045987923 0.062345006 0.32100001 4278531343
0.046884019 0.062150788 0.32000002 4278531343
0.047773615 0.061956562 0.31900001 4278465550
0.048656721 0.061762344 0.31800002 4278399246
0.049689587 0.061762344 0.31800002 4278595087
0.050562941 0.061568119 0.317 4279053590
0.051592559 0.061568119 0.317 4278988564
0.052456178 0.061373901 0.31600001 4278792466
0.053482544 0.061373901 0.31600001 4278198023
0.054336421 0.061179683 0.31500003 4278654472
0.055359542 0.061179683 0.31500003 4278522119
0.056203667 0.060985457 0.31400001 4278587912
0.057041299 0.060791239 0.31300002 4278720779
0.057872433 0.060597014 0.31200001 4278656269
0.058885813 0.060597014 0.31200001 4279248406
0.059707202 0.060402796 0.31100002 4278522886
0.060522098 0.06020857 0.31 4278786572
0.061528981 0.06020857 0.31 4278458888
0.062334131 0.060014352 0.30900002 4278523398
0.063337766 0.060014352 0.30900002 4279576086
0.064133175 0.059820134 0.30800003 4279049744
0.064922087 0.059625909 0.30700001 4278851851
0.06591922 0.059625909 0.30700001 4278587912
0.066698395 0.059431691 0.30600002 4278260996
0.06769228 0.059431691 0.30600002 4279382039
0.068461701 0.059237465 0.30500001 4279054357
0.069452338 0.059237465 0.30500001 4278988564
0.070212021 0.059043247 0.30400002 4278262790
0.071199417 0.059043247 0.30400002 4278194944
0.071949348 0.058849026 0.303 4278196736
0.072933495 0.058849026 0.303 4278593806
0.073917635 0.058849026 0.303 4278792720
0.074654587 0.058654804 0.30200002 4278792720
0.075635478 0.058654804 0.30200002 4278595855
0.076616377 0.058654804 0.30200002 4278924818
0.077597275 0.058654804 0.30200002 4278530830
0.078578167 0.058654804 0.30200002 4278596623
0.079559065 0.058654804 0.30200002 4278399757
0.080539964 0.058654804 0.30200002 4278399755
0.081520863 0.058654804 0.30200002 4278334732
0.082501754 0.058654804 0.30200002 4278400525
0.083482653 0.058654804 0.30200002 4278729744
0.084463552 0.058654804 0.30200002 4278861330
0.085444443 0.058654804 0.30200002 4278993175
0.086425342 0.058654804 0.30200002 4278927382
0.08740624 0.058654804 0.30200002 4280441393
0.088387132 0.058654804 0.30200002 4280374832
0.089072116 0.058460586 0.30100003 4279716902
0.090049759 0.058460586 0.30100003 4279321629
0.091027409 0.058460586 0.30100003 4279321629
0.091699392 0.05826636 0.30000001 4279781410
0.092673793 0.05826636 0.30000001 4280369956
0.037630737 0.065165207 0.33000001 4279310084
0.038585298 0.064967737 0.32900003 4279113477
0.03965389 0.064967737 0.32900003 4278983174
0.040598705 0.064770259 0.32800001 4278788103
0.041664049 0.064770259 0.32800001 4279252756
0.042599123 0.064572796 0.32700002 4279253269
0.043527696 0.064375319 0.32600001 4278925586
0.044449776 0.064177856 0.32500002 4278859795
0.045225345 0.063782915 0.32300001 4278662929
0.046131186 0.063585445 0.32200003 4278531343
0.047030531 0.063387968 0.32100001 4278531343
0.047923379 0.063190505 0.32000002 4278728722
0.04880973 0.062993027 0.31900001 4278464269
0.049689587 0.062795565 0.31800002 4278265609
0.050562941 0.062598087 0.317 4278593039
0.051592559 0.062598087 0.317 4278856976
0.052456178 0.06240062 0.31600001 4278859027
0.053482544 0.06240062 0.31600001 4278726927
0.054336421 0.062203154 0.31500003 4278654472
0.055183794 0.06200568 0.31400001 4278719498
0.056203667 0.06200568 0.31400001 4278652937
0.057041299 0.06180821 0.31300002 4278652935
0.057872433 0.061610736 0.31200001 4278522119
0.058885813 0.061610736 0.31200001 4278522632
0.059707202 0.061413269 0.31100002 4278588166
0.060522098 0.061215796 0.31 4279576086
0.061528981 0.061215796 0.31 4278391812
0.062334131 0.061018329 0.30900002 4278588166
0.063337766 0.061018329 0.30900002 4278523400
0.064133175 0.060820859 0.30800003 4279182100
0.065133564 0.060820859 0.30800003 4279708955
0.06591922 0.060623385 0.30700001 4278654986
0.066916354 0.060623385 0.30700001 4278524168
0.06769228 0.060425919 0.30600002 4279119637
0.068461701 0.060228445 0.30500001 4278727189
0.069452338 0.060228445 0.30500001 4278727189
0.070212021 0.060030978 0.30400002 4278989847
0.071199417 0.060030978 0.30400002 4278858261
0.071949348 0.059833504 0.303 4279580188
0.072933495 0.059833504 0.303 4278328583
0.073673688 0.059636038 0.30200002 4278195456
0.074654587 0.059636038 0.30200002 4278195969
0.075635478 0.059636038 0.30200002 4279053842
0.076616377 0.059636038 0.30200002 4278792207
0.077597275 0.059636038 0.30200002 4278727441
0.078317977 0.059438568 0.30100003 4278661646
0.079295628 0.059438568 0.30100003 4278465037
0.080273278 0.059438568 0.30100003 4278399757
0.081250928 0.059438568 0.30100003 4278531343
0.082228571 0.059438568 0.30100003 4278333964
0.083206221 0.059438568 0.30100003 4278399755
0.084183872 0.059438568 0.30100003 4278465548
0.085161522 0.059438568 0.30100003 4278597904
0.086139172 0.059438568 0.30100003 4278597904
0.087116823 0.059438568 0.30100003 4278927382
0.088094465 0.059438568 0.30100003 4279190554
0.089072116 0.059438568 0.30100003 4279848486
0.089750588 0.059241094 0.30000001 4280045865
0.09072499 0.059241094 0.30000001 4279651107
0.091699392 0.059241094 0.30000001 4279519521
0.092364885 0.059043627 0.29900002 4279649824
0.093336038 0.059043627 0.29900002 4279847203
0.037630737 0.066237405 0.33000001 4279440902
0.038702577 0.066237405 0.33000001 4279178500
0.03965389 0.066036686 0.32900003 4279244039
0.040722482 0.066036686 0.32900003 4278981637
0.041664049 0.065835968 0.32800001 4278785541
0.042599123 0.065635249 0.32700002 4278853383
0.043527696 0.065434523 0.32600001 4279383574
0.044449776 0.065233812 0.32500002 4279121172
0.04536536 0.065033086 0.324 4279122197
0.046131186 0.064631656 0.32200003 4278990611
0.047030531 0.06443093 0.32100001 4278990611
0.047923379 0.064230211 0.32000002 4278924818
0.04880973 0.064029492 0.31900001 4278727441
0.049689587 0.063828774 0.31800002 4278727441
0.05072245 0.063828774 0.31800002 4278331917
0.051592559 0.063628048 0.317 4278791955
0.052456178 0.063427337 0.31600001 4278661394
0.053482544 0.063427337 0.31600001 4278859027
0.054336421 0.063226618 0.31500003 4279514393
0.055183794 0.063025892 0.31400001 4278525449
0.056203667 0.063025892 0.31400001 4278522373
0.057041299 0.062825181 0.31300002 4278850568
0.057872433 0.062624454 0.31200001 4278850314
0.058697078 0.062423736 0.31100002 4278652935
0.059707202 0.062423736 0.31100002 4278718728
0.060522098 0.062223013 0.31 4278718728
0.061528981 0.062223013 0.31 4278718728
0.062334131 0.062022299 0.30900002 4278851084
0.063337766 0.062022299 0.30900002 4279446551
0.064133175 0.06182158 0.30800003 4278920720
0.065133564 0.06182158 0.30800003 4278524168
0.06591922 0.061620858 0.30700001 4278522886
0.066916354 0.061620858 0.30700001 4278195716
0.06769228 0.061420143 0.30600002 4278791955
0.068686165 0.061420143 0.30600002 4278661394
0.069452338 0.06121942 0.30500001 4278267406
0.070212021 0.061018702 0.30400002 4278726160
0.071199417 0.061018702 0.30400002 4278988562
0.071949348 0.060817979 0.303 4278857746
0.072933495 0.060817979 0.303 4278923539
0.073673688 0.060617261 0.30200002 4279054355
0.074654587 0.060617261 0.30200002 4279251221
0.075635478 0.060617261 0.30200002 4278591755
0.076362684 0.060416546 0.30100003 4278262277
0.077340335 0.060416546 0.30100003 4278196226
0.078317977 0.060416546 0.30100003 4278659086
0.079295628 0.060416546 0.30100003 4278726673
0.080273278 0.060416546 0.30100003 4278595601
0.081250928 0.060416546 0.30100003 4278530832
0.081955381 0.060215823 0.30000001 4278530832
0.082929783 0.060215823 0.30000001 4278530830
0.083904184 0.060215823 0.30000001 4278596623
0.084878586 0.060215823 0.30000001 4278465035
0.085852988 0.060215823 0.30000001 4278531341
0.08682739 0.060215823 0.30000001 4278662927
0.087801784 0.060215823 0.30000001 4278729490
0.088776186 0.060215823 0.30000001 4278861076
0.089451425 0.060015105 0.29900002 4278795283
0.090422578 0.060015105 0.29900002 4278993175
0.091393732 0.060015105 0.29900002 4279716898
0.092055969 0.059814382 0.29800001 4279980842
0.093023874 0.059814382 0.29800001 4279783465
0.093676366 0.059613667 0.29700002 4279453730
0.094641022 0.059613667 0.29700002 4279321631
0.038702577 0.067309611 0.33000001 4279440645
0.039774418 0.067309611 0.33000001 4279374855
0.040722482 0.067105643 0.32900003 4279309062
0.041664049 0.066901676 0.32800001 4279244039
0.042599123 0.066697709 0.32700002 4279178246
0.043527696 0.066493735 0.32600001 4278917127
0.044449776 0.066289768 0.32500002 4278260480
0.04536536 0.066085801 0.324 4279118351
0.04627445 0.065881833 0.32300001 4279251475
0.047177047 0.065677866 0.32200003 4279055892
0.048073135 0.065473892 0.32100001 4279187478
0.04880973 0.065065958 0.31900001 4278990613
0.049689587 0.064861991 0.31800002 4278990613
0.05072245 0.064861991 0.31800002 4279056406
0.051592559 0.064658016 0.317 4278924820
0.052622177 0.064658016 0.317 4278924820
0.053482544 0.064454049 0.31600001 4278859027
0.054336421 0.064250089 0.31500003 4278924820
0.055183794 0.064046115 0.31400001 4278990099
0.056203667 0.064046115 0.31400001 4279186965
0.057041299 0.063842148 0.31300002 4279317014
0.057872433 0.063638173 0.31200001 4278721549
0.058697078 0.063434213 0.31100002 4278522632
0.059707202 0.063434213 0.31100002 4278718728
0.060522098 0.063230239 0.31 4278718728
0.061528981 0.063230239 0.31 4278718728
0.062334131 0.063026272 0.30900002 4278850314
0.063337766 0.063026272 0.30900002 4278457093
0.064133175 0.062822305 0.30800003 4278391814
0.065133564 0.062822305 0.30800003 4279314197
0.06591922 0.062618338 0.30700001 4278522886
0.066916354 0.062618338 0.30700001 4278788623
0.06769228 0.06241437 0.30600002 4279055127
0.068686165 0.06241437 0.30600002 4278661394
0.069452338 0.062210396 0.30500001 4278198275
0.070442982 0.062210396 0.30500001 4278524168
0.071199417 0.062006433 0.30400002 4278391812
0.071949348 0.061802458 0.303 4278195715
0.072933495 0.061802458 0.303 4278988564
0.073673688 0.061598495 0.30200002 4278858259
0.074654587 0.061598495 0.30200002 4278858259
0.075635478 0.061598495 0.30200002 4278923539
0.076362684 0.061394528 0.30100003 4279185941
0.077340335 0.061394528 0.30100003 4279118867
0.078317977 0.061394528 0.30100003 4278789388
0.079032183 0.061190557 0.30000001 4278195456
0.080006585 0.061190557 0.30000001 4278196740
0.080980986 0.061190557 0.30000001 4278922769
0.081955381 0.061190557 0.30000001 4278660621
0.082929783 0.061190557 0.30000001 4278727441
0.083904184 0.061190557 0.30000001 4278595855
0.084878586 0.061190557 0.30000001 4278596623
0.085566819 0.06098659 0.29900002 4278530828
0.086537972 0.06098659 0.29900002 4278465035
0.087509118 0.06098659 0.29900002 4278530828
0.088480271 0.06098659 0.29900002 4278399755
0.089152247 0.060782619 0.29800001 4278532111
0.090120159 0.060782619 0.29800001 4278663697
0.091088064 0.060782619 0.29800001 4278992662
0.09174706 0.060578652 0.29700002 4278993947
0.092711717 0.060578652 0.29700002 4278994461
0.093360953 0.060374681 0.296 4280376116
0.094322361 0.060374681 0.296 4279651109
0.094961874 0.060170714 0.29500002 4279387933
0.095920034 0.060170714 0.29500002 4279255834
0.038702577 0.068381809 0.33000001 4279440391
0.039774418 0.068381809 0.33000001 4279374598
0.040722482 0.068174601 0.32900003 4279309062
0.041791074 0.068174601 0.32900003 4279243271
0.043527696 0.067552939 0.32600001 4279178246
0.044449776 0.067345724 0.32500002 4279112453
0.04536536 0.067138501 0.324 4279047943
0.04627445 0.066931292 0.32300001 4278983433
0.047177047 0.066724077 0.32200003 4278787851
0.048073135 0.066516854 0.32100001 4279643930
0.049115747 0.066516854 0.32100001 4279448600
0.050158355 0.066516854 0.32100001 4279384344
0.05072245 0.0658952 0.31800002 4279253271
0.051592559 0.065687984 0.317 4279121685
0.052622177 0.065687984 0.317 4279319064
0.053482544 0.065480769 0.31600001 4278924820
0.054336421 0.065273553 0.31500003 4278924820
0.055183794 0.06506633 0.31400001 4278990613
0.056203667 0.06506633 0.31400001 4278859027
0.057041299 0.064859115 0.31300002 4278859027
0.057872433 0.064651892 0.31200001 4279121431
0.058697078 0.064444676 0.31100002 4279186711
0.059707202 0.064444676 0.31100002 4279645211
0.060522098 0.06423746 0.31 4278393865
0.061528981 0.06423746 0.31 4278718728
0.062334131 0.064030245 0.30900002 4278718728
0.063337766 0.064030245 0.30900002 4278718730
0.064133175 0.063823029 0.30800003 4278718730
0.065133564 0.063823029 0.30800003 4278522121
0.066133946 0.063823029 0.30800003 4278587912
0.066916354 0.063615806 0.30700001 4279052306
0.067913495 0.063615806 0.30700001 4278791955
0.068686165 0.063408591 0.30600002 4278462220
0.069680057 0.063408591 0.30600002 4278195970
0.070442982 0.063201368 0.30500001 4278719752
0.071199417 0.062994152 0.30400002 4278785291
0.072186805 0.062994152 0.30400002 4278654472
0.072933495 0.062786937 0.303 4278986000
0.073917635 0.062786937 0.303 4278330121
0.074654587 0.062579721 0.30200002 4278329349
0.075635478 0.062579721 0.30200002 4278198787
0.076362684 0.062372506 0.30100003 4278923023
0.077340335 0.062372506 0.30100003 4278923793
0.078057781 0.062165283 0.30000001 4279120918
0.079032183 0.062165283 0.30000001 4279055127
0.080006585 0.062165283 0.30000001 4279053844
0.080711059 0.061958067 0.29900002 4278459656
0.081682198 0.061958067 0.29900002 4278327300
0.082653359 0.061958067 0.29900002 4278197253
0.083624512 0.061958067 0.29900002 4278658832
0.084595665 0.061958067 0.29900002 4278660367
0.085280634 0.061750848 0.29800001 4278726927
0.086248539 0.061750848 0.29800001 4278727437
0.087216437 0.061750848 0.29800001 4278728207
0.088184342 0.061750848 0.29800001 4278531343
0.088853084 0.061543632 0.29700002 4278662927
0.08981774 0.061543632 0.29700002 4278531341
0.090476729 0.061336413 0.296 4278531341
0.091438144 0.061336413 0.296 4278531341
0.092399552 0.061336413 0.296 4278597904
0.093045548 0.061129197 0.29500002 4278927382
0.094003707 0.061129197 0.29500002 4279058968
0.094961874 0.061129197 0.29500002 4279519519
0.095594876 0.060921974 0.294 4279651105
0.096549787 0.060921974 0.294 4279519519
0.097173057 0.060714759 0.29300001 4279256349
0.098124713 0.060714759 0.29300001 4279453215
0.057686947 0.065455154 0.31100002 4278859027
0.058697078 0.065455154 0.31100002 4278859027
0.059515215 0.065244682 0.31 4278859027
0.060522098 0.065244682 0.31 4278661648
0.061528981 0.065244682 0.31 4278857748
0.062334131 0.065034218 0.30900002 4279514141
0.063337766 0.065034218 0.30900002 4278721549
0.064133175 0.064823754 0.30800003 4278588939
0.065133564 0.064823754 0.30800003 4278654218
0.066133946 0.064823754 0.30800003 4278719498
0.066916354 0.064613283 0.30700001 4278921234
0.067913495 0.064613283 0.30700001 4278923541
0.068686165 0.064402819 0.30600002 4278791955
0.069680057 0.064402819 0.30600002 4278393095
0.070442982 0.064192347 0.30500001 4278719498
0.071199417 0.063981883 0.30400002 4279047693
0.072186805 0.063981883 0.30400002 4278720011
0.072933495 0.063771412 0.303 4279313684
0.073917635 0.063771412 0.303 4278592523
0.074654587 0.063560948 0.30200002 4279251221
0.075635478 0.063560948 0.30200002 4278988816
0.076362684 0.063350484 0.30100003 4278396679
0.077340335 0.063350484 0.30100003 4278857748
0.078057781 0.06314002 0.30000001 4278858261
0.079032183 0.06314002 0.30000001 4279055127
0.079739906 0.062929556 0.29900002 4278857748
0.080711059 0.062929556 0.29900002 4279055125
0.081682198 0.062929556 0.29900002 4279055125
0.082653359 0.062929556 0.29900002 4278923539
0.083344825 0.062719084 0.29800001 4278527500
0.08431273 0.062719084 0.29800001 4278195712
0.085280634 0.062719084 0.29800001 4278194944
0.085959122 0.06250862 0.29700002 4278461959
0.086923771 0.06250862 0.29700002 4279055379
0.087888427 0.06250862 0.29700002 4278465039
0.088553913 0.062298149 0.296 4278530830
0.089515321 0.062298149 0.296 4278596621
0.090171069 0.062087685 0.29500002 4278662927
0.091129236 0.062087685 0.29500002 4278399755
0.092087395 0.062087685 0.29500002 4278794513
0.092730135 0.061877213 0.294 4278664210
0.093685046 0.061877213 0.294 4278730003
0.094639964 0.061877213 0.294 4278664464
0.095269725 0.061666749 0.29300001 4278730257
0.096221395 0.061666749 0.29300001 4279124763
0.097173057 0.061666749 0.29300001 4279651107
0.098124713 0.061666749 0.29300001 4279519523
0.098738238 0.061456285 0.29200003 4279387937
0.09968666 0.061456285 0.29200003 4279256351
0.060522098 0.066251904 0.31 4278924820
0.061330501 0.066038191 0.30900002 4278727187
0.062334131 0.066038191 0.30900002 4278858773
0.063337766 0.066038191 0.30900002 4279121431
0.064133175 0.065824479 0.30800003 4279055125
0.065133564 0.065824479 0.30800003 4279382039
0.066133946 0.065824479 0.30800003 4278328070
0.066916354 0.065610759 0.30700001 4278987797
0.067913495 0.065610759 0.30700001 4278330380
0.068686165 0.065397047 0.30600002 4278988564
0.069680057 0.065397047 0.30600002 4278987281
0.070442982 0.065183327 0.30500001 4278456580
0.071433619 0.065183327 0.30500001 4278719752
0.072186805 0.064969614 0.30400002 4278391814
0.072933495 0.064755894 0.303 4279249174
0.073917635 0.064755894 0.303 4278658316
0.074654587 0.064542182 0.30200002 4279317014
0.075635478 0.064542182 0.30200002 4279251988
0.076362684 0.064328469 0.30100003 4278263556
0.077340335 0.064328469 0.30100003 4279381785
0.078057781 0.064114749 0.30000001 4278789136
0.079032183 0.064114749 0.30000001 4279448348
0.079739906 0.063901037 0.29900002 4278527246
0.080711059 0.063901037 0.29900002 4278923539
0.081682198 0.063901037 0.29900002 4279121172
0.08237692 0.063687317 0.29800001 4279252758
0.083344825 0.063687317 0.29800001 4279186965
0.08431273 0.063687317 0.29800001 4279251988
0.084994465 0.063473605 0.29700002 4279317781
0.085959122 0.063473605 0.29700002 4278920972
0.086631089 0.063259885 0.296 4278196994
0.087592505 0.063259885 0.296 4278262790
0.08825475 0.063046172 0.29500002 4278592523
0.089212909 0.063046172 0.29500002 4278791953
0.090171069 0.063046172 0.29500002 4278726673
0.090820312 0.062832452 0.294 4278661646
0.091775231 0.062832452 0.294 4278661646
0.092414729 0.06261874 0.29300001 4278465035
0.093366392 0.06261874 0.29300001 4278728207
0.094318062 0.06261874 0.29300001 4278530828
0.095269725 0.06261874 0.29300001 4278794513
0.095892996 0.062405024 0.29200003 4278729490
0.096841417 0.062405024 0.29200003 4278795283
0.097789824 0.062405024 0.29200003 4278992664
0.098738238 0.062405024 0.29200003 4279255836
0.099345259 0.062191308 0.29100001 4279651107
0.10029043 0.062191308 0.29100001 4279387935
0.10088772 0.061977591 0.29000002 4279255836
0.10182964 0.061977591 0.29000002 4279190043
0.10277156 0.061977591 0.29000002 4279845920
0.10371348 0.061977591 0.29000002 4280173860
0.063337766 0.067042165 0.30900002 4278727187
0.064133175 0.066825204 0.30800003 4278924566
0.065133564 0.066825204 0.30800003 4278859027
0.066133946 0.066825204 0.30800003 4279187478
0.066916354 0.066608228 0.30700001 4278923539
0.067913495 0.066608228 0.30700001 4278791953
0.068686165 0.066391267 0.30600002 4278195200
0.069680057 0.066391267 0.30600002 4278193664
0.070442982 0.066174299 0.30500001 4279051025
0.071433619 0.066174299 0.30500001 4280037918
0.072186805 0.065957338 0.30400002 4279382039
0.073174201 0.065957338 0.30400002 4279251223
0.073917635 0.065740369 0.303 4278856978
0.074901782 0.065740369 0.303 4278198534
0.075635478 0.065523408 0.30200002 4278329351
0.076362684 0.065306447 0.30100003 4278460423
0.077340335 0.065306447 0.30100003 4278986254
0.078057781 0.065089479 0.30000001 4279314965
0.079032183 0.065089479 0.30000001 4279185689
0.079739906 0.064872518 0.29900002 4279054357
0.080711059 0.064872518 0.29900002 4278330634
0.081682198 0.064872518 0.29900002 4279054355
0.08237692 0.06465555 0.29800001 4279186965
0.083344825 0.06465555 0.29800001 4279186965
0.084029801 0.064438581 0.29700002 4279121172
0.084994465 0.064438581 0.29700002 4279055892
0.085669689 0.064221613 0.296 4278858513
0.086631089 0.064221613 0.296 4278923793
0.087296583 0.064004652 0.29500002 4279317014
0.08825475 0.064004652 0.29500002 4278789648
0.08891049 0.063787684 0.294 4278195459
0.089865401 0.063787684 0.294 4278196228
0.090820312 0.063787684 0.294 4278592523
0.091463074 0.063570723 0.29300001 4278659084
0.092414729 0.063570723 0.29300001 4278792718
0.093366392 0.063570723 0.29300001 4278792716
0.09399616 0.063353762 0.29200003 4278859023
0.094944581 0.063353762 0.29200003 4278728207
0.095892996 0.063353762 0.29200003 4278728207
0.096841417 0.063353762 0.29200003 4278794254
0.097789824 0.063353762 0.29200003 4278663951
0.098400094 0.063136794 0.29100001 4278663951
0.099345259 0.063136794 0.29100001 4278795796
0.10029043 0.063136794 0.29100001 4279058970
0.10088772 0.062919833 0.29000002 4279124763
0.10182964 0.062919833 0.29000002 4279190043
0.10277156 0.062919833 0.29000002 4279452445
0.10371348 0.062919833 0.29000002 4279255066
0.10465539 0.062919833 0.29000002 4280107293
0.065133564 0.067825928 0.30800003 4278794004
0.06591922 0.067605712 0.30700001 4278859797
0.066916354 0.067605712 0.30700001 4278990613
0.067913495 0.067605712 0.30700001 4278924820
0.068686165 0.067385495 0.30600002 4279056152
0.069680057 0.067385495 0.30600002 4279055638
0.070442982 0.067165278 0.30500001 4279316762
0.071433619 0.067165278 0.30500001 4278196742
0.072186805 0.066945069 0.30400002 4278194176
0.073174201 0.066945069 0.30400002 4278986002
0.073917635 0.066724852 0.303 4279185943
0.074901782 0.066724852 0.303 4279185943
0.075635478 0.066504642 0.30200002 4279185941
0.076616377 0.066504642 0.30200002 4279383320
0.077340335 0.066284426 0.30100003 4279382809
0.078317977 0.066284426 0.30100003 4278789902
0.079032183 0.066064209 0.30000001 4278922771
0.079739906 0.065843999 0.29900002 4279317529
0.080711059 0.065843999 0.29900002 4278197250
0.081682198 0.065843999 0.29900002 4279053844
0.08237692 0.065623783 0.29800001 4279383320
0.083344825 0.065623783 0.29800001 4278461705
0.084029801 0.065403573 0.29700002 4278923023
0.084994465 0.065403573 0.29700002 4279121683
0.085669689 0.065183349 0.296 4278990097
0.086631089 0.065183349 0.296 4279121683
0.087296583 0.06496314 0.29500002 4279121683
0.08825475 0.06496314 0.29500002 4279187476
0.08891049 0.064742923 0.294 4279186711
0.089865401 0.064742923 0.294 4279119635
0.090511404 0.064522713 0.29300001 4279118099
0.091463074 0.064522713 0.29300001 4278262277
0.092414729 0.064522713 0.29300001 4278328324
0.093047746 0.064302504 0.29200003 4278197251
0.09399616 0.064302504 0.29200003 4278726160
0.094944581 0.064302504 0.29200003 4278595855
0.095892996 0.064302504 0.29200003 4278859023
0.096509762 0.06408228 0.29100001 4278727437
0.09745492 0.06408228 0.29100001 4278530828
0.098400094 0.06408228 0.29100001 4278662927
0.099345259 0.06408228 0.29100001 4278728720
0.10029043 0.06408228 0.29100001 4278663697
0.10088772 0.06386207 0.29000002 4278861076
0.10182964 0.06386207 0.29000002 4279058455
0.10277156 0.06386207 0.29000002 4279255064
0.10371348 0.06386207 0.29000002 4279123478
0.10465539 0.06386207 0.29000002 4279057172
0.10559732 0.06386207 0.29000002 4279713818
0.065133564 0.068826646 0.30800003 4279188762
0.06591922 0.06860318 0.30700001 4279254553
0.066916354 0.06860318 0.30700001 4279056404
0.067913495 0.06860318 0.30700001 4278991381
0.068686165 0.068379723 0.30600002 4278925588
0.069680057 0.068379723 0.30600002 4278859797
0.070442982 0.06815625 0.30500001 4278793750
0.071433619 0.06815625 0.30500001 4278858775
0.072186805 0.067932792 0.30400002 4279120920
0.073174201 0.067932792 0.30400002 4279250453
0.073917635 0.067709327 0.303 4278195713
0.074901782 0.067709327 0.303 4278262277
0.075635478 0.067485869 0.30200002 4278789902
0.076616377 0.067485869 0.30200002 4278988562
0.077340335 0.067262404 0.30100003 4279055638
0.078317977 0.067262404 0.30100003 4279055640
0.079032183 0.067038938 0.30000001 4278593806
0.079739906 0.066815481 0.29900002 4278593293
0.080711059 0.066815481 0.29900002 4279251736
0.081409015 0.066592008 0.29800001 4279186713
0.08237692 0.066592008 0.29800001 4278658316
0.083065145 0.06636855 0.29700002 4278854414
0.084029801 0.06636855 0.29700002 4278592009
0.084708281 0.066145085 0.296 4278328837
0.085669689 0.066145085 0.296 4280040737
0.086631089 0.066145085 0.296 4278857230
0.087296583 0.065921627 0.29500002 4278594058
0.08825475 0.065921627 0.29500002 4279252756
0.08891049 0.065698154 0.294 4279121683
0.089865401 0.065698154 0.294 4279056406
0.090511404 0.065474696 0.29300001 4279253271
0.091463074 0.065474696 0.29300001 4278923793
0.092099324 0.065251239 0.29200003 4279119635
0.093047746 0.065251239 0.29200003 4279250451
0.09399616 0.065251239 0.29200003 4278591755
0.094944581 0.065251239 0.29200003 4278196740
0.095564589 0.065027766 0.29100001 4278792207
0.096509762 0.065027766 0.29100001 4278990097
0.09745492 0.065027766 0.29100001 4279056404
0.098400094 0.065027766 0.29100001 4278596623
0.099345259 0.065027766 0.29100001 4278465037
0.099945791 0.064804308 0.29000002 4278728207
0.10088772 0.064804308 0.29000002 4278859793
0.10182964 0.064804308 0.29000002 4278925586
0.10277156 0.064804308 0.29000002 4278991892
0.10371348 0.064804308 0.29000002 4278991892
0.10465539 0.064804308 0.29000002 4279188758
0.10559732 0.064804308 0.29000002 4278991379
0.10653923 0.064804308 0.29000002 4279777565
0.064922087 0.069600657 0.30700001 4279647516
0.06591922 0.069600657 0.30700001 4279647514
0.066916354 0.069600657 0.30700001 4279516441
0.067913495 0.069600657 0.30700001 4279582234
0.068686165 0.06937395 0.30600002 4279385369
0.069680057 0.06937395 0.30600002 4279122199
0.070442982 0.069147229 0.30500001 4279056406
0.071433619 0.069147229 0.30500001 4278990613
0.072186805 0.068920523 0.30400002 4278990613
0.073174201 0.068920523 0.30400002 4279055892
0.073917635 0.068693802 0.303 4279186965
0.074901782 0.068693802 0.303 4279252504
0.075635478 0.068467095 0.30200002 4279249939
0.076616377 0.068467095 0.30200002 4278657289
0.077340335 0.068240389 0.30100003 4278196484
0.078317977 0.068240389 0.30100003 4278592269
0.079032183 0.068013668 0.30000001 4278988049
0.079739906 0.067786962 0.29900002 4279317527
0.080711059 0.067786962 0.29900002 4279319064
0.081409015 0.067560248 0.29800001 4279121685
0.08237692 0.067560248 0.29800001 4278790670
0.083065145 0.067333534 0.29700002 4279711002
0.084029801 0.067333534 0.29700002 4278459656
0.084708281 0.067106821 0.296 4278986002
0.085669689 0.067106821 0.296 4278920974
0.086338423 0.066880114 0.29500002 4279710236
0.087296583 0.066880114 0.29500002 4279644697
0.08825475 0.066880114 0.29500002 4278723593
0.08891049 0.066653393 0.294 4279055892
0.089865401 0.066653393 0.294 4278990613
0.090511404 0.066426687 0.29300001 4278858259
0.091463074 0.066426687 0.29300001 4279252758
0.092099324 0.066199973 0.29200003 4279449367
0.093047746 0.066199973 0.29200003 4279383574
0.09399616 0.066199973 0.29200003 4279383574
0.094944581 0.066199973 0.29200003 4278789388
0.095892996 0.066199973 0.29200003 4278855433
0.096509762 0.06597326 0.29100001 4279055377
0.09745492 0.06597326 0.29100001 4279187476
0.098400094 0.06597326 0.29100001 4279122197
0.099345259 0.06597326 0.29100001 4278859025
0.099945791 0.065746553 0.29000002 4278924818
0.10088772 0.065746553 0.29000002 4278859025
0.10182964 0.065746553 0.29000002 4278859025
0.10277156 0.065746553 0.29000002 4278990611
0.10371348 0.065746553 0.29000002 4278990611
0.10465539 0.065746553 0.29000002 4278991379
0.10559732 0.065746553 0.29000002 4279057172
0.10653923 0.065746553 0.29000002 4279253269
0.064922087 0.070598125 0.30700001 4284182618
0.06591922 0.070598125 0.30700001 4280696872
0.066916354 0.070598125 0.30700001 4280106012
0.06769228 0.070368171 0.30600002 4280106012
0.068686165 0.070368171 0.30600002 4279515928
0.069680057 0.070368171 0.30600002 4279648027
0.070442982 0.070138201 0.30500001 4279516955
0.071433619 0.070138201 0.30500001 4279385369
0.072186805 0.069908246 0.30400002 4279319576
0.073174201 0.069908246 0.30400002 4279056404
0.073917635 0.069678284 0.303 4279056404
0.074901782 0.069678284 0.303 4279056404
0.075635478 0.069448322 0.30200002 4279187992
0.076616377 0.069448322 0.30200002 4279252758
0.077340335 0.069218367 0.30100003 4279251988
0.078057781 0.068988398 0.30000001 4278791185
0.079032183 0.068988398 0.30000001 4278392580
0.079739906 0.068758443 0.29900002 4278393093
0.080711059 0.068758443 0.29900002 4278659084
0.081409015 0.068528473 0.29800001 4279251988
0.08237692 0.068528473 0.29800001 4279384342
0.083065145 0.068298519 0.29700002 4279515928
0.084029801 0.068298519 0.29700002 4279449367
0.084708281 0.068068549 0.296 4279514647
0.085669689 0.068068549 0.296 4279842842
0.086338423 0.067838594 0.29500002 4279315730
0.087296583 0.067838594 0.29500002 4279382809
0.08825475 0.067838594 0.29500002 4278920972
0.08891049 0.067608625 0.294 4279184658
0.089865401 0.067608625 0.294 4278197507
0.090511404 0.06737867 0.29300001 4278789900
0.091463074 0.06737867 0.29300001 4278921486
0.092414729 0.06737867 0.29300001 4279186965
0.093047746 0.067148708 0.29200003 4279186965
0.09399616 0.067148708 0.29200003 4279251988
0.094944581 0.067148708 0.29200003 4278592009
0.095892996 0.067148708 0.29200003 4279249939
0.096509762 0.066918746 0.29100001 4279449367
0.09745492 0.066918746 0.29100001 4279055890
0.098400094 0.066918746 0.29100001 4279121683
0.099345259 0.066918746 0.29100001 4279121683
0.10029043 0.066918746 0.29100001 4278859025
0.10088772 0.066688791 0.29000002 4278990611
0.10182964 0.066688791 0.29000002 4278727439
0.10277156 0.066688791 0.29000002 4278924818
0.10371348 0.066688791 0.29000002 4278859025
0.10465539 0.066688791 0.29000002 4278924816
0.10559732 0.066688791 0.29000002 4278924816
0.10653923 0.066688791 0.29000002 4279055888
0.06591922 0.071595602 0.30700001 4283983955
0.066916354 0.071595602 0.30700001 4283985239
0.06769228 0.071362399 0.30600002 4283524688
0.068686165 0.071362399 0.30600002 4280302627
0.069452338 0.07112918 0.30500001 4279711256
0.070442982 0.07112918 0.30500001 4279712537
0.071199417 0.070895977 0.30400002 4279581721
0.072186805 0.070895977 0.30400002 4279451162
0.073174201 0.070895977 0.30400002 4279451162
0.073917635 0.070662759 0.303 4279516955
0.074901782 0.070662759 0.303 4279385369
0.075635478 0.070429556 0.30200002 4279385369
0.076616377 0.070429556 0.30200002 4279385369
0.077340335 0.070196345 0.30100003 4279385369
0.078057781 0.069963135 0.30000001 4279319576
0.079032183 0.069963135 0.30000001 4279319578
0.079739906 0.069729924 0.29900002 4279450396
0.080711059 0.069729924 0.29900002 4279250453
