# .PCD v0.7 - Point Cloud Data file format
VERSION 0.7
FIELDS x y z rgb
SIZE 4 4 4 4
TYPE F F F U
COUNT 1 1 1 1
WIDTH 1093
HEIGHT 1
VIEWPOINT 0 0 0 1 0 0 0
POINTS 1093
DATA ascii
0.11341116 0.077327751 0.30600002 4280028169
0.11440504 0.077327751 0.30600002 4280290056
0.13430476 0.079096682 0.31300002 4286804326
0.13532139 0.079096682 0.31300002 4286019950
0.13633803 0.079096682 0.31300002 4286283122
0.08431273 0.076274335 0.29800001 4281147402
0.085280634 0.076274335 0.29800001 4281081355
0.086248539 0.076274335 0.29800001 4283243536
0.086923771 0.076018386 0.29700002 4284160529
0.087888427 0.076018386 0.29700002 4284683791
0.088853084 0.076018386 0.29700002 4284617998
0.089515321 0.075762428 0.296 4285077007
0.090476729 0.075762428 0.296 4285208590
0.091129236 0.075506479 0.29500002 4285338893
0.092087395 0.075506479 0.29500002 4285404686
0.092730135 0.075250521 0.294 4285799444
0.093685046 0.075250521 0.294 4285798674
0.094639964 0.075250521 0.294 4285996051
0.095594876 0.075250521 0.294 4285864465
0.096549787 0.075250521 0.294 4286061846
0.097504705 0.075250521 0.294 4285602324
0.098459609 0.075250521 0.294 4284619283
0.099752672 0.075506479 0.29500002 4284422161
0.10036944 0.075250521 0.294 4284750097
0.10132435 0.075250521 0.294 4285275156
0.10773294 0.077810064 0.30400002 4283246877
0.10907796 0.078066014 0.30500001 4284500026
0.1100686 0.078066014 0.30500001 4279832333
0.11105924 0.078066014 0.30500001 4279372297
0.11241727 0.078321978 0.30600002 4278978309
0.11341116 0.078321978 0.30600002 4279044102
0.11440504 0.078321978 0.30600002 4279044100
0.11577605 0.078577928 0.30700001 4279044354
0.11677318 0.078577928 0.30700001 4279830788
0.13430476 0.080113657 0.31300002 4287198823
0.13532139 0.080113657 0.31300002 4286217581
0.13633803 0.080113657 0.31300002 4286019950
0.08431273 0.077242576 0.29800001 4281345294
0.085280634 0.077242576 0.29800001 4281410574
0.085959122 0.07698337 0.29700002 4283177743
0.086923771 0.07698337 0.29700002 4284030226
0.087888427 0.07698337 0.29700002 4284290316
0.088553913 0.076724164 0.296 4284421132
0.089515321 0.076724164 0.296 4284748814
0.090171069 0.076464966 0.29500002 4284748044
0.091129236 0.076464966 0.29500002 4284945418
0.091775231 0.07620576 0.294 4285536785
0.092730135 0.07620576 0.294 4285733651
0.093685046 0.07620576 0.294 4286655012
0.094639964 0.07620576 0.294 4287908161
0.095594876 0.07620576 0.294 4285996053
0.096549787 0.07620576 0.294 4286192403
0.097504705 0.07620576 0.294 4285995283
0.098459609 0.07620576 0.294 4285602578
0.099752672 0.076464966 0.29500002 4285669141
0.10036944 0.07620576 0.294 4285209363
0.10132435 0.07620576 0.294 4285011984
0.10639441 0.078538589 0.303 4283571218
0.10737855 0.078538589 0.303 4282724135
0.10872033 0.078797795 0.30400002 4280226059
0.1100686 0.079056993 0.30500001 4279374348
0.11105924 0.079056993 0.30500001 4278848004
0.11204989 0.079056993 0.30500001 4278650627
0.11341116 0.079316199 0.30600002 4278782213
0.11440504 0.079316199 0.30600002 4278913027
0.11539894 0.079316199 0.30600002 4278781441
0.11677318 0.079575405 0.30700001 4278913281
0.11777031 0.079575405 0.30700001 4279964171
0.12415624 0.07983461 0.30800003 4286217833
0.12556298 0.080093808 0.30900002 4286413166
0.1328623 0.080871418 0.31200001 4284030487
0.13387567 0.080871418 0.31200001 4287656805
0.13532139 0.081130624 0.31300002 4286414703
0.13633803 0.081130624 0.31300002 4286348656
0.13779347 0.081389822 0.31400001 4286217329
0.13881335 0.081389822 0.31400001 4286020720
0.084029801 0.077948347 0.29700002 4281213193
0.084994465 0.077948347 0.29700002 4281540877
0.085959122 0.077948347 0.29700002 4283111952
0.086923771 0.077948347 0.29700002 4283833360
0.087888427 0.077948347 0.29700002 4284226320
0.088553913 0.077685893 0.296 4284422929
0.089515321 0.077685893 0.296 4284290316
0.090171069 0.077423446 0.29500002 4284683791
0.091129236 0.077423446 0.29500002 4284814605
0.091775231 0.077160984 0.294 4285142800
0.092730135 0.077160984 0.294 4285668371
0.093366392 0.076898538 0.29300001 4285668371
0.094318062 0.076898538 0.29300001 4291067770
0.095269725 0.076898538 0.29300001 4285539109
0.096549787 0.077160984 0.294 4285930258
0.097504705 0.077160984 0.294 4285995281
0.098459609 0.077160984 0.294 4285995281
0.099752672 0.077423446 0.29500002 4285995281
0.10036944 0.077160984 0.294 4285669148
0.10373684 0.078998163 0.30100003 4284617998
0.10506238 0.07926061 0.30200002 4283110151
0.10639441 0.079523057 0.303 4282194957
0.10737855 0.079523057 0.303 4279766278
0.10872033 0.079785518 0.30400002 4280426520
0.10970772 0.079785518 0.30400002 4279769363
0.11105924 0.080047965 0.30500001 4278913799
0.11204989 0.080047965 0.30500001 4278650627
0.11304052 0.080047965 0.30500001 4278782213
0.11440504 0.080310419 0.30600002 4278782213
0.11539894 0.080310419 0.30600002 4278848004
0.11639281 0.080310419 0.30600002 4281216806
0.11777031 0.080572866 0.30700001 4280295702
0.11876746 0.080572866 0.30700001 4280486919
0.12215549 0.080835328 0.30800003 4288185202
0.12315586 0.080835328 0.30800003 4286283626
0.12415624 0.080835328 0.30800003 4286152558
0.12556298 0.081097774 0.30900002 4286349683
0.12656662 0.081097774 0.30900002 4281410333
0.1328623 0.081885129 0.31200001 4284029974
0.13387567 0.081885129 0.31200001 4287325530
0.13488905 0.081885129 0.31200001 4286217324
0.13633803 0.082147583 0.31300002 4286085484
0.13779347 0.082410038 0.31400001 4286283892
0.13881335 0.082410038 0.31400001 4286152306
0.084029801 0.078913331 0.29700002 4281936916
0.084994465 0.078913331 0.29700002 4281343496
0.085959122 0.078913331 0.29700002 4282718221
0.086923771 0.078913331 0.29700002 4283176460
0.087888427 0.078913331 0.29700002 4283701520
0.088553913 0.078647628 0.296 4283701261
0.089212909 0.078381933 0.29500002 4284158989
0.090171069 0.078381933 0.29500002 4284290318
0.090820312 0.078116223 0.294 4284618509
0.091775231 0.078116223 0.294 4284749582
0.092414729 0.077850528 0.29300001 4285142797
0.093366392 0.077850528 0.29300001 4285865237
0.094318062 0.077850528 0.29300001 4285341723
0.095269725 0.077850528 0.29300001 4291134081
0.096549787 0.078116223 0.294 4285864983
0.097504705 0.078116223 0.294 4285930258
0.098794512 0.078381933 0.29500002 4285995281
0.10009081 0.078647628 0.296 4285535500
0.1024178 0.079710439 0.30000001 4285077009
0.10373684 0.079976141 0.30100003 4284157960
0.10506238 0.080241837 0.30200002 4281931533
0.10604327 0.080241837 0.30200002 4279962372
0.10737855 0.080507539 0.303 4279373832
0.10836269 0.080507539 0.303 4278980101
0.10970772 0.080773242 0.30400002 4281677614
0.11069512 0.080773242 0.30400002 4279045383
0.11168251 0.080773242 0.30400002 4278848006
0.11304052 0.081038944 0.30500001 4279308555
0.11403117 0.081038944 0.30500001 4279111176
0.11502181 0.081038944 0.30500001 4278848004
0.11639281 0.081304647 0.30600002 4279242762
0.11738671 0.081304647 0.30600002 4279769358
0.11876746 0.08157035 0.30700001 4279898889
0.1197646 0.08157035 0.30700001 4280158722
0.12076173 0.08157035 0.30700001 4287596661
0.12175887 0.08157035 0.30700001 4286611310
0.12315586 0.081836052 0.30800003 4286283120
0.12415624 0.081836052 0.30800003 4286480501
0.12515663 0.081836052 0.30800003 4285889134
0.13243645 0.082633153 0.31100002 4283964692
0.13387567 0.082898855 0.31200001 4285942594
0.13488905 0.082898855 0.31200001 4286085484
0.13590243 0.082898855 0.31200001 4286217329
0.13779347 0.083430253 0.31400001 4286086513
0.13881335 0.083430253 0.31400001 4285823341
0.083065145 0.079878323 0.29700002 4281017361
0.084029801 0.079878323 0.29700002 4281280017
0.084994465 0.079878323 0.29700002 4281475343
0.085959122 0.079878323 0.29700002 4282259471
0.086923771 0.079878323 0.29700002 4282586381
0.087592505 0.079609364 0.296 4283242255
0.088553913 0.079609364 0.296 4283373071
0.089212909 0.079340421 0.29500002 4283569675
0.090171069 0.079340421 0.29500002 4283765771
0.090820312 0.079071462 0.294 4284224780
0.091775231 0.079071462 0.294 4284421132
0.092414729 0.078802519 0.29300001 4284880398
0.093366392 0.078802519 0.29300001 4285011214
0.094318062 0.078802519 0.29300001 4285470227
0.095269725 0.078802519 0.29300001 4286523430
0.096549787 0.079071462 0.294 4286391329
0.097504705 0.079071462 0.294 4285864983
0.098794512 0.079340421 0.29500002 4285931030
0.10042896 0.079878323 0.29700002 4285273613
0.1024178 0.080685169 0.30000001 4284355337
0.10373684 0.080954127 0.30100003 4283173893
0.10471449 0.080954127 0.30100003 4280224261
0.10604327 0.081223071 0.30200002 4280161811
0.10737855 0.081492022 0.303 4281611819
0.10836269 0.081492022 0.303 4279111430
0.10934684 0.081492022 0.303 4279506445
0.11069512 0.081760973 0.30400002 4280690465
0.11168251 0.081760973 0.30400002 4280229914
0.11266991 0.081760973 0.30400002 4280361497
0.11403117 0.082029924 0.30500001 4279702543
0.11502181 0.082029924 0.30500001 4279769106
0.11601244 0.082029924 0.30500001 4279243016
0.11738671 0.082298875 0.30600002 4280822048
0.1183806 0.082298875 0.30600002 4280163346
0.11937448 0.082298875 0.30600002 4280097040
0.12076173 0.082567826 0.30700001 4286677875
0.12175887 0.082567826 0.30700001 4286546289
0.122756 0.082567826 0.30700001 4286348658
0.12415624 0.082836777 0.30800003 4286283124
0.12515663 0.082836777 0.30800003 4286020722
0.13243645 0.08364363 0.31100002 4283898901
0.13344659 0.08364363 0.31100002 4284888111
0.13445672 0.08364363 0.31100002 4286151534
0.13546684 0.08364363 0.31100002 4286283120
0.13603814 0.083374672 0.31 4286019950
0.13704503 0.083374672 0.31 4286151536
0.083065145 0.080843307 0.29700002 4281017872
0.084029801 0.080843307 0.29700002 4281149460
0.084994465 0.080843307 0.29700002 4281280019
0.085959122 0.080843307 0.29700002 4282260498
0.086923771 0.080843307 0.29700002 4282587666
0.087888427 0.080843307 0.29700002 4282783760
0.088553913 0.0805711 0.296 4282915086
0.089212909 0.080298908 0.29500002 4283110667
0.090171069 0.080298908 0.29500002 4283307276
0.090820312 0.080026701 0.294 4283765771
0.091775231 0.080026701 0.294 4283962378
0.092414729 0.079754502 0.29300001 4284290316
0.093366392 0.079754502 0.29300001 4284618511
0.094318062 0.079754502 0.29300001 4285142800
0.095269725 0.079754502 0.29300001 4285536531
0.096549787 0.080026701 0.294 4285930776
0.09783636 0.080298908 0.29500002 4285930776
0.099129401 0.0805711 0.296 4285601811
0.10076711 0.081115499 0.29800001 4285141773
0.1024178 0.081659898 0.30000001 4283765771
0.10373684 0.081932105 0.30100003 4281928455
0.10471449 0.081932105 0.30100003 4279503620
0.10604327 0.082204305 0.30200002 4282730041
0.10702417 0.082204305 0.30200002 4279571727
0.10836269 0.082476497 0.303 4279374607
0.10934684 0.082476497 0.303 4281743405
0.11033098 0.082476497 0.303 4280822303
0.11131513 0.082476497 0.303 4280822046
0.11266991 0.082748704 0.30400002 4287730309
0.1136573 0.082748704 0.30400002 4283651402
0.11464469 0.082748704 0.30400002 4282993472
0.11601244 0.083020896 0.30500001 4281151270
0.11700308 0.083020896 0.30500001 4280690462
0.1183806 0.083293103 0.30600002 4280887841
0.11937448 0.083293103 0.30600002 4279110658
0.12036838 0.083293103 0.30600002 4286283122
0.12136227 0.083293103 0.30600002 4286217329
0.12235615 0.083293103 0.30600002 4286348915
0.12375314 0.083565302 0.30700001 4286283122
0.12515663 0.083837502 0.30800003 4286152306
0.12615702 0.083837502 0.30800003 4283978827
0.13201061 0.084381893 0.31 4283897105
0.1330175 0.084381893 0.31 4284425759
0.13445672 0.0846541 0.31100002 4286413931
0.13546684 0.0846541 0.31100002 4286151534
0.13603814 0.084381893 0.31 4286151536
0.13704503 0.084381893 0.31 4286151536
0.083065145 0.081808291 0.29700002 4280820495
0.084029801 0.081808291 0.29700002 4281017874
0.084994465 0.081808291 0.29700002 4281083154
0.085959122 0.081808291 0.29700002 4281933586
0.086923771 0.081808291 0.29700002 4282128398
0.087888427 0.081808291 0.29700002 4282389774
0.088553913 0.081532836 0.296 4282257416
0.089515321 0.081532836 0.296 4282519561
0.090171069 0.081257388 0.29500002 4282782217
0.090820312 0.08098194 0.294 4282978311
0.091775231 0.08098194 0.294 4283437065
0.092414729 0.080706492 0.29300001 4284224782
0.093366392 0.080706492 0.29300001 4284421904
0.094318062 0.080706492 0.29300001 4284683791
0.095594876 0.08098194 0.294 4284945423
0.096549787 0.08098194 0.294 4285404945
0.09783636 0.081257388 0.29500002 4285404945
0.099129401 0.081532836 0.296 4285208336
0.10076711 0.082083732 0.29800001 4284945164
0.1024178 0.082634635 0.30000001 4282716424
0.10373684 0.082910091 0.30100003 4280485890
0.10471449 0.082910091 0.30100003 4279768077
0.10604327 0.083185531 0.30200002 4279439112
0.10702417 0.083185531 0.30200002 4279110406
0.10836269 0.083460979 0.303 4282007349
0.10934684 0.083460979 0.303 4280427036
0.11033098 0.083460979 0.303 4280294680
0.11131513 0.083460979 0.303 4283321660
0.11229927 0.083460979 0.303 4286940025
0.11328342 0.083460979 0.303 4280953129
0.11464469 0.083736435 0.30400002 4280756003
0.11563208 0.083736435 0.30400002 4280756258
0.11700308 0.084011875 0.30500001 4280558879
0.11799373 0.084011875 0.30500001 4279965969
0.11898436 0.084011875 0.30500001 4279834383
0.11997501 0.084011875 0.30500001 4286678650
0.12096565 0.084011875 0.30500001 4286020720
0.12235615 0.084287331 0.30600002 4286283122
0.12335004 0.084287331 0.30600002 4286152308
0.12475027 0.084562778 0.30700001 4286020722
0.13201061 0.085389122 0.31 4284094995
0.1330175 0.085389122 0.31 4284623906
0.13402438 0.085389122 0.31 4286085738
0.13503125 0.085389122 0.31 4286217329
0.13603814 0.085389122 0.31 4286283124
0.13704503 0.085389122 0.31 4286019952
0.08431273 0.083051965 0.29800001 4280820495
0.084994465 0.082773268 0.29700002 4280820495
0.085959122 0.082773268 0.29700002 4281934099
0.086923771 0.082773268 0.29700002 4281997326
0.087888427 0.082773268 0.29700002 4282258188
0.088553913 0.082494564 0.296 4282389002
0.089515321 0.082494564 0.296 4282323209
0.090171069 0.082215868 0.29500002 4282454795
0.091129236 0.082215868 0.29500002 4282585608
0.091775231 0.081937164 0.294 4282912520
0.092730135 0.081937164 0.294 4283897103
0.093366392 0.081658475 0.29300001 4284094482
0.094318062 0.081658475 0.29300001 4284224782
0.095594876 0.081937164 0.294 4284224523
0.096549787 0.081937164 0.294 4284683791
0.09783636 0.082215868 0.29500002 4284880400
0.099129401 0.082494564 0.296 4284617228
0.10110525 0.083330661 0.29900002 4284223755
0.1024178 0.083609357 0.30000001 4281731592
0.10373684 0.083888061 0.30100003 4280685325
0.10506238 0.084166758 0.30200002 4279571981
0.10604327 0.084166758 0.30200002 4281413415
0.10702417 0.084166758 0.30200002 4281544997
0.10800506 0.084166758 0.30200002 4281940782
0.10898596 0.084166758 0.30200002 4280886819
0.11033098 0.084445447 0.303 4283913547
0.11131513 0.084445447 0.303 4284046407
0.11229927 0.084445447 0.303 4282662188
0.11328342 0.084445447 0.303 4283121973
0.11426757 0.084445447 0.303 4282596141
0.11563208 0.084724151 0.30400002 4280689429
0.11661947 0.084724151 0.30400002 4280887837
0.11799373 0.085002847 0.30500001 4280887841
0.11859426 0.084724151 0.30400002 4280295704
0.11958165 0.084724151 0.30400002 4286218099
0.12056905 0.084724151 0.30400002 4285955697
0.12195628 0.085002847 0.30500001 4286153076
0.12294693 0.085002847 0.30500001 4286020720
0.12434392 0.085281551 0.30600002 4286020722
0.12574741 0.08556024 0.30700001 4282135342
0.13158478 0.08611764 0.30900002 4283898386
0.1330175 0.086396337 0.31 4284558626
0.13402438 0.086396337 0.31 4286085736
0.13503125 0.086396337 0.31 4285889136
0.13603814 0.086396337 0.31 4285823089
0.13704503 0.086396337 0.31 4285888882
0.085280634 0.084020197 0.29800001 4280819982
0.085959122 0.083738253 0.29700002 4282132762
0.086923771 0.083738253 0.29700002 4281865740
0.087888427 0.083738253 0.29700002 4282323211
0.088553913 0.0834563 0.296 4282257418
0.089515321 0.0834563 0.296 4282388488
0.090171069 0.083174355 0.29500002 4282454281
0.091129236 0.083174355 0.29500002 4282585867
0.091775231 0.082892403 0.294 4282914319
0.092730135 0.082892403 0.294 4283176462
0.093685046 0.082892403 0.294 4283504143
0.094639964 0.082892403 0.294 4283635214
0.095594876 0.082892403 0.294 4284095249
0.096549787 0.082892403 0.294 4284292113
0.09783636 0.083174355 0.29500002 4284357136
0.099129401 0.0834563 0.296 4284224528
0.1014434 0.084584087 0.30000001 4283239688
0.10275919 0.084866039 0.30100003 4280683017
0.10373684 0.084866039 0.30100003 4280490001
0.10506238 0.085147984 0.30200002 4282928451
0.10604327 0.085147984 0.30200002 4284901987
0.10702417 0.085147984 0.30200002 4281282599
0.10800506 0.085147984 0.30200002 4280756255
0.10898596 0.085147984 0.30200002 4280887841
0.10996686 0.085147984 0.30200002 4282730043
0.11094776 0.085147984 0.30200002 4281873185
0.11192866 0.085147984 0.30200002 4282069533
0.11290955 0.085147984 0.30200002 4284173610
0.11426757 0.085429929 0.303 4283845669
0.11525171 0.085429929 0.303 4282727463
0.11661947 0.085711882 0.30400002 4280820497
0.11760686 0.085711882 0.30400002 4280756253
0.11859426 0.085711882 0.30400002 4279111430
0.11958165 0.085711882 0.30400002 4285889136
0.12056905 0.085711882 0.30400002 4286152306
0.12155643 0.085711882 0.30400002 4286152308
0.12254383 0.085711882 0.30400002 4286152308
0.12434392 0.086275779 0.30600002 4286086515
0.12574741 0.086557716 0.30700001 4281475613
0.13158478 0.087121613 0.30900002 4283897870
0.13258842 0.087121613 0.30900002 4284951328
0.13402438 0.087403558 0.31 4286216039
0.13503125 0.087403558 0.31 4285757548
0.13603814 0.087403558 0.31 4285955699
0.13704503 0.087403558 0.31 4285955699
0.086923771 0.084703237 0.29700002 4282063121
0.087888427 0.084703237 0.29700002 4282323979
0.088553913 0.084418036 0.296 4282389002
0.089515321 0.084418036 0.296 4282323209
0.090171069 0.084132843 0.29500002 4282389002
0.091129236 0.084132843 0.29500002 4282454795
0.092087395 0.084132843 0.29500002 4282586381
0.092730135 0.083847642 0.294 4282914573
0.093685046 0.083847642 0.294 4283045389
0.094639964 0.083847642 0.294 4283308048
0.095594876 0.083847642 0.294 4283438862
0.096878193 0.084132843 0.29500002 4283833360
0.098168001 0.084418036 0.296 4283767054
0.099464305 0.084703237 0.29700002 4283635214
0.1014434 0.085558824 0.30000001 4282518278
0.10275919 0.085844025 0.30100003 4280224778
0.10373684 0.085844025 0.30100003 4281937961
0.10506238 0.086129218 0.30200002 4285295972
0.10604327 0.086129218 0.30200002 4280624417
0.10702417 0.086129218 0.30200002 4280952610
0.10800506 0.086129218 0.30200002 4280952610
0.10898596 0.086129218 0.30200002 4280360727
0.10996686 0.086129218 0.30200002 4282400308
0.11094776 0.086129218 0.30200002 4281016597
0.11192866 0.086129218 0.30200002 4281607701
0.11290955 0.086129218 0.30200002 4284237860
0.11389045 0.086129218 0.30200002 4286081084
0.11487134 0.086129218 0.30200002 4281147400
0.11661947 0.086699612 0.30400002 4280819468
0.11760686 0.086699612 0.30400002 4280491796
0.11820414 0.086414412 0.303 4279242244
0.11918829 0.086414412 0.303 4286283890
0.12017243 0.086414412 0.303 4286283892
0.12115657 0.086414412 0.303 4286218101
0.12254383 0.086699612 0.30400002 4286152308
0.12393757 0.086984806 0.30500001 4286085234
0.12533781 0.087270007 0.30600002 4281605664
0.12674455 0.087555192 0.30700001 4283307024
0.12915818 0.087840393 0.30800003 4283568651
0.13015856 0.087840393 0.30800003 4283766030
0.13158478 0.088125587 0.30900002 4284552720
0.13258842 0.088125587 0.30900002 4285210137
0.13402438 0.08841078 0.31 4285217074
0.13503125 0.08841078 0.31 4286607719
0.13603814 0.08841078 0.31 4285823341
0.13704503 0.08841078 0.31 4286086515
0.086923771 0.085668221 0.29700002 4282261016
0.087888427 0.085668221 0.29700002 4282389002
0.088853084 0.085668221 0.29700002 4282454795
0.089515321 0.085379772 0.296 4282389002
0.090476729 0.085379772 0.296 4281534465
0.091129236 0.08509133 0.29500002 4284103733
0.092087395 0.08509133 0.29500002 4282788127
0.093045548 0.08509133 0.29500002 4282718737
0.093685046 0.084802881 0.294 4282586381
0.094639964 0.084802881 0.294 4282782987
0.095920034 0.08509133 0.29500002 4282913803
0.096878193 0.08509133 0.29500002 4283308048
0.098168001 0.085379772 0.296 4283833620
0.099799193 0.085956663 0.29800001 4283307276
0.1014434 0.086533554 0.30000001 4282125830
0.10275919 0.086822003 0.30100003 4279766278
0.10373684 0.086822003 0.30100003 4279899661
0.10506238 0.087110445 0.30200002 4279702030
0.10604327 0.087110445 0.30200002 4280556569
0.10702417 0.087110445 0.30200002 4281018403
0.10800506 0.087110445 0.30200002 4281018144
0.10898596 0.087110445 0.30200002 4282137136
0.10996686 0.087110445 0.30200002 4281677355
0.11094776 0.087110445 0.30200002 4280753171
0.11192866 0.087110445 0.30200002 4280555015
0.11290955 0.087110445 0.30200002 4281344263
0.11389045 0.087110445 0.30200002 4281475847
0.11487134 0.087110445 0.30200002 4281016845
0.11585224 0.087110445 0.30200002 4280557325
0.11683314 0.087110445 0.30200002 4280293647
0.11781403 0.087110445 0.30200002 4282795064
0.11879493 0.087110445 0.30200002 4286021742
0.11977582 0.087110445 0.30200002 4286349685
0.12075672 0.087110445 0.30200002 4286283892
0.12214071 0.087398887 0.303 4286218101
0.12393757 0.087975778 0.30500001 4287202432
0.12533781 0.088264227 0.30600002 4282193437
0.12674455 0.088552669 0.30700001 4283437837
0.12815779 0.088841125 0.30800003 4283502347
0.12915818 0.088841125 0.30800003 4283896587
0.13015856 0.088841125 0.30800003 4284093196
0.13158478 0.08912956 0.30900002 4284815379
0.13258842 0.08912956 0.30900002 4285275160
0.13402438 0.089418001 0.31 4285472537
0.13503125 0.089418001 0.31 4286003510
0.13603814 0.089418001 0.31 4285954157
0.13704503 0.089418001 0.31 4285889134
0.086923771 0.086633198 0.29700002 4281539861
0.087888427 0.086633198 0.29700002 4282586383
0.088853084 0.086633198 0.29700002 4282717967
0.089515321 0.0863415 0.296 4282585867
0.090476729 0.0863415 0.296 4282983194
0.091438144 0.0863415 0.296 4286480753
0.092087395 0.08604981 0.29500002 4286678648
0.093045548 0.08604981 0.29500002 4285688673
0.094003707 0.08604981 0.29500002 4281870623
0.094961874 0.08604981 0.29500002 4282523156
0.095920034 0.08604981 0.29500002 4282192908
0.096878193 0.08604981 0.29500002 4282781963
0.09783636 0.08604981 0.29500002 4283570450
0.1001341 0.087216586 0.29900002 4284757804
0.1014434 0.087508276 0.30000001 4281737238
0.10275919 0.087799981 0.30100003 4279898378
0.10408148 0.088091671 0.30200002 4279505418
0.10506238 0.088091671 0.30200002 4280887841
0.10604327 0.088091671 0.30200002 4280886817
0.10702417 0.088091671 0.30200002 4281413415
0.10800506 0.088091671 0.30200002 4280886556
0.10898596 0.088091671 0.30200002 4280689175
0.10996686 0.088091671 0.30200002 4281873962
0.11094776 0.088091671 0.30200002 4281937949
0.11192866 0.088091671 0.30200002 4281345546
0.11290955 0.088091671 0.30200002 4280950023
0.11389045 0.088091671 0.30200002 4280818950
0.11487134 0.088091671 0.30200002 4281017361
0.11585224 0.088091671 0.30200002 4280688911
0.11683314 0.088091671 0.30200002 4280359694
0.11781403 0.088091671 0.30200002 4286809459
0.11879493 0.088091671 0.30200002 4286349683
0.11977582 0.088091671 0.30200002 4286283892
0.12075672 0.088091671 0.30200002 4286153078
0.12173761 0.088091671 0.30200002 4286021238
0.12393757 0.08896675 0.30500001 4286081386
0.12533781 0.089258447 0.30600002 4283111711
0.12674455 0.089550138 0.30700001 4283765519
0.12815779 0.089841835 0.30800003 4283699726
0.12915818 0.089841835 0.30800003 4283962126
0.13015856 0.089841835 0.30800003 4284093712
0.13158478 0.090133525 0.30900002 4284881170
0.13258842 0.090133525 0.30900002 4285275158
0.13402438 0.090425216 0.31 4285733912
0.13503125 0.090425216 0.31 4285932061
0.13603814 0.090425216 0.31 4287593583
0.13704503 0.090425216 0.31 4286348140
0.087888427 0.087598182 0.29700002 4282587153
0.088853084 0.087598182 0.29700002 4282717969
0.08981774 0.087598182 0.29700002 4282849039
0.090782404 0.087598182 0.29700002 4283904294
0.091438144 0.087303236 0.296 4286612855
0.092399552 0.087303236 0.296 4286614140
0.093045548 0.087008297 0.29500002 4286482556
0.094003707 0.087008297 0.29500002 4286612605
0.094961874 0.087008297 0.29500002 4281999129
0.095920034 0.087008297 0.29500002 4281865488
0.096878193 0.087008297 0.29500002 4282849041
0.09783636 0.087008297 0.29500002 4283635729
0.10046899 0.088483013 0.30000001 4287856755
0.10178155 0.088777959 0.30100003 4286085486
0.10275919 0.088777959 0.30100003 4279504651
0.10408148 0.089072898 0.30200002 4279176453
0.10506238 0.089072898 0.30200002 4280229911
0.10604327 0.089072898 0.30200002 4279440395
0.10702417 0.089072898 0.30200002 4281085223
0.10800506 0.089072898 0.30200002 4280557591
0.10898596 0.089072898 0.30200002 4280819991
0.10996686 0.089072898 0.30200002 4283321149
0.11094776 0.089072898 0.30200002 4281347609
0.11192866 0.089072898 0.30200002 4282399004
0.11290955 0.089072898 0.30200002 4283055649
0.11389045 0.089072898 0.30200002 4281213193
0.11487134 0.089072898 0.30200002 4280819980
0.11585224 0.089072898 0.30200002 4280688398
0.11683314 0.089072898 0.30200002 4279044864
0.11781403 0.089072898 0.30200002 4286283890
0.11879493 0.089072898 0.30200002 4286218101
0.11977582 0.089072898 0.30200002 4286153078
0.12075672 0.089072898 0.30200002 4286021238
0.12173761 0.089072898 0.30200002 4285955445
0.12393757 0.089957729 0.30500001 4283114278
0.12533781 0.090252675 0.30600002 4283766300
0.12674455 0.090547614 0.30700001 4284026897
0.12815779 0.090842567 0.30800003 4284224528
0.12915818 0.090842567 0.30800003 4284224271
0.13015856 0.090842567 0.30800003 4284355341
0.13158478 0.091137506 0.30900002 4285077779
0.13258842 0.091137506 0.30900002 4285734682
0.13402438 0.091432445 0.31 4285930778
0.13503125 0.091432445 0.31 4286128157
0.13603814 0.091432445 0.31 4283112465
0.13704503 0.091432445 0.31 4286478182
0.091438144 0.088264972 0.296 4286416250
0.092399552 0.088264972 0.296 4286350970
0.093360953 0.088264972 0.296 4286416763
0.094322361 0.088264972 0.296 4286613375
0.094961874 0.087966785 0.29500002 4281604632
0.096245185 0.088264972 0.296 4282128148
0.097206593 0.088264972 0.296 4282980625
0.099494599 0.089457743 0.30000001 4283702036
0.10046899 0.089457743 0.30000001 4287398516
0.10178155 0.089755945 0.30100003 4286810236
0.10310058 0.090054132 0.30200002 4279043849
0.10408148 0.090054132 0.30200002 4281347622
0.10506238 0.090054132 0.30200002 4280888098
0.10639441 0.090352319 0.303 4279308812
0.10737855 0.090352319 0.303 4281414185
0.10836269 0.090352319 0.303 4281413413
0.10934684 0.090352319 0.303 4280820763
0.11033098 0.090352319 0.303 4282399023
0.11131513 0.090352319 0.303 4280623636
0.11229927 0.090352319 0.303 4280623634
0.11328342 0.090352319 0.303 4281740822
0.11426757 0.090352319 0.303 4281741336
0.11563208 0.090650514 0.30400002 4281017363
0.11623584 0.090352319 0.303 4279964423
0.11721999 0.090352319 0.303 4285822566
0.11820414 0.090352319 0.303 4286348913
0.11879493 0.090054132 0.30200002 4286349685
0.11977582 0.090054132 0.30200002 4286283894
0.12075672 0.090054132 0.30200002 4286020722
0.12173761 0.090054132 0.30200002 4287203969
0.12393757 0.090948708 0.30500001 4283767843
0.12533781 0.091246903 0.30600002 4283962648
0.12674455 0.09154509 0.30700001 4284224271
0.12815779 0.091843292 0.30800003 4284421650
0.12915818 0.091843292 0.30800003 4284420880
0.13015856 0.091843292 0.30800003 4284683793
0.13158478 0.092141479 0.30900002 4284616206
0.13258842 0.092141479 0.30900002 4292184204
0.13402438 0.092439666 0.31 4285865248
0.13503125 0.092439666 0.31 4285864987
0.13603814 0.092439666 0.31 4284883228
0.13704503 0.092439666 0.31 4287790448
0.092399552 0.089226708 0.296 4286416763
0.093360953 0.089226708 0.296 4286482302
0.094322361 0.089226708 0.296 4286744193
0.095283769 0.089226708 0.296 4282130976
0.096245185 0.089226708 0.296 4282129432
0.097534999 0.089528158 0.29700002 4283046159
0.099162951 0.090131037 0.29900002 4283701522
0.10046899 0.09043248 0.30000001 4287333752
0.10178155 0.090733923 0.30100003 4286482556
0.10310058 0.091035359 0.30200002 4279965464
0.10408148 0.091035359 0.30200002 4279703313
0.10541026 0.091336802 0.303 4280559903
0.10639441 0.091336802 0.303 4279308812
0.10737855 0.091336802 0.303 4279373830
0.10836269 0.091336802 0.303 4281808171
0.10934684 0.091336802 0.303 4281873964
0.11033098 0.091336802 0.303 4281347105
0.11131513 0.091336802 0.303 4282926904
0.11229927 0.091336802 0.303 4280821274
0.11328342 0.091336802 0.303 4280492309
0.11426757 0.091336802 0.303 4280426516
0.11563208 0.091638245 0.30400002 4279505416
0.11623584 0.091336802 0.303 4279702282
0.11721999 0.091336802 0.303 4286151788
0.11820414 0.091336802 0.303 4286217327
0.11918829 0.091336802 0.303 4286152306
0.12017243 0.091336802 0.303 4286218099
0.12075672 0.091035359 0.30200002 4286217077
0.12173761 0.091035359 0.30200002 4282133291
0.12393757 0.091939688 0.30500001 4284094234
0.12533781 0.092241131 0.30600002 4284355089
0.12674455 0.092542566 0.30700001 4284421134
0.12815779 0.092844017 0.30800003 4284421134
0.12915818 0.092844017 0.30800003 4284552720
0.13015856 0.092844017 0.30800003 4284749584
0.13158478 0.093145452 0.30900002 4285274129
0.13258842 0.093145452 0.30900002 4285075984
0.13402438 0.093446888 0.31 4287509819
0.13503125 0.093446888 0.31 4286260004
0.13603814 0.093446888 0.31 4285275678
0.13704503 0.093446888 0.31 4288181354
0.08981774 0.090493135 0.29700002 4283569936
0.090782404 0.090493135 0.29700002 4285087285
0.092399552 0.090188436 0.296 4286547836
0.093360953 0.090188436 0.296 4286547836
0.094322361 0.090188436 0.296 4286612605
0.095283769 0.090188436 0.296 4281605916
0.096570343 0.090493135 0.29700002 4282063639
0.097534999 0.090493135 0.29700002 4283176975
0.099162951 0.091102518 0.29900002 4283898899
0.10046899 0.091407202 0.30000001 4287070065
0.10178155 0.091711894 0.30100003 4286283892
0.10310058 0.092016585 0.30200002 4282270018
0.10408148 0.092016585 0.30200002 4279374607
0.10541026 0.092321269 0.303 4279175940
0.10639441 0.092321269 0.303 4280952864
0.10737855 0.092321269 0.303 4279506188
0.10836269 0.092321269 0.303 4279110660
0.10970772 0.092625968 0.30400002 4280163348
0.11069512 0.092625968 0.30400002 4280557593
0.11168251 0.092625968 0.30400002 4279307524
0.11266991 0.092625968 0.30400002 4279571209
0.1136573 0.092625968 0.30400002 4280427288
0.11464469 0.092625968 0.30400002 4279834129
0.11563208 0.092625968 0.30400002 4278846721
0.11661947 0.092625968 0.30400002 4286348656
0.11760686 0.092625968 0.30400002 4286283120
0.11859426 0.092625968 0.30400002 4286414708
0.11958165 0.092625968 0.30400002 4286086515
0.12017243 0.092321269 0.303 4286086515
0.12115657 0.092321269 0.303 4287201662
0.12214071 0.092321269 0.303 4282719522
0.12393757 0.092930652 0.30500001 4284553238
0.12533781 0.093235351 0.30600002 4284552720
0.12674455 0.093540035 0.30700001 4284486414
0.12815779 0.093844734 0.30800003 4284683791
0.12915818 0.093844734 0.30800003 4284617998
0.13015856 0.093844734 0.30800003 4284683791
0.13158478 0.094149418 0.30900002 4285011214
0.13258842 0.094149418 0.30900002 4285274129
0.13402438 0.094454102 0.31 4285733912
0.13503125 0.094454102 0.31 4285997086
0.13603814 0.094454102 0.31 4285013019
0.13704503 0.094454102 0.31 4288247149
0.087216437 0.091766052 0.29800001 4284437581
0.088184342 0.091766052 0.29800001 4282849557
0.08981774 0.091458119 0.29700002 4283701520
0.090782404 0.091458119 0.29700002 4284624421
0.092711717 0.091458119 0.29700002 4286547834
0.093676366 0.091458119 0.29700002 4286482043
0.094322361 0.091150172 0.296 4286153078
0.095605679 0.091458119 0.29700002 4281672994
0.096570343 0.091458119 0.29700002 4282062615
0.097534999 0.091458119 0.29700002 4283242001
0.099162951 0.092073999 0.29900002 4283700237
0.10046899 0.092381932 0.30000001 4287924090
0.10178155 0.092689879 0.30100003 4286481269
0.10310058 0.092997812 0.30200002 4286811786
0.10442612 0.093305752 0.303 4278914056
0.10541026 0.093305752 0.303 4280294934
0.10674555 0.093613699 0.30400002 4279966737
0.10773294 0.093613699 0.30400002 4279308809
0.10872033 0.093613699 0.30400002 4281677357
0.10970772 0.093613699 0.30400002 4279110660
0.11069512 0.093613699 0.30400002 4279044613
0.11168251 0.093613699 0.30400002 4279439371
0.11266991 0.093613699 0.30400002 4280952862
0.1136573 0.093613699 0.30400002 4279044613
0.11464469 0.093613699 0.30400002 4279965715
0.11601244 0.093921632 0.30500001 4284836444
0.11661947 0.093613699 0.30400002 4285889386
0.11760686 0.093613699 0.30400002 4286217327
0.11859426 0.093613699 0.30400002 4286217329
0.11958165 0.093613699 0.30400002 4286282870
0.12017243 0.093305752 0.303 4286348917
0.12115657 0.093305752 0.303 4284366403
0.12214071 0.093305752 0.303 4284161833
0.12393757 0.093921632 0.30500001 4284683539
0.12533781 0.094229579 0.30600002 4284617230
0.12674455 0.094537511 0.30700001 4284879630
0.12815779 0.094845459 0.30800003 4284879630
0.12915818 0.094845459 0.30800003 4285077009
0.13015856 0.094845459 0.30800003 4284814607
0.13158478 0.095153391 0.30900002 4284814607
0.13258842 0.095153391 0.30900002 4284748814
0.13402438 0.095461331 0.31 4285077779
0.13503125 0.095461331 0.31 4285208595
0.13603814 0.095461331 0.31 4283633679
0.13704503 0.095461331 0.31 4287526252
0.087216437 0.092734285 0.29800001 4284306509
0.088184342 0.092734285 0.29800001 4282849557
0.089152247 0.092734285 0.29800001 4282914832
0.090120159 0.092734285 0.29800001 4283635727
0.090782404 0.092423104 0.29700002 4283834392
0.09174706 0.092423104 0.29700002 4287005816
0.092711717 0.092423104 0.29700002 4286547834
0.093676366 0.092423104 0.29700002 4286547584
0.094641022 0.092423104 0.29700002 4286415996
0.095605679 0.092423104 0.29700002 4283976260
0.096570343 0.092423104 0.29700002 4282063385
0.097534999 0.092423104 0.29700002 4283242514
0.099162951 0.093045481 0.29900002 4284358169
0.10046899 0.093356669 0.30000001 4287791475
0.10178155 0.093667857 0.30100003 4286677878
0.10310058 0.093979046 0.30200002 4286153337
0.10442612 0.094290234 0.303 4284046680
0.10541026 0.094290234 0.303 4279900174
0.10674555 0.094601423 0.30400002 4279769358
0.10773294 0.094601423 0.30400002 4280361754
0.10872033 0.094601423 0.30400002 4280624926
0.10970772 0.094601423 0.30400002 4279045637
0.11069512 0.094601423 0.30400002 4282335285
0.11168251 0.094601423 0.30400002 4282730043
0.11266991 0.094601423 0.30400002 4279241733
0.1136573 0.094601423 0.30400002 4281016861
0.11502181 0.094912611 0.30500001 4284570194
0.11601244 0.094912611 0.30500001 4286086511
0.11700308 0.094912611 0.30500001 4286086511
0.11799373 0.094912611 0.30500001 4286218099
0.11898436 0.094912611 0.30500001 4286151538
0.11997501 0.094912611 0.30500001 4286217077
0.12096565 0.094912611 0.30500001 4286873980
0.12195628 0.094912611 0.30500001 4284489769
0.12294693 0.094912611 0.30500001 4284684831
0.12393757 0.094912611 0.30500001 4284617746
0.12533781 0.095223807 0.30600002 4284814355
0.12674455 0.095534988 0.30700001 4284945425
0.12815779 0.095846184 0.30800003 4285077011
0.12915818 0.095846184 0.30800003 4285077009
0.13015856 0.095846184 0.30800003 4284946193
0.13158478 0.096157365 0.30900002 4284421650
0.13258842 0.096157365 0.30900002 4284684822
0.13402438 0.096468553 0.31 4284750615
0.13503125 0.096468553 0.31 4284750615
0.13603814 0.096468553 0.31 4284169526
0.13704503 0.096468553 0.31 4286216039
0.086537972 0.094016962 0.29900002 4286613375
0.087216437 0.093702525 0.29800001 4284306509
0.088184342 0.093702525 0.29800001 4282915350
0.089152247 0.093702525 0.29800001 4283045905
0.090120159 0.093702525 0.29800001 4283438864
0.091088064 0.093702525 0.29800001 4283175178
0.09174706 0.093388088 0.29700002 4286808439
0.092711717 0.093388088 0.29700002 4286678398
0.093676366 0.093388088 0.29700002 4286547844
0.094641022 0.093388088 0.29700002 4286284925
0.095605679 0.093388088 0.29700002 4284963925
0.096570343 0.093388088 0.29700002 4281931799
0.097534999 0.093388088 0.29700002 4282914319
0.099162951 0.094016962 0.29900002 4284293659
0.1008039 0.094645843 0.30100003 4287725682
0.10178155 0.094645843 0.30100003 4286678902
0.10310058 0.09496028 0.30200002 4286416250
0.10442612 0.095274709 0.303 4286415996
0.10575815 0.095589153 0.30400002 4283980115
0.10674555 0.095589153 0.30400002 4279373830
0.10773294 0.095589153 0.30400002 4280361497
0.10872033 0.095589153 0.30400002 4280624926
0.10970772 0.095589153 0.30400002 4279308809
0.11069512 0.095589153 0.30400002 4279111428
0.11168251 0.095589153 0.30400002 4279700747
0.11266991 0.095589153 0.30400002 4279765510
0.11403117 0.09590359 0.30500001 4282389522
0.11502181 0.09590359 0.30500001 4286275674
0.11601244 0.09590359 0.30500001 4286151536
0.11700308 0.09590359 0.30500001 4286087285
0.11799373 0.09590359 0.30500001 4285889906
0.11898436 0.09590359 0.30500001 4286349687
0.11997501 0.09590359 0.30500001 4286414199
0.12096565 0.09590359 0.30500001 4282983721
0.12195628 0.09590359 0.30500001 4285013537
0.12294693 0.09590359 0.30500001 4284684822
0.12393757 0.09590359 0.30500001 4284946195
0.12533781 0.096218035 0.30600002 4285011988
0.12674455 0.096532464 0.30700001 4285077009
0.12815779 0.096846908 0.30800003 4285471510
0.12915818 0.096846908 0.30800003 4285011988
0.13015856 0.096846908 0.30800003 4284619029
0.13158478 0.097161345 0.30900002 4283897364
0.13258842 0.097161345 0.30900002 4283963927
0.13402438 0.097475775 0.31 4284556577
0.13503125 0.097475775 0.31 4283639841
0.13603814 0.097475775 0.31 4285953380
0.13704503 0.097475775 0.31 4286019945
0.086537972 0.09498845 0.29900002 4286745474
0.087509118 0.09498845 0.29900002 4284109643
0.088184342 0.094670758 0.29800001 4282850073
0.089152247 0.094670758 0.29800001 4282849553
0.090120159 0.094670758 0.29800001 4283504909
0.091088064 0.094670758 0.29800001 4284161812
0.09174706 0.094353072 0.29700002 4287662204
0.092711717 0.094353072 0.29700002 4286612089
0.093676366 0.094353072 0.29700002 4286481791
0.094641022 0.094353072 0.29700002 4286547584
0.095605679 0.094353072 0.29700002 4286939260
0.096245185 0.09403538 0.296 4281604117
0.097534999 0.094353072 0.29700002 4282717453
0.099162951 0.09498845 0.29900002 4284162073
0.1008039 0.095623821 0.30100003 4284499511
0.10178155 0.095623821 0.30100003 4286743668
0.10310058 0.095941506 0.30200002 4286613375
0.10477076 0.096576884 0.30400002 4286547582
0.10575815 0.096576884 0.30400002 4286612607
0.10674555 0.096576884 0.30400002 4280690210
0.10773294 0.096576884 0.30400002 4280226059
0.10872033 0.096576884 0.30400002 4279634692
0.10970772 0.096576884 0.30400002 4279699715
0.11069512 0.096576884 0.30400002 4280093188
0.11168251 0.096576884 0.30400002 4281929225
0.11266991 0.096576884 0.30400002 4283176208
0.11403117 0.09689457 0.30500001 4284094743
0.11502181 0.09689457 0.30500001 4285547070
0.11601244 0.09689457 0.30500001 4286217324
0.11700308 0.09689457 0.30500001 4286020720
0.11799373 0.09689457 0.30500001 4286087285
0.11898436 0.09689457 0.30500001 4286020722
0.11997501 0.09689457 0.30500001 4283771440
0.12096565 0.09689457 0.30500001 4284816935
0.12195628 0.09689457 0.30500001 4285341471
0.12294693 0.09689457 0.30500001 4285078297
0.12393757 0.09689457 0.30500001 4285208595
0.12533781 0.097212255 0.30600002 4285142802
0.12674455 0.09752994 0.30700001 4285142802
0.12815779 0.097847633 0.30800003 4285340181
0.12915818 0.097847633 0.30800003 4284358939
0.13015856 0.097847633 0.30800003 4283768858
0.13158478 0.098165318 0.30900002 4283374872
0.13258842 0.098165318 0.30900002 4283047704
0.13402438 0.098483004 0.31 4285555029
0.13503125 0.098483004 0.31 4286215787
0.13603814 0.098483004 0.31 4286019691
0.13704503 0.098483004 0.31 4286019693
0.086537972 0.095959924 0.29900002 4286548097
0.087509118 0.095959924 0.29900002 4283847756
0.088480271 0.095959924 0.29900002 4282784793
0.089152247 0.095638983 0.29800001 4282783762
0.090120159 0.095638983 0.29800001 4283504655
0.091088064 0.095638983 0.29800001 4284096019
0.092055969 0.095638983 0.29800001 4286670943
0.092711717 0.095318049 0.29700002 4286809209
0.093676366 0.095318049 0.29700002 4286678398
0.094641022 0.095318049 0.29700002 4286481789
0.095605679 0.095318049 0.29700002 4286810756
0.096245185 0.094997108 0.296 4281278495
0.097206593 0.094997108 0.296 4282651662
0.098168001 0.094997108 0.296 4283570196
0.1008039 0.096601799 0.30100003 4283837218
0.10178155 0.096601799 0.30100003 4287070580
0.10310058 0.096922733 0.30200002 4286678398
0.10477076 0.0975646 0.30400002 4286678398
0.10575815 0.0975646 0.30400002 4286481021
0.10709668 0.097885534 0.30500001 4284309082
0.10808732 0.097885534 0.30500001 4281998105
0.10872033 0.0975646 0.30400002 4281996562
0.10970772 0.0975646 0.30400002 4283109647
0.11069512 0.0975646 0.30400002 4283568399
0.11168251 0.0975646 0.30400002 4284158989
0.11266991 0.0975646 0.30400002 4284224523
0.11403117 0.097885534 0.30500001 4284553490
0.11502181 0.097885534 0.30500001 4284227351
0.11601244 0.097885534 0.30500001 4286281834
0.11700308 0.097885534 0.30500001 4286217327
0.11799373 0.097885534 0.30500001 4286151536
0.11898436 0.097885534 0.30500001 4284172356
0.11997501 0.097885534 0.30500001 4285341734
0.12096565 0.097885534 0.30500001 4285406494
0.12195628 0.097885534 0.30500001 4285405724
0.12294693 0.097885534 0.30500001 4285273879
0.12393757 0.097885534 0.30500001 4285471510
0.12533781 0.098206475 0.30600002 4285340181
0.12674455 0.098527409 0.30700001 4285472537
0.12815779 0.09884835 0.30800003 4287384645
0.12915818 0.09884835 0.30800003 4286608230
0.13015856 0.09884835 0.30800003 4286280551
0.13158478 0.099169284 0.30900002 4286873971
0.13258842 0.099169284 0.30900002 4285953380
0.13402438 0.099490218 0.31 4285888362
0.13503125 0.099490218 0.31 4286019952
0.13603814 0.099490218 0.31 4286217077
0.13704503 0.099490218 0.31 4286019698
0.086537972 0.096931405 0.29900002 4286481791
0.087509118 0.096931405 0.29900002 4282596152
0.088480271 0.096931405 0.29900002 4282784534
0.089152247 0.096607216 0.29800001 4283046418
0.090120159 0.096607216 0.29800001 4283701520
0.091088064 0.096607216 0.29800001 4284226320
0.092055969 0.096607216 0.29800001 4285081377
0.092711717 0.096283033 0.29700002 4287455065
0.093676366 0.096283033 0.29700002 4287137402
0.094641022 0.096283033 0.29700002 4286547066
0.095283769 0.095958844 0.296 4286350203
0.096245185 0.095958844 0.296 4284439126
0.097206593 0.095958844 0.296 4282717455
0.098168001 0.095958844 0.296 4283503889
0.099129401 0.095958844 0.296 4284029720
0.10009081 0.095958844 0.296 4288381048
0.10310058 0.097903959 0.30200002 4286547066
0.10477076 0.098552331 0.30400002 4286612605
0.10575815 0.098552331 0.30400002 4286546814
0.10709668 0.098876514 0.30500001 4287203974
0.10808732 0.098876514 0.30500001 4281603601
0.10907796 0.098876514 0.30500001 4282783762
0.10970772 0.098552331 0.30400002 4284158737
0.11069512 0.098552331 0.30400002 4284224271
0.11168251 0.098552331 0.30400002 4284355341
0.11266991 0.098552331 0.30400002 4284617998
0.11403117 0.098876514 0.30500001 4285011216
0.11502181 0.098876514 0.30500001 4285013269
0.11601244 0.098876514 0.30500001 4287134311
0.11700308 0.098876514 0.30500001 4286347109
0.11799373 0.098876514 0.30500001 4284825148
0.11898436 0.098876514 0.30500001 4285146922
0.11997501 0.098876514 0.30500001 4285406494
0.12096565 0.098876514 0.30500001 4285603101
0.12195628 0.098876514 0.30500001 4285537562
0.12294693 0.098876514 0.30500001 4285537562
0.12393757 0.098876514 0.30500001 4285669146
0.12533781 0.099200703 0.30600002 4285800732
0.12674455 0.099524885 0.30700001 4284490525
0.12815779 0.099849075 0.30800003 4287000932
0.12915818 0.099849075 0.30800003 4286216300
0.13015856 0.099849075 0.30800003 4286019948
0.13158478 0.10017326 0.30900002 4286217329
0.13258842 0.10017326 0.30900002 4286151536
0.13402438 0.10049744 0.31 4286019952
0.13503125 0.10049744 0.31 4285889136
0.13603814 0.10049744 0.31 4286020722
0.13704503 0.10049744 0.31 4286152054
0.085566819 0.097902894 0.29900002 4286613890
0.086537972 0.097902894 0.29900002 4287203974
0.087509118 0.097902894 0.29900002 4282595125
0.088480271 0.097902894 0.29900002 4283178008
0.089152247 0.097575448 0.29800001 4283177491
0.090120159 0.097575448 0.29800001 4283832077
0.091088064 0.097575448 0.29800001 4284421902
0.092055969 0.097575448 0.29800001 4284814607
0.092711717 0.097248018 0.29700002 4284946195
0.093676366 0.097248018 0.29700002 4284882978
0.094641022 0.097248018 0.29700002 4285346359
0.095283769 0.09692058 0.296 4285876301
0.096245185 0.09692058 0.296 4284689460
0.097206593 0.09692058 0.296 4284161560
0.098168001 0.09692058 0.296 4284225300
0.099129401 0.09692058 0.296 4285013787
0.10009081 0.09692058 0.296 4287189063
0.10105222 0.09692058 0.296 4286677882
0.10235828 0.097248018 0.29700002 4286612605
0.10332294 0.097248018 0.29700002 4286678400
0.10709668 0.099867493 0.30500001 4286217849
0.10808732 0.099867493 0.30500001 4282459939
0.10907796 0.099867493 0.30500001 4283112215
0.1100686 0.099867493 0.30500001 4284158478
0.11105924 0.099867493 0.30500001 4284421134
0.11204989 0.099867493 0.30500001 4284420621
0.11304052 0.099867493 0.30500001 4284815379
0.11403117 0.099867493 0.30500001 4285406742
0.11502181 0.099867493 0.30500001 4285670168
0.11601244 0.099867493 0.30500001 4285211420
0.11700308 0.099867493 0.30500001 4285016617
0.11799373 0.099867493 0.30500001 4285474345
0.11898436 0.099867493 0.30500001 4285275676
0.11997501 0.099867493 0.30500001 4285866270
0.12096565 0.099867493 0.30500001 4285932320
0.12195628 0.099867493 0.30500001 4286130469
0.12294693 0.099867493 0.30500001 4285868067
0.12393757 0.099867493 0.30500001 4286197545
0.12533781 0.10019493 0.30600002 4285013017
0.12674455 0.10052236 0.30700001 4287265647
0.12815779 0.1008498 0.30800003 4286150507
0.12915818 0.1008498 0.30800003 4285954157
0.13015856 0.1008498 0.30800003 4285757550
0.13158478 0.10117723 0.30900002 4286020720
0.13258842 0.10117723 0.30900002 4286086513
0.13402438 0.10150466 0.31 4285889134
0.13503125 0.10150466 0.31 4285823341
0.13603814 0.10150466 0.31 4286086515
0.13704503 0.10150466 0.31 4286020722
0.085566819 0.098874375 0.29900002 4286548097
0.086537972 0.098874375 0.29900002 4286875009
0.087509118 0.098874375 0.29900002 4282068265
0.088480271 0.098874375 0.29900002 4283243286
0.089152247 0.098543689 0.29800001 4283176208
0.090120159 0.098543689 0.29800001 4284095249
0.091088064 0.098543689 0.29800001 4284422161
0.092055969 0.098543689 0.29800001 4284748816
0.092711717 0.09821301 0.29700002 4284880402
0.093676366 0.09821301 0.29700002 4285142804
0.094641022 0.09821301 0.29700002 4285405719
0.095283769 0.097882316 0.296 4286260781
0.096245185 0.097882316 0.296 4286659389
0.097206593 0.097882316 0.296 4286527026
0.098168001 0.097882316 0.296 4286921014
0.099129401 0.097882316 0.296 4285340951
0.10009081 0.097882316 0.296 4285209365
0.10105222 0.097882316 0.296 4286802529
0.10201363 0.097882316 0.296 4286939512
0.10297504 0.097882316 0.296 4286546812
0.10709668 0.10085847 0.30500001 4286283640
0.10808732 0.10085847 0.30500001 4286608498
0.10907796 0.10085847 0.30500001 4282915868
0.1100686 0.10085847 0.30500001 4284619029
0.11105924 0.10085847 0.30500001 4284749332
0.11204989 0.10085847 0.30500001 4285275928
0.11304052 0.10085847 0.30500001 4285539100
0.11403117 0.10085847 0.30500001 4285537558
0.11502181 0.10085847 0.30500001 4285537555
0.11601244 0.10085847 0.30500001 4285668117
0.11700308 0.10085847 0.30500001 4285603098
0.11799373 0.10085847 0.30500001 4285866016
0.11898436 0.10085847 0.30500001 4285734430
0.11997501 0.10085847 0.30500001 4285997602
0.12096565 0.10085847 0.30500001 4286723635
0.12195628 0.10085847 0.30500001 4289230953
0.12294693 0.10085847 0.30500001 4288308827
0.12393757 0.10085847 0.30500001 4284553245
0.12533781 0.10118916 0.30600002 4287454813
0.12674455 0.10151984 0.30700001 4286150761
0.12815779 0.10185052 0.30800003 4285888364
0.12915818 0.10185052 0.30800003 4286151536
0.13015856 0.10185052 0.30800003 4286151538
0.13158478 0.1021812 0.30900002 4286151538
0.13258842 0.1021812 0.30900002 4286151536
0.13402438 0.10251188 0.31 4285889134
0.13503125 0.10251188 0.31 4286152306
0.13603814 0.10251188 0.31 4286152308
0.13704503 0.10251188 0.31 4286152308
0.085566819 0.099845849 0.29900002 4286745476
0.086537972 0.099845849 0.29900002 4286809216
0.087509118 0.099845849 0.29900002 4281869090
0.088480271 0.099845849 0.29900002 4283374872
