# .PCD v0.7 - Point Cloud Data file format
VERSION 0.7
FIELDS x y z rgb
SIZE 4 4 4 4
TYPE F F F U
COUNT 1 1 1 1
WIDTH 887
HEIGHT 1
VIEWPOINT 0 0 0 1 0 0 0
POINTS 887
DATA ascii
-0.012310945 0.038915429 0.55000001 4280372012
-0.010562816 0.039056942 0.55200005 4280240426
-0.012243796 0.040480424 0.54700005 4279060769
-0.015681591 0.041948669 0.54300004 4280173867
-0.013943558 0.04202592 0.54400003 4279190304
-0.012176645 0.04202592 0.54400003 4278798367
-0.010428866 0.042103175 0.54500002 4278732574
-0.015623831 0.043551922 0.54100001 4280634670
-0.013866662 0.043551922 0.54100001 4279124765
-0.012109494 0.043551922 0.54100001 4278797597
-0.010352325 0.043551922 0.54100001 4278731804
-0.013789768 0.045058437 0.53800005 4279256097
-0.012042344 0.045058437 0.53800005 4278862877
-0.010275782 0.044974681 0.537 4278862877
-0.0085157175 0.044890929 0.53600001 4278797082
-0.013738505 0.046632446 0.53600001 4279059488
-0.011975193 0.046545446 0.53500003 4278993949
-0.010218376 0.046458449 0.53400004 4278928668
-0.0084680552 0.046371449 0.53300005 4278928668
-0.0048929877 0.045327436 0.52100003 4278862875
-0.0031884916 0.045153435 0.51900005 4278928154
-0.0014969874 0.044979431 0.51700002 4278200072
0.000181877 0.04489243 0.51600003 4279386141
0.0018542454 0.044805434 0.51500005 4278993177
0.0035201176 0.044718426 0.514 4279058970
0.0051794942 0.044631429 0.51300001 4278335245
-0.013712874 0.048283722 0.53500003 4278993949
-0.011930427 0.048103224 0.53300005 4279059742
-0.01016097 0.047922719 0.53100002 4278797084
-0.0084362803 0.047922719 0.53100002 4278797084
-0.0066357548 0.047381222 0.52500004 4278862877
-0.0048835962 0.046929974 0.52000004 4278797084
-0.0031823479 0.046749469 0.51800001 4278335249
-0.0014969874 0.04665922 0.51700002 4278196736
0.00018152452 0.046478722 0.51500005 4279451934
0.0018506448 0.04638847 0.514 4278199559
0.0035132691 0.046298221 0.51300001 4278328583
0.0051693977 0.046207972 0.51200002 4278328070
0.0068056863 0.046027474 0.51000005 4278196997
0.008445573 0.045937221 0.509 4278198280
0.010078967 0.045846973 0.50800002 4278660115
0.011682775 0.045666475 0.50600004 4278661394
0.013299926 0.045576219 0.505 4279123228
0.014910583 0.04548597 0.50400001 4279256351
0.016514745 0.045395721 0.50300002 4278664984
0.018112408 0.045305472 0.50200003 4278665496
0.019664247 0.04512497 0.5 4278665496
0.021203095 0.044944473 0.49800003 4278665496
0.022728952 0.044763971 0.49600002 4278533910
0.024241816 0.044583473 0.49400002 4278468630
0.025689367 0.044312723 0.49100003 4278468630
0.027117431 0.044041973 0.48800004 4278666011
0.028584823 0.043861475 0.48600003 4278731804
0.030039223 0.043680973 0.48400003 4278666011
0.031480629 0.043500472 0.48200002 4278797343
0.032977607 0.043410223 0.48100004 4278994209
0.034468085 0.043319974 0.48000002 4279125283
0.036027126 0.043319974 0.48000002 4280703032
-0.015450555 0.050021991 0.53500003 4279189791
-0.013661611 0.049834993 0.53300005 4278927902
-0.011908042 0.049741492 0.53200001 4278731291
-0.010141834 0.049554497 0.53000003 4278797084
-0.0084362803 0.049647994 0.53100002 4278862877
-0.006597836 0.0488065 0.52200001 4278797084
-0.0048742048 0.048526008 0.51900005 4278731291
-0.0031823479 0.048432503 0.51800001 4278928156
-0.0014940919 0.048245508 0.51600003 4278199561
0.00018152452 0.048152011 0.51500005 4279319324
0.0018506448 0.048058506 0.514 4278196228
0.0035132691 0.047965009 0.51300001 4278655756
0.0051693977 0.047871511 0.51200002 4278654732
0.0068056863 0.047684517 0.51000005 4278654732
0.008445573 0.047591012 0.509 4278786318
0.010078967 0.047497515 0.50800002 4278720525
0.011705863 0.047404017 0.50700003 4278589709
0.013326264 0.04731052 0.50600004 4278523916
0.014940167 0.047217015 0.505 4278196740
0.016547576 0.047123518 0.50400001 4278266638
0.018112408 0.046936523 0.50200003 4278196224
0.019703576 0.046843026 0.50100005 4278198532
0.021245671 0.046656024 0.49900001 4278529808
0.022774776 0.046469025 0.49700001 4278794004
0.02429089 0.046282031 0.49500003 4278795287
0.025741687 0.046001531 0.49200001 4278730007
0.027228566 0.045814533 0.49000001 4278402324
0.028643638 0.045534037 0.48700002 4278533910
0.030163351 0.045440536 0.48600003 4278666009
0.031611253 0.045253538 0.48400003 4278468630
0.033114728 0.045160037 0.48300001 4278402837
0.034611702 0.045066539 0.48200002 4278468632
0.036102183 0.044973042 0.48100004 4278599964
0.037664473 0.044973042 0.48100004 4279125795
0.039226763 0.044973042 0.48100004 4279125795
0.040789053 0.044973042 0.48100004 4278927902
0.042351339 0.044973042 0.48100004 4279454510
0.044004925 0.045066539 0.48200002 4283533678
-0.015421676 0.051663514 0.53400004 4279256099
-0.013635978 0.051470011 0.53200001 4278862625
-0.011863275 0.05127652 0.53000003 4278797597
-0.010103562 0.051083021 0.528 4278731804
-0.0082932925 0.050502531 0.52200001 4278666011
-0.0065851966 0.050405785 0.52100003 4278797597
-0.0048742048 0.05021229 0.51900005 4278862877
-0.0031762044 0.050018791 0.51700002 4279520293
-0.0014940919 0.049922045 0.51600003 4278199303
0.00018152452 0.0498253 0.51500005 4279254301
0.0018506448 0.049728546 0.514 4278197001
0.0035132691 0.049631801 0.51300001 4279445531
0.0051693977 0.049535051 0.51200002 4279248152
0.0068056863 0.049341559 0.51000005 4280235047
0.008445573 0.049244806 0.509 4279050773
0.010078967 0.049148057 0.50800002 4280169508
0.011705863 0.049051311 0.50700003 4279312662
0.013326264 0.048954565 0.50600004 4279049490
0.014940167 0.048857812 0.505 4278195715
0.016547576 0.048761066 0.50400001 4279187740
0.018148487 0.048664317 0.50300002 4278991642
0.019742904 0.048567571 0.50200003 4279254814
0.021288248 0.048374072 0.5 4279188508
0.022820601 0.048180576 0.49800003 4279121947
0.024339961 0.047987081 0.49600002 4279121947
0.025846327 0.047793586 0.49400002 4278200331
0.027284136 0.047503341 0.49100003 4278198789
0.028761271 0.047309846 0.48900002 4278196992
0.030287482 0.047213096 0.48800004 4278197504
0.03174188 0.047019601 0.48600003 4278464017
0.033251848 0.046922851 0.48500001 4279123230
0.034755319 0.046826106 0.48400003 4279254816
0.036327351 0.046826106 0.48400003 4278993179
0.037899386 0.046826106 0.48400003 4278993949
0.039471418 0.046826106 0.48400003 4278796570
0.041043453 0.046826106 0.48400003 4278862363
0.042615484 0.046826106 0.48400003 4278796830
0.044278812 0.046922851 0.48500001 4278731039
0.04594864 0.047019601 0.48600003 4279256869
0.047624961 0.047116347 0.48700002 4278796064
0.049711939 0.047600087 0.49200001 4281031743
0.051414248 0.047696836 0.49300003 4281295682
0.053123046 0.047793586 0.49400002 4279323174
0.054727562 0.047793586 0.49400002 4279387685
-0.015421676 0.053398531 0.53400004 4279255584
-0.013610347 0.053098537 0.53100002 4278862877
-0.011840892 0.052898549 0.52900004 4278797597
-0.010084427 0.052698549 0.52700001 4278731804
-0.0083091799 0.052298561 0.523 4278797597
-0.0065851966 0.052098569 0.52100003 4278731804
-0.0048742048 0.051898576 0.51900005 4278731291
-0.0031762044 0.051698577 0.51700002 4278202638
-0.0014940919 0.051598582 0.51600003 4278266124
0.00018152452 0.051498584 0.51500005 4279188508
0.0018506448 0.051398583 0.514 4278460433
0.0035132691 0.051298589 0.51300001 4278657039
0.0051693977 0.051198591 0.51200002 4279578141
0.0068056863 0.050998598 0.51000005 4279643934
0.008445573 0.050898597 0.509 4278195464
0.010078967 0.050798602 0.50800002 4278393097
0.011728952 0.050798602 0.50800002 4278525453
0.0133526 0.050698604 0.50700003 4279183383
0.014969753 0.05059861 0.50600004 4278195200
0.016580408 0.050498608 0.505 4279056152
0.018184567 0.050398611 0.50400001 4278793752
0.019742904 0.050198622 0.50200003 4278330634
0.021330826 0.050098624 0.50100005 4278200331
0.022866424 0.049898628 0.49900001 4278267406
0.024389032 0.049698632 0.49700001 4278201099
0.025898648 0.04949864 0.49500003 4278925336
0.027395273 0.049298644 0.49300003 4279385887
0.02893772 0.049198646 0.49200001 4279254301
0.030411609 0.04899865 0.49000001 4278859543
0.031937815 0.048898656 0.48900002 4279451680
0.033457533 0.048798658 0.48800004 4279451680
0.034970745 0.04869866 0.48700002 4279649061
0.036552522 0.04869866 0.48700002 4278199563
0.038134299 0.04869866 0.48700002 4278196993
0.039716076 0.04869866 0.48700002 4278195968
0.041297853 0.04869866 0.48700002 4278198535
0.04287963 0.04869866 0.48700002 4278201874
0.044552702 0.048798658 0.48800004 4278862111
0.046232272 0.048898656 0.48900002 4278796830
0.047918335 0.04899865 0.49000001 4278797084
0.049812984 0.049298644 0.49300003 4278797082
0.051518533 0.049398642 0.49400002 4278797080
0.053230584 0.04949864 0.49500003 4278928666
0.054838348 0.04949864 0.49500003 4278994461
0.056446105 0.04949864 0.49500003 4279581480
-0.015421676 0.055133551 0.53400004 4279386654
-0.013635978 0.054927059 0.53200001 4279124763
-0.011840892 0.054617323 0.52900004 4278928154
-0.010065292 0.05430758 0.52600002 4278928154
-0.0083091799 0.053997841 0.523 4278928668
-0.0065851966 0.053791348 0.52100003 4278731289
-0.0048742048 0.053584859 0.51900005 4278797082
-0.0031762044 0.053378362 0.51700002 4279519010
-0.0014940919 0.05327512 0.51600003 4279187226
0.00018152452 0.053171873 0.51500005 4279582498
0.0018506448 0.053068623 0.514 4278460173
0.0035132691 0.052965377 0.51300001 4278656269
0.0051693977 0.05286213 0.51200002 4278655502
0.0068190307 0.052758887 0.51100004 4278589709
0.0084621664 0.052655641 0.51000005 4278720525
0.010098807 0.052552391 0.509 4278654734
0.011728952 0.052449144 0.50800002 4278788625
0.0133526 0.052345902 0.50700003 4279183381
0.014969753 0.052242655 0.50600004 4278196997
0.016580408 0.052139405 0.505 4279187738
0.018184567 0.052036159 0.50400001 4278263558
0.019782232 0.051932916 0.50300002 4278590474
0.021373402 0.05182967 0.50200003 4278262790
0.022912249 0.051623173 0.5 4279318299
0.024487179 0.051519927 0.49900001 4279319324
0.026003288 0.051313434 0.49700001 4278595601
0.027506409 0.051106945 0.49500003 4279320096
0.029055353 0.051003698 0.49400002 4278200328
0.030535737 0.050797205 0.49200001 4278201612
0.032068443 0.050693959 0.49100003 4279254814
0.033594649 0.050590709 0.49000001 4278597654
0.035114363 0.050487466 0.48900002 4278860826
0.036702633 0.050487466 0.48900002 4279058205
0.03829091 0.050487466 0.48900002 4279123998
0.03987918 0.050487466 0.48900002 4279255584
0.041552257 0.050590709 0.49000001 4279452193
0.043143775 0.050590709 0.49000001 4280240428
0.044826593 0.050693959 0.49100003 4278198792
0.046421364 0.050693959 0.49100003 4278928156
0.048113924 0.050797205 0.49200001 4278797082
0.049914021 0.051003698 0.49400002 4278797080
0.051622823 0.051106945 0.49500003 4278731287
0.053230584 0.051106945 0.49500003 4278533908
0.054838348 0.051106945 0.49500003 4278468115
0.056560136 0.051210191 0.49600002 4278595603
-0.015479434 0.057081562 0.53600001 4279189273
-0.013661611 0.056762081 0.53300005 4279190556
-0.011863275 0.056442592 0.53000003 4278862361
-0.010084427 0.0561231 0.52700001 4278862361
-0.0083250673 0.055803619 0.52400005 4278862361
-0.0065851966 0.055484131 0.52100003 4278796568
-0.0048742048 0.055271141 0.51900005 4278467603
-0.0031823479 0.055164643 0.51800001 4278201094
-0.0014940919 0.054951653 0.51600003 4278198531
0.00018152452 0.054845162 0.51500005 4279123230
0.0018506448 0.054738659 0.514 4279254816
0.0035132691 0.054632165 0.51300001 4279450144
0.0051693977 0.054525673 0.51200002 4278789650
0.0068190307 0.054419179 0.51100004 4278788623
0.0084621664 0.054312684 0.51000005 4278523146
0.010098807 0.054206181 0.509 4278852111
0.011728952 0.05409969 0.50800002 4278655502
0.0133526 0.053993195 0.50700003 4278721295
0.014999337 0.053993195 0.50700003 4278263306
0.016613243 0.0538867 0.50600004 4279319324
0.018220648 0.053780202 0.505 4278789902
0.01982156 0.053673707 0.50400001 4278458375
0.021373402 0.053460717 0.50200003 4280302373
0.022958076 0.053354222 0.50100005 4278330634
0.02453625 0.053247724 0.5 4278266124
0.02605561 0.053034734 0.49800003 4279121433
0.027617546 0.052928239 0.49700001 4279056154
0.029114172 0.052715249 0.49500003 4278464017
0.030659867 0.052608754 0.49400002 4278199817
0.032199066 0.05250226 0.49300003 4278331404
0.033731773 0.052395761 0.49200001 4278331917
0.03525798 0.052289266 0.49100003 4278200074
0.036852747 0.052289266 0.49100003 4278200843
0.038447518 0.052289266 0.49100003 4278794265
0.040123839 0.052395761 0.49200001 4278531091
0.041721858 0.052395761 0.49200001 4279321631
0.043319874 0.052395761 0.49200001 4279780645
0.045009185 0.05250226 0.49300003 4278727187
0.046610452 0.05250226 0.49300003 4279058972
0.048309509 0.052608754 0.49400002 4279058970
0.050015066 0.052715249 0.49500003 4279124761
0.051727112 0.052821744 0.49600002 4278796566
0.053338118 0.052821744 0.49600002 4278533396
0.054949131 0.052821744 0.49600002 4278664212
0.056560136 0.052821744 0.49600002 4279121947
-0.013712874 0.058713336 0.53500003 4278926101
-0.011908042 0.058384102 0.53200001 4278992664
-0.010122699 0.058054872 0.52900004 4278993177
-0.0083409548 0.057615891 0.52500004 4278664984
-0.006597836 0.057286657 0.52200001 4278599191
-0.0048835962 0.057067171 0.52000004 4278598421
-0.0031823479 0.056847677 0.51800001 4278795800
-0.0014969874 0.056737933 0.51700002 4279058459
0.000181877 0.05662819 0.51600003 4278927132
0.0018506448 0.0564087 0.514 4278796316
0.0035132691 0.056298956 0.51300001 4278927902
0.0051693977 0.056189213 0.51200002 4279058205
0.0068190307 0.05607947 0.51100004 4279189021
0.0084621664 0.055969726 0.51000005 4279188508
0.010098807 0.055859976 0.509 4279320096
0.011728952 0.055750232 0.50800002 4279516191
0.013378936 0.055750232 0.50800002 4279318558
0.014999337 0.055640489 0.50700003 4278989593
0.016613243 0.055530746 0.50600004 4278198535
0.018220648 0.055420995 0.505 4278197506
0.01982156 0.055311255 0.50400001 4278198281
0.021415979 0.055201512 0.50300002 4278593293
0.022958076 0.054982025 0.50100005 4279514395
0.02453625 0.054872274 0.5 4279647264
0.02610793 0.054762531 0.49900001 4279516191
0.027673116 0.054652788 0.49800003 4279056154
0.029172987 0.054433297 0.49600002 4279056154
0.030721933 0.054323554 0.49500003 4279451682
0.032264378 0.054213811 0.49400002 4279187740
0.033800334 0.054104067 0.49300003 4278792468
0.035401598 0.054104067 0.49300003 4278199303
0.037002861 0.054104067 0.49300003 4278594835
0.038604129 0.054104067 0.49300003 4278397456
0.040205393 0.054104067 0.49300003 4278660628
0.041806657 0.054104067 0.49300003 4279187738
0.043495968 0.054213811 0.49400002 4279188508
0.04510048 0.054213811 0.49400002 4279056922
0.046799541 0.054323554 0.49500003 4279255836
0.048505094 0.054433297 0.49600002 4279255836
0.050116103 0.054433297 0.49600002 4278927382
0.051831398 0.054543041 0.49700001 4278664980
0.053445652 0.054543041 0.49700001 4278664982
0.055059914 0.054543041 0.49700001 4278730005
0.056560136 0.054433297 0.49600002 4279385889
-0.0066231154 0.05920868 0.52400005 4278990613
-0.0048929877 0.058869693 0.52100003 4278991894
-0.0031884916 0.05864371 0.51900005 4278926101
-0.0014998829 0.058530711 0.51800001 4278991896
0.000181877 0.058304727 0.51600003 4279255068
0.0018542454 0.058191735 0.51500005 4279058972
0.0035201176 0.058078736 0.514 4278664730
0.0051693977 0.057852753 0.51200002 4278927902
0.0068190307 0.057739761 0.51100004 4278993695
0.0084621664 0.057626769 0.51000005 4278862109
0.010118648 0.057626769 0.51000005 4278993695
0.01175204 0.05751377 0.509 4278993695
0.013378936 0.057400778 0.50800002 4278796316
0.014999337 0.057287782 0.50700003 4278992925
0.016613243 0.057174791 0.50600004 4278927132
0.018220648 0.057061791 0.505 4278992412
0.01982156 0.0569488 0.50400001 4279058205
0.021415979 0.056835808 0.50300002 4279056922
0.022958076 0.056609824 0.50100005 4278990359
0.02453625 0.056496825 0.5 4278858261
0.02610793 0.056383833 0.49900001 4278397197
0.027673116 0.056270842 0.49800003 4278197508
0.029231803 0.056157846 0.49700001 4278196737
0.030783996 0.056044854 0.49600002 4278197764
0.032329693 0.055931862 0.49500003 4278726421
0.033868894 0.055818867 0.49400002 4279581984
0.035473406 0.055818867 0.49400002 4279319324
0.037077915 0.055818867 0.49400002 4279450910
0.038682431 0.055818867 0.49400002 4279187738
0.040286943 0.055818867 0.49400002 4279648291
0.041976258 0.055931862 0.49500003 4279517475
0.043584019 0.055931862 0.49500003 4279977254
0.045283075 0.056044854 0.49600002 4279713568
0.046894085 0.056044854 0.49600002 4279190041
0.048602883 0.056157846 0.49700001 4279190554
0.050217144 0.056157846 0.49700001 4278993945
0.051831398 0.056157846 0.49700001 4278796566
0.053445652 0.056157846 0.49700001 4278664980
0.055059914 0.056157846 0.49700001 4278664982
0.056674168 0.056157846 0.49700001 4279188508
-0.0049023791 0.060678717 0.52200001 4278918924
-0.003194635 0.060446236 0.52000004 4278919437
-0.0014998829 0.060213745 0.51800001 4279118867
0.000181877 0.059981264 0.51600003 4279777826
0.0018542454 0.059865024 0.51500005 4279252769
0.0035201176 0.059748773 0.514 4279188260
0.0051693977 0.059516292 0.51200002 4279518506
0.0068323747 0.059516292 0.51200002 4279255334
0.0084787589 0.059400052 0.51100004 4279190052
0.010118648 0.059283808 0.51000005 4279190052
0.01175204 0.05916756 0.509 4278993697
0.013378936 0.05905132 0.50800002 4279059488
0.014999337 0.05893508 0.50700003 4278862109
0.016613243 0.058818836 0.50600004 4278598937
0.018220648 0.058702588 0.505 4278862109
0.01982156 0.058586348 0.50400001 4278796316
0.021415979 0.058470108 0.50300002 4278993179
0.022958076 0.058237623 0.50100005 4278927386
0.02453625 0.058121376 0.5 4278730007
0.02610793 0.058005136 0.49900001 4278400529
0.027673116 0.057888892 0.49800003 4278991642
0.029231803 0.057772648 0.49700001 4279189021
0.030783996 0.057656407 0.49600002 4279320094
0.032329693 0.057540167 0.49500003 4279320094
0.033937454 0.057540167 0.49500003 4279450912
0.035473406 0.057423919 0.49400002 4278792468
0.037077915 0.057423919 0.49400002 4278397197
0.038682431 0.057423919 0.49400002 4278195968
0.040368497 0.057540167 0.49500003 4278198019
0.041976258 0.057540167 0.49500003 4278199564
0.043672066 0.057656407 0.49600002 4278594322
0.045283075 0.057656407 0.49600002 4279779363
0.046988629 0.057772648 0.49700001 4279058970
0.048602883 0.057772648 0.49700001 4279124763
0.050318185 0.057888892 0.49800003 4278993947
0.051935688 0.057888892 0.49800003 4278796568
0.053553194 0.057888892 0.49800003 4278664982
0.055059914 0.057772648 0.49700001 4278533396
0.056674168 0.057772648 0.49700001 4278398224
0.0051693977 0.061179832 0.51200002 4285961089
0.0068323747 0.061179832 0.51200002 4285303159
0.0084787589 0.061060343 0.51100004 4282870617
0.010118648 0.060940851 0.51000005 4280239410
0.01175204 0.060821354 0.509 4279055902
0.013378936 0.060701862 0.50800002 4278925599
0.014999337 0.060582373 0.50700003 4279254562
0.016613243 0.060462881 0.50600004 4279451941
0.018220648 0.060343385 0.505 4279124259
0.019782232 0.060104404 0.50300002 4279124259
0.021373402 0.059984915 0.50200003 4278992925
0.022958076 0.059865423 0.50100005 4278992925
0.02453625 0.059745926 0.5 4278861080
0.02610793 0.059626438 0.49900001 4279058459
0.027673116 0.059506945 0.49800003 4278729494
0.029231803 0.059387453 0.49700001 4278795287
0.030783996 0.05926796 0.49600002 4278927386
0.032329693 0.059148472 0.49500003 4278927386
0.033937454 0.059148472 0.49500003 4278795546
0.035545215 0.059148472 0.49500003 4278927132
0.037152976 0.059148472 0.49500003 4279058459
0.038760737 0.059148472 0.49500003 4278992666
0.040368497 0.059148472 0.49500003 4279386654
0.042061061 0.05926796 0.49600002 4279385887
0.043672066 0.05926796 0.49600002 4279517475
0.045374371 0.059387453 0.49700001 4279385887
0.047083173 0.059506945 0.49800003 4279124252
0.048700679 0.059506945 0.49800003 4279190558
0.050318185 0.059506945 0.49800003 4278928156
0.051935688 0.059506945 0.49800003 4278796570
0.053553194 0.059506945 0.49800003 4278993177
0.055059914 0.059387453 0.49700001 4278795287
0.056674168 0.059387453 0.49700001 4279514656
0.011728952 0.062352408 0.50800002 4285368438
0.013378936 0.062352408 0.50800002 4285105266
0.014999337 0.062229667 0.50700003 4285566329
0.016613243 0.06210693 0.50600004 4285236850
0.018220648 0.061984181 0.505 4282805078
0.019782232 0.061738703 0.50300002 4281226046
0.021373402 0.061615963 0.50200003 4279383840
0.022958076 0.061493225 0.50100005 4279186461
0.02453625 0.061370477 0.5 4279319074
0.02610793 0.061247736 0.49900001 4279319844
0.027617546 0.061002254 0.49700001 4279714602
0.029231803 0.061002254 0.49700001 4279451428
0.030783996 0.060879517 0.49600002 4279451941
0.032329693 0.060756776 0.49500003 4279254562
0.033937454 0.060756776 0.49500003 4279321125
0.035545215 0.060756776 0.49500003 4279321125
0.037152976 0.060756776 0.49500003 4279518758
0.038760737 0.060756776 0.49500003 4279124000
0.040368497 0.060756776 0.49500003 4279189793
0.042061061 0.060879517 0.49600002 4279189793
0.043760113 0.061002254 0.49700001 4279124000
0.045374371 0.061002254 0.49700001 4278992412
0.047083173 0.061124999 0.49800003 4279124252
0.048700679 0.061124999 0.49800003 4278927386
0.050318185 0.061124999 0.49800003 4278795800
0.051935688 0.061124999 0.49800003 4278993179
0.053553194 0.061124999 0.49800003 4278795800
0.0551707 0.061124999 0.49800003 4278662677
0.056674168 0.061002254 0.49700001 4283789406
0.019782232 0.063373007 0.50300002 4284644713
0.021373402 0.063247018 0.50200003 4284710506
0.022958076 0.063121028 0.50100005 4284973678
0.02453625 0.062995031 0.5 4284447332
0.02605561 0.062743053 0.49800003 4284907883
0.027617546 0.062617064 0.49700001 4285038958
0.029172987 0.062491074 0.49600002 4285105778
0.030783996 0.062491074 0.49600002 4284513641
0.032329693 0.062365085 0.49500003 4283921504
0.033937454 0.062365085 0.49500003 4282277449
0.035545215 0.062365085 0.49500003 4280896309
0.037152976 0.062365085 0.49500003 4280173358
0.038760737 0.062365085 0.49500003 4279317795
0.040450048 0.062491074 0.49600002 4279252515
0.042061061 0.062491074 0.49600002 4279252515
0.043760113 0.062617064 0.49700001 4279055904
0.045465667 0.062743053 0.49800003 4279122980
0.047083173 0.062743053 0.49800003 4279188769
0.048700679 0.062743053 0.49800003 4279583527
0.050419223 0.062869042 0.49900001 4279583781
0.051935688 0.062743053 0.49800003 4279123230
0.053553194 0.062743053 0.49800003 4278726937
0.021248152 0.053267792 0.5046283 4294967295
0.021248152 0.053267792 0.5046283 4294901760
0.021252245 0.052769165 0.50459146 4294901760
0.021256337 0.052270539 0.50455469 4294901760
0.021260429 0.051771913 0.50451785 4294901760
0.021264523 0.05127329 0.50448102 4294901760
0.021268615 0.050774664 0.50444424 4294901760
0.021272708 0.050276037 0.50440741 4294901760
0.0212768 0.049777411 0.50437057 4294901760
0.021280892 0.049278785 0.50433379 4294901760
0.021284984 0.048780158 0.50429696 4294901760
0.021289079 0.048281532 0.50426012 4294901760
0.021293171 0.047782905 0.50422335 4294901760
0.021297263 0.047284283 0.50418651 4294901760
0.021301355 0.046785656 0.50414968 4294901760
0.021305447 0.04628703 0.50411284 4294901760
0.02130954 0.045788404 0.50407606 4294901760
0.021313634 0.045289777 0.50403923 4294901760
0.021317726 0.044791151 0.50400239 4294901760
0.021321818 0.044292524 0.50396562 4294901760
0.02132591 0.043793902 0.50392878 4294901760
0.021330003 0.043295272 0.50389194 4294901760
0.021334095 0.042796649 0.50385517 4294901760
0.021338189 0.042298023 0.50381833 4294901760
0.021342281 0.041799396 0.5037815 4294901760
0.021346373 0.04130077 0.50374472 4294901760
0.021350466 0.040802144 0.50370789 4294901760
0.021354558 0.040303521 0.50367105 4294901760
0.02135865 0.039804891 0.50363427 4294901760
0.021362742 0.039306268 0.50359744 4294901760
0.021366837 0.038807642 0.5035606 4294901760
0.021370929 0.038309015 0.50352383 4294901760
0.021375021 0.037810389 0.50348699 4294901760
0.021379113 0.037311763 0.50345016 4294901760
0.021383205 0.036813136 0.50341338 4294901760
0.021387298 0.03631451 0.50337654 4294901760
0.021391392 0.035815887 0.50333971 4294901760
0.021395484 0.035317257 0.50330293 4294901760
0.021399576 0.034818634 0.5032661 4294901760
0.021403668 0.034320008 0.50322926 4294901760
0.021407761 0.033821382 0.50319242 4294901760
0.021411853 0.033322755 0.50315565 4294901760
0.021415947 0.032824129 0.50311881 4294901760
0.021420039 0.032325506 0.50308198 4294901760
0.021424131 0.031826876 0.5030452 4294901760
0.021428224 0.031328253 0.50300837 4294901760
0.021432316 0.030829627 0.50297153 4294901760
0.021436408 0.030331001 0.50293475 4294901760
0.021440502 0.029832374 0.50289792 4294901760
0.021444594 0.02933375 0.50286108 4294901760
0.021448687 0.028835122 0.50282431 4294901760
0.021452779 0.028336497 0.50278747 4294901760
0.021456871 0.027837873 0.50275064 4294901760
0.021460963 0.027339246 0.50271386 4294901760
0.021465056 0.026840622 0.50267702 4294901760
0.02146915 0.026341991 0.50264019 4294901760
0.021473242 0.025843367 0.50260341 4294901760
0.021477334 0.025344741 0.50256658 4294901760
0.021481426 0.024846116 0.50252974 4294901760
0.021485519 0.024347492 0.50249296 4294901760
0.021489611 0.023848865 0.50245613 4294901760
0.021493705 0.023350237 0.50241929 4294901760
0.021497797 0.022851611 0.50238252 4294901760
0.021501889 0.022352986 0.50234568 4294901760
0.021505982 0.02185436 0.50230885 4294901760
0.021510074 0.021355737 0.50227201 4294901760
0.021514166 0.020857111 0.50223523 4294901760
0.02151826 0.020358481 0.5021984 4294901760
0.021522352 0.019859854 0.50216156 4294901760
0.021526445 0.019361231 0.50212479 4294901760
0.021530537 0.018862605 0.50208795 4294901760
0.021534629 0.018363979 0.50205112 4294901760
0.021538721 0.017865356 0.50201434 4294901760
0.021542815 0.017366726 0.5019775 4294901760
0.021546908 0.0168681 0.50194067 4294901760
0.021551 0.016369473 0.50190389 4294901760
0.021555092 0.015870851 0.50186706 4294901760
0.021559184 0.015372224 0.50183022 4294901760
0.021563277 0.014873598 0.50179344 4294901760
0.021567369 0.014374975 0.50175661 4294901760
0.021571463 0.013876345 0.50171977 4294901760
0.021575555 0.013377719 0.501683 4294901760
0.021579647 0.012879092 0.50164616 4294901760
0.02158374 0.01238047 0.50160933 4294901760
0.021587832 0.011881843 0.50157255 4294901760
0.021591924 0.011383217 0.50153571 4294901760
0.021596018 0.01088459 0.50149888 4294901760
0.02160011 0.010385964 0.5014621 4294901760
0.021604203 0.0098873377 0.50142527 4294901760
0.021608295 0.009388715 0.50138843 4294901760
0.021612387 0.0088900886 0.50135159 4294901760
0.021616479 0.0083914623 0.50131482 4294901760
0.021620573 0.0078928322 0.50127798 4294901760
0.021624666 0.0073942095 0.50124115 4294901760
0.021628758 0.0068955831 0.50120437 4294901760
0.02163285 0.0063969567 0.50116754 4294901760
0.021636942 0.0058983341 0.5011307 4294901760
0.021641035 0.0053997077 0.50109392 4294901760
0.021645129 0.0049010776 0.50105709 4294901760
0.021649221 0.0044024512 0.50102025 4294901760
0.021653313 0.0039038286 0.50098348 4294901760
0.021657405 0.0034052022 0.50094664 4294901760
0.021248152 0.053267792 0.5046283 4278255360
0.021666231 0.053291399 0.50435507 4278255360
0.022084311 0.053315002 0.50408185 4278255360
0.022502389 0.05333861 0.50380862 4278255360
0.022920469 0.053362213 0.50353539 4278255360
0.023338547 0.05338582 0.50326216 4278255360
0.023756627 0.053409424 0.50298893 4278255360
0.024174705 0.053433031 0.50271571 4278255360
0.024592785 0.053456634 0.50244248 4278255360
0.025010863 0.053480241 0.50216925 4278255360
0.025428943 0.053503849 0.50189602 4278255360
0.025847021 0.053527452 0.5016228 4278255360
0.026265102 0.053551059 0.50134957 4278255360
0.02668318 0.053574663 0.50107634 4278255360
0.02710126 0.05359827 0.50080311 4278255360
0.027519338 0.053621873 0.50052989 4278255360
0.027937416 0.05364548 0.50025666 4278255360
0.028355496 0.053669084 0.49998346 4278255360
0.028773576 0.053692691 0.49971023 4278255360
0.029191654 0.053716294 0.499437 4278255360
0.029609732 0.053739902 0.49916378 4278255360
0.030027812 0.053763509 0.49889055 4278255360
0.030445892 0.053787112 0.49861732 4278255360
0.030863971 0.053810719 0.49834409 4278255360
0.031282049 0.053834323 0.49807087 4278255360
0.031700127 0.05385793 0.49779764 4278255360
0.032118209 0.053881533 0.49752441 4278255360
0.032536287 0.053905141 0.49725118 4278255360
0.032954365 0.053928744 0.49697796 4278255360
0.033372443 0.053952351 0.49670473 4278255360
0.033790525 0.053975955 0.4964315 4278255360
0.034208603 0.053999562 0.49615827 4278255360
0.034626681 0.054023169 0.49588504 4278255360
0.03504476 0.054046772 0.49561182 4278255360
0.035462841 0.05407038 0.49533859 4278255360
0.03588092 0.054093983 0.49506536 4278255360
0.036298998 0.05411759 0.49479213 4278255360
0.03671708 0.054141194 0.49451891 4278255360
0.037135154 0.054164801 0.49424571 4278255360
0.037553236 0.054188404 0.49397248 4278255360
0.037971314 0.054212011 0.49369925 4278255360
0.038389392 0.054235619 0.49342602 4278255360
0.038807474 0.054259222 0.4931528 4278255360
0.039225552 0.054282829 0.49287957 4278255360
0.03964363 0.054306433 0.49260634 4278255360
0.040061709 0.05433004 0.49233311 4278255360
0.040479787 0.054353643 0.49205989 4278255360
0.040897869 0.05437725 0.49178666 4278255360
0.041315947 0.054400854 0.49151343 4278255360
0.041734025 0.054424461 0.4912402 4278255360
0.042152107 0.054448068 0.49096698 4278255360
0.042570181 0.054471672 0.49069375 4278255360
0.042988263 0.054495279 0.49042052 4278255360
0.043406341 0.054518882 0.49014729 4278255360
0.043824419 0.054542489 0.48987406 4278255360
0.044242501 0.054566093 0.48960084 4278255360
0.044660579 0.0545897 0.48932761 4278255360
0.045078658 0.054613303 0.48905438 4278255360
0.045496736 0.054636911 0.48878115 4278255360
0.045914814 0.054660514 0.48850793 4278255360
0.046332896 0.054684121 0.4882347 4278255360
0.046750978 0.054707728 0.48796147 4278255360
0.047169052 0.054731332 0.48768824 4278255360
0.047587134 0.054754939 0.48741502 4278255360
0.048005208 0.054778542 0.48714182 4278255360
0.04842329 0.05480215 0.48686859 4278255360
0.048841372 0.054825753 0.48659536 4278255360
0.04925945 0.05484936 0.48632213 4278255360
0.049677528 0.054872964 0.48604891 4278255360
0.050095607 0.054896571 0.48577568 4278255360
0.050513685 0.054920174 0.48550245 4278255360
0.050931767 0.054943781 0.48522922 4278255360
0.051349845 0.054967389 0.484956 4278255360
0.051767923 0.054990992 0.48468277 4278255360
0.052186005 0.055014599 0.48440954 4278255360
0.052604079 0.055038203 0.48413631 4278255360
0.053022161 0.05506181 0.48386309 4278255360
0.053440236 0.055085413 0.48358986 4278255360
0.053858317 0.05510902 0.48331663 4278255360
0.054276399 0.055132624 0.4830434 4278255360
0.054694474 0.055156231 0.48277017 4278255360
0.055112556 0.055179838 0.48249695 4278255360
0.055530638 0.055203442 0.48222372 4278255360
0.055948712 0.055227049 0.48195049 4278255360
0.056366794 0.055250652 0.48167726 4278255360
0.056784876 0.055274259 0.48140404 4278255360
0.05720295 0.055297863 0.48113081 4278255360
0.057621032 0.05532147 0.48085761 4278255360
0.058039106 0.055345073 0.48058438 4278255360
0.058457188 0.055368681 0.48031116 4278255360
0.058875263 0.055392288 0.48003793 4278255360
0.059293345 0.055415891 0.4797647 4278255360
0.059711426 0.055439498 0.47949147 4278255360
0.060129501 0.055463102 0.47921824 4278255360
0.060547583 0.055486709 0.47894502 4278255360
0.060965665 0.055510312 0.47867179 4278255360
0.061383739 0.055533919 0.47839856 4278255360
0.061801821 0.055557523 0.47812533 4278255360
0.062219903 0.05558113 0.47785211 4278255360
0.062637977 0.055604734 0.47757888 4278255360
0.063056059 0.055628341 0.47730565 4278255360
0.021248152 0.053267792 0.5046283 4278190335
0.021517111 0.053238951 0.50504881 4278190335
0.021786071 0.053210109 0.50546932 4278190335
0.02205503 0.053181268 0.50588983 4278190335
0.02232399 0.053152427 0.50631034 4278190335
0.022592949 0.053123586 0.50673085 4278190335
0.022861909 0.053094745 0.50715137 4278190335
0.023130868 0.053065903 0.50757188 4278190335
0.023399828 0.053037059 0.50799239 4278190335
0.023668788 0.053008217 0.5084129 4278190335
0.023937747 0.052979376 0.50883341 4278190335
0.024206705 0.052950535 0.50925392 4278190335
0.024475666 0.052921694 0.50967443 4278190335
0.024744624 0.052892853 0.51009494 4278190335
0.025013585 0.052864011 0.51051545 4278190335
0.025282543 0.05283517 0.51093596 4278190335
0.025551504 0.052806329 0.51135647 4278190335
0.025820462 0.052777488 0.51177698 4278190335
0.026089422 0.052748647 0.51219749 4278190335
0.026358381 0.052719805 0.51261801 4278190335
0.026627341 0.052690964 0.51303852 4278190335
0.0268963 0.052662123 0.51345903 4278190335
0.02716526 0.052633278 0.51387954 4278190335
0.027434219 0.052604437 0.51430005 4278190335
0.027703179 0.052575596 0.51472056 4278190335
0.027972138 0.052546754 0.51514107 4278190335
0.028241098 0.052517913 0.51556158 4278190335
0.028510056 0.052489072 0.51598209 4278190335
0.028779017 0.052460231 0.5164026 4278190335
0.029047975 0.05243139 0.51682311 4278190335
0.029316936 0.052402548 0.51724362 4278190335
0.029585894 0.052373707 0.51766413 4278190335
0.029854853 0.052344866 0.51808465 4278190335
0.030123815 0.052316025 0.51850516 4278190335
0.030392773 0.052287184 0.51892567 4278190335
0.030661732 0.052258343 0.51934618 4278190335
0.030930692 0.052229498 0.51976669 4278190335
0.031199651 0.052200656 0.5201872 4278190335
0.031468611 0.052171815 0.52060771 4278190335
0.03173757 0.052142974 0.52102822 4278190335
0.032006528 0.052114133 0.52144873 4278190335
0.03227549 0.052085292 0.52186924 4278190335
0.032544449 0.05205645 0.52228975 4278190335
0.032813407 0.052027609 0.52271026 4278190335
0.033082366 0.051998768 0.52313077 4278190335
0.033351324 0.051969927 0.52355129 4278190335
0.033620287 0.051941086 0.5239718 4278190335
0.033889245 0.051912244 0.52439231 4278190335
0.034158204 0.051883403 0.52481282 4278190335
0.034427166 0.051854562 0.52523333 4278190335
0.034696124 0.051825717 0.52565384 4278190335
0.034965083 0.051796876 0.52607429 4278190335
0.035234042 0.051768035 0.5264948 4278190335
0.035503 0.051739193 0.52691531 4278190335
0.035771962 0.051710352 0.52733582 4278190335
0.036040921 0.051681511 0.52775633 4278190335
0.036309879 0.05165267 0.52817684 4278190335
0.036578842 0.051623829 0.52859735 4278190335
0.0368478 0.051594988 0.52901787 4278190335
0.037116759 0.051566146 0.52943838 4278190335
0.037385717 0.051537305 0.52985889 4278190335
0.037654676 0.051508464 0.5302794 4278190335
0.037923634 0.051479623 0.53069991 4278190335
0.038192596 0.051450782 0.53112042 4278190335
0.038461555 0.05142194 0.53154093 4278190335
0.038730517 0.051393095 0.53196144 4278190335
0.038999476 0.051364254 0.53238195 4278190335
0.039268434 0.051335413 0.53280246 4278190335
0.039537393 0.051306572 0.53322297 4278190335
0.039806351 0.051277731 0.53364348 4278190335
0.04007531 0.051248889 0.53406399 4278190335
0.040344268 0.051220048 0.53448451 4278190335
0.040613234 0.051191207 0.53490502 4278190335
0.040882193 0.051162366 0.53532553 4278190335
0.041151151 0.051133525 0.53574604 4278190335
0.04142011 0.051104683 0.53616655 4278190335
0.041689068 0.051075842 0.53658706 4278190335
0.041958027 0.051047001 0.53700757 4278190335
0.042226985 0.05101816 0.53742808 4278190335
0.042495947 0.050989315 0.53784859 4278190335
0.042764906 0.050960474 0.5382691 4278190335
0.043033868 0.050931633 0.53868961 4278190335
0.043302827 0.050902791 0.53911012 4278190335
0.043571785 0.05087395 0.53953063 4278190335
0.043840744 0.050845109 0.53995115 4278190335
0.044109702 0.050816268 0.54037166 4278190335
0.044378661 0.050787427 0.54079217 4278190335
0.044647623 0.050758585 0.54121268 4278190335
0.044916581 0.050729744 0.54163319 4278190335
0.04518554 0.050700903 0.5420537 4278190335
0.045454502 0.050672062 0.54247421 4278190335
0.045723461 0.050643221 0.54289472 4278190335
0.045992419 0.050614379 0.54331523 4278190335
0.046261378 0.050585538 0.54373574 4278190335
0.046530336 0.050556693 0.54415625 4278190335
0.046799295 0.050527852 0.54457676 4278190335
0.047068257 0.050499011 0.54499727 4278190335
0.047337219 0.05047017 0.54541779 4278190335
0.047606178 0.050441328 0.5458383 4278190335
0.047875136 0.050412487 0.54625881 4278190335
0.048144095 0.050383646 0.54667932 4278190335
0.021248152 0.053267792 0.5046283 4294967295
0.019634396 0.053440839 0.50210524 4294967295
0.018020639 0.05361389 0.49958217 4294967295
0.016406883 0.053786937 0.49705911 4294967295
0.014793127 0.053959988 0.49453604 4294967295
0.01317937 0.054133035 0.49201298 4294967295
0.011565614 0.054306082 0.48948991 4294967295
0.0099518578 0.054479133 0.48696685 4294967295
0.0083381012 0.054652181 0.48444378 4294967295
0.0067243446 0.054825231 0.48192072 4294967295
0.0051105879 0.054998279 0.47939768 4294967295
0.0034968313 0.055171326 0.47687462 4294967295
0.0018830765 0.055344377 0.47435156 4294967295
0.00026931986 0.055517424 0.47182849 4294967295
-0.0013444368 0.055690475 0.46930543 4294967295
-0.0029581953 0.055863522 0.46678236 4294967295
-0.0045719501 0.056036569 0.4642593 4294967295
-0.0061857067 0.05620962 0.46173623 4294967295
-0.0077994633 0.056382667 0.45921317 4294967295
-0.00941322 0.056555718 0.4566901 4294967295
-0.011026977 0.056728765 0.45416704 4294967295
-0.012640731 0.056901813 0.45164397 4294967295
-0.01425449 0.057074863 0.44912091 4294967295
-0.015868245 0.057247911 0.44659784 4294967295
-0.017481999 0.057420962 0.44407481 4294967295
-0.019095758 0.057594009 0.44155174 4294967295
-0.020709513 0.057767056 0.43902868 4294967295
-0.022323271 0.057940107 0.43650562 4294967295
-0.023937026 0.058113154 0.43398255 4294967295
-0.025550781 0.058286205 0.43145949 4294967295
-0.027164543 0.058459252 0.42893642 4294967295
-0.028778298 0.058632299 0.42641336 4294967295
-0.030392053 0.05880535 0.42389029 4294967295
-0.032005809 0.058978397 0.42136723 4294967295
-0.033619568 0.059151448 0.41884416 4294967295
-0.035233319 0.059324495 0.4163211 4294967295
-0.036847077 0.059497543 0.41379803 4294967295
-0.038460836 0.059670594 0.41127497 4294967295
-0.040074594 0.059843641 0.4087519 4294967295
-0.041688345 0.060016692 0.40622884 4294967295
-0.043302104 0.060189739 0.40370578 4294967295
-0.044915855 0.060362786 0.40118271 4294967295
-0.046529613 0.060535837 0.39865968 4294967295
-0.048143372 0.060708884 0.39613658 4294967295
-0.04975713 0.060881935 0.39361355 4294967295
-0.051370881 0.061054982 0.39109048 4294967295
-0.05298464 0.061228029 0.38856742 4294967295
-0.054598399 0.06140108 0.38604435 4294967295
-0.05621215 0.061574128 0.38352129 4294967295
-0.057825908 0.061747178 0.38099822 4294967295
-0.059439667 0.061920226 0.37847516 4294967295
-0.061053425 0.062093273 0.37595209 4294967295
-0.062667176 0.062266324 0.37342906 4294967295
-0.064280935 0.062439371 0.370906 4294967295
-0.065894693 0.062612422 0.3683829 4294967295
-0.067508452 0.062785469 0.36585984 4294967295
-0.069122203 0.062958516 0.3633368 4294967295
-0.070735961 0.063131563 0.36081374 4294967295
-0.072349712 0.063304618 0.35829067 4294967295
-0.073963471 0.063477665 0.35576761 4294967295
-0.075577237 0.063650712 0.35324454 4294967295
-0.077190988 0.06382376 0.35072148 4294967295
-0.078804746 0.063996807 0.34819841 4294967295
-0.080418497 0.064169861 0.34567535 4294967295
-0.082032256 0.064342909 0.34315228 4294967295
-0.083646007 0.064515956 0.34062922 4294967295
-0.085259773 0.064689003 0.33810616 4294967295
-0.086873531 0.064862058 0.33558309 4294967295
-0.088487282 0.065035105 0.33306003 4294967295
-0.090101041 0.065208152 0.33053696 4294967295
-0.091714792 0.065381199 0.3280139 4294967295
-0.09332855 0.065554246 0.32549083 4294967295
-0.094942309 0.065727293 0.32296777 4294967295
-0.096556067 0.065900348 0.3204447 4294967295
-0.098169819 0.066073395 0.31792164 4294967295
-0.099783577 0.066246442 0.31539857 4294967295
-0.10139734 0.06641949 0.31287551 4294967295
-0.10301109 0.066592537 0.31035247 4294967295
-0.10462485 0.066765592 0.30782941 4294967295
-0.10623861 0.066938639 0.30530632 4294967295
-0.10785236 0.067111686 0.30278325 4294967295
-0.10946611 0.067284733 0.30026022 4294967295
-0.11107986 0.06745778 0.29773715 4294967295
-0.11269363 0.067630827 0.29521409 4294967295
-0.11430738 0.067803882 0.29269105 4294967295
-0.11592115 0.067976929 0.29016796 4294967295
-0.1175349 0.068149976 0.28764489 4294967295
-0.11914865 0.068323024 0.28512183 4294967295
-0.12076242 0.068496078 0.28259879 4294967295
-0.12237617 0.068669125 0.28007573 4294967295
-0.12398992 0.068842173 0.27755266 4294967295
-0.12560369 0.06901522 0.27502957 4294967295
-0.12721744 0.069188267 0.27250654 4294967295
-0.12883121 0.069361314 0.26998347 4294967295
-0.13044496 0.069534369 0.26746041 4294967295
-0.13205871 0.069707416 0.26493734 4294967295
-0.13367246 0.069880463 0.26241428 4294967295
-0.13528623 0.070053518 0.25989121 4294967295
-0.13689998 0.070226565 0.25736815 4294967295
-0.13851374 0.070399612 0.25484508 4294967295
-0.14012749 0.070572659 0.25232202 4294967295
