# .PCD v0.7 - Point Cloud Data file format
VERSION 0.7
FIELDS x y z rgb
SIZE 4 4 4 4
TYPE F F F U
COUNT 1 1 1 1
WIDTH 1062
HEIGHT 1
VIEWPOINT 0 0 0 1 0 0 0
POINTS 1062
DATA ascii
0.065275058 0.062994152 0.30400002 4282346826
0.066262454 0.062994152 0.30400002 4287148945
0.067028627 0.062786937 0.303 4282872146
0.068012767 0.062786937 0.303 4279781928
0.068996914 0.062786937 0.303 4279651109
0.069981061 0.062786937 0.303 4279716902
0.070965201 0.062786937 0.303 4280241709
0.071949348 0.062786937 0.303 4280502573
0.072933495 0.062786937 0.303 4282868814
0.041664049 0.069033086 0.32800001 4279519523
0.042729393 0.069033086 0.32800001 4279256351
0.04379474 0.069033086 0.32800001 4279256351
0.044723313 0.068822622 0.32700002 4279059742
0.045785412 0.068822622 0.32700002 4278993949
0.046704244 0.068612151 0.32600001 4279125535
0.046737507 0.06713888 0.31900001 4279059742
0.047623854 0.066928416 0.31800002 4279256351
0.048503712 0.066717945 0.317 4279256349
0.04953333 0.066717945 0.317 4279256349
0.050403439 0.066507481 0.31600001 4279387935
0.051429808 0.066507481 0.31600001 4279385371
0.052290183 0.066297017 0.31500003 4278394376
0.0533133 0.066297017 0.31500003 4280435497
0.054163922 0.066086553 0.31400001 4279649572
0.055183794 0.066086553 0.31400001 4278859545
0.057872433 0.065665618 0.31200001 4279053590
0.059515215 0.065244682 0.31 4279519008
0.060326867 0.065034218 0.30900002 4279519521
0.061330501 0.065034218 0.30900002 4279125533
0.061930671 0.064613283 0.30700001 4279454498
0.062722839 0.064402819 0.30600002 4279059742
0.063716725 0.064402819 0.30600002 4279059742
0.06449914 0.064192347 0.30500001 4278928152
0.065275058 0.063981883 0.30400002 4279453726
0.066262454 0.063981883 0.30400002 4279715104
0.067028627 0.063771412 0.303 4281490747
0.068012767 0.063771412 0.303 4286688392
0.068996914 0.063771412 0.303 4282083654
0.069981061 0.063771412 0.303 4279782182
0.070965201 0.063771412 0.303 4279716902
0.071949348 0.063771412 0.303 4279454500
0.072933495 0.063771412 0.303 4279980074
0.041664049 0.070098795 0.32800001 4279517473
0.042729393 0.070098795 0.32800001 4279321631
0.04379474 0.070098795 0.32800001 4278993949
0.044723313 0.069885075 0.32700002 4278993949
0.045645393 0.069671355 0.32600001 4279125533
0.04656098 0.069457643 0.32500002 4279059740
0.046737507 0.068175346 0.31900001 4279322912
0.047623854 0.067961633 0.31800002 4279387937
0.048656721 0.067961633 0.31800002 4279387937
0.04953333 0.067747913 0.317 4279190558
0.050562941 0.067747913 0.317 4279190045
0.051429808 0.067534201 0.31600001 4278858259
0.052456178 0.067534201 0.31600001 4278460683
0.0533133 0.067320488 0.31500003 4279976229
0.054336421 0.067320488 0.31500003 4279649059
0.055183794 0.067106768 0.31400001 4278199561
0.059707202 0.066465624 0.31100002 4278395914
0.061330501 0.066038191 0.30900002 4279584803
0.062334131 0.066038191 0.30900002 4279650596
0.063337766 0.066038191 0.30900002 4279716389
0.064341396 0.066038191 0.30900002 4279716902
0.06449914 0.065183327 0.30500001 4279519521
0.065275058 0.064969614 0.30400002 4278993177
0.066262454 0.064969614 0.30400002 4278993175
0.067028627 0.064755894 0.303 4279321627
0.068012767 0.064755894 0.303 4279386391
0.068996914 0.064755894 0.303 4280964653
0.069981061 0.064755894 0.303 4286360197
0.070965201 0.064755894 0.303 4282544464
0.071949348 0.064755894 0.303 4279914281
0.072933495 0.064755894 0.303 4279520293
0.074161589 0.064969614 0.30400002 4279586086
0.075148985 0.064969614 0.30400002 4279980074
0.076136373 0.064969614 0.30400002 4280503852
0.043661222 0.070947535 0.32700002 4279715619
0.044723313 0.070947535 0.32700002 4279321631
0.045645393 0.070730567 0.32600001 4279124765
0.04656098 0.070513599 0.32500002 4279387937
0.046737507 0.069211811 0.31900001 4278993949
0.047623854 0.06899485 0.31800002 4279387937
0.048656721 0.06899485 0.31800002 4279256351
0.04953333 0.068777882 0.317 4279256351
0.050562941 0.068777882 0.317 4279582498
0.051429808 0.068560913 0.31600001 4278592271
0.052456178 0.068560913 0.31600001 4278592523
0.053482544 0.068560913 0.31600001 4279910947
0.054336421 0.068343952 0.31500003 4279649313
0.055359542 0.068343952 0.31500003 4278329867
0.061330501 0.067042165 0.30900002 4278658832
0.062927812 0.066608228 0.30700001 4279715619
0.063716725 0.066391267 0.30600002 4279781412
0.06449914 0.066174299 0.30500001 4279847205
0.065275058 0.065957338 0.30400002 4279913768
0.066262454 0.065957338 0.30400002 4279584801
0.067028627 0.065740369 0.303 4279453215
0.068012767 0.065740369 0.303 4279190041
0.068996914 0.065740369 0.303 4279058709
0.069981061 0.065740369 0.303 4278729490
0.070965201 0.065740369 0.303 4280241959
0.071949348 0.065740369 0.303 4285373563
0.072933495 0.065740369 0.303 4282611029
0.074161589 0.065957338 0.30400002 4279915051
0.075148985 0.065957338 0.30400002 4279388703
0.076136373 0.065957338 0.30400002 4279717668
0.077123769 0.065957338 0.30400002 4279979557
0.045505378 0.071569562 0.32500002 4279714852
0.04627445 0.071129136 0.32300001 4279649826
0.046884019 0.070468493 0.32000002 4279453217
0.047773615 0.070248276 0.31900001 4279256351
0.048656721 0.070028067 0.31800002 4279453730
0.049689587 0.070028067 0.31800002 4279453730
0.050562941 0.069807842 0.317 4279582496
0.051592559 0.069807842 0.317 4278987029
0.052456178 0.069587633 0.31600001 4278330121
0.053482544 0.069587633 0.31600001 4279976740
0.054336421 0.069367424 0.31500003 4279911715
0.05722354 0.069147207 0.31400001 4280432165
0.063132793 0.067825928 0.30800003 4278722828
0.064710617 0.067385495 0.30600002 4279781158
0.065489776 0.067165278 0.30500001 4279781412
0.066262454 0.066945069 0.30400002 4279649824
0.067249849 0.066945069 0.30400002 4279847203
0.068012767 0.066724852 0.303 4279716387
0.068996914 0.066724852 0.303 4279190556
0.069981061 0.066724852 0.303 4279124763
0.070965201 0.066724852 0.303 4279124761
0.071949348 0.066724852 0.303 4279256351
0.072933495 0.066724852 0.303 4280176686
0.074161589 0.066945069 0.30400002 4283598953
0.075148985 0.066945069 0.30400002 4281888589
0.076136373 0.066945069 0.30400002 4280309809
0.077123769 0.066945069 0.30400002 4279520291
0.078111164 0.066945069 0.30400002 4279520291
0.046884019 0.071508206 0.32000002 4279583779
0.047773615 0.071284734 0.31900001 4279518756
0.048656721 0.071061276 0.31800002 4279584549
0.049689587 0.071061276 0.31800002 4279452963
0.05072245 0.071061276 0.31800002 4278726673
0.051592559 0.070837811 0.317 4279053590
0.052622177 0.070837811 0.317 4279778848
0.053482544 0.070614345 0.31600001 4279648289
0.054508913 0.070614345 0.31600001 4280239401
0.058057927 0.069943964 0.31300002 4280301090
0.058885813 0.069720492 0.31200001 4278524679
0.064710617 0.068379723 0.30600002 4278460683
0.065489776 0.06815625 0.30500001 4279844641
0.066480421 0.06815625 0.30500001 4279911713
0.067249849 0.067932792 0.30400002 4279780127
0.068237238 0.067932792 0.30400002 4279847205
0.068996914 0.067709327 0.303 4279716389
0.069981061 0.067709327 0.303 4279584803
0.070965201 0.067709327 0.303 4279321629
0.071949348 0.067709327 0.303 4279124763
0.072933495 0.067709327 0.303 4279058970
0.074161589 0.067932792 0.30400002 4278796566
0.075148985 0.067932792 0.30400002 4279387933
0.076136373 0.067932792 0.30400002 4280770872
0.077123769 0.067932792 0.30400002 4279850283
0.078111164 0.067932792 0.30400002 4279389734
0.04880973 0.072321199 0.31900001 4280109610
0.049689587 0.072094493 0.31800002 4279846438
0.05072245 0.072094493 0.31800002 4279911461
0.051592559 0.071867779 0.317 4279187226
0.052622177 0.071867779 0.317 4279121433
0.053651791 0.071867779 0.317 4279780645
0.054508913 0.071641065 0.31600001 4279779875
0.055359542 0.071414359 0.31500003 4278789136
0.059074551 0.070960931 0.31300002 4280300579
0.059899185 0.070734218 0.31200001 4280301860
0.067471065 0.069147229 0.30500001 4280107045
0.068237238 0.068920523 0.30400002 4279912485
0.069224633 0.068920523 0.30400002 4279912998
0.069981061 0.068693802 0.303 4279979561
0.070965201 0.068693802 0.303 4279716389
0.071949348 0.068693802 0.303 4279650594
0.072933495 0.068693802 0.303 4279453728
0.073917635 0.068693802 0.303 4279058968
0.075148985 0.068920523 0.30400002 4279058968
0.076136373 0.068920523 0.30400002 4279059738
0.077123769 0.068920523 0.30400002 4279258144
0.078111164 0.068920523 0.30400002 4279522086
0.049689587 0.073127702 0.31800002 4280830518
0.05072245 0.073127702 0.31800002 4280437039
0.051755317 0.073127702 0.31800002 4280108842
0.052622177 0.07289774 0.317 4279977256
0.053651791 0.07289774 0.317 4279977254
0.054508913 0.072667778 0.31600001 4279714852
0.055535283 0.072667778 0.31600001 4279779877
0.061727464 0.071517974 0.31100002 4278392584
0.06253586 0.071288012 0.31 4280039203
0.069224633 0.069908246 0.30400002 4280240426
0.070212021 0.069908246 0.30400002 4280109610
0.070965201 0.069678284 0.303 4280109610
0.071949348 0.069678284 0.303 4280109864
0.072933495 0.069678284 0.303 4279978278
0.073917635 0.069678284 0.303 4279715619
0.075148985 0.069908246 0.30400002 4280044584
0.076136373 0.069908246 0.30400002 4279124763
0.077123769 0.069908246 0.30400002 4278862361
0.078111164 0.069908246 0.30400002 4278797080
0.052622177 0.073927708 0.317 4280568366
0.053651791 0.073927708 0.317 4280437291
0.054508913 0.073694497 0.31600001 4279912231
0.055535283 0.073694497 0.31600001 4279714852
0.056382664 0.073461294 0.31500003 4279780645
0.057405781 0.073461294 0.31500003 4280371498
0.065133564 0.07182882 0.30800003 4278589961
0.06591922 0.071595602 0.30700001 4280300579
0.068461701 0.07112918 0.30500001 4280106791
0.069452338 0.07112918 0.30500001 4280042022
0.070212021 0.070895977 0.30400002 4278198535
0.071199417 0.070895977 0.30400002 4280896046
0.071949348 0.070662759 0.303 4280109094
0.072933495 0.070662759 0.303 4280175657
0.073917635 0.070662759 0.303 4280241450
0.075148985 0.070895977 0.30400002 4280175657
0.076136373 0.070895977 0.30400002 4279781412
0.077123769 0.070895977 0.30400002 4279519010
0.078111164 0.070895977 0.30400002 4278862363
0.052788179 0.075194135 0.31800002 4284645999
0.053651791 0.074957669 0.317 4280698930
0.054681409 0.074957669 0.317 4279976229
0.055535283 0.07472121 0.31600001 4280108840
0.056382664 0.074484758 0.31500003 4279846438
0.057405781 0.074484758 0.31500003 4279780899
0.058243413 0.074248292 0.31400001 4279912485
0.059074551 0.07401184 0.31300002 4280042533
0.068686165 0.072356619 0.30600002 4280633135
0.069452338 0.07212016 0.30500001 4280372014
0.070212021 0.071883701 0.30400002 4280502573
0.072186805 0.071883701 0.30400002 4278460937
0.073917635 0.071647234 0.303 4280438057
0.074901782 0.071647234 0.303 4280438057
0.076136373 0.071883701 0.30400002 4280241448
0.077123769 0.071883701 0.30400002 4279978276
0.078111164 0.071883701 0.30400002 4279782180
0.056382664 0.075508229 0.31500003 4280437291
0.057405781 0.075508229 0.31500003 4279845668
0.058243413 0.075268514 0.31400001 4279781158
0.059263285 0.075268514 0.31400001 4279715619
0.060091171 0.075028807 0.31300002 4279912485
0.060912564 0.074789092 0.31200001 4280108328
0.068686165 0.073350847 0.30600002 4280634159
0.069680057 0.073350847 0.30600002 4280306221
0.070442982 0.073111132 0.30500001 4280306221
0.071199417 0.072871432 0.30400002 4280306221
0.072186805 0.072871432 0.30400002 4280436778
0.072933495 0.072631717 0.303 4280567594
0.073917635 0.072631717 0.303 4278460423
0.075635478 0.072392009 0.30200002 4280437545
0.077123769 0.072871432 0.30400002 4280109094
0.078111164 0.072871432 0.30400002 4280110377
0.057405781 0.076531693 0.31500003 4281157682
0.058243413 0.07628873 0.31400001 4280108840
0.059263285 0.07628873 0.31400001 4279847205
0.060091171 0.076045781 0.31300002 4279847205
0.060912564 0.075802818 0.31200001 4279847205
0.061727464 0.075559862 0.31100002 4279912485
0.062737592 0.075559862 0.31100002 4280240680
0.068910629 0.074588031 0.30700001 4280436778
0.069680057 0.074345075 0.30600002 4280239912
0.070442982 0.074102111 0.30500001 4279909666
0.071433619 0.074102111 0.30500001 4278593806
0.073174201 0.073859155 0.30400002 4280699180
0.073917635 0.073616199 0.303 4280568366
0.074901782 0.073616199 0.303 4280369704
0.075635478 0.073373243 0.30200002 4278658316
0.077597275 0.073373243 0.30200002 4280043301
0.060091171 0.077062748 0.31300002 4280109094
0.060912564 0.076816536 0.31200001 4279846692
0.061727464 0.076570332 0.31100002 4279912485
0.062737592 0.076570332 0.31100002 4279846692
0.063542739 0.07632412 0.31 4280043301
0.064549617 0.07632412 0.31 4280239912
0.067913495 0.075585499 0.30700001 4280431393
0.068910629 0.075585499 0.30700001 4280502571
0.069680057 0.075339295 0.30600002 4280239401
0.073917635 0.074600674 0.303 4280436780
0.074901782 0.074600674 0.303 4280503084
0.075635478 0.07435447 0.30200002 4280568364
0.076616377 0.07435447 0.30200002 4280633387
0.077597275 0.07435447 0.30200002 4278922256
0.079295628 0.074108265 0.30100003 4280240166
0.061727464 0.077580802 0.31100002 4279977254
0.06253586 0.077331342 0.31 4279846438
0.063542739 0.077331342 0.31 4279846438
0.064341396 0.077081889 0.30900002 4279912485
0.065345034 0.077081889 0.30900002 4280043301
0.066348664 0.077081889 0.30900002 4280568618
0.067134328 0.076832436 0.30800003 4280170528
0.068910629 0.076582976 0.30700001 4280173606
0.069680057 0.076333523 0.30600002 4280239401
0.075635478 0.075335696 0.30200002 4278791185
0.076616377 0.075335696 0.30200002 4280633641
0.077597275 0.075335696 0.30200002 4280502825
0.078317977 0.075086243 0.30100003 4281225524
0.079295628 0.075086243 0.30100003 4278723341
0.081250928 0.075086243 0.30100003 4280633639
0.064341396 0.078085862 0.30900002 4279977254
0.065345034 0.078085862 0.30900002 4280175657
0.066133946 0.077833161 0.30800003 4280109864
0.067134328 0.077833161 0.30800003 4280372266
0.068134718 0.077833161 0.30800003 4280372266
0.06990777 0.077580452 0.30700001 4278527246
0.07067395 0.077327751 0.30600002 4281157682
0.075885922 0.076569624 0.303 4280764460
0.076616377 0.076316923 0.30200002 4280698667
0.077597275 0.076316923 0.30200002 4280305192
0.078317977 0.076064222 0.30100003 4280897329
0.079295628 0.076064222 0.30100003 4280764973
0.080273278 0.076064222 0.30100003 4280632874
0.080980986 0.075811513 0.30000001 4278460937
0.065345034 0.079089835 0.30900002 4280239653
0.066133946 0.078833885 0.30800003 4279977508
0.067134328 0.078833885 0.30800003 4280109610
0.068134718 0.078833885 0.30800003 4280175403
0.068910629 0.078577928 0.30700001 4280240426
0.06990777 0.078577928 0.30700001 4280568877
0.072424263 0.078066014 0.30500001 4280761641
0.073174201 0.077810064 0.30400002 4280631077
0.074161589 0.077810064 0.30400002 4280764714
0.075885922 0.077554107 0.303 4280567594
0.076616377 0.077298157 0.30200002 4280568364
0.078317977 0.077042207 0.30100003 4280370217
0.079295628 0.077042207 0.30100003 4280107297
0.080273278 0.077042207 0.30100003 4280633641
0.080980986 0.07678625 0.30000001 4280568618
0.081955381 0.07678625 0.30000001 4280634411
0.066133946 0.07983461 0.30800003 4280499491
0.067134328 0.07983461 0.30800003 4280173606
0.067913495 0.079575405 0.30700001 4280108840
0.068910629 0.079575405 0.30700001 4280306219
0.06990777 0.079575405 0.30700001 4280372266
0.07067395 0.079316199 0.30600002 4280569131
0.071667835 0.079316199 0.30600002 4280437032
0.073174201 0.078797795 0.30400002 4278657289
0.074161589 0.078797795 0.30400002 4280501542
0.074901782 0.078538589 0.303 4280831020
0.076616377 0.078279383 0.30200002 4278790154
0.079295628 0.078020185 0.30100003 4281026348
0.080273278 0.078020185 0.30100003 4281092655
0.081955381 0.07776098 0.30000001 4280436008
0.082929783 0.07776098 0.30000001 4280634411
0.083624512 0.077501781 0.29900002 4280700204
0.067913495 0.080572866 0.30700001 4280631077
0.068910629 0.080572866 0.30700001 4280239653
0.069680057 0.080310419 0.30600002 4280174373
0.07067395 0.080310419 0.30600002 4280503338
0.071433619 0.080047965 0.30500001 4280503338
0.072424263 0.080047965 0.30500001 4280568618
0.073174201 0.079785518 0.30400002 4280633641
0.075885922 0.079523057 0.303 4280763944
0.076870069 0.079523057 0.303 4280829735
0.077597275 0.07926061 0.30200002 4280699434
0.078578167 0.07926061 0.30200002 4280699434
0.079295628 0.078998163 0.30100003 4281092655
0.080273278 0.078998163 0.30100003 4280764714
0.080980986 0.078735702 0.30000001 4280698667
0.081955381 0.078735702 0.30000001 4280303909
0.082929783 0.078735702 0.30000001 4280437545
0.083624512 0.078473255 0.29900002 4280634924
0.084595665 0.078473255 0.29900002 4280568364
0.085280634 0.078210801 0.29800001 4280633387
0.069680057 0.081304647 0.30600002 4281289007
0.07067395 0.081304647 0.30600002 4280370215
0.071433619 0.081038944 0.30500001 4280239653
0.072424263 0.081038944 0.30500001 4280437545
0.073174201 0.080773242 0.30400002 4280700463
0.074161589 0.080773242 0.30400002 4280634670
0.075148985 0.080773242 0.30400002 4280699950
0.077597275 0.080241837 0.30200002 4280501290
0.078578167 0.080241837 0.30200002 4280370215
0.081955381 0.079710439 0.30000001 4280303911
0.083624512 0.079444736 0.29900002 4280304424
0.084595665 0.079444736 0.29900002 4280305194
0.085280634 0.079179034 0.29800001 4280699952
0.086248539 0.079179034 0.29800001 4280699950
0.086923771 0.078913331 0.29700002 4280699180
0.087888427 0.078913331 0.29700002 4280302887
0.071433619 0.082029924 0.30500001 4280959790
0.072424263 0.082029924 0.30500001 4280370217
0.073174201 0.081760973 0.30400002 4280568877
0.074161589 0.081760973 0.30400002 4280240426
0.074901782 0.081492022 0.303 4280372012
0.075885922 0.081492022 0.303 4280437805
0.076870069 0.081492022 0.303 4280963122
0.078578167 0.081223071 0.30200002 4278788875
0.080273278 0.080954127 0.30100003 4280830255
0.081250928 0.080954127 0.30100003 4280698667
0.081955381 0.080685169 0.30000001 4280567594
0.085280634 0.080147266 0.29800001 4280370217
0.086248539 0.080147266 0.29800001 4280436778
0.086923771 0.079878323 0.29700002 4280503338
0.087888427 0.079878323 0.29700002 4280503086
0.088553913 0.079609364 0.296 4280305194
0.089515321 0.079609364 0.296 4280763438
0.09745492 0.078264616 0.29100001 4279454496
0.10029043 0.078264616 0.29100001 4279453213
0.1012356 0.078264616 0.29100001 4279716385
0.10218077 0.078264616 0.29100001 4279715615
0.073174201 0.082748704 0.30400002 4280959274
0.074161589 0.082748704 0.30400002 4280173606
0.074901782 0.082476497 0.303 4280239912
0.075885922 0.082476497 0.303 4280108840
0.076870069 0.082476497 0.303 4280372012
0.077597275 0.082204305 0.30200002 4280437805
0.078578167 0.082204305 0.30200002 4280502571
0.079559065 0.082204305 0.30200002 4280961069
0.081955381 0.081659898 0.30000001 4280436780
0.082929783 0.081659898 0.30000001 4280436780
0.083624512 0.081387706 0.29900002 4280238631
0.084595665 0.081387706 0.29900002 4280499752
0.086248539 0.081115499 0.29800001 4280696618
0.086923771 0.080843307 0.29700002 4280433959
0.087888427 0.080843307 0.29700002 4280107045
0.088553913 0.0805711 0.296 4280370217
0.089515321 0.0805711 0.296 4280764973
0.090476729 0.0805711 0.296 4280764460
0.091129236 0.080298908 0.29500002 4280500006
0.093685046 0.080026701 0.294 4280042020
0.096841417 0.07948231 0.29200003 4279255064
0.097789824 0.07948231 0.29200003 4279125015
0.098400094 0.079210103 0.29100001 4279388187
0.099345259 0.079210103 0.29100001 4279388187
0.10029043 0.079210103 0.29100001 4279585566
0.1012356 0.079210103 0.29100001 4279388187
0.10218077 0.079210103 0.29100001 4279256601
0.10312594 0.079210103 0.29100001 4279584029
0.10371348 0.07893791 0.29000002 4280240676
0.074901782 0.083460979 0.303 4281288237
0.075885922 0.083460979 0.303 4280172577
0.076870069 0.083460979 0.303 4280108580
0.077597275 0.083185531 0.30200002 4280438059
0.078578167 0.083185531 0.30200002 4280372266
0.079559065 0.083185531 0.30200002 4280569131
0.080273278 0.082910091 0.30100003 4280502571
0.081250928 0.082910091 0.30100003 4280960817
0.083624512 0.082359187 0.29900002 4280699182
0.084595665 0.082359187 0.29900002 4280698667
0.085280634 0.082083732 0.29800001 4280632874
0.086248539 0.082083732 0.29800001 4280960555
0.087888427 0.081808291 0.29700002 4280631338
0.089515321 0.081532836 0.296 4280369956
0.090476729 0.081532836 0.296 4280501542
0.091129236 0.081257388 0.29500002 4280436780
0.092087395 0.081257388 0.29500002 4280305194
0.093045548 0.081257388 0.29500002 4281093173
0.095594876 0.08098194 0.294 4280107295
0.096221395 0.080706492 0.29300001 4279911713
0.096841417 0.080431044 0.29200003 4279648541
0.097789824 0.080431044 0.29200003 4279320857
0.098738238 0.080431044 0.29200003 4278992916
0.099345259 0.080155596 0.29100001 4278993429
0.10029043 0.080155596 0.29100001 4279190808
0.1012356 0.080155596 0.29100001 4279388185
0.10218077 0.080155596 0.29100001 4279256599
0.10312594 0.080155596 0.29100001 4279190554
0.10371348 0.079880148 0.29000002 4279453213
0.10465539 0.079880148 0.29000002 4279715102
0.076616377 0.084166758 0.30200002 4282274371
0.077597275 0.084166758 0.30200002 4280238116
0.078578167 0.084166758 0.30200002 4280305192
0.079559065 0.084166758 0.30200002 4280437545
0.080273278 0.083888061 0.30100003 4280503338
0.081250928 0.083888061 0.30100003 4280634411
0.081955381 0.083609357 0.30000001 4280502571
0.082929783 0.083609357 0.30000001 4280764210
0.085566819 0.083330661 0.29900002 4280435749
0.086248539 0.083051965 0.29800001 4280765225
0.087216437 0.083051965 0.29800001 4280304163
0.087888427 0.082773268 0.29700002 4280565797
0.088853084 0.082773268 0.29700002 4280697385
0.090476729 0.082494564 0.296 4279974944
0.092087395 0.082215868 0.29500002 4280305194
0.093045548 0.082215868 0.29500002 4280305194
0.093685046 0.081937164 0.294 4280436780
0.096221395 0.081658475 0.29300001 4279975711
0.097173057 0.081658475 0.29300001 4280109094
0.097789824 0.081379779 0.29200003 4280109090
0.098738238 0.081379779 0.29200003 4279780125
0.099345259 0.081101075 0.29100001 4279189271
0.10029043 0.081101075 0.29100001 4279058455
0.1012356 0.081101075 0.29100001 4279058709
0.10218077 0.081101075 0.29100001 4279256601
0.10312594 0.081101075 0.29100001 4279058968
0.10371348 0.080822378 0.29000002 4279190554
0.10465539 0.080822378 0.29000002 4279386650
0.10559732 0.080822378 0.29000002 4279780895
0.080273278 0.084866039 0.30100003 4280633128
0.081250928 0.084866039 0.30100003 4280239653
0.081955381 0.084584087 0.30000001 4280634411
0.082929783 0.084584087 0.30000001 4280765997
0.083904184 0.084584087 0.30000001 4280963122
0.087216437 0.084020197 0.29800001 4280566565
0.087888427 0.083738253 0.29700002 4280763944
0.088853084 0.083738253 0.29700002 4280500518
0.089515321 0.0834563 0.296 4280501290
0.091438144 0.0834563 0.296 4280631077
0.093045548 0.083174355 0.29500002 4280107813
0.094003707 0.083174355 0.29500002 4280502571
0.094639964 0.082892403 0.294 4280173606
0.095594876 0.082892403 0.294 4280238629
0.097173057 0.082610466 0.29300001 4280108580
0.097789824 0.082328521 0.29200003 4280043299
0.098738238 0.082328521 0.29200003 4280306471
0.09968666 0.082328521 0.29200003 4279912483
0.10029043 0.082046568 0.29100001 4279649311
0.1012356 0.082046568 0.29100001 4279189525
0.10218077 0.082046568 0.29100001 4279123732
0.10312594 0.082046568 0.29100001 4279058968
0.1040711 0.082046568 0.29100001 4279584799
0.10501627 0.082046568 0.29100001 4279386650
0.10596144 0.082046568 0.29100001 4279189271
0.10690661 0.082046568 0.29100001 4279779613
0.082929783 0.085558824 0.30000001 4280437032
0.083624512 0.085273631 0.29900002 4280634411
0.084595665 0.085273631 0.29900002 4280700204
0.085566819 0.085273631 0.29900002 4280764973
0.086248539 0.08498843 0.29800001 4280434727
0.088853084 0.084703237 0.29700002 4280632876
0.089515321 0.084418036 0.296 4280239401
0.090476729 0.084418036 0.296 4280107813
0.091438144 0.084418036 0.296 4280236832
0.093045548 0.084132843 0.29500002 4280370215
0.094003707 0.084132843 0.29500002 4280437032
0.094639964 0.083847642 0.294 4280173858
0.096549787 0.083847642 0.294 4280499493
0.097173057 0.083562449 0.29300001 4280632874
0.098124713 0.083562449 0.29300001 4280437030
0.098738238 0.083277255 0.29200003 4280568616
0.09968666 0.083277255 0.29200003 4280108578
0.10063507 0.083277255 0.29200003 4280240164
0.1012356 0.082992055 0.29100001 4280108578
0.10218077 0.082992055 0.29100001 4279517725
0.10312594 0.082992055 0.29100001 4279255064
0.1040711 0.082992055 0.29100001 4279255064
0.10501627 0.082992055 0.29100001 4279452443
0.10596144 0.082992055 0.29100001 4279189271
0.10690661 0.082992055 0.29100001 4279320344
0.084595665 0.086245112 0.29900002 4280567848
0.085280634 0.085956663 0.29800001 4280700204
0.086248539 0.085956663 0.29800001 4280831020
0.087216437 0.085956663 0.29800001 4280765227
0.087888427 0.085668221 0.29700002 4280632622
0.090476729 0.085379772 0.296 4280370215
0.091438144 0.085379772 0.296 4280370215
0.092087395 0.08509133 0.29500002 4280238118
0.093045548 0.08509133 0.29500002 4280567594
0.094003707 0.08509133 0.29500002 4280437030
0.094961874 0.08509133 0.29500002 4280370467
0.096549787 0.084802881 0.294 4280499752
0.097173057 0.084514439 0.29300001 4280435243
0.098124713 0.084514439 0.29300001 4280567848
0.098738238 0.084225997 0.29200003 4280567848
0.09968666 0.084225997 0.29200003 4280108067
0.10063507 0.084225997 0.29200003 4280305446
0.1015835 0.084225997 0.29200003 4280174373
0.10218077 0.083937548 0.29100001 4279976994
0.10312594 0.083937548 0.29100001 4279715106
0.1040711 0.083937548 0.29100001 4279320859
0.10501627 0.083937548 0.29100001 4279255066
0.10596144 0.083937548 0.29100001 4279189271
0.10690661 0.083937548 0.29100001 4278794000
0.086248539 0.086924888 0.29800001 4280764714
0.087216437 0.086924888 0.29800001 4280699434
0.087888427 0.086633198 0.29700002 4280502825
0.088853084 0.086633198 0.29700002 4280568364
0.08981774 0.086633198 0.29700002 4281028147
0.092399552 0.0863415 0.296 4280500006
0.093045548 0.08604981 0.29500002 4280435495
0.094003707 0.08604981 0.29500002 4280370469
0.094961874 0.08604981 0.29500002 4280304163
0.096549787 0.085758112 0.294 4280566313
0.097504705 0.085758112 0.294 4280698669
0.098124713 0.085466422 0.29300001 4280633641
0.099076383 0.085466422 0.29300001 4280699434
0.09968666 0.085174732 0.29200003 4280305446
0.10063507 0.085174732 0.29200003 4280502825
0.1015835 0.085174732 0.29200003 4280174373
0.10218077 0.084883027 0.29100001 4280042533
0.10312594 0.084883027 0.29100001 4279845922
0.1040711 0.084883027 0.29100001 4279582750
0.10501627 0.084883027 0.29100001 4279386141
0.10596144 0.084883027 0.29100001 4279320346
0.10690661 0.084883027 0.29100001 4279187476
0.087888427 0.087598182 0.29700002 4280633128
0.088853084 0.087598182 0.29700002 4280436262
0.08981774 0.087598182 0.29700002 4280437032
0.090476729 0.087303236 0.296 4280633641
0.091438144 0.087303236 0.296 4280829483
0.094003707 0.087008297 0.29500002 4280236319
0.096549787 0.086713351 0.294 4280501542
0.097504705 0.086713351 0.294 4280699434
0.098459609 0.086713351 0.294 4280699434
0.09941452 0.086713351 0.294 4280436262
0.09968666 0.086123466 0.29200003 4280502825
0.10063507 0.086123466 0.29200003 4280437032
0.1015835 0.086123466 0.29200003 4280108578
0.10253191 0.086123466 0.29200003 4279845920
0.10312594 0.08582852 0.29100001 4279845920
0.1040711 0.08582852 0.29100001 4279516955
0.10501627 0.08582852 0.29100001 4279516953
0.10596144 0.08582852 0.29100001 4279385367
0.10690661 0.08582852 0.29100001 4279122195
0.087888427 0.088563167 0.29700002 4283393102
0.088853084 0.088563167 0.29700002 4280631079
0.08981774 0.088563167 0.29700002 4280303911
0.090476729 0.088264972 0.296 4280435495
0.091438144 0.088264972 0.296 4280829737
0.092087395 0.087966785 0.29500002 4280829737
0.092730135 0.087668583 0.294 4280960555
0.095920034 0.087966785 0.29500002 4280697385
0.096878193 0.087966785 0.29500002 4280502571
0.09783636 0.087966785 0.29500002 4280502571
0.098794512 0.087966785 0.29500002 4280437032
0.099752672 0.087966785 0.29500002 4280239653
0.10071083 0.087966785 0.29500002 4280305446
0.101669 0.087966785 0.29500002 4280437032
0.1015835 0.087072209 0.29200003 4280108580
0.10253191 0.087072209 0.29200003 4279845922
0.10312594 0.086774014 0.29100001 4279516955
0.1040711 0.086774014 0.29100001 4279385369
0.10501627 0.086774014 0.29100001 4279516441
0.10596144 0.086774014 0.29100001 4279450648
0.10690661 0.086774014 0.29100001 4279450646
0.087888427 0.089528158 0.29700002 4283523152
0.090476729 0.089226708 0.296 4281024554
0.091438144 0.089226708 0.296 4281091112
0.092087395 0.088925272 0.29500002 4280960294
0.092730135 0.088623822 0.294 4280764460
0.093366392 0.088322386 0.29300001 4280764973
0.094318062 0.088322386 0.29300001 4280567594
0.095920034 0.088925272 0.29500002 4280633387
0.096878193 0.088925272 0.29500002 4280437032
0.09783636 0.088925272 0.29500002 4280305446
0.098794512 0.088925272 0.29500002 4280502823
0.099752672 0.088925272 0.29500002 4280239653
0.10071083 0.088925272 0.29500002 4280108580
0.101669 0.088925272 0.29500002 4280108580
0.1015835 0.088020951 0.29200003 4279976992
0.10253191 0.088020951 0.29200003 4279976992
0.10312594 0.0877195 0.29100001 4279648027
0.1040711 0.0877195 0.29100001 4279648027
0.10501627 0.0877195 0.29100001 4279647514
0.10596144 0.0877195 0.29100001 4279647514
0.10690661 0.0877195 0.29100001 4279582234
0.091129236 0.089883752 0.29500002 4283588430
0.092087395 0.089883752 0.29500002 4283392332
0.093047746 0.088969678 0.29200003 4280763692
0.09399616 0.088969678 0.29200003 4280567594
0.095920034 0.089883752 0.29500002 4280699180
0.096878193 0.089883752 0.29500002 4280830766
0.09783636 0.089883752 0.29500002 4280699434
0.098794512 0.089883752 0.29500002 4280633641
0.099752672 0.089883752 0.29500002 4280437032
0.10071083 0.089883752 0.29500002 4280239653
0.101669 0.089883752 0.29500002 4280305446
0.1015835 0.088969678 0.29200003 4280305442
0.10253191 0.088969678 0.29200003 4279844891
0.10312594 0.088664986 0.29100001 4279779098
0.1040711 0.088664986 0.29100001 4279647512
0.10501627 0.088664986 0.29100001 4279713307
0.10596144 0.088664986 0.29100001 4279779100
0.10690661 0.088664986 0.29100001 4279778330
0.094294272 0.08930254 0.29000002 4280630307
0.096878193 0.09084224 0.29500002 4280763690
0.09783636 0.09084224 0.29500002 4280699180
0.098794512 0.09084224 0.29500002 4280567848
0.099752672 0.09084224 0.29500002 4280437032
0.10071083 0.09084224 0.29500002 4280240166
0.10063507 0.08991842 0.29200003 4280371752
0.1015835 0.08991842 0.29200003 4280042785
0.10253191 0.08991842 0.29200003 4279713820
0.10312594 0.089610472 0.29100001 4279582234
0.1040711 0.089610472 0.29100001 4279516441
0.10501627 0.089610472 0.29100001 4279648027
0.10596144 0.089610472 0.29100001 4279582234
0.10690661 0.089610472 0.29100001 4280367387
0.09783636 0.091800727 0.29500002 4280826921
0.098794512 0.091800727 0.29500002 4280829737
0.099752672 0.091800727 0.29500002 4280567848
0.10071083 0.091800727 0.29500002 4280174119
0.10063507 0.090867162 0.29200003 4280174119
0.1015835 0.090867162 0.29200003 4280042274
0.10253191 0.090867162 0.29200003 4279844895
0.10348033 0.090867162 0.29200003 4279647516
0.1040711 0.090555966 0.29100001 4279647516
0.10501627 0.090555966 0.29100001 4279646744
0.10596144 0.090555966 0.29100001 4279712024
0.10690661 0.090555966 0.29100001 4285694573
0.090782404 0.093388088 0.29700002 4283849553
0.10071083 0.092759214 0.29500002 4280236321
0.101669 0.092759214 0.29500002 4280763176
0.1015835 0.091815896 0.29200003 4280303393
0.10253191 0.091815896 0.29200003 4280303393
0.10348033 0.091815896 0.29200003 4280106014
0.1040711 0.091501459 0.29100001 4280171805
0.10501627 0.091501459 0.29100001 4280168727
0.10596144 0.091501459 0.29100001 4286023023
0.10690661 0.091501459 0.29100001 4285562220
0.1064598 0.093717702 0.29500002 4285496427
0.071753703 0.073488198 0.30595154 4294967295
0.071753703 0.073488198 0.30595154 4294901760
0.071862049 0.073035553 0.30576885 4294901760
0.071970403 0.072582908 0.30558616 4294901760
0.07207875 0.072130263 0.30540347 4294901760
0.072187103 0.071677618 0.30522081 4294901760
0.07229545 0.071224973 0.30503812 4294901760
0.072403796 0.070772335 0.30485544 4294901760
0.07251215 0.07031969 0.30467275 4294901760
0.072620496 0.069867045 0.30449006 4294901760
0.072728842 0.0694144 0.30430737 4294901760
0.072837196 0.068961754 0.30412468 4294901760
0.072945543 0.068509109 0.30394202 4294901760
0.073053896 0.068056464 0.30375934 4294901760
0.073162243 0.067603819 0.30357665 4294901760
0.073270589 0.067151174 0.30339396 4294901760
0.073378943 0.066698529 0.30321127 4294901760
0.073487289 0.066245884 0.30302858 4294901760
0.073595636 0.065793239 0.3028459 4294901760
0.073703989 0.065340593 0.30266324 4294901760
0.073812336 0.064887956 0.30248055 4294901760
0.07392069 0.064435311 0.30229786 4294901760
0.074029036 0.063982666 0.30211517 4294901760
0.074137382 0.06353002 0.30193248 4294901760
0.074245736 0.063077375 0.3017498 4294901760
0.074354082 0.06262473 0.30156711 4294901760
0.074462429 0.062172085 0.30138445 4294901760
0.074570782 0.06171944 0.30120176 4294901760
0.074679129 0.061266795 0.30101907 4294901760
0.074787483 0.060814153 0.30083638 4294901760
0.074895829 0.060361508 0.3006537 4294901760
0.075004175 0.059908863 0.30047101 4294901760
0.075112529 0.059456218 0.30028832 4294901760
0.075220875 0.059003577 0.30010563 4294901760
0.075329229 0.058550932 0.29992297 4294901760
0.075437576 0.058098286 0.29974028 4294901760
0.075545922 0.057645641 0.2995576 4294901760
0.075654276 0.057192996 0.29937491 4294901760
0.075762622 0.056740351 0.29919222 4294901760
0.075870968 0.056287706 0.29900953 4294901760
0.075979322 0.055835065 0.29882684 4294901760
0.076087669 0.055382416 0.29864419 4294901760
0.076196022 0.054929774 0.2984615 4294901760
0.076304369 0.054477133 0.29827881 4294901760
0.076412715 0.054024484 0.29809612 4294901760
0.076521069 0.053571843 0.29791343 4294901760
0.076629415 0.053119197 0.29773074 4294901760
0.076737761 0.052666552 0.29754806 4294901760
0.076846115 0.052213907 0.2973654 4294901760
0.076954462 0.051761262 0.29718271 4294901760
0.077062815 0.051308617 0.29700002 4294901760
0.077171162 0.050855972 0.29681733 4294901760
0.077279508 0.05040333 0.29663464 4294901760
0.077387862 0.049950685 0.29645196 4294901760
0.077496208 0.049498044 0.29626927 4294901760
0.077604562 0.049045395 0.29608661 4294901760
0.077712908 0.04859275 0.29590392 4294901760
0.077821255 0.048140109 0.29572123 4294901760
0.077929609 0.047687463 0.29553854 4294901760
0.078037955 0.047234818 0.29535586 4294901760
0.078146301 0.046782173 0.29517317 4294901760
0.078254655 0.046329528 0.29499048 4294901760
0.078363001 0.045876883 0.29480782 4294901760
0.078471355 0.045424238 0.29462513 4294901760
0.078579701 0.044971596 0.29444245 4294901760
0.078688048 0.044518951 0.29425976 4294901760
0.078796402 0.04406631 0.29407707 4294901760
0.078904748 0.043613661 0.29389438 4294901760
0.079013094 0.043161016 0.29371169 4294901760
0.079121448 0.042708375 0.29352903 4294901760
0.079229794 0.042255729 0.29334635 4294901760
0.079338148 0.041803084 0.29316366 4294901760
0.079446495 0.041350439 0.29298097 4294901760
0.079554841 0.040897794 0.29279828 4294901760
0.079663195 0.040445149 0.29261559 4294901760
0.079771541 0.039992504 0.2924329 4294901760
0.079879895 0.039539862 0.29225022 4294901760
0.079988241 0.039087217 0.29206756 4294901760
0.080096588 0.038634572 0.29188487 4294901760
0.080204941 0.038181931 0.29170218 4294901760
0.080313288 0.037729282 0.29151949 4294901760
0.080421634 0.037276637 0.2913368 4294901760
0.080529988 0.036823995 0.29115412 4294901760
0.080638334 0.03637135 0.29097146 4294901760
0.08074668 0.035918705 0.29078877 4294901760
0.080855034 0.035466064 0.29060608 4294901760
0.080963381 0.035013415 0.29042339 4294901760
0.081071734 0.03456077 0.29024071 4294901760
0.081180081 0.034108128 0.29005802 4294901760
0.081288427 0.033655483 0.28987533 4294901760
0.081396781 0.033202838 0.28969264 4294901760
0.081505127 0.032750197 0.28950998 4294901760
0.081613481 0.032297548 0.28932729 4294901760
0.081721827 0.031844903 0.28914461 4294901760
0.081830174 0.031392261 0.28896192 4294901760
0.081938528 0.030939616 0.28877923 4294901760
0.082046874 0.030486971 0.28859654 4294901760
0.082155228 0.03003433 0.28841385 4294901760
0.082263574 0.029581681 0.28823119 4294901760
0.08237192 0.029129036 0.28804851 4294901760
0.082480274 0.028676394 0.28786582 4294901760
0.08258862 0.028223749 0.28768313 4294901760
0.071753703 0.073488198 0.30595154 4278255360
0.072165467 0.073673449 0.30573675 4278255360
0.072577231 0.073858701 0.30552197 4278255360
0.072988994 0.074043944 0.30530718 4278255360
0.073400758 0.074229196 0.30509239 4278255360
0.073812522 0.074414447 0.30487761 4278255360
0.074224293 0.074599698 0.30466282 4278255360
0.074636057 0.074784942 0.30444804 4278255360
0.075047821 0.074970193 0.30423325 4278255360
0.075459585 0.075155444 0.30401847 4278255360
0.075871348 0.075340696 0.30380368 4278255360
0.076283112 0.075525939 0.3035889 4278255360
0.076694876 0.075711191 0.30337411 4278255360
0.07710664 0.075896442 0.30315933 4278255360
0.077518404 0.076081693 0.30294454 4278255360
0.077930167 0.076266937 0.30272976 4278255360
0.078341931 0.076452188 0.30251497 4278255360
0.078753702 0.076637439 0.30230018 4278255360
0.079165466 0.076822691 0.3020854 4278255360
0.07957723 0.077007934 0.30187061 4278255360
0.079988994 0.077193186 0.30165583 4278255360
0.080400757 0.077378437 0.30144104 4278255360
0.080812521 0.077563688 0.30122626 4278255360
0.081224285 0.077748939 0.30101147 4278255360
0.081636049 0.077934183 0.30079669 4278255360
0.082047813 0.078119434 0.3005819 4278255360
0.082459576 0.078304686 0.30036712 4278255360
0.082871348 0.078489937 0.30015233 4278255360
0.083283111 0.078675181 0.29993755 4278255360
0.083694875 0.078860432 0.29972276 4278255360
0.084106639 0.079045683 0.29950798 4278255360
0.084518403 0.079230934 0.29929319 4278255360
0.084930167 0.079416178 0.2990784 4278255360
0.08534193 0.079601429 0.29886362 4278255360
0.085753694 0.079786681 0.29864883 4278255360
0.086165458 0.079971932 0.29843405 4278255360
0.086577222 0.080157176 0.29821926 4278255360
0.086988986 0.080342427 0.29800448 4278255360
0.087400749 0.080527678 0.29778969 4278255360
0.087812513 0.080712929 0.29757491 4278255360
0.088224284 0.080898173 0.29736012 4278255360
0.088636048 0.081083424 0.29714534 4278255360
0.089047812 0.081268676 0.29693055 4278255360
0.089459576 0.081453927 0.29671577 4278255360
0.089871339 0.081639171 0.29650098 4278255360
0.090283103 0.081824422 0.2962862 4278255360
0.090694867 0.082009673 0.29607141 4278255360
0.091106631 0.082194924 0.29585662 4278255360
0.091518395 0.082380176 0.29564184 4278255360
0.091930166 0.082565419 0.29542705 4278255360
0.09234193 0.082750671 0.29521227 4278255360
0.092753693 0.082935922 0.29499751 4278255360
0.093165457 0.083121166 0.29478273 4278255360
0.093577221 0.083306417 0.29456794 4278255360
0.093988985 0.083491668 0.29435316 4278255360
0.094400749 0.083676919 0.29413837 4278255360
0.094812512 0.083862171 0.29392359 4278255360
0.095224276 0.084047414 0.2937088 4278255360
0.09563604 0.084232666 0.29349402 4278255360
0.096047804 0.084417917 0.29327923 4278255360
0.096459568 0.084603168 0.29306445 4278255360
0.096871331 0.084788412 0.29284966 4278255360
0.097283095 0.084973663 0.29263487 4278255360
0.097694866 0.085158914 0.29242009 4278255360
0.09810663 0.085344166 0.2922053 4278255360
0.098518394 0.085529409 0.29199052 4278255360
0.098930158 0.085714661 0.29177573 4278255360
0.099341922 0.085899912 0.29156095 4278255360
0.099753685 0.086085163 0.29134616 4278255360
0.10016545 0.086270407 0.29113138 4278255360
0.10057721 0.086455658 0.29091659 4278255360
0.10098898 0.086640909 0.29070181 4278255360
0.10140075 0.086826161 0.29048702 4278255360
0.10181251 0.087011412 0.29027224 4278255360
0.10222428 0.087196656 0.29005745 4278255360
0.10263604 0.087381907 0.28984267 4278255360
0.1030478 0.087567158 0.28962788 4278255360
0.10345957 0.087752402 0.28941309 4278255360
0.10387133 0.087937653 0.28919831 4278255360
0.10428309 0.088122904 0.28898352 4278255360
0.10469486 0.088308156 0.28876874 4278255360
0.10510662 0.088493407 0.28855395 4278255360
0.10551839 0.088678651 0.28833917 4278255360
0.10593015 0.088863902 0.28812438 4278255360
0.10634191 0.089049153 0.2879096 4278255360
0.10675368 0.089234404 0.28769481 4278255360
0.10716545 0.089419648 0.28748003 4278255360
0.10757721 0.089604899 0.28726524 4278255360
0.10798898 0.089790151 0.28705046 4278255360
0.10840074 0.089975402 0.28683567 4278255360
0.1088125 0.090160646 0.28662089 4278255360
0.10922427 0.090345897 0.2864061 4278255360
0.10963604 0.090531148 0.28619131 4278255360
0.1100478 0.090716399 0.28597653 4278255360
0.11045957 0.090901643 0.28576174 4278255360
0.11087133 0.091086894 0.28554696 4278255360
0.11128309 0.091272146 0.28533217 4278255360
0.11169486 0.091457397 0.28511739 4278255360
0.11210662 0.091642648 0.2849026 4278255360
0.11251839 0.091827892 0.28468782 4278255360
0.11293015 0.092013143 0.28447303 4278255360
0.071753703 0.073488198 0.30595154 4278190335
0.072008938 0.07338123 0.30636796 4278190335
0.072264172 0.073274255 0.30678439 4278190335
0.072519414 0.073167287 0.30720082 4278190335
0.072774649 0.073060311 0.30761725 4278190335
0.073029883 0.072953343 0.30803367 4278190335
0.073285118 0.072846368 0.3084501 4278190335
0.073540352 0.0727394 0.30886653 4278190335
0.073795587 0.072632425 0.30928296 4278190335
0.074050829 0.072525457 0.30969939 4278190335
0.074306063 0.072418481 0.31011581 4278190335
0.074561298 0.072311513 0.31053224 4278190335
0.074816532 0.072204538 0.31094867 4278190335
0.075071767 0.07209757 0.3113651 4278190335
0.075327009 0.071990602 0.31178153 4278190335
0.075582244 0.071883626 0.31219795 4278190335
0.075837478 0.071776658 0.31261438 4278190335
0.076092713 0.071669683 0.31303081 4278190335
0.076347947 0.071562715 0.31344724 4278190335
0.076603182 0.071455739 0.31386366 4278190335
0.076858424 0.071348771 0.31428009 4278190335
0.077113658 0.071241796 0.31469652 4278190335
0.077368893 0.071134828 0.31511295 4278190335
0.077624127 0.071027853 0.31552938 4278190335
0.077879362 0.070920885 0.3159458 4278190335
0.078134596 0.070813909 0.3163622 4278190335
0.078389838 0.070706941 0.31677863 4278190335
0.078645073 0.070599973 0.31719506 4278190335
0.078900307 0.070492998 0.31761149 4278190335
0.079155542 0.07038603 0.31802791 4278190335
0.079410776 0.070279054 0.31844434 4278190335
0.079666018 0.070172086 0.31886077 4278190335
0.079921253 0.070065111 0.3192772 4278190335
0.080176488 0.069958143 0.31969362 4278190335
0.080431722 0.069851168 0.32011005 4278190335
0.080686957 0.0697442 0.32052648 4278190335
0.080942199 0.069637224 0.32094291 4278190335
0.081197433 0.069530256 0.32135934 4278190335
0.081452668 0.069423288 0.32177576 4278190335
0.081707902 0.069316313 0.32219219 4278190335
0.081963137 0.069209345 0.32260862 4278190335
0.082218371 0.069102369 0.32302505 4278190335
0.082473606 0.068995401 0.32344148 4278190335
0.082728848 0.068888426 0.3238579 4278190335
0.082984082 0.068781458 0.32427433 4278190335
0.083239317 0.068674482 0.32469076 4278190335
0.083494551 0.068567514 0.32510719 4278190335
0.083749786 0.068460539 0.32552361 4278190335
0.084005028 0.068353571 0.32594004 4278190335
0.084260263 0.068246596 0.32635647 4278190335
0.084515497 0.068139628 0.3267729 4278190335
0.084770732 0.06803266 0.32718933 4278190335
0.085025966 0.067925684 0.32760575 4278190335
0.085281208 0.067818716 0.32802218 4278190335
0.085536443 0.067711741 0.32843861 4278190335
0.085791677 0.067604773 0.32885504 4278190335
0.086046912 0.067497797 0.32927147 4278190335
0.086302146 0.067390829 0.32968789 4278190335
0.086557381 0.067283854 0.33010432 4278190335
0.086812615 0.067176886 0.33052075 4278190335
0.087067857 0.06706991 0.33093718 4278190335
0.087323092 0.066962942 0.3313536 4278190335
0.087578326 0.066855967 0.33177003 4278190335
0.087833561 0.066748999 0.33218646 4278190335
0.088088796 0.066642031 0.33260289 4278190335
0.088344038 0.066535056 0.33301932 4278190335
0.088599272 0.066428088 0.33343574 4278190335
0.088854507 0.066321112 0.33385217 4278190335
0.089109741 0.066214144 0.3342686 4278190335
0.089364976 0.066107169 0.33468503 4278190335
0.089620218 0.066000201 0.33510146 4278190335
0.089875452 0.065893225 0.33551788 4278190335
0.090130687 0.065786257 0.33593431 4278190335
0.090385921 0.065679282 0.33635074 4278190335
0.090641156 0.065572314 0.33676717 4278190335
0.090896398 0.065465346 0.33718359 4278190335
0.091151632 0.065358371 0.33759999 4278190335
0.091406867 0.065251403 0.33801642 4278190335
0.091662101 0.065144427 0.33843285 4278190335
0.091917336 0.065037459 0.33884931 4278190335
0.092172578 0.064930484 0.3392657 4278190335
0.092427805 0.064823516 0.33968213 4278190335
0.092683047 0.06471654 0.34009856 4278190335
0.092938282 0.064609572 0.34051499 4278190335
0.093193516 0.064502597 0.34093142 4278190335
0.093448758 0.064395629 0.34134784 4278190335
0.093703985 0.064288653 0.34176427 4278190335
0.093959227 0.064181685 0.3421807 4278190335
0.094214462 0.06407471 0.34259713 4278190335
0.094469696 0.063967742 0.34301355 4278190335
0.094724931 0.063860774 0.34342998 4278190335
0.094980165 0.063753799 0.34384641 4278190335
0.095235407 0.063646831 0.34426284 4278190335
0.095490642 0.063539855 0.34467927 4278190335
0.095745876 0.063432887 0.34509569 4278190335
0.096001111 0.063325912 0.34551212 4278190335
0.096256346 0.063218944 0.34592855 4278190335
0.096511588 0.063111968 0.34634498 4278190335
0.096766822 0.063005 0.34676141 4278190335
0.097022057 0.062898025 0.34717783 4278190335
0.097277291 0.062791057 0.34759426 4278190335
0.071753703 0.073488198 0.30595154 4294967295
0.070222288 0.074130028 0.30345297 4294967295
0.068690874 0.074771851 0.3009544 4294967295
0.067159459 0.075413682 0.29845583 4294967295
0.065628044 0.076055512 0.29595727 4294967295
0.06409663 0.076697342 0.2934587 4294967295
0.062565207 0.077339165 0.29096016 4294967295
0.061033797 0.077980995 0.2884616 4294967295
0.059502382 0.078622825 0.28596303 4294967295
0.057970963 0.079264656 0.28346446 4294967295
0.056439549 0.079906479 0.28096589 4294967295
0.054908134 0.080548309 0.27846733 4294967295
0.053376719 0.081190139 0.27596876 4294967295
0.051845305 0.081831962 0.27347019 4294967295
0.05031389 0.082473792 0.27097163 4294967295
0.048782475 0.083115622 0.26847306 4294967295
0.047251061 0.083757453 0.26597449 4294967295
0.045719642 0.084399275 0.26347592 4294967295
0.044188228 0.085041106 0.26097739 4294967295
0.042656813 0.085682936 0.25847882 4294967295
0.041125394 0.086324766 0.25598025 4294967295
0.039593983 0.086966589 0.25348169 4294967295
0.038062569 0.087608419 0.25098312 4294967295
0.03653115 0.08825025 0.24848455 4294967295
0.034999736 0.088892072 0.24598598 4294967295
0.033468321 0.089533903 0.24348742 4294967295
0.031936906 0.090175733 0.24098885 4294967295
0.030405488 0.090817563 0.23849028 4294967295
0.028874073 0.091459394 0.23599172 4294967295
0.027342662 0.092101216 0.23349316 4294967295
0.025811244 0.092743047 0.2309946 4294967295
0.024279829 0.093384877 0.22849603 4294967295
0.022748414 0.0940267 0.22599748 4294967295
0.021216996 0.09466853 0.22349891 4294967295
0.019685581 0.09531036 0.22100034 4294967295
0.01815417 0.095952183 0.21850178 4294967295
0.016622752 0.096594021 0.21600321 4294967295
0.015091337 0.097235844 0.21350464 4294967295
0.013559923 0.097877674 0.21100608 4294967295
0.012028508 0.098519497 0.20850752 4294967295
0.010497089 0.099161327 0.20600894 4294967295
0.0089656785 0.099803157 0.20351039 4294967295
0.0074342638 0.10044499 0.20101184 4294967295
0.0059028417 0.10108681 0.19851325 4294967295
0.0043714345 0.10172864 0.1960147 4294967295
0.0028400198 0.10237047 0.19351614 4294967295
0.0013085976 0.1030123 0.19101757 4294967295
-0.00022281706 0.10365412 0.188519 4294967295
-0.0017542318 0.10429595 0.18602043 4294967295
-0.0032856464 0.10493778 0.18352187 4294967295
-0.0048170611 0.10557961 0.1810233 4294967295
-0.0063484758 0.10622144 0.17852475 4294967295
-0.0078798905 0.10686327 0.17602618 4294967295
-0.0094113052 0.1075051 0.17352761 4294967295
-0.010942727 0.10814692 0.17102905 4294967295
