# .PCD v0.7 - Point Cloud Data file format
VERSION 0.7
FIELDS x y z rgb
SIZE 4 4 4 4
TYPE F F F U
COUNT 1 1 1 1
WIDTH 1022
HEIGHT 1
VIEWPOINT 0 0 0 1 0 0 0
POINTS 1022
DATA ascii
-0.011291901 0.03274693 0.39100003 4289245347
-0.010021932 0.03274693 0.39100003 4283444772
-0.0087519642 0.03274693 0.39100003 4284818972
-0.00750113 0.032830682 0.39200002 4285344033
-0.0062279128 0.032830682 0.39200002 4285607205
-0.0049546966 0.032830682 0.39200002 4290810760
-0.0036814802 0.032830682 0.39200002 4288262815
-0.04337614 0.031494305 0.36200002 4281808412
-0.042200364 0.031494305 0.36200002 4283908139
-0.041024584 0.031494305 0.36200002 4285872941
-0.039848808 0.031494305 0.36200002 4286132772
-0.038673036 0.031494305 0.36200002 4286457887
-0.037497256 0.031494305 0.36200002 4287246890
-0.03632148 0.031494305 0.36200002 4287509290
-0.035242788 0.031581301 0.36300001 4287445034
-0.034063764 0.031581301 0.36300001 4287513655
-0.032884743 0.031581301 0.36300001 4285871656
-0.031793062 0.031668305 0.36400002 4285411875
-0.030694883 0.031755306 0.36500001 4285542180
-0.029671056 0.031929307 0.36700001 4286328868
-0.028634241 0.032103308 0.36900002 4286263075
-0.027584432 0.032277312 0.37100002 4280880128
-0.026521629 0.032451313 0.37300003 4284111178
-0.02537798 0.032538313 0.37400001 4279112457
-0.024227837 0.032625314 0.37500003 4280099098
-0.023071194 0.032712314 0.37600002 4280887846
-0.021908056 0.032799315 0.377 4283060035
-0.020738425 0.032886315 0.37800002 4281019155
-0.019562295 0.032973316 0.37900001 4281741847
-0.01837967 0.03306032 0.38000003 4281677591
-0.017416146 0.033582322 0.38600001 4282533675
-0.01620429 0.033669323 0.38700002 4279573004
-0.015024561 0.033843327 0.38900003 4287602068
-0.013796463 0.033930324 0.39000002 4287343260
-0.012529741 0.033930324 0.39000002 4287475359
-0.011291901 0.034017328 0.39100003 4286217072
-0.010021932 0.034017328 0.39100003 4283968036
-0.0087743467 0.034104329 0.39200002 4285409826
-0.00750113 0.034104329 0.39200002 4285738019
-0.0062279128 0.034104329 0.39200002 4285542695
-0.044551916 0.032670479 0.36200002 4282598439
-0.04337614 0.032670479 0.36200002 4283121703
-0.042200364 0.032670479 0.36200002 4284693546
-0.041024584 0.032670479 0.36200002 4286198568
-0.039848808 0.032670479 0.36200002 4286657061
-0.038673036 0.032670479 0.36200002 4287049509
-0.037497256 0.032670479 0.36200002 4287246118
-0.03632148 0.032670479 0.36200002 4287443751
-0.035145704 0.032670479 0.36200002 4287443751
-0.034063764 0.032760728 0.36300001 4287904302
-0.032884743 0.032760728 0.36300001 4287838509
-0.031793062 0.032850981 0.36400002 4287906355
-0.030694883 0.03294123 0.36500001 4288301886
-0.029671056 0.033121731 0.36700001 4286722856
-0.028634241 0.033302229 0.36900002 4286395174
-0.027584432 0.03348273 0.37100002 4280748290
-0.026521629 0.033663232 0.37300003 4282795064
-0.02537798 0.033753481 0.37400001 4279638547
-0.024227837 0.03384373 0.37500003 4280230684
-0.023071194 0.033933979 0.37600002 4279967766
-0.021908056 0.034024227 0.377 4282139703
-0.020738425 0.03411448 0.37800002 4285165138
-0.019562295 0.034204729 0.37900001 4283256621
-0.01837967 0.034294982 0.38000003 4281283349
-0.017416146 0.034836479 0.38600001 4282204710
-0.01624616 0.035016976 0.38800001 4281218081
-0.015024561 0.035107229 0.38900003 4287537811
-0.013796463 0.035197478 0.39000002 4287474074
-0.01256187 0.03528773 0.39100003 4287409051
-0.011291901 0.03528773 0.39100003 4284895816
-0.010047563 0.035377979 0.39200002 4285412140
-0.0087743467 0.035377979 0.39200002 4286001191
-0.00750113 0.035377979 0.39200002 4285935141
-0.0062279128 0.035377979 0.39200002 4284689699
-0.044551916 0.033846654 0.36200002 4282204710
-0.04337614 0.033846654 0.36200002 4283710247
-0.042200364 0.033846654 0.36200002 4285152300
-0.041024584 0.033846654 0.36200002 4286132518
-0.039848808 0.033846654 0.36200002 4286262303
-0.038673036 0.033846654 0.36200002 4286786337
-0.037497256 0.033846654 0.36200002 4286852130
-0.03632148 0.033846654 0.36200002 4287378728
-0.035145704 0.033846654 0.36200002 4287641898
-0.033969928 0.033846654 0.36200002 4293633426
-0.032884743 0.033940151 0.36300001 4287445804
-0.031793062 0.034033652 0.36400002 4288101679
-0.03077898 0.034220651 0.36600003 4287312165
-0.029671056 0.034314148 0.36700001 4286590500
-0.028634241 0.034501147 0.36900002 4286460967
-0.027584432 0.034688145 0.37100002 4281603599
-0.026521629 0.034875143 0.37300003 4283715657
-0.025445838 0.035062142 0.37500003 4279835926
-0.024292445 0.035155643 0.37600002 4280887844
-0.023132551 0.03524914 0.377 4280296729
-0.021966169 0.035342641 0.37800002 4286285427
-0.020793287 0.035436139 0.37900001 4281350439
-0.01961391 0.03552964 0.38000003 4281020954
-0.018428037 0.035623137 0.38100001 4282994742
-0.017461266 0.036184132 0.38700002 4282469172
-0.01624616 0.036277629 0.38800001 4282271800
-0.015024561 0.03637113 0.38900003 4287604885
-0.013796463 0.036464628 0.39000002 4287409051
-0.01256187 0.036558129 0.39100003 4288001188
-0.01132078 0.036651626 0.39200002 4284231978
-0.010047563 0.036651626 0.39200002 4285738791
-0.0087743467 0.036651626 0.39200002 4285935141
-0.00750113 0.036651626 0.39200002 4286591788
-0.0062279128 0.036651626 0.39200002 4284758320
-0.044428848 0.034926083 0.36100003 4281283097
-0.043256316 0.034926083 0.36100003 4283511585
-0.042083789 0.034926083 0.36100003 4284954406
-0.040911257 0.034926083 0.36100003 4285935650
-0.039738733 0.034926083 0.36100003 4286000414
-0.038566206 0.034926083 0.36100003 4286393373
-0.037393674 0.034926083 0.36100003 4286656288
-0.03632148 0.035022829 0.36200002 4286983968
-0.035145704 0.035022829 0.36200002 4287377956
-0.033969928 0.035022829 0.36200002 4287249452
-0.032884743 0.035119578 0.36300001 4290410090
-0.031793062 0.035216328 0.36400002 4288167474
-0.03077898 0.035409823 0.36600003 4287904302
-0.029671056 0.035506569 0.36700001 4286722854
-0.028634241 0.035700068 0.36900002 4285606431
-0.027584432 0.035893563 0.37100002 4282525219
-0.026521629 0.036087058 0.37300003 4280228374
-0.025445838 0.036280558 0.37500003 4279900951
-0.024292445 0.036377303 0.37600002 4279506193
-0.023193913 0.036570799 0.37800002 4281678384
-0.022024279 0.036667548 0.37900001 4279770387
-0.020848151 0.036764298 0.38000003 4283061318
-0.019665526 0.036861043 0.38100001 4282140984
-0.018476404 0.036957793 0.38200003 4281350700
-0.017416146 0.037344784 0.38600001 4280361750
-0.01624616 0.037538283 0.38800001 4284831308
-0.015024561 0.037635032 0.38900003 4288128147
-0.013796463 0.037731778 0.39000002 4287605400
-0.01256187 0.037828527 0.39100003 4288393120
-0.01132078 0.037925273 0.39200002 4285543211
-0.010047563 0.037925273 0.39200002 4285935396
-0.0087743467 0.037925273 0.39200002 4286526247
-0.00750113 0.037925273 0.39200002 4286526247
-0.044428848 0.036099009 0.36100003 4281743907
-0.043256316 0.036099009 0.36100003 4283710249
-0.042083789 0.036099009 0.36100003 4284363044
-0.040911257 0.036099009 0.36100003 4285015834
-0.039738733 0.036099009 0.36100003 4285870373
-0.038566206 0.036099009 0.36100003 4286001186
-0.037393674 0.036099009 0.36100003 4286000414
-0.036221147 0.036099009 0.36100003 4286590752
-0.035145704 0.036199003 0.36200002 4287116069
-0.033969928 0.036199003 0.36200002 4286983200
-0.032884743 0.036299001 0.36300001 4289747789
-0.031793062 0.036398999 0.36400002 4287642413
-0.030694883 0.036498994 0.36500001 4287970865
-0.029671056 0.03669899 0.36700001 4286591270
-0.028634241 0.036898986 0.36900002 4284688929
-0.027584432 0.037098981 0.37100002 4285823343
-0.026521629 0.037298974 0.37300003 4280625191
-0.025445838 0.03749897 0.37500003 4280427812
-0.024292445 0.037598968 0.37600002 4279769882
-0.023193913 0.03779896 0.37800002 4279770133
-0.022082392 0.037998956 0.38000003 4280626212
-0.020903014 0.03809895 0.38100001 4279442190
-0.019717142 0.038198952 0.38200003 4284311385
-0.018573139 0.038398944 0.384 4280623899
-0.017461266 0.038698938 0.38700002 4282590496
-0.01624616 0.038798932 0.38800001 4287716692
-0.015024561 0.03889893 0.38900003 4289301119
-0.013796463 0.038998928 0.39000002 4287997842
-0.01256187 0.039098926 0.39100003 4284900181
-0.01132078 0.03919892 0.39200002 4286527276
-0.010047563 0.03919892 0.39200002 4286460965
-0.0087743467 0.03919892 0.39200002 4286853670
-0.00750113 0.03919892 0.39200002 4286328868
-0.044428848 0.037271935 0.36100003 4281349151
-0.043256316 0.037271935 0.36100003 4283185452
-0.042083789 0.037271935 0.36100003 4284036134
-0.040911257 0.037271935 0.36100003 4285215525
-0.039738733 0.037271935 0.36100003 4285215011
-0.038566206 0.037271935 0.36100003 4285344801
-0.037393674 0.037271935 0.36100003 4285738017
-0.036221147 0.037271935 0.36100003 4285802524
-0.035145704 0.037375178 0.36200002 4286393891
-0.033969928 0.037375178 0.36200002 4286919208
-0.032884743 0.037478425 0.36300001 4287313196
-0.031793062 0.037581671 0.36400002 4287181608
-0.030694883 0.037684917 0.36500001 4287905331
-0.029671056 0.03789141 0.36700001 4285214759
-0.028634241 0.038097903 0.36900002 4289635478
-0.027584432 0.038304396 0.37100002 4288196772
-0.026521629 0.038510889 0.37300003 4282339661
-0.025445838 0.038717382 0.37500003 4280429099
-0.024357051 0.038923874 0.377 4279968546
-0.023255272 0.039130367 0.37900001 4279376660
-0.022140503 0.03933686 0.38100001 4282338880
-0.02095788 0.039440107 0.38200003 4281942839
-0.019768758 0.039543353 0.38300002 4280558879
-0.018621508 0.039749846 0.38500002 4281800213
-0.017461266 0.039956339 0.38700002 4286728514
-0.01624616 0.040059585 0.38800001 4287053620
-0.015063183 0.040266078 0.39000002 4286461487
-0.013796463 0.040266078 0.39000002 4288640624
-0.01256187 0.040369324 0.39100003 4285872178
-0.01132078 0.040472571 0.39200002 4286919465
-0.010047563 0.040472571 0.39200002 4286919208
-0.0087743467 0.040472571 0.39200002 4287116587
-0.00750113 0.040472571 0.39200002 4286527533
-0.044428848 0.038444858 0.36100003 4288392346
-0.043256316 0.038444858 0.36100003 4282725930
-0.042083789 0.038444858 0.36100003 4283906091
-0.040911257 0.038444858 0.36100003 4284691749
-0.039738733 0.038444858 0.36100003 4284164890
-0.038566206 0.038444858 0.36100003 4284689181
-0.037393674 0.038444858 0.36100003 4284886046
-0.03632148 0.038551353 0.36200002 4285738017
-0.035145704 0.038551353 0.36200002 4286000162
-0.033969928 0.038551353 0.36200002 4286393891
-0.032884743 0.038657848 0.36300001 4286327328
-0.031793062 0.038764346 0.36400002 4286458660
-0.030694883 0.038870838 0.36500001 4287117614
-0.029671056 0.039083831 0.36700001 4285019179
-0.028634241 0.039296821 0.36900002 4289439126
-0.027510079 0.039403316 0.37 4287802266
-0.026521629 0.039722804 0.37300003 4288328358
-0.025445838 0.039935797 0.37500003 4280892217
-0.024357051 0.040148783 0.377 4280232238
-0.023316633 0.040468272 0.38000003 4279903525
-0.022198614 0.040681265 0.38200003 4282864719
-0.021012742 0.040787756 0.38300002 4280427038
-0.019820372 0.040894251 0.384 4281672740
-0.018669873 0.041107245 0.38600001 4286727485
-0.017461266 0.04121374 0.38700002 4286594350
-0.016288033 0.041426733 0.38900003 4287315763
-0.015063183 0.041533228 0.39000002 4288105540
-0.013796463 0.041533228 0.39000002 4287447612
-0.01256187 0.041639723 0.39100003 4286919981
-0.01132078 0.041746218 0.39200002 4287181095
-0.010047563 0.041746218 0.39200002 4287246888
-0.0087743467 0.041746218 0.39200002 4287248430
-0.00750113 0.041746218 0.39200002 4289889144
-0.044305775 0.039508041 0.36000001 4288131231
-0.043256316 0.039617784 0.36100003 4283056440
-0.042083789 0.039617784 0.36100003 4284301882
-0.040911257 0.039617784 0.36100003 4284232230
-0.039848808 0.039727528 0.36200002 4283968540
-0.038673036 0.039727528 0.36200002 4284229915
-0.037497256 0.039727528 0.36200002 4284229402
-0.03632148 0.039727528 0.36200002 4284359702
-0.035145704 0.039727528 0.36200002 4285673766
-0.034063764 0.039837271 0.36300001 4285804580
-0.032884743 0.039837271 0.36300001 4286396717
-0.031793062 0.039947018 0.36400002 4286265131
-0.030694883 0.040056761 0.36500001 4285607201
-0.02959021 0.040166508 0.36600003 4285544492
-0.028556641 0.040385999 0.36800003 4290292377
-0.027510079 0.040605485 0.37 4287736471
-0.026450524 0.040824972 0.37200001 4287671193
-0.02537798 0.041044462 0.37400001 4287934625
-0.024292445 0.041263953 0.37600002 4287145111
-0.023439351 0.04192242 0.38200003 4283985771
-0.022256725 0.042032164 0.38300002 4283259993
-0.021067604 0.042141907 0.384 4283252539
-0.019871987 0.042251654 0.38500002 4284496696
-0.018669873 0.042361397 0.38600001 4286265135
-0.017506385 0.042580888 0.38800001 4286461483
-0.016288033 0.042690631 0.38900003 4287118643
-0.015063183 0.042800374 0.39000002 4290014566
-0.013796463 0.042800374 0.39000002 4287315509
-0.01256187 0.042910121 0.39100003 4287116844
-0.01132078 0.043019865 0.39200002 4287444780
-0.010047563 0.043019865 0.39200002 4287642159
-0.0087743467 0.043019865 0.39200002 4286068526
-0.043256316 0.040790711 0.36100003 4288720034
-0.042200364 0.040903702 0.36200002 4284502091
-0.041024584 0.040903702 0.36200002 4284299567
-0.039848808 0.040903702 0.36200002 4283903778
-0.038673036 0.040903702 0.36200002 4284230946
-0.037497256 0.040903702 0.36200002 4284033567
-0.036421813 0.041016694 0.36300001 4284558628
-0.035242788 0.041016694 0.36300001 4284821285
-0.034063764 0.041016694 0.36300001 4285413676
-0.032975335 0.04112969 0.36400002 4285412906
-0.031793062 0.04112969 0.36400002 4285676078
-0.030694883 0.041242685 0.36500001 4285281320
-0.02959021 0.041355681 0.36600003 4286004275
-0.02847904 0.041468672 0.36700001 4289827463
-0.027435729 0.04169466 0.36900002 4287670678
-0.026450524 0.042033639 0.37200001 4287802779
-0.02537798 0.042259626 0.37400001 4287605660
-0.024227837 0.042372622 0.37500003 4287803039
-0.023500711 0.043276571 0.38300002 4287934625
-0.022314835 0.043389563 0.384 4287934111
-0.021122469 0.043502558 0.38500002 4284836194
-0.019923603 0.04361555 0.38600001 4283972665
-0.018718243 0.043728545 0.38700002 4285806385
-0.017506385 0.043841537 0.38800001 4285935916
-0.016288033 0.043954533 0.38900003 4292783773
-0.015063183 0.044067524 0.39000002 4286660659
-0.013796463 0.044067524 0.39000002 4287445550
-0.01256187 0.04418052 0.39100003 4287707952
-0.011291901 0.04418052 0.39100003 4287182380
-0.010047563 0.044293512 0.39200002 4288235068
-0.0087743467 0.044293512 0.39200002 4286132522
-0.04337614 0.042079877 0.36200002 4288131490
-0.042200364 0.042079877 0.36200002 4286813834
-0.041137911 0.042196121 0.36300001 4283316272
-0.039958887 0.042196121 0.36300001 4284366646
-0.038779866 0.042196121 0.36300001 4283838503
-0.037600838 0.042196121 0.36300001 4284495663
-0.036421813 0.042196121 0.36300001 4284889138
-0.035242788 0.042196121 0.36300001 4284559659
-0.034157608 0.042312365 0.36400002 4284560943
-0.032975335 0.042312365 0.36400002 4284364079
-0.031880401 0.042428605 0.36500001 4286539611
-0.030694883 0.042428605 0.36500001 4284365360
-0.02959021 0.042544849 0.36600003 4285742389
-0.02847904 0.042661093 0.36700001 4285742902
-0.027361378 0.042777337 0.36800003 4287932819
-0.026450524 0.043242306 0.37200001 4287802266
-0.02537798 0.04347479 0.37400001 4287671707
-0.024938518 0.044869702 0.38600001 4287868832
-0.023623429 0.044753462 0.38500002 4287803039
-0.022372948 0.044753462 0.38500002 4287605660
-0.021177333 0.044869702 0.38600001 4288130977
-0.019975219 0.044985946 0.38700002 4284706145
-0.018718243 0.044985946 0.38700002 4285152310
-0.017506385 0.04510219 0.38800001 4294166201
-0.016288033 0.045218434 0.38900003 4288698704
-0.015063183 0.045334674 0.39000002 4287971126
-0.013796463 0.045334674 0.39000002 4287970611
-0.01256187 0.045450918 0.39100003 4287840310
-0.011291901 0.045450918 0.39100003 4289422170
-0.010047563 0.045567162 0.39200002 4289421139
-0.0087743467 0.045567162 0.39200002 4288036919
-0.0075202654 0.045683403 0.39300001 4287910730
-0.04337614 0.043256052 0.36200002 4288000158
-0.042316936 0.043375544 0.36300001 4287802779
-0.041137911 0.043375544 0.36300001 4288062358
-0.039958887 0.043375544 0.36300001 4283516993
-0.038779866 0.043375544 0.36300001 4284696124
-0.037704423 0.043495037 0.36400002 4284366644
-0.03652215 0.043495037 0.36400002 4284231978
-0.035339877 0.043495037 0.36400002 4287983462
-0.034251444 0.043614529 0.36500001 4288522137
-0.033065926 0.043614529 0.36500001 4288392350
-0.031880401 0.043614529 0.36500001 4288984487
-0.03077898 0.043734021 0.36600003 4284637272
-0.02959021 0.043734021 0.36600003 4284889136
-0.02847904 0.04385351 0.36700001 4285413424
-0.027287025 0.04385351 0.36700001 4289638817
-0.026450524 0.044450969 0.37200001 4287736471
-0.02537798 0.044689953 0.37400001 4287802779
-0.024938518 0.046123855 0.38600001 4287671707
-0.023684788 0.046123855 0.38600001 4287540121
-0.022431059 0.046123855 0.38600001 4287605914
-0.021232197 0.046243351 0.38700002 4287605400
-0.019975219 0.046243351 0.38700002 4287670678
-0.01876661 0.04636284 0.38800001 4286341467
-0.017506385 0.04636284 0.38800001 4285806896
-0.016288033 0.046482336 0.38900003 4287311141
-0.015024561 0.046482336 0.38900003 4287903021
-0.013796463 0.046601824 0.39000002 4287510314
-0.01256187 0.046721317 0.39100003 4294487198
-0.011291901 0.046721317 0.39100003 4290609774
-0.010047563 0.046840809 0.39200002 4289751390
-0.0087743467 0.046840809 0.39200002 4287378222
-0.0075202654 0.046960298 0.39300001 4287116335
-0.042433515 0.044677708 0.36400002 4288197024
-0.041251242 0.044677708 0.36400002 4288196252
-0.040068969 0.044677708 0.36400002 4286549630
-0.038886696 0.044677708 0.36400002 4284500546
-0.037808005 0.044800449 0.36500001 4284630329
-0.036622487 0.044800449 0.36500001 4283640352
-0.035436966 0.044800449 0.36500001 4284035884
-0.034251444 0.044800449 0.36500001 4288195991
-0.033156518 0.044923194 0.36600003 4287868055
-0.031967748 0.044923194 0.36600003 4287934111
-0.03077898 0.044923194 0.36600003 4286682761
-0.029671056 0.045045931 0.36700001 4283905073
-0.02847904 0.045045931 0.36700001 4285547068
-0.027361378 0.045168675 0.36800003 4285811525
-0.026450524 0.045659635 0.37200001 4289045653
-0.02537798 0.045905117 0.37400001 4287736471
-0.024938518 0.047378011 0.38600001 4287802777
-0.023684788 0.047378011 0.38600001 4287605400
-0.022431059 0.047378011 0.38600001 4287671193
-0.021232197 0.047500752 0.38700002 4287867287
-0.019975219 0.047500752 0.38700002 4288192141
-0.01876661 0.047623493 0.38800001 4286857270
-0.017506385 0.047623493 0.38800001 4287577136
-0.016288033 0.047746234 0.38900003 4287903278
-0.015024561 0.047746234 0.38900003 4287968814
-0.013796463 0.047868975 0.39000002 4288298033
-0.012529741 0.047868975 0.39000002 4288364599
-0.011291901 0.047991715 0.39100003 4287049770
-0.010047563 0.048114456 0.39200002 4287773495
-0.0087743467 0.048114456 0.39200002 4287905333
-0.0075202654 0.048237197 0.39300001 4287577395
-0.045290347 0.046364348 0.36800003 4288197537
-0.043975256 0.046238355 0.36700001 4288263330
-0.042666666 0.046112366 0.36600003 4288131744
-0.041364565 0.045986373 0.36500001 4288000158
-0.040179048 0.045986373 0.36500001 4287934363
-0.038993526 0.045986373 0.36500001 4285492579
-0.037808005 0.045986373 0.36500001 4284499522
-0.036722824 0.046112366 0.36600003 4284628530
-0.035534054 0.046112366 0.36600003 4283903524
-0.034345284 0.046112366 0.36600003 4289443491
-0.033156518 0.046112366 0.36600003 4287736982
-0.032055091 0.046238355 0.36700001 4287605914
-0.030863075 0.046238355 0.36700001 4287605914
-0.029751904 0.046364348 0.36800003 4286414449
-0.028556641 0.046364348 0.36800003 4284628542
-0.027361378 0.046364348 0.36800003 4285940797
-0.026237214 0.046490334 0.36900002 4287847765
-0.025106557 0.046616323 0.37 4286872424
-0.024938518 0.048632164 0.38600001 4288321669
-0.023684788 0.048632164 0.38600001 4289042571
-0.022431059 0.048632164 0.38600001 4286999649
-0.021232197 0.048758157 0.38700002 4286529338
-0.019975219 0.048758157 0.38700002 4287250233
-0.01876661 0.048884146 0.38800001 4287576107
-0.017506385 0.048884146 0.38800001 4287772716
-0.016288033 0.049010139 0.38900003 4287903532
-0.015024561 0.049010139 0.38900003 4288100911
-0.013796463 0.049136128 0.39000002 4288298290
-0.012529741 0.049136128 0.39000002 4287510827
-0.011291901 0.049262118 0.39100003 4286984999
-0.010047563 0.049388107 0.39200002 4287050792
-0.0087743467 0.049388107 0.39200002 4287379759
-0.0075202654 0.049514096 0.39300001 4286789165
-0.045290347 0.047560014 0.36800003 4288394662
-0.043975256 0.047430772 0.36700001 4288460455
-0.042666666 0.047301535 0.36600003 4288197283
-0.041477896 0.047301535 0.36600003 4288197283
-0.04028913 0.047301535 0.36600003 4288197537
-0.03910036 0.047301535 0.36600003 4288919977
-0.03791159 0.047301535 0.36600003 4282597687
-0.036823157 0.047430772 0.36700001 4284365876
-0.035631139 0.047430772 0.36700001 4284956984
-0.034439124 0.047430772 0.36700001 4284170550
-0.03324711 0.047430772 0.36700001 4288259987
-0.032142434 0.047560014 0.36800003 4287605398
-0.030947171 0.047560014 0.36800003 4287736986
-0.029751904 0.047560014 0.36800003 4288196254
-0.028634241 0.047689252 0.36900002 4284310874
-0.027435729 0.047689252 0.36900002 4285020724
-0.026308317 0.047818489 0.37 4285938996
-0.025106557 0.047818489 0.37 4286002733
-0.024938518 0.049886316 0.38600001 4287319106
-0.023623429 0.049757078 0.38500002 4287118645
-0.022431059 0.049886316 0.38600001 4287774522
-0.021177333 0.049886316 0.38600001 4287903796
-0.019975219 0.050015558 0.38700002 4288429622
-0.01876661 0.050144795 0.38800001 4288167474
-0.017506385 0.050144795 0.38800001 4287969325
-0.016288033 0.050274037 0.38900003 4288232497
-0.015024561 0.050274037 0.38900003 4288168242
-0.013796463 0.050403275 0.39000002 4286197534
-0.012529741 0.050403275 0.39000002 4286132770
-0.011291901 0.050532516 0.39100003 4286264358
-0.010047563 0.050661754 0.39200002 4286395944
-0.0087743467 0.050661754 0.39200002 4286724914
-0.0075202654 0.050790988 0.39300001 4285215273
-0.045290347 0.048755687 0.36800003 4288394662
-0.04409508 0.048755687 0.36800003 4288460455
-0.042783242 0.048623197 0.36700001 4288263076
-0.041591223 0.048623197 0.36700001 4288131490
-0.040399209 0.048623197 0.36700001 4288197283
-0.03920719 0.048623197 0.36700001 4288131744
-0.038015172 0.048623197 0.36700001 4288261280
-0.036823157 0.048623197 0.36700001 4284432700
-0.035728227 0.048755687 0.36800003 4284563255
-0.034532964 0.048755687 0.36800003 4285020462
-0.033337701 0.048755687 0.36800003 4288970870
-0.032142434 0.048755687 0.36800003 4287670930
-0.031031266 0.048888173 0.36900002 4287736986
-0.029832752 0.048888173 0.36900002 4287736986
-0.028711839 0.049020659 0.37 4287802779
-0.027510079 0.049020659 0.37 4284829257
-0.026379421 0.049153149 0.37100002 4285150511
-0.025174415 0.049153149 0.37100002 4286658864
-0.024938518 0.051140472 0.38600001 4287446579
-0.02356207 0.050875496 0.384 4287774517
-0.022372948 0.051007986 0.38500002 4288102197
-0.021177333 0.051140472 0.38600001 4288760381
-0.019975219 0.051272962 0.38700002 4288168242
-0.018718243 0.051272962 0.38700002 4287970093
-0.017506385 0.051405448 0.38800001 4288167472
-0.016288033 0.051537938 0.38900003 4287446831
-0.015024561 0.051537938 0.38900003 4285606685
-0.013796463 0.051670425 0.39000002 4285017121
-0.012529741 0.051670425 0.39000002 4285741357
-0.011291901 0.051802915 0.39100003 4285741355
-0.010047563 0.051935405 0.39200002 4286004527
-0.0087743467 0.051935405 0.39200002 4284956212
-0.00750113 0.051935405 0.39200002 4288585102
-0.045290347 0.049951352 0.36800003 4288460455
-0.04409508 0.049951352 0.36800003 4288460455
-0.042899817 0.049951352 0.36800003 4288263076
-0.04170455 0.049951352 0.36800003 4288263076
-0.040399209 0.049815614 0.36700001 4288526248
-0.039314024 0.049951352 0.36800003 4288197283
-0.038118757 0.049951352 0.36800003 4288460455
-0.036923494 0.049951352 0.36800003 4283845444
-0.035825316 0.050087087 0.36900002 4284497980
-0.034626804 0.050087087 0.36900002 4285481013
-0.033428293 0.050087087 0.36900002 4285216558
-0.032229777 0.050087087 0.36900002 4288714376
-0.031115361 0.050222825 0.37 4288721051
-0.029913599 0.050222825 0.37 4288261530
-0.028711839 0.050222825 0.37 4288787358
-0.027584432 0.050358564 0.37100002 4285284664
-0.026450524 0.050494298 0.37200001 4286002479
-0.025242269 0.050494298 0.37200001 4288171335
-0.024163229 0.050765775 0.37400001 4287907648
-0.023500711 0.05198741 0.38300002 4288102451
-0.022314835 0.052123148 0.384 4288036658
-0.021122469 0.052258886 0.38500002 4287576107
-0.019975219 0.052530363 0.38700002 4287182632
-0.018718243 0.052530363 0.38700002 4286987309
-0.017506385 0.052666098 0.38800001 4286725936
-0.016288033 0.052801836 0.38900003 4285150502
-0.015024561 0.052801836 0.38900003 4285020974
-0.013796463 0.052937571 0.39000002 4284824628
-0.012529741 0.052937571 0.39000002 4284693042
-0.011291901 0.053073313 0.39100003 4284693042
-0.010047563 0.053209048 0.39200002 4285090115
-0.0087743467 0.053209048 0.39200002 4288062871
-0.04409508 0.051147025 0.36800003 4288197283
-0.042899817 0.051147025 0.36800003 4288394662
-0.04170455 0.051147025 0.36800003 4288263076
-0.040509287 0.051147025 0.36800003 4288263076
-0.039314024 0.051147025 0.36800003 4288263076
-0.038222339 0.051286008 0.36900002 4288197283
-0.037023827 0.051286008 0.36900002 4289706161
-0.035825316 0.051286008 0.36900002 4283909184
-0.034720641 0.051424995 0.37 4284232489
-0.033518881 0.051424995 0.37 4285481011
-0.032317121 0.051424995 0.37 4285280806
-0.031115361 0.051424995 0.37 4284097823
-0.029994447 0.051563982 0.37100002 4284295972
-0.02878944 0.051563982 0.37100002 4285150252
-0.027658783 0.051702969 0.37200001 4286460715
-0.026450524 0.051702969 0.37200001 4287446579
-0.025310125 0.051841956 0.37300003 4293701023
-0.024227837 0.052119929 0.37500003 4288374872
-0.02337799 0.052953847 0.38100001 4287314993
-0.022256725 0.05323182 0.38300002 4287840310
-0.021122469 0.053509794 0.38500002 4286726452
-0.019923603 0.053648777 0.38600001 4285217578
-0.018718243 0.053787768 0.38700002 4284823081
-0.017506385 0.053926751 0.38800001 4284955701
-0.016288033 0.054065742 0.38900003 4284765776
-0.015063183 0.054204725 0.39000002 4286413170
-0.013796463 0.054204725 0.39000002 4286678652
-0.01256187 0.054343715 0.39100003 4287533959
-0.011291901 0.054343715 0.39100003 4288786592
-0.010021932 0.054343715 0.39100003 4288328610
-0.04409508 0.052342698 0.36800003 4288394662
-0.042899817 0.052342698 0.36800003 4288263076
-0.04170455 0.052342698 0.36800003 4288263076
-0.040509287 0.052342698 0.36800003 4288394662
-0.039420854 0.05248493 0.36900002 4288263076
-0.038222339 0.05248493 0.36900002 4288394662
-0.037124164 0.052627165 0.37 4288459942
-0.035922401 0.052627165 0.37 4282664509
-0.034814484 0.052769404 0.37100002 4284760118
-0.033609476 0.052769404 0.37100002 4285284148
-0.032404464 0.052769404 0.37100002 4285347113
-0.031199457 0.052769404 0.37100002 4285280806
-0.030075293 0.052911635 0.37200001 4285082660
-0.028867038 0.052911635 0.37200001 4285804584
-0.027658783 0.052911635 0.37200001 4286592040
-0.026521629 0.053053875 0.37300003 4287248428
-0.02537798 0.053196106 0.37400001 4286984999
-0.024227837 0.053338345 0.37500003 4286854442
-0.023255272 0.053907286 0.37900001 4287249200
-0.022198614 0.054333996 0.38200003 4286986028
-0.021067604 0.054618463 0.384 4284624419
-0.019923603 0.054902934 0.38600001 4285289290
-0.018718243 0.055045173 0.38700002 4288062358
-0.017506385 0.055187404 0.38800001 4288393379
-0.016288033 0.055329643 0.38900003 4287802525
-0.015063183 0.055471878 0.39000002 4288000418
-0.013796463 0.055471878 0.39000002 4287539867
-0.01256187 0.055614114 0.39100003 4287671453
-0.011291901 0.055614114 0.39100003 4287868832
-0.043016393 0.053683847 0.36900002 4288394662
-0.041817877 0.053683847 0.36900002 4288460455
-0.040619366 0.053683847 0.36900002 4288526248
-0.039420854 0.053683847 0.36900002 4288394662
-0.038325924 0.053829327 0.37 4288394662
-0.037224501 0.053974815 0.37100002 4288263076
-0.036019489 0.053974815 0.37100002 4288393120
-0.034814484 0.053974815 0.37100002 4284301366
-0.033700064 0.054120298 0.37200001 4284825650
-0.032491807 0.054120298 0.37200001 4284953638
-0.031283554 0.054120298 0.37200001 4284887845
-0.030075293 0.054120298 0.37200001 4284886562
-0.028867038 0.054120298 0.37200001 4285280293
-0.027733136 0.054265786 0.37300003 4285935398
-0.026521629 0.054265786 0.37300003 4286526760
-0.02537798 0.05441127 0.37400001 4286788649
-0.024227837 0.054556757 0.37500003 4286853672
-0.023193913 0.054993208 0.37800002 4286591270
-0.022198614 0.055575147 0.38200003 4286526508
-0.021067604 0.055866115 0.384 4289374364
-0.019923603 0.056157082 0.38600001 4287802525
-0.018718243 0.05630257 0.38700002 4287539869
-0.017506385 0.056448054 0.38800001 4287671453
-0.016329905 0.056739025 0.39000002 4287671453
-0.015063183 0.056739025 0.39000002 4287934625
-0.013831838 0.056884512 0.39100003 4287672223
-0.01256187 0.056884512 0.39100003 4287540637
-0.03842951 0.055180237 0.37100002 4288197283
-0.037324835 0.055328969 0.37200001 4288460455
-0.036116578 0.055328969 0.37200001 4288723627
-0.034908321 0.055328969 0.37200001 4283973950
-0.033700064 0.055328969 0.37200001 4284365362
-0.032491807 0.055328969 0.37200001 4284495150
-0.031283554 0.055328969 0.37200001 4284560173
-0.030156143 0.055477705 0.37300003 4284558626
-0.028944639 0.055477705 0.37300003 4284623906
-0.027733136 0.055477705 0.37300003 4285411879
-0.026521629 0.055477705 0.37300003 4285937453
-0.02537798 0.055626437 0.37400001 4286067756
-0.024163229 0.055626437 0.37400001 4286527535
-0.023071194 0.055923905 0.37600002 4286725682
-0.021733722 0.055626437 0.37400001 4285084972
-0.016329905 0.058006175 0.39000002 4287605660
-0.015063183 0.058006175 0.39000002 4287803039
-0.013831838 0.058154915 0.39100003 4287540637
-0.037324835 0.056537632 0.37200001 4288394662
-0.036213666 0.056689616 0.37300003 4288132004
-0.035002161 0.056689616 0.37300003 4284506202
-0.033790659 0.056689616 0.37300003 4284038458
-0.032579154 0.056689616 0.37300003 4284299567
-0.031367648 0.056689616 0.37300003 4284101675
-0.030156143 0.056689616 0.37300003 4284100392
-0.028944639 0.056689616 0.37300003 4284889136
-0.027733136 0.056689616 0.37300003 4284362019
-0.026521629 0.056689616 0.37300003 4285610803
-0.025310125 0.056689616 0.37300003 4285610801
-0.024163229 0.056841597 0.37400001 4285808180
-0.023009835 0.056993581 0.37500003 4284825146
-0.021733722 0.056841597 0.37400001 4288782227
-0.037425172 0.057901535 0.37300003 4288263076
-0.036213666 0.057901535 0.37300003 4288197283
-0.035002161 0.057901535 0.37300003 4288853930
-0.033790659 0.057901535 0.37300003 4284245081
-0.032579154 0.057901535 0.37300003 4284565056
-0.031367648 0.057901535 0.37300003 4284432700
-0.030156143 0.057901535 0.37300003 4284628794
-0.028944639 0.057901535 0.37300003 4284168497
-0.027733136 0.057901535 0.37300003 4285285949
-0.026521629 0.057901535 0.37300003 4285416765
-0.025310125 0.057901535 0.37300003 4284956214
-0.024163229 0.058056764 0.37400001 4285353802
-0.023009835 0.058211997 0.37500003 4287800983
-0.036213666 0.059113447 0.37300003 4288263076
-0.035002161 0.059113447 0.37300003 4288131490
-0.033790659 0.059113447 0.37300003 4287999904
-0.032579154 0.059113447 0.37300003 4288523168
-0.031367648 0.059113447 0.37300003 4286350457
-0.030156143 0.059113447 0.37300003 4285559401
-0.028944639 0.059113447 0.37300003 4285493608
-0.027733136 0.059113447 0.37300003 4285098846
-0.026521629 0.059113447 0.37300003 4286743671
-0.025310125 0.059113447 0.37300003 4287866006
-0.024163229 0.059271924 0.37400001 4287605148
-0.035002161 0.060325362 0.37300003 4288262563
-0.033790659 0.060325362 0.37300003 4288197283
-0.032579154 0.060325362 0.37300003 4288065697
-0.031367648 0.060325362 0.37300003 4288065438
-0.030156143 0.060325362 0.37300003 4288131231
-0.028944639 0.060325362 0.37300003 4287934365
-0.027733136 0.060325362 0.37300003 4287934365
-0.026521629 0.060325362 0.37300003 4288263330
-0.025310125 0.060325362 0.37300003 4287736732
-0.033790659 0.061537277 0.37300003 4288131492
-0.032579154 0.061537277 0.37300003 4288131492
-0.031367648 0.061537277 0.37300003 4287934113
-0.022190318 0.03532967 0.37762386 4294967295
-0.022190318 0.03532967 0.37762386 4294901760
-0.022190318 0.034842134 0.3775129 4294901760
-0.022190318 0.034354601 0.37740195 4294901760
-0.022190318 0.033867065 0.37729099 4294901760
-0.022190318 0.033379532 0.37718004 4294901760
-0.022190318 0.032891996 0.37706909 4294901760
-0.022190318 0.032404464 0.37695816 4294901760
-0.022190318 0.031916928 0.37684721 4294901760
-0.022190318 0.031429395 0.37673625 4294901760
-0.022190318 0.030941861 0.3766253 4294901760
-0.022190318 0.030454326 0.37651435 4294901760
-0.022190318 0.029966792 0.37640339 4294901760
-0.022190318 0.029479258 0.37629244 4294901760
-0.022190318 0.028991723 0.37618148 4294901760
-0.022190318 0.028504189 0.37607053 4294901760
-0.022190318 0.028016653 0.37595958 4294901760
-0.022190318 0.02752912 0.37584862 4294901760
-0.022190318 0.027041584 0.3757377 4294901760
-0.022190318 0.026554052 0.37562674 4294901760
-0.022190318 0.026066516 0.37551579 4294901760
-0.022190318 0.025578983 0.37540483 4294901760
-0.022190318 0.025091449 0.37529388 4294901760
-0.022190318 0.024603914 0.37518293 4294901760
-0.022190318 0.024116378 0.37507197 4294901760
-0.022190318 0.023628846 0.37496102 4294901760
-0.022190318 0.02314131 0.37485006 4294901760
-0.022190318 0.022653777 0.37473911 4294901760
-0.022190318 0.022166241 0.37462816 4294901760
-0.022190318 0.021678708 0.37451723 4294901760
-0.022190318 0.021191172 0.37440628 4294901760
-0.022190318 0.020703638 0.37429532 4294901760
-0.022190318 0.020216104 0.37418437 4294901760
-0.022190318 0.019728571 0.37407342 4294901760
-0.022190318 0.019241035 0.37396246 4294901760
-0.022190318 0.018753501 0.37385151 4294901760
-0.022190318 0.018265966 0.37374055 4294901760
-0.022190318 0.017778432 0.3736296 4294901760
-0.022190318 0.017290898 0.37351865 4294901760
-0.022190318 0.016803363 0.37340769 4294901760
-0.022190318 0.016315831 0.37329677 4294901760
-0.022190318 0.015828295 0.37318581 4294901760
-0.022190318 0.01534076 0.37307486 4294901760
-0.022190318 0.014853228 0.37296391 4294901760
-0.022190318 0.014365692 0.37285295 4294901760
-0.022190318 0.013878157 0.372742 4294901760
-0.022190318 0.013390623 0.37263104 4294901760
-0.022190318 0.012903089 0.37252009 4294901760
-0.022190318 0.012415554 0.37240914 4294901760
-0.022190318 0.01192802 0.37229818 4294901760
-0.022190318 0.011440486 0.37218723 4294901760
-0.022190318 0.010952951 0.37207627 4294901760
-0.022190318 0.010465417 0.37196535 4294901760
-0.022190318 0.0099778827 0.37185439 4294901760
-0.022190318 0.0094903503 0.37174344 4294901760
-0.022190318 0.0090028122 0.37163249 4294901760
-0.022190318 0.0085152797 0.37152153 4294901760
-0.022190318 0.0080277454 0.37141058 4294901760
-0.022190318 0.0075402111 0.37129962 4294901760
-0.022190318 0.0070526768 0.37118867 4294901760
-0.022190318 0.0065651443 0.37107772 4294901760
-0.022190318 0.0060776062 0.37096676 4294901760
-0.022190318 0.0055900719 0.37085581 4294901760
-0.022190318 0.0051025394 0.37074488 4294901760
-0.022190318 0.0046150051 0.37063393 4294901760
-0.022190318 0.0041274708 0.37052298 4294901760
-0.022190318 0.0036399364 0.37041202 4294901760
-0.022190318 0.0031524003 0.37030107 4294901760
-0.022190318 0.0026648678 0.37019011 4294901760
-0.022190318 0.0021773316 0.37007916 4294901760
-0.022190318 0.0016897991 0.36996821 4294901760
-0.022190318 0.0012022629 0.36985725 4294901760
-0.022190318 0.00071473047 0.3697463 4294901760
-0.022190318 0.00022719428 0.36963534 4294901760
-0.022190318 -0.00026033819 0.36952442 4294901760
-0.022190318 -0.00074787438 0.36941347 4294901760
-0.022190318 -0.0012354068 0.36930251 4294901760
-0.022190318 -0.001722943 0.36919156 4294901760
-0.022190318 -0.0022104755 0.3690806 4294901760
-0.022190318 -0.002698008 0.36896965 4294901760
-0.022190318 -0.0031855479 0.3688587 4294901760
-0.022190318 -0.0036730804 0.36874774 4294901760
-0.022190318 -0.0041606128 0.36863679 4294901760
-0.022190318 -0.004648149 0.36852583 4294901760
-0.022190318 -0.0051356815 0.36841488 4294901760
-0.022190318 -0.0056232139 0.36830395 4294901760
-0.022190318 -0.0061107539 0.368193 4294901760
-0.022190318 -0.0065982863 0.36808205 4294901760
-0.022190318 -0.0070858188 0.36797109 4294901760
-0.022190318 -0.007573355 0.36786014 4294901760
-0.022190318 -0.0080608875 0.36774918 4294901760
-0.022190318 -0.0085484236 0.36763823 4294901760
-0.022190318 -0.0090359598 0.36752728 4294901760
-0.022190318 -0.0095234923 0.36741632 4294901760
-0.022190318 -0.010011028 0.36730537 4294901760
-0.022190318 -0.010498561 0.36719441 4294901760
-0.022190318 -0.010986093 0.36708349 4294901760
-0.022190318 -0.01147363 0.36697254 4294901760
-0.022190318 -0.011961166 0.36686158 4294901760
-0.022190318 -0.012448698 0.36675063 4294901760
-0.022190318 -0.012936234 0.36663967 4294901760
-0.022190318 -0.013423767 0.36652872 4294901760
-0.022190318 0.03532967 0.37762386 4278255360
-0.021822849 0.03525443 0.37795448 4278255360
-0.021455383 0.03517919 0.37828508 4278255360
-0.021087915 0.035103947 0.37861571 4278255360
-0.020720446 0.035028707 0.3789463 4278255360
-0.02035298 0.034953468 0.37927693 4278255360
-0.019985512 0.034878228 0.37960756 4278255360
-0.019618046 0.034802988 0.37993816 4278255360
-0.019250577 0.034727748 0.38026878 4278255360
-0.018883109 0.034652505 0.38059938 4278255360
-0.018515643 0.034577265 0.38093001 4278255360
-0.018148175 0.034502026 0.38126063 4278255360
-0.017780706 0.034426786 0.38159123 4278255360
-0.01741324 0.034351546 0.38192186 4278255360
-0.017045772 0.034276307 0.38225248 4278255360
-0.016678303 0.034201063 0.38258308 4278255360
-0.016310837 0.034125824 0.38291371 4278255360
-0.015943369 0.034050584 0.38324431 4278255360
-0.015575901 0.033975344 0.38357493 4278255360
-0.015208434 0.033900104 0.38390556 4278255360
-0.014840966 0.033824865 0.38423616 4278255360
-0.0144735 0.033749621 0.38456678 4278255360
-0.014106032 0.033674382 0.38489738 4278255360
-0.013738563 0.033599142 0.38522801 4278255360
-0.013371096 0.033523902 0.38555863 4278255360
-0.013003629 0.033448663 0.38588923 4278255360
-0.012636161 0.033373423 0.38621986 4278255360
-0.012268693 0.03329818 0.38655046 4278255360
-0.011901226 0.03322294 0.38688108 4278255360
-0.011533759 0.0331477 0.38721171 4278255360
-0.01116629 0.03307246 0.38754231 4278255360
-0.010798823 0.032997221 0.38787293 4278255360
-0.010431356 0.032921981 0.38820356 4278255360
-0.010063888 0.032846738 0.38853416 4278255360
-0.0096964203 0.032771498 0.38886479 4278255360
-0.009328953 0.032696258 0.38919538 4278255360
-0.0089614848 0.032621019 0.38952601 4278255360
-0.0085940175 0.032545779 0.38985664 4278255360
-0.0082265511 0.032470539 0.39018723 4278255360
-0.0078590838 0.032395296 0.39051786 4278255360
-0.0074916156 0.032320056 0.39084846 4278255360
-0.0071241483 0.032244816 0.39117908 4278255360
-0.006756681 0.032169577 0.39150971 4278255360
-0.0063892119 0.032094337 0.39184031 4278255360
-0.0060217455 0.032019094 0.39217094 4278255360
-0.0056542773 0.031943854 0.39250153 4278255360
-0.0052868091 0.031868614 0.39283216 4278255360
-0.0049193427 0.031793375 0.39316279 4278255360
-0.0045518745 0.031718135 0.39349338 4278255360
-0.0041844063 0.031642895 0.39382401 4278255360
-0.0038169399 0.031567656 0.39415461 4278255360
-0.0034494735 0.031492412 0.39448524 4278255360
-0.0030820053 0.031417172 0.39481586 4278255360
-0.0027145389 0.031341933 0.39514646 4278255360
-0.0023470689 0.031266693 0.39547709 4278255360
-0.0019796025 0.031191451 0.39580771 4278255360
-0.0016121343 0.031116212 0.39613831 4278255360
-0.0012446679 0.031040972 0.39646894 4278255360
-0.00087719969 0.030965731 0.39679953 4278255360
-0.00050973333 0.030890491 0.39713016 4278255360
-0.00014226325 0.030815251 0.39746079 4278255360
0.00022520311 0.03074001 0.39779139 4278255360
0.00059267133 0.03066477 0.39812201 4278255360
0.0009601377 0.030589528 0.39845261 4278255360
0.0013276059 0.030514289 0.39878324 4278255360
0.0016950723 0.030439049 0.39911386 4278255360
0.0020625424 0.030363809 0.39944446 4278255360
0.0024300087 0.030288568 0.39977509 4278255360
0.0027974769 0.030213328 0.40010571 4278255360
0.0031649433 0.030138087 0.40043631 4278255360
0.0035324115 0.030062847 0.40076694 4278255360
0.0038998779 0.029987607 0.40109754 4278255360
0.004267348 0.029912367 0.40142816 4278255360
0.0046348143 0.029837126 0.40175879 4278255360
0.0050022826 0.029761886 0.40208939 4278255360
0.0053697489 0.029686645 0.40242001 4278255360
0.0057372153 0.029611405 0.40275061 4278255360
0.0061046835 0.029536165 0.40308124 4278255360
0.0064721499 0.029460926 0.40341187 4278255360
0.0068396199 0.029385684 0.40374246 4278255360
0.0072070863 0.029310444 0.40407309 4278255360
0.0075745545 0.029235203 0.40440369 4278255360
0.0079420209 0.029159963 0.40473431 4278255360
0.0083094891 0.029084723 0.40506494 4278255360
0.0086769555 0.029009484 0.40539554 4278255360
0.0090444256 0.028934242 0.40572616 4278255360
0.0094118938 0.028859003 0.40605676 4278255360
0.0097793601 0.028783761 0.40638739 4278255360
0.010146827 0.028708521 0.40671802 4278255360
0.010514293 0.028633282 0.40704861 4278255360
0.010881763 0.028558042 0.40737924 4278255360
0.011249229 0.0284828 0.40770987 4278255360
0.011616699 0.028407561 0.40804046 4278255360
0.011984166 0.028332319 0.40837109 4278255360
0.012351632 0.028257079 0.40870169 4278255360
0.012719098 0.02818184 0.40903232 4278255360
0.013086569 0.0281066 0.40936291 4278255360
0.013454035 0.028031358 0.40969354 4278255360
0.013821505 0.027956117 0.41002417 4278255360
0.014188971 0.027880877 0.41035476 4278255360
0.014556438 0.027805638 0.41068539 4278255360
-0.022190318 0.03532967 0.37762386 4278190335
-0.022529386 0.035248127 0.37798217 4278190335
-0.022868454 0.035166584 0.37834048 4278190335
-0.023207523 0.035085045 0.37869877 4278190335
-0.023546593 0.035003502 0.37905708 4278190335
-0.023885662 0.034921959 0.37941539 4278190335
-0.02422473 0.034840416 0.37977371 4278190335
-0.024563799 0.034758873 0.38013199 4278190335
-0.024902867 0.034677334 0.3804903 4278190335
-0.025241936 0.034595791 0.38084862 4278190335
-0.025581004 0.034514248 0.38120693 4278190335
-0.025920074 0.034432705 0.38156521 4278190335
-0.026259143 0.034351163 0.38192353 4278190335
-0.026598211 0.034269623 0.38228184 4278190335
-0.02693728 0.034188081 0.38264015 4278190335
-0.027276348 0.034106538 0.38299844 4278190335
-0.027615417 0.034024995 0.38335675 4278190335
-0.027954485 0.033943452 0.38371506 4278190335
-0.028293556 0.033861913 0.38407338 4278190335
-0.028632622 0.03378037 0.38443166 4278190335
-0.028971693 0.033698827 0.38478997 4278190335
-0.029310761 0.033617284 0.38514829 4278190335
-0.029649829 0.033535741 0.3855066 4278190335
-0.029988898 0.033454202 0.38586491 4278190335
-0.030327968 0.033372659 0.3862232 4278190335
-0.030667037 0.033291116 0.38658151 4278190335
-0.031006105 0.033209573 0.38693982 4278190335
-0.031345174 0.033128031 0.38729814 4278190335
-0.031684242 0.033046491 0.38765642 4278190335
-0.032023311 0.032964949 0.38801473 4278190335
-0.032362379 0.032883406 0.38837305 4278190335
-0.032701448 0.032801863 0.38873136 4278190335
-0.033040516 0.032720324 0.38908964 4278190335
-0.033379585 0.032638781 0.38944796 4278190335
-0.033718653 0.032557238 0.38980627 4278190335
-0.034057721 0.032475695 0.39016458 4278190335
-0.034396794 0.032394152 0.39052287 4278190335
-0.034735862 0.032312613 0.39088118 4278190335
-0.035074927 0.03223107 0.39123949 4278190335
-0.035413995 0.032149527 0.39159781 4278190335
-0.035753068 0.032067984 0.39195609 4278190335
-0.036092136 0.031986441 0.3923144 4278190335
-0.036431205 0.031904902 0.39267272 4278190335
-0.036770273 0.031823359 0.39303103 4278190335
-0.037109341 0.031741817 0.39338931 4278190335
-0.03744841 0.031660274 0.39374763 4278190335
-0.037787478 0.031578731 0.39410594 4278190335
-0.038126551 0.031497192 0.39446425 4278190335
-0.038465619 0.031415649 0.39482254 4278190335
-0.038804688 0.031334106 0.39518085 4278190335
-0.039143756 0.031252563 0.39553916 4278190335
-0.039482825 0.031171022 0.39589748 4278190335
-0.039821893 0.031089481 0.39625579 4278190335
-0.040160961 0.031007938 0.39661407 4278190335
-0.04050003 0.030926395 0.39697239 4278190335
-0.040839098 0.030844852 0.3973307 4278190335
-0.041178167 0.030763311 0.39768901 4278190335
-0.041517235 0.03068177 0.3980473 4278190335
-0.041856304 0.030600227 0.39840561 4278190335
-0.042195372 0.030518685 0.39876392 4278190335
-0.042534441 0.030437142 0.39912224 4278190335
-0.042873509 0.030355601 0.39948052 4278190335
-0.043212578 0.03027406 0.39983884 4278190335
-0.043551646 0.030192517 0.40019715 4278190335
-0.043890715 0.030110974 0.40055546 4278190335
-0.044229783 0.030029433 0.40091375 4278190335
-0.044568855 0.02994789 0.40127206 4278190335
-0.044907924 0.029866349 0.40163037 4278190335
-0.045246992 0.029784806 0.40198869 4278190335
-0.045586061 0.029703263 0.40234697 4278190335
-0.045925129 0.029621722 0.40270528 4278190335
-0.046264198 0.029540179 0.4030636 4278190335
-0.04660327 0.029458638 0.40342191 4278190335
-0.046942338 0.029377095 0.40378022 4278190335
-0.047281407 0.029295553 0.40413851 4278190335
-0.047620472 0.029214012 0.40449682 4278190335
-0.04795954 0.029132469 0.40485513 4278190335
-0.048298609 0.029050928 0.40521342 4278190335
-0.048637677 0.028969385 0.40557173 4278190335
-0.048976749 0.028887842 0.40593004 4278190335
-0.049315818 0.028806301 0.40628836 4278190335
-0.049654886 0.028724758 0.40664667 4278190335
-0.049993955 0.028643217 0.40700495 4278190335
-0.050333023 0.028561674 0.40736327 4278190335
-0.050672092 0.028480131 0.40772158 4278190335
-0.05101116 0.02839859 0.40807989 4278190335
-0.051350228 0.028317047 0.40843818 4278190335
-0.051689297 0.028235506 0.40879649 4278190335
-0.052028365 0.028153963 0.4091548 4278190335
-0.052367434 0.028072421 0.40951312 4278190335
-0.052706502 0.027990879 0.4098714 4278190335
-0.053045571 0.027909337 0.41022971 4278190335
-0.053384639 0.027827796 0.41058803 4278190335
-0.053723712 0.027746253 0.41094634 4278190335
-0.05406278 0.02766471 0.41130462 4278190335
-0.054401848 0.027583169 0.41166294 4278190335
-0.054740917 0.027501628 0.41202125 4278190335
-0.055079985 0.027420085 0.41237956 4278190335
-0.055419054 0.027338542 0.41273785 4278190335
-0.055758122 0.027256999 0.41309616 4278190335
-0.056097191 0.027175458 0.41345447 4278190335
-0.022190318 0.03532967 0.37762386 4294967295
-0.021512181 0.035492755 0.37690723 4294967295
-0.020834042 0.035655838 0.37619063 4294967295
-0.020155905 0.035818923 0.37547401 4294967295
-0.019477768 0.035982005 0.37475741 4294967295
-0.018799631 0.036145091 0.37404078 4294967295
-0.018121492 0.036308177 0.37332419 4294967295
-0.017443355 0.036471259 0.37260756 4294967295
-0.016765218 0.036634345 0.37189096 4294967295
-0.016087079 0.036797427 0.37117434 4294967295
-0.015408942 0.036960512 0.37045774 4294967295
-0.014730806 0.037123598 0.36974111 4294967295
-0.014052668 0.03728668 0.36902452 4294967295
-0.013374531 0.037449766 0.36830789 4294967295
-0.012696393 0.037612848 0.36759129 4294967295
-0.012018255 0.037775934 0.36687467 4294967295
-0.011340118 0.037939016 0.36615807 4294967295
-0.01066198 0.038102102 0.36544144 4294967295
-0.0099838423 0.038265187 0.36472484 4294967295
-0.0093057062 0.038428269 0.36400822 4294967295
-0.0086275684 0.038591355 0.36329162 4294967295
-0.0079494314 0.038754437 0.36257499 4294967295
-0.0072712936 0.038917523 0.3618584 4294967295
-0.0065931557 0.039080609 0.36114177 4294967295
-0.0059150178 0.039243691 0.36042517 4294967295
-0.0052368809 0.039406776 0.35970855 4294967295
-0.0045587439 0.039569858 0.35899192 4294967295
-0.0038806051 0.039732944 0.35827532 4294967295
-0.0032024682 0.039896026 0.3575587 4294967295
-0.0025243312 0.040059112 0.3568421 4294967295
-0.0018461924 0.040222198 0.35612547 4294967295
-0.0011680555 0.04038528 0.35540888 4294967295
-0.00048991852 0.040548366 0.35469225 4294967295
0.00018822029 0.040711448 0.35397565 4294967295
0.00086635724 0.040874533 0.35325903 4294967295
