# .PCD v0.7 - Point Cloud Data file format
VERSION 0.7
FIELDS x y z rgb
SIZE 4 4 4 4
TYPE F F F U
COUNT 1 1 1 1
WIDTH 763
HEIGHT 1
VIEWPOINT 0 0 0 1 0 0 0
POINTS 763
DATA ascii
-0.042412139 0.0061616744 0.39700001 4282871644
-0.041019097 0.0061461544 0.39600003 4284122735
-0.04499105 0.0074515683 0.39700001 4281813566
-0.043701593 0.0074515683 0.39700001 4282339910
-0.042412139 0.0074515683 0.39700001 4282407753
-0.041122679 0.0074515683 0.39700001 4281356347
-0.039833225 0.0074515683 0.39700001 4280043047
-0.038543768 0.0074515683 0.39700001 4280769588
-0.037254311 0.0074515683 0.39700001 4280444473
-0.036055449 0.0074703381 0.39800003 4280378428
-0.034762744 0.0074703381 0.39800003 4282350683
-0.033470038 0.0074703381 0.39800003 4284784254
-0.051697474 0.0087854993 0.39900002 4283723611
-0.050401516 0.0087854993 0.39900002 4281091380
-0.045104381 0.0087634809 0.39800003 4282077503
-0.043701593 0.0087414617 0.39700001 4281616437
-0.042412139 0.0087414617 0.39700001 4281748025
-0.041122679 0.0087414617 0.39700001 4282208574
-0.039833225 0.0087414617 0.39700001 4282012730
-0.038543768 0.0087414617 0.39700001 4280634922
-0.037348151 0.0087634809 0.39800003 4279326504
-0.036055449 0.0087634809 0.39800003 4278933542
-0.034762744 0.0087634809 0.39800003 4278803753
-0.033554133 0.0087854993 0.39900002 4279593269
-0.052993421 0.010081891 0.39900002 4281881405
-0.05182704 0.010107159 0.40000001 4283065679
-0.050527837 0.010107159 0.40000001 4281550907
-0.045217704 0.010081891 0.39900002 4280694819
-0.043811675 0.010056623 0.39800003 4282273851
-0.042518973 0.010056623 0.39800003 4281089323
-0.041226264 0.010056623 0.39800003 4281681198
-0.039933562 0.010056623 0.39800003 4281222185
-0.038640857 0.010056623 0.39800003 4280171293
-0.037348151 0.010056623 0.39800003 4279586596
-0.036055449 0.010056623 0.39800003 4278997025
-0.034850083 0.010081891 0.39900002 4278933542
-0.033554133 0.010081891 0.39900002 4278408482
-0.032419875 0.010132426 0.40100002 4278606376
-0.031117426 0.010132426 0.40100002 4280053822
-0.02988933 0.010157694 0.40200001 4282750058
-0.028583631 0.010157694 0.40200001 4280185158
-0.027345791 0.010182963 0.40300003 4280120387
-0.026036849 0.010182963 0.40300003 4279791418
-0.024789261 0.01020823 0.40400001 4279790902
-0.023477068 0.01020823 0.40400001 4280447805
-0.022219742 0.010233498 0.40500003 4279986230
-0.020904299 0.010233498 0.40500003 4280380990
-0.051956609 0.011435317 0.40100002 4282079038
-0.050654158 0.011435317 0.40100002 4280762926
-0.04947478 0.011463834 0.40200001 4281025587
-0.04816908 0.011463834 0.40200001 4281155888
-0.046863385 0.011463834 0.40200001 4281155888
-0.045217704 0.011378283 0.39900002 4281287472
-0.043921754 0.011378283 0.39900002 4282143033
-0.042518973 0.011349767 0.39800003 4281747245
-0.041226264 0.011349767 0.39800003 4281483306
-0.039933562 0.011349767 0.39800003 4281155622
-0.038640857 0.011349767 0.39800003 4280499745
-0.037348151 0.011349767 0.39800003 4279585316
-0.036146037 0.011378283 0.39900002 4279652391
-0.034850083 0.011378283 0.39900002 4279786025
-0.033638228 0.0114068 0.40000001 4279195172
-0.032419875 0.011435317 0.40100002 4278933796
-0.031195026 0.011463834 0.40200001 4279263791
-0.02988933 0.011463834 0.40200001 4279527476
-0.028654736 0.011492351 0.40300003 4279659832
-0.027345791 0.011492351 0.40300003 4279792701
-0.026101455 0.011520868 0.40400001 4278871853
-0.024789261 0.011520868 0.40400001 4279068460
-0.023535181 0.011549385 0.40500003 4279068460
-0.022274604 0.011577902 0.40600002 4279462707
-0.020955915 0.011577902 0.40600002 4279528500
-0.019685593 0.011606419 0.40700001 4279200048
-0.018363656 0.011606419 0.40700001 4279200818
-0.053391866 0.012769973 0.40200001 4281943337
-0.051956609 0.012738207 0.40100002 4281747757
-0.050654158 0.012738207 0.40100002 4280696620
-0.04947478 0.012769973 0.40200001 4280828206
-0.04816908 0.012769973 0.40200001 4280892716
-0.046746813 0.012738207 0.40100002 4280892716
-0.045331031 0.012706441 0.40000001 4281089577
-0.043921754 0.012674675 0.39900002 4282208310
-0.042518973 0.01264291 0.39800003 4282010413
-0.041226264 0.01264291 0.39800003 4281286179
-0.039933562 0.01264291 0.39800003 4281287208
-0.038640857 0.01264291 0.39800003 4280434211
-0.037441991 0.012674675 0.39900002 4279782182
-0.036146037 0.012674675 0.39900002 4279586084
-0.034937426 0.012706441 0.40000001 4279061537
-0.033638228 0.012706441 0.40000001 4279325220
-0.032419875 0.012738207 0.40100002 4279130662
-0.031195026 0.012769973 0.40200001 4279262761
-0.02988933 0.012769973 0.40200001 4279066664
-0.028654736 0.012801739 0.40300003 4279000871
-0.027413648 0.012833506 0.40400001 4279528246
-0.026101455 0.012833506 0.40400001 4279133488
-0.024850622 0.012865272 0.40500003 4278212381
-0.023593292 0.012897038 0.40600002 4279331119
-0.022329466 0.012928803 0.40700001 4279002156
-0.02100753 0.012928803 0.40700001 4279067949
-0.019733962 0.01296057 0.40800002 4278936363
-0.018363656 0.012928803 0.40700001 4279002669
-0.053391866 0.014076112 0.40200001 4282533673
-0.051956609 0.014041097 0.40100002 4282206509
-0.050654158 0.014041097 0.40100002 4281352495
-0.04947478 0.014076112 0.40200001 4280826923
-0.04804926 0.014041097 0.40100002 4280432167
-0.046746813 0.014041097 0.40100002 4280826925
-0.045331031 0.014006081 0.40000001 4280694565
-0.043921754 0.013971067 0.39900002 4281550126
-0.042518973 0.013936052 0.39800003 4281681450
-0.041226264 0.013936052 0.39800003 4281023520
-0.039933562 0.013936052 0.39800003 4280827173
-0.038640857 0.013936052 0.39800003 4280302625
-0.037441991 0.013971067 0.39900002 4279716902
-0.036146037 0.013971067 0.39900002 4279389221
-0.034937426 0.014006081 0.40000001 4279521316
-0.033722326 0.014041097 0.40100002 4279522599
-0.032500722 0.014076112 0.40200001 4279261478
-0.031195026 0.014076112 0.40200001 4279327271
-0.029963681 0.014111128 0.40300003 4279460910
-0.028654736 0.014111128 0.40300003 4279066666
-0.027413648 0.014146143 0.40400001 4279395890
-0.026166065 0.014181159 0.40500003 4279132718
-0.024911981 0.014216173 0.40600002 4279001132
-0.023651402 0.014251187 0.40700001 4279067179
-0.022384331 0.014286203 0.40800002 4278933796
-0.021059146 0.014286203 0.40800002 4278933542
-0.019782327 0.014321218 0.40900001 4279132459
-0.018544134 0.014391249 0.41100001 4278540320
-0.053391866 0.015382251 0.40200001 4282600490
-0.05182704 0.015305722 0.40000001 4281943589
-0.050654158 0.015343987 0.40100002 4281156140
-0.049351711 0.015343987 0.40100002 4280826921
-0.04804926 0.015343987 0.40100002 4280826923
-0.046630234 0.015305722 0.40000001 4280826923
-0.045217704 0.015267458 0.39900002 4281417774
-0.043811675 0.015229194 0.39800003 4281483821
-0.042518973 0.015229194 0.39800003 4281154854
-0.041226264 0.015229194 0.39800003 4281089061
-0.039933562 0.015229194 0.39800003 4281156651
-0.038640857 0.015229194 0.39800003 4279974944
-0.037441991 0.015267458 0.39900002 4279584803
-0.036236629 0.015305722 0.40000001 4279387937
-0.034937426 0.015305722 0.40000001 4279193121
-0.033722326 0.015343987 0.40100002 4279325220
-0.032500722 0.015382251 0.40200001 4279260711
-0.031195026 0.015382251 0.40200001 4279590189
-0.029963681 0.015420516 0.40300003 4279723312
-0.028725838 0.015458779 0.40400001 4279329838
-0.027413648 0.015458779 0.40400001 4279067949
-0.026166065 0.015497045 0.40500003 4279067949
-0.024911981 0.015535308 0.40600002 4279461935
-0.023651402 0.015573572 0.40700001 4279132459
-0.022439193 0.015650101 0.40900001 4278204682
-0.021162378 0.015688365 0.41000003 4279523369
-0.019879064 0.01572663 0.41100001 4279394347
-0.018589254 0.015764894 0.41200003 4278868771
-0.051532447 0.016107202 0.38800001 4282798639
-0.05182704 0.016605362 0.40000001 4283193910
-0.050527837 0.016605362 0.40000001 4280564001
-0.049228635 0.016605362 0.40000001 4281024554
-0.047929432 0.016605362 0.40000001 4281155116
-0.046630234 0.016605362 0.40000001 4280431393
-0.045217704 0.01656385 0.39900002 4281418028
-0.043811675 0.016522337 0.39800003 4281483819
-0.042518973 0.016522337 0.39800003 4281418026
-0.041226264 0.016522337 0.39800003 4281089061
-0.039933562 0.016522337 0.39800003 4280761893
-0.038737942 0.01656385 0.39900002 4280370469
-0.037441991 0.01656385 0.39900002 4278993177
-0.036236629 0.016605362 0.40000001 4279717670
-0.035024773 0.016646877 0.40100002 4279127843
-0.033722326 0.016646877 0.40100002 4279063334
-0.032500722 0.01668839 0.40200001 4279327017
-0.031195026 0.01668839 0.40200001 4279196201
-0.029963681 0.016729904 0.40300003 4279525933
-0.028725838 0.016771417 0.40400001 4280250426
-0.027413648 0.016771417 0.40400001 4279132972
-0.026166065 0.01681293 0.40500003 4279132972
-0.024973338 0.016895955 0.40700001 4278737699
-0.023709515 0.01693747 0.40800002 4279527215
-0.022494059 0.017020497 0.41000003 4279063332
-0.021213992 0.01706201 0.41100001 4280575541
-0.019927431 0.017103525 0.41200003 4278201610
-0.016453631 0.017684711 0.42600003 4278201357
-0.015140734 0.017767739 0.42800003 4278201095
-0.013814842 0.017850764 0.43000001 4278202888
-0.012447082 0.017892279 0.43100002 4278201089
-0.011072825 0.017933792 0.43200001 4278203404
-0.051532447 0.017367853 0.38800001 4282009900
-0.051567905 0.01781548 0.39800003 4284247125
-0.050401516 0.017860241 0.39900002 4281418288
-0.049105566 0.017860241 0.39900002 4281286704
-0.047809612 0.017860241 0.39900002 4281878839
-0.046513662 0.017860241 0.39900002 4282076218
-0.045104381 0.01781548 0.39800003 4281747253
-0.043811675 0.01781548 0.39800003 4281615921
-0.042518973 0.01781548 0.39800003 4281089577
-0.041226264 0.01781548 0.39800003 4281023784
-0.039933562 0.01781548 0.39800003 4280499493
-0.038737942 0.017860241 0.39900002 4280108326
-0.037535828 0.017905002 0.40000001 4279323424
-0.036236629 0.017905002 0.40000001 4279127328
-0.035024773 0.017949766 0.40100002 4279062818
-0.033722326 0.017949766 0.40100002 4279129125
-0.032500722 0.017994529 0.40200001 4279064099
-0.031195026 0.017994529 0.40200001 4279328041
-0.029963681 0.018039292 0.40300003 4279591726
-0.028725838 0.018084053 0.40400001 4279197998
-0.027413648 0.018084053 0.40400001 4279001386
-0.026230671 0.018173579 0.40600002 4279132970
-0.024973338 0.01821834 0.40700001 4278869539
-0.023767626 0.018307867 0.40900001 4279264297
-0.022494059 0.01835263 0.41000003 4278201089
-0.021265609 0.018442154 0.41200003 4280112944
-0.020024167 0.01853168 0.41400003 4279053590
-0.018905092 0.018755492 0.41900003 4279118103
-0.017711665 0.01893454 0.42300001 4279052824
-0.016453631 0.01906883 0.42600003 4278921238
-0.015140734 0.019158354 0.42800003 4278198023
-0.013814842 0.019247878 0.43000001 4280243762
-0.012475962 0.019337403 0.43200001 4280180018
-0.011098457 0.019382168 0.43300003 4280903739
-0.0097368397 0.019471692 0.43500003 4280377397
-0.0083430931 0.019516453 0.43600002 4280180020
-0.051532447 0.018628506 0.38800001 4281223727
-0.051438335 0.01906061 0.39700001 4281617972
-0.050275199 0.019108623 0.39800003 4282010425
-0.048982497 0.019108623 0.39800003 4281944634
-0.047689788 0.019108623 0.39800003 4282470976
-0.046397086 0.019108623 0.39800003 4282274367
-0.045104381 0.019108623 0.39800003 4282340160
-0.043811675 0.019108623 0.39800003 4280892716
-0.042518973 0.019108623 0.39800003 4280695335
-0.041226264 0.019108623 0.39800003 4280892714
-0.040033896 0.019156635 0.39900002 4280172323
-0.038737942 0.019156635 0.39900002 4279912998
-0.037535828 0.019204644 0.40000001 4279586600
-0.036236629 0.019204644 0.40000001 4278863388
-0.035024773 0.019252658 0.40100002 4279260197
-0.033722326 0.019252658 0.40100002 4279195172
-0.032500722 0.019300669 0.40200001 4279196455
-0.031195026 0.019300669 0.40200001 4279460140
-0.029963681 0.019348681 0.40300003 4279329324
-0.028654736 0.019348681 0.40300003 4279331121
-0.027413648 0.019396693 0.40400001 4278673191
-0.026230671 0.019492716 0.40600002 4278607396
-0.024973338 0.019540727 0.40700001 4279001384
-0.023767626 0.01963675 0.40900001 4279856182
-0.022548921 0.019732773 0.41100001 4278206229
-0.021317223 0.019828796 0.41300002 4278270740
-0.020072535 0.019924819 0.41500002 4278593552
-0.018905092 0.020116867 0.41900003 4280567342
-0.017711665 0.020308912 0.42300001 4281161276
-0.016415007 0.020404935 0.42500001 4280832051
-0.015140734 0.020548971 0.42800003 4278530580
-0.013814842 0.020644994 0.43000001 4280310323
-0.012475962 0.020741018 0.43200001 4278203916
-0.011124087 0.020837041 0.43400002 4278205457
-0.0097592231 0.020933064 0.43600002 4278865957
-0.008362229 0.020981075 0.43700001 4279129129
-0.0028198797 0.022037331 0.45900002 4279261228
-0.0013319424 0.022085343 0.46000001 4280050744
-0.051798079 0.019991679 0.39000002 4281816126
-0.0511792 0.020247983 0.39500001 4281881659
-0.050022561 0.020299245 0.39600003 4281945656
-0.048859421 0.020350505 0.39700001 4282340414
-0.047689788 0.020401767 0.39800003 4281879863
-0.046397086 0.020401767 0.39800003 4282406207
-0.045104381 0.020401767 0.39800003 4281682230
-0.043811675 0.020401767 0.39800003 4281484083
-0.042518973 0.020401767 0.39800003 4281155118
-0.04132985 0.020453027 0.39900002 4280892716
-0.040033896 0.020453027 0.39900002 4279844895
-0.03883503 0.020504287 0.40000001 4279781410
-0.037535828 0.020504287 0.40000001 4279455012
-0.036327224 0.020555547 0.40100002 4279586598
-0.035024773 0.020555547 0.40100002 4279719719
-0.033722326 0.020555547 0.40100002 4279326244
-0.032500722 0.020606807 0.40200001 4279065380
-0.031195026 0.020606807 0.40200001 4279460908
-0.029963681 0.020658068 0.40300003 4279264558
-0.028654736 0.020658068 0.40300003 4279133488
-0.027413648 0.020709328 0.40400001 4278804007
-0.026166065 0.02076059 0.40500003 4279066666
-0.024973338 0.02086311 0.40700001 4279460910
-0.023767626 0.020965632 0.40900001 4279920437
-0.022548921 0.021068154 0.41100001 4280377399
-0.021317223 0.021170676 0.41300002 4278200835
-0.0201209 0.021324458 0.41600001 4280700725
-0.018905092 0.021478241 0.41900003 4279384865
-0.017669793 0.021632021 0.42200002 4278265870
-0.016415007 0.021785803 0.42500001 4279384865
-0.015140734 0.021939587 0.42800003 4279518756
-0.013814842 0.022042107 0.43000001 4278202124
-0.012504841 0.022195891 0.43300003 4278203413
-0.011149719 0.022298412 0.43500003 4280443199
-0.0097816056 0.022400932 0.43700001 4278469661
-0.0083813649 0.022452194 0.43800002 4278732833
-0.0070064021 0.022605976 0.44100001 4278600734
-0.0042919298 0.023426147 0.45700002 4278470431
-0.0028137362 0.023477409 0.45800003 4279984438
-0.051049635 0.021476869 0.39400002 4281683517
-0.050022561 0.021585887 0.39600003 4282406207
-0.047569964 0.021640398 0.39700001 4282602816
-0.045104381 0.021694908 0.39800003 4282207290
-0.043811675 0.021694908 0.39800003 4281548847
-0.042625804 0.021749416 0.39900002 4281615669
-0.04132985 0.021749416 0.39900002 4280827434
-0.040134232 0.021803927 0.40000001 4279582236
-0.03883503 0.021803927 0.40000001 4279650596
-0.037535828 0.021803927 0.40000001 4279257633
-0.036327224 0.021858437 0.40100002 4279389732
-0.035024773 0.021858437 0.40100002 4279588133
-0.033722326 0.021858437 0.40100002 4279260451
-0.032500722 0.021912945 0.40200001 4279196453
-0.031195026 0.021912945 0.40200001 4279262759
-0.02988933 0.021912945 0.40200001 4279067179
-0.028654736 0.021967458 0.40300003 4280054844
-0.027413648 0.022021966 0.40400001 4279001386
-0.026166065 0.022076476 0.40500003 4279329324
-0.024973338 0.022185495 0.40700001 4279329322
-0.023767626 0.022294514 0.40900001 4279524650
-0.022548921 0.022403535 0.41100001 4280836926
-0.021317223 0.022512555 0.41300002 4278200581
-0.0201209 0.022676084 0.41600001 4278199307
-0.018905092 0.022839613 0.41900003 4278789648
-0.017669793 0.023003142 0.42200002 4278856211
-0.016415007 0.023166671 0.42500001 4280239147
-0.015140734 0.023330202 0.42800003 4280966202
-0.013846971 0.023493731 0.43100002 4278201614
-0.011149719 0.023711771 0.43500003 4278533660
-0.0098039899 0.0238753 0.43800002 4279061287
-0.0084196357 0.02398432 0.44000003 4279060517
-0.00702229 0.024093339 0.44200003 4278534689
-0.0042825383 0.024856478 0.45600003 4279521838
-0.0028075927 0.024910986 0.45700002 4278469661
-0.0013290469 0.025020007 0.45900002 4280577088
0.00016178592 0.025020007 0.45900002 4279261228
-0.059420716 0.022063907 0.38200003 4281615921
-0.051049635 0.022757014 0.39400002 4282076992
-0.049896237 0.022814773 0.39500001 4282076220
-0.048736352 0.022872532 0.39600003 4283588943
-0.046280507 0.022930291 0.39700001 4282733634
-0.045104381 0.022988051 0.39800003 4281615153
-0.043921754 0.023045808 0.39900002 4281614640
-0.042625804 0.023045808 0.39900002 4281484081
-0.041433431 0.023103567 0.40000001 4280499241
-0.040134232 0.023103567 0.40000001 4280110377
-0.03883503 0.023103567 0.40000001 4279585316
-0.037629671 0.023161327 0.40100002 4279323941
-0.036327224 0.023161327 0.40100002 4279587111
-0.035024773 0.023161327 0.40100002 4279654439
-0.033722326 0.023161327 0.40100002 4278932000
-0.032419875 0.023161327 0.40100002 4279328554
-0.031195026 0.023219084 0.40200001 4279263531
-0.02988933 0.023219084 0.40200001 4279396144
-0.028654736 0.023276845 0.40300003 4278935593
-0.027345791 0.023276845 0.40300003 4278540320
-0.026166065 0.023392363 0.40500003 4279198250
-0.024911981 0.023450121 0.40600002 4278540060
-0.023709515 0.023565639 0.40800002 4278203654
-0.022548921 0.023738915 0.41100001 4281230657
-0.021317223 0.023854433 0.41300002 4278332947
-0.020072535 0.023969952 0.41500002 4279380760
-0.018859971 0.024143228 0.41800001 4278986004
-0.017627923 0.024316506 0.42100003 4279183383
-0.016415007 0.02454754 0.42500001 4278986004
-0.015140734 0.024720818 0.42800003 4280571957
-0.013846971 0.024894094 0.43100002 4278729753
-0.0098039899 0.025298407 0.43800002 4280311865
-0.0084387707 0.025471684 0.44100001 4279983152
-0.0042637549 0.026222549 0.45400003 4280246326
-0.0028014493 0.026338067 0.45600003 4278865189
0.00016178592 0.026511343 0.45900002 4278734371
0.0016562191 0.026569102 0.46000001 4287147929
-0.051049635 0.02403716 0.39400002 4282471496
-0.049896237 0.024098167 0.39500001 4283720793
-0.04861328 0.024098167 0.39500001 4283457873
-0.04745014 0.024159176 0.39600003 4283260494
-0.045104381 0.024281193 0.39800003 4282338876
-0.043811675 0.024281193 0.39800003 4281615153
-0.042625804 0.0243422 0.39900002 4282143294
-0.041433431 0.024403207 0.40000001 4280895024
-0.040134232 0.024403207 0.40000001 4279913516
-0.03883503 0.024403207 0.40000001 4279520039
-0.037629671 0.024464216 0.40100002 4279258148
-0.036327224 0.024464216 0.40100002 4279060767
-0.035024773 0.024464216 0.40100002 4279522599
-0.033722326 0.024464216 0.40100002 4279523883
-0.032419875 0.024464216 0.40100002 4279591726
-0.031195026 0.024525223 0.40200001 4279132459
-0.02988933 0.024525223 0.40200001 4279461424
-0.028583631 0.024525223 0.40200001 4278935593
-0.027345791 0.024586232 0.40300003 4279396142
-0.026101455 0.02464724 0.40400001 4278935591
-0.024911981 0.024769256 0.40600002 4279724080
-0.023709515 0.024891272 0.40800002 4279063332
-0.022494059 0.025013288 0.41000003 4279719469
-0.021265609 0.025135305 0.41200003 4278533658
-0.020072535 0.025318328 0.41500002 4278989593
-0.018814852 0.025440345 0.41700003 4278791703
-0.017586051 0.025623368 0.42000002 4278331152
-0.016376384 0.025867401 0.42400002 4278791703
-0.015140734 0.026111433 0.42800003 4278201872
-0.013846971 0.026294457 0.43100002 4278202128
-0.012533721 0.02647748 0.43400002 4278200843
-0.011175351 0.026599497 0.43600002 4278200328
-0.0098263733 0.02678252 0.43900001 4278201613
-0.0084770424 0.027026553 0.44300002 4278201354
-0.0042543635 0.027636632 0.45300001 4278201868
-0.0028014493 0.027819658 0.45600003 4280048695
-0.0013232558 0.027880665 0.45700002 4278998572
0.00016178592 0.028002681 0.45900002 4280574526
0.0016526188 0.028002681 0.45900002 4287280029
-0.04861328 0.025381563 0.39500001 4286026114
-0.047330316 0.025381563 0.39500001 4283129426
-0.046163935 0.025445823 0.39600003 4283524438
-0.04499105 0.025510078 0.39700001 4283261264
-0.043811675 0.025574338 0.39800003 4283327055
-0.042625804 0.025638593 0.39900002 4281223989
-0.041433431 0.025702849 0.40000001 4280831797
-0.040134232 0.025702849 0.40000001 4279716650
-0.038932119 0.025767108 0.40100002 4279652139
-0.037629671 0.025767108 0.40100002 4279456297
-0.036327224 0.025767108 0.40100002 4279588394
-0.035024773 0.025767108 0.40100002 4279523371
-0.033722326 0.025767108 0.40100002 4279523883
-0.032419875 0.025767108 0.40100002 4279394347
-0.031117426 0.025767108 0.40100002 4279329324
-0.02988933 0.025831364 0.40200001 4279396144
-0.028583631 0.025831364 0.40200001 4279067179
-0.027345791 0.025895622 0.40300003 4279527730
-0.026101455 0.025959879 0.40400001 4279198763
-0.024850622 0.026024137 0.40500003 4280183348
-0.023651402 0.02615265 0.40700001 4278471197
-0.022439193 0.026281163 0.40900001 4279523887
-0.021213992 0.026409678 0.41100001 4279721777
-0.019975798 0.026538193 0.41300002 4279590191
-0.018769732 0.026730964 0.41600001 4279721777
-0.01754418 0.026923737 0.41900003 4279327019
-0.016376384 0.027245022 0.42400002 4279524398
-0.015140734 0.027502051 0.42800003 4279261226
-0.013846971 0.027694821 0.43100002 4279458605
-0.012533721 0.027887592 0.43400002 4279261226
-0.011175351 0.028016107 0.43600002 4279129642
-0.0098263733 0.028208878 0.43900001 4279458607
-0.0042543635 0.029108478 0.45300001 4279984949
0.00016143346 0.029429764 0.45800003 4286558870
0.0016526188 0.029494021 0.45900002 4287148189
-0.044877723 0.026732467 0.39600003 4281815876
-0.043701593 0.026799971 0.39700001 4282012995
-0.042625804 0.026934985 0.39900002 4280765493
-0.041433431 0.027002489 0.40000001 4280372532
-0.040134232 0.027002489 0.40000001 4279847982
-0.038932119 0.027069997 0.40100002 4279979822
-0.037629671 0.027069997 0.40100002 4279586859
-0.036327224 0.027069997 0.40100002 4279587629
-0.035024773 0.027069997 0.40100002 4280115508
-0.033722326 0.027069997 0.40100002 4279655471
-0.032419875 0.027069997 0.40100002 4279327787
-0.031117426 0.027069997 0.40100002 4279460140
-0.02988933 0.027137503 0.40200001 4279396144
-0.028583631 0.027137503 0.40200001 4279198765
-0.027345791 0.027205011 0.40300003 4278935593
-0.026036849 0.027205011 0.40300003 4278935593
-0.024850622 0.027340023 0.40500003 4278539808
-0.023593292 0.027407529 0.40600002 4279262761
-0.022384331 0.027542541 0.40800002 4279590959
-0.021162378 0.027677553 0.41000003 4279327787
-0.019927431 0.027812567 0.41200003 4279854131
-0.018724613 0.028015085 0.41500002 4279525679
-0.017460436 0.028150097 0.41700003 4279262507
-0.015140734 0.028892666 0.42800003 4279328554
-0.013846971 0.029095184 0.43100002 4279065128
-0.012533721 0.029297702 0.43400002 4279065128
-0.011175351 0.029432716 0.43600002 4279328300
-0.0098263733 0.029635234 0.43900001 4279262509
-0.0028014493 0.030782839 0.45600003 4279324972
0.00016143346 0.030917853 0.45800003 4287279261
-0.043701593 0.028089866 0.39700001 4288725426
-0.041433431 0.028302131 0.40000001 4284318065
-0.040134232 0.028302131 0.40000001 4281490245
-0.038932119 0.028372888 0.40100002 4280240948
-0.037629671 0.028372888 0.40100002 4279913264
-0.036327224 0.028372888 0.40100002 4280177719
-0.035024773 0.028372888 0.40100002 4280047928
-0.033722326 0.028372888 0.40100002 4280377406
-0.032419875 0.028372888 0.40100002 4280115772
-0.031117426 0.028372888 0.40100002 4280445248
-0.02988933 0.028443642 0.40200001 4279590963
-0.028583631 0.028443642 0.40200001 4279920441
-0.027277935 0.028443642 0.40200001 4279591474
-0.026036849 0.028514398 0.40300003 4279723060
-0.024789261 0.028585153 0.40400001 4279723060
-0.023593292 0.028726663 0.40600002 4279130925
-0.022329466 0.028797418 0.40700001 4279525170
-0.02111076 0.028938929 0.40900001 4279788342
-0.019879064 0.029080439 0.41100001 4279459377
-0.018634373 0.02922195 0.41300002 4279459377
-0.017376693 0.029363461 0.41500002 4279854135
-0.015951525 0.02922195 0.41300002 4279327537
-0.035024773 0.029675776 0.40100002 4284188528
-0.033722326 0.029675776 0.40100002 4282280531
-0.032419875 0.029675776 0.40100002 4281623114
-0.031117426 0.029675776 0.40100002 4281096770
-0.02988933 0.029749781 0.40200001 4280834368
-0.028583631 0.029749781 0.40200001 4280110645
-0.027277935 0.029749781 0.40200001 4279717168
-0.026036849 0.029823786 0.40300003 4280112440
-0.024789261 0.029897789 0.40400001 4279586096
-0.023535181 0.029971795 0.40500003 4279717168
-0.015951525 0.030563829 0.41300002 4280505662
0.20530231 0.11700702 0.37600002 4278523165
0.20652355 0.11700702 0.37600002 4278590502
0.2071923 0.11669584 0.37500003 4278525993
0.20530231 0.11822869 0.37600002 4281943617
0.2059743 0.11791425 0.37500003 4282470728
0.20663978 0.11759981 0.37400001 4281090875
0.20729877 0.11728538 0.37300003 4279577901
0.20421027 0.11881498 0.37400001 4278651401
0.20542501 0.11881498 0.37400001 4278717966
0.20608728 0.1184973 0.37300003 4278850063
0.206743 0.1181796 0.37200001 4278983448
0.20683324 0.11754423 0.37 4278785819
0.20366426 0.1197092 0.37300003 4278782987
0.20432648 0.11938826 0.37200001 4279045389
0.20498225 0.11906733 0.37100002 4278520585
0.20563148 0.11874638 0.37 4278653969
0.20627424 0.11842545 0.36900002 4278259473
0.20634824 0.11778358 0.36700001 4278522383
0.20697474 0.11746265 0.36600003 4278324491
0.20816353 0.11746265 0.36600003 4278456590
0.20311823 0.12059693 0.37200001 4278717447
0.20377722 0.12027275 0.37100002 4279308812
0.20442973 0.11994856 0.37 4278914824
0.20507573 0.11962438 0.36900002 4279046410
0.20571525 0.11930019 0.36800003 4278915594
0.20634824 0.118976 0.36700001 4279047693
0.20697474 0.11865182 0.36600003 4278652935
0.20816353 0.11865182 0.36600003 4278389765
0.20377722 0.12147816 0.37100002 4279112203
0.20442973 0.12115072 0.37 4278914824
0.20507573 0.12082329 0.36900002 4279177480
0.20571525 0.12049586 0.36800003 4279177478
0.20578599 0.11984099 0.36600003 4278915076
0.20697474 0.11984099 0.36600003 4278783238
0.20816353 0.11984099 0.36600003 4278586629
0.20387723 0.12202222 0.36900002 4278915594
0.20507573 0.12202222 0.36900002 4279177478
0.20571525 0.12169154 0.36800003 4279045635
0.20578599 0.12103017 0.36600003 4278915848
0.20697474 0.12103017 0.36600003 4278718215
0.20816353 0.12103017 0.36600003 4278586629
0.20507573 0.12322113 0.36900002 4278981387
0.20627424 0.12322113 0.36900002 4278652424
0.20578599 0.12221933 0.36600003 4278783757
0.20697474 0.12221933 0.36600003 4278981136
0.20816353 0.12221933 0.36600003 4278981649
-0.011297496 0.027891874 0.40491229 4294967295
-0.011297496 0.027891874 0.40491229 4294901760
-0.011297496 0.027891874 0.40541229 4294901760
-0.011297496 0.027891874 0.40591228 4294901760
-0.011297496 0.027891874 0.4064123 4294901760
-0.011297496 0.027891874 0.4069123 4294901760
-0.011297496 0.027891874 0.40741229 4294901760
-0.011297496 0.027891874 0.40791228 4294901760
-0.011297496 0.027891874 0.40841231 4294901760
-0.011297496 0.027891874 0.4089123 4294901760
-0.011297496 0.027891874 0.40941229 4294901760
-0.011297496 0.027891874 0.40991229 4294901760
-0.011297496 0.027891874 0.41041228 4294901760
-0.011297496 0.027891874 0.41091231 4294901760
-0.011297496 0.027891874 0.4114123 4294901760
-0.011297496 0.027891874 0.41191229 4294901760
-0.011297496 0.027891874 0.41241229 4294901760
-0.011297496 0.027891874 0.41291231 4294901760
-0.011297496 0.027891874 0.4134123 4294901760
-0.011297496 0.027891874 0.4139123 4294901760
-0.011297496 0.027891874 0.41441229 4294901760
-0.011297496 0.027891874 0.41491228 4294901760
-0.011297496 0.027891874 0.41541231 4294901760
-0.011297496 0.027891874 0.4159123 4294901760
-0.011297496 0.027891874 0.41641229 4294901760
-0.011297496 0.027891874 0.41691229 4294901760
-0.011297496 0.027891874 0.41741228 4294901760
-0.011297496 0.027891874 0.4179123 4294901760
-0.011297496 0.027891874 0.4184123 4294901760
-0.011297496 0.027891874 0.41891229 4294901760
-0.011297496 0.027891874 0.41941229 4294901760
-0.011297496 0.027891874 0.41991231 4294901760
-0.011297496 0.027891874 0.4204123 4294901760
-0.011297496 0.027891874 0.4209123 4294901760
-0.011297496 0.027891874 0.42141229 4294901760
-0.011297496 0.027891874 0.42191231 4294901760
-0.011297496 0.027891874 0.42241231 4294901760
-0.011297496 0.027891874 0.4229123 4294901760
-0.011297496 0.027891874 0.42341229 4294901760
-0.011297496 0.027891874 0.42391229 4294901760
-0.011297496 0.027891874 0.42441231 4294901760
-0.011297496 0.027891874 0.4249123 4294901760
-0.011297496 0.027891874 0.4254123 4294901760
-0.011297496 0.027891874 0.42591229 4294901760
-0.011297496 0.027891874 0.42641228 4294901760
-0.011297496 0.027891874 0.42691231 4294901760
-0.011297496 0.027891874 0.4274123 4294901760
-0.011297496 0.027891874 0.42791229 4294901760
-0.011297496 0.027891874 0.42841229 4294901760
-0.011297496 0.027891874 0.42891231 4294901760
-0.011297496 0.027891874 0.42941231 4294901760
-0.011297496 0.027891874 0.4299123 4294901760
-0.011297496 0.027891874 0.43041229 4294901760
-0.011297496 0.027891874 0.43091229 4294901760
-0.011297496 0.027891874 0.43141231 4294901760
-0.011297496 0.027891874 0.4319123 4294901760
-0.011297496 0.027891874 0.4324123 4294901760
-0.011297496 0.027891874 0.43291229 4294901760
-0.011297496 0.027891874 0.43341231 4294901760
-0.011297496 0.027891874 0.43391231 4294901760
-0.011297496 0.027891874 0.4344123 4294901760
-0.011297496 0.027891874 0.43491229 4294901760
-0.011297496 0.027891874 0.43541229 4294901760
-0.011297496 0.027891874 0.43591231 4294901760
-0.011297496 0.027891874 0.4364123 4294901760
-0.011297496 0.027891874 0.4369123 4294901760
-0.011297496 0.027891874 0.43741229 4294901760
-0.011297496 0.027891874 0.43791232 4294901760
-0.011297496 0.027891874 0.43841231 4294901760
-0.011297496 0.027891874 0.4389123 4294901760
-0.011297496 0.027891874 0.4394123 4294901760
-0.011297496 0.027891874 0.43991229 4294901760
-0.011297496 0.027891874 0.44041231 4294901760
-0.011297496 0.027891874 0.44091231 4294901760
-0.011297496 0.027891874 0.4414123 4294901760
-0.011297496 0.027891874 0.44191229 4294901760
-0.011297496 0.027891874 0.44241232 4294901760
-0.011297496 0.027891874 0.44291231 4294901760
-0.011297496 0.027891874 0.4434123 4294901760
-0.011297496 0.027891874 0.4439123 4294901760
-0.011297496 0.027891874 0.44441229 4294901760
-0.011297496 0.027891874 0.44491231 4294901760
-0.011297496 0.027891874 0.44541231 4294901760
-0.011297496 0.027891874 0.4459123 4294901760
-0.011297496 0.027891874 0.4464123 4294901760
-0.011297496 0.027891874 0.44691229 4294901760
-0.011297496 0.027891874 0.44741231 4294901760
-0.011297496 0.027891874 0.44791231 4294901760
-0.011297496 0.027891874 0.4484123 4294901760
-0.011297496 0.027891874 0.44891229 4294901760
-0.011297496 0.027891874 0.44941229 4294901760
-0.011297496 0.027891874 0.44991231 4294901760
-0.011297496 0.027891874 0.4504123 4294901760
-0.011297496 0.027891874 0.4509123 4294901760
-0.011297496 0.027891874 0.45141232 4294901760
-0.011297496 0.027891874 0.45191231 4294901760
-0.011297496 0.027891874 0.45241231 4294901760
-0.011297496 0.027891874 0.4529123 4294901760
-0.011297496 0.027891874 0.45341229 4294901760
-0.011297496 0.027891874 0.45391232 4294901760
-0.011297496 0.027891874 0.45441231 4294901760
-0.011297496 0.027891874 0.4549123 4294901760
-0.011297496 0.027891874 0.40491229 4278255360
-0.011477102 0.027853459 0.40537733 4278255360
-0.011656706 0.027815046 0.40584239 4278255360
-0.011836312 0.027776631 0.40630743 4278255360
-0.012015917 0.027738215 0.40677246 4278255360
-0.012195522 0.0276998 0.40723753 4278255360
-0.012375128 0.027661387 0.40770257 4278255360
-0.012554733 0.027622972 0.4081676 4278255360
-0.012734338 0.027584556 0.40863264 4278255360
-0.012913943 0.027546141 0.4090977 4278255360
-0.013093549 0.027507728 0.40956274 4278255360
-0.013273153 0.027469313 0.41002777 4278255360
-0.013452759 0.027430898 0.41049284 4278255360
-0.013632365 0.027392484 0.41095787 4278255360
-0.01381197 0.027354069 0.41142291 4278255360
-0.013991575 0.027315654 0.41188797 4278255360
-0.01417118 0.027277239 0.41235301 4278255360
-0.014350785 0.027238825 0.41281804 4278255360
-0.014530391 0.02720041 0.41328308 4278255360
-0.014709996 0.027161995 0.41374815 4278255360
-0.014889602 0.02712358 0.41421318 4278255360
-0.015069206 0.027085166 0.41467822 4278255360
-0.015248812 0.027046751 0.41514328 4278255360
-0.015428416 0.027008336 0.41560832 4278255360
-0.015608022 0.026969921 0.41607335 4278255360
-0.015787628 0.026931508 0.41653842 4278255360
-0.015967233 0.026893092 0.41700345 4278255360
-0.016146839 0.026854677 0.41746849 4278255360
-0.016326442 0.026816264 0.41793352 4278255360
-0.016506048 0.026777849 0.41839859 4278255360
-0.016685653 0.026739433 0.41886362 4278255360
-0.016865259 0.026701018 0.41932866 4278255360
-0.017044865 0.026662605 0.41979373 4278255360
-0.01722447 0.02662419 0.42025876 4278255360
-0.017404076 0.026585774 0.4207238 4278255360
-0.017583679 0.026547359 0.42118883 4278255360
-0.017763287 0.026508946 0.4216539 4278255360
-0.017942891 0.026470531 0.42211893 4278255360
-0.018122496 0.026432116 0.42258397 4278255360
-0.018302102 0.026393702 0.42304903 4278255360
-0.018481707 0.026355287 0.42351407 4278255360
-0.018661313 0.026316872 0.4239791 4278255360
-0.018840916 0.026278457 0.42444417 4278255360
-0.019020522 0.026240043 0.4249092 4278255360
-0.019200128 0.026201628 0.42537424 4278255360
-0.019379731 0.026163213 0.4258393 4278255360
-0.019559339 0.026124798 0.42630434 4278255360
-0.019738942 0.026086384 0.42676938 4278255360
-0.019918548 0.026047969 0.42723441 4278255360
-0.020098154 0.026009554 0.42769948 4278255360
-0.020277759 0.025971141 0.42816451 4278255360
-0.020457365 0.025932726 0.42862955 4278255360
-0.020636968 0.02589431 0.42909461 4278255360
-0.020816574 0.025855895 0.42955965 4278255360
-0.020996179 0.02581748 0.43002468 4278255360
-0.021175787 0.025779067 0.43048972 4278255360
-0.021355391 0.025740651 0.43095478 4278255360
-0.021534996 0.025702236 0.43141982 4278255360
-0.021714602 0.025663823 0.43188486 4278255360
-0.021894205 0.025625408 0.43234992 4278255360
-0.022073813 0.025586993 0.43281496 4278255360
-0.022253416 0.025548577 0.43327999 4278255360
-0.022433022 0.025510164 0.43374506 4278255360
-0.022612628 0.025471749 0.43421009 4278255360
-0.022792231 0.025433334 0.43467513 4278255360
-0.022971839 0.02539492 0.43514016 4278255360
-0.023151442 0.025356505 0.43560523 4278255360
-0.02333105 0.02531809 0.43607026 4278255360
-0.023510654 0.025279675 0.4365353 4278255360
-0.023690259 0.025241261 0.43700036 4278255360
-0.023869865 0.025202846 0.4374654 4278255360
-0.024049468 0.025164431 0.43793043 4278255360
-0.024229076 0.025126016 0.4383955 4278255360
-0.024408679 0.025087602 0.43886054 4278255360
-0.024588287 0.025049187 0.43932557 4278255360
-0.024767891 0.025010772 0.43979061 4278255360
-0.024947494 0.024972357 0.44025567 4278255360
-0.025127102 0.024933944 0.44072071 4278255360
-0.025306705 0.024895528 0.44118574 4278255360
-0.025486313 0.024857113 0.44165081 4278255360
-0.025665917 0.0248187 0.44211584 4278255360
-0.025845522 0.024780285 0.44258088 4278255360
-0.026025128 0.024741869 0.44304594 4278255360
-0.026204731 0.024703454 0.44351098 4278255360
-0.026384339 0.024665041 0.44397601 4278255360
-0.026563942 0.024626626 0.44444108 4278255360
-0.02674355 0.024588211 0.44490612 4278255360
-0.026923154 0.024549797 0.44537115 4278255360
-0.027102759 0.024511382 0.44583619 4278255360
-0.027282365 0.024472967 0.44630125 4278255360
-0.027461968 0.024434552 0.44676629 4278255360
-0.027641576 0.024396136 0.44723132 4278255360
-0.027821179 0.024357723 0.44769639 4278255360
-0.028000785 0.024319308 0.44816142 4278255360
-0.028180391 0.024280893 0.44862646 4278255360
-0.028359996 0.024242479 0.44909149 4278255360
-0.0285396 0.024204064 0.44955656 4278255360
-0.028719207 0.024165649 0.45002159 4278255360
-0.028898813 0.024127234 0.45048663 4278255360
-0.029078417 0.02408882 0.4509517 4278255360
-0.029258022 0.024050405 0.45141673 4278255360
