# .PCD v0.7 - Point Cloud Data file format
VERSION 0.7
FIELDS x y z rgb
SIZE 4 4 4 4
TYPE F F F U
COUNT 1 1 1 1
WIDTH 1068
HEIGHT 1
VIEWPOINT 0 0 0 1 0 0 0
POINTS 1068
DATA ascii
0.052124176 0.072207861 0.31400001 4280692772
0.053144045 0.072207861 0.31400001 4281285679
0.049220819 0.073461294 0.31500003 4281351218
0.050084431 0.073228076 0.31400001 4280429346
0.051104303 0.073228076 0.31400001 4280363553
0.052124176 0.073228076 0.31400001 4280561186
0.053144045 0.073228076 0.31400001 4282404160
0.054163922 0.073228076 0.31400001 4282405183
0.049220819 0.074484758 0.31500003 4283457361
0.050084431 0.074248292 0.31400001 4280495393
0.051104303 0.074248292 0.31400001 4280429087
0.052124176 0.074248292 0.31400001 4281350187
0.053144045 0.074248292 0.31400001 4282535744
0.054163922 0.074248292 0.31400001 4282407490
0.050084431 0.075268514 0.31400001 4280167198
0.051104303 0.075268514 0.31400001 4280495393
0.052124176 0.075268514 0.31400001 4280890401
0.053144045 0.075268514 0.31400001 4281287726
0.054163922 0.075268514 0.31400001 4279844893
0.049064562 0.07628873 0.31400001 4282733636
0.050084431 0.07628873 0.31400001 4280825128
0.051104303 0.07628873 0.31400001 4280627747
0.052124176 0.07628873 0.31400001 4280434211
0.053144045 0.07628873 0.31400001 4280370215
0.054163922 0.07628873 0.31400001 4279715104
0.049064562 0.077308945 0.31400001 4281153321
0.050084431 0.077308945 0.31400001 4281088813
0.051104303 0.077308945 0.31400001 4280366372
0.051958181 0.077062748 0.31300002 4279648029
0.053144045 0.077308945 0.31400001 4279649824
0.054163922 0.077308945 0.31400001 4279255838
0.050084431 0.078329168 0.31400001 4280826153
0.051104303 0.078329168 0.31400001 4280434211
0.051958181 0.078079715 0.31300002 4279320857
0.052974802 0.078079715 0.31300002 4279190041
0.053991426 0.078079715 0.31300002 4279255838
0.051958181 0.079096682 0.31300002 4278993175
0.052974802 0.079096682 0.31300002 4279256347
0.053991426 0.079096682 0.31300002 4279387937
0.049765419 0.079857692 0.31200001 4280042272
0.050778799 0.079857692 0.31200001 4279386139
0.051792175 0.079857692 0.31200001 4279124763
0.052974802 0.080113657 0.31300002 4279387935
0.048595794 0.08061222 0.31100002 4280763178
0.049605917 0.08061222 0.31100002 4279123480
0.050778799 0.080871418 0.31200001 4279321629
0.051792175 0.080871418 0.31200001 4279255836
0.052974802 0.081130624 0.31300002 4279519008
0.047585662 0.081622683 0.31100002 4280893227
0.048595794 0.081622683 0.31100002 4280699180
0.049605917 0.081622683 0.31100002 4279452447
0.050616048 0.081622683 0.31100002 4279124763
0.051626176 0.081622683 0.31100002 4279124761
0.04743265 0.08236745 0.31 4281225013
0.048595794 0.082633153 0.31100002 4280502825
0.049605917 0.082633153 0.31100002 4279190558
0.050616048 0.082633153 0.31100002 4278928154
0.051626176 0.082633153 0.31100002 4279125531
0.04527238 0.083105728 0.30900002 4282536255
0.046425767 0.083374672 0.31 4280959020
0.04743265 0.083374672 0.31 4281686847
0.048439533 0.083374672 0.31 4280043047
0.049446411 0.083374672 0.31 4279125533
0.05045329 0.083374672 0.31 4279257117
0.051626176 0.08364363 0.31100002 4279059738
0.052467052 0.083374672 0.31 4279125531
0.045418892 0.084381893 0.31 4281944632
0.046425767 0.084381893 0.31 4282342210
0.04743265 0.084381893 0.31 4280436778
0.048439533 0.084381893 0.31 4280043047
0.049446411 0.084381893 0.31 4279125533
0.05045329 0.084381893 0.31 4279322910
0.051460173 0.084381893 0.31 4278664980
0.052467052 0.084381893 0.31 4279520291
0.043405127 0.085389122 0.31 4283191103
0.044412009 0.085389122 0.31 4283127363
0.045418892 0.085389122 0.31 4282144316
0.046425767 0.085389122 0.31 4281355827
0.04743265 0.085389122 0.31 4280173606
0.048439533 0.085389122 0.31 4280569391
0.049446411 0.085389122 0.31 4279190043
0.05045329 0.085389122 0.31 4279915049
0.052297805 0.085113674 0.30900002 4279322910
0.043545146 0.086675033 0.31100002 4282203170
0.044555277 0.086675033 0.31100002 4283059769
0.045418892 0.086396337 0.31 4282078523
0.046425767 0.086396337 0.31 4281026862
0.04743265 0.086396337 0.31 4281555259
0.048439533 0.086396337 0.31 4281358647
0.049446411 0.086396337 0.31 4280111145
0.05029054 0.08611764 0.30900002 4279388705
0.051294174 0.08611764 0.30900002 4284586354
0.052297805 0.08611764 0.30900002 4280373549
0.053301439 0.08611764 0.30900002 4279715104
0.054305073 0.08611764 0.30900002 4280109094
0.043545146 0.087685511 0.31100002 4282202398
0.044555277 0.087685511 0.31100002 4282007074
0.045565408 0.087685511 0.31100002 4280434979
0.046575531 0.087685511 0.31100002 4281489468
0.04743265 0.087403558 0.31 4281752638
0.048439533 0.087403558 0.31 4281687612
0.049446411 0.087403558 0.31 4280570413
0.05029054 0.087121613 0.30900002 4279914279
0.051294174 0.087121613 0.30900002 4280309809
0.052297805 0.087121613 0.30900002 4285505403
0.053301439 0.087121613 0.30900002 4279254551
0.054129332 0.086839668 0.30800003 4279780897
0.055129718 0.086839668 0.30800003 4279911461
0.043685161 0.088981174 0.31200001 4282201885
0.04469854 0.088981174 0.31200001 4281611033
0.045711916 0.088981174 0.31200001 4281487667
0.046575531 0.088695981 0.31100002 4281687358
0.047585662 0.088695981 0.31100002 4281818944
0.048439533 0.08841078 0.31 4281621819
0.049446411 0.08841078 0.31 4281359159
0.05045329 0.08841078 0.31 4279715619
0.051294174 0.088125587 0.30900002 4279389219
0.052297805 0.088125587 0.30900002 4284256617
0.053128943 0.087840393 0.30800003 4280440112
0.054129332 0.087840393 0.30800003 4279190304
0.055129718 0.087840393 0.30800003 4279453476
0.056130096 0.087840393 0.30800003 4279584803
0.057130482 0.087840393 0.30800003 4280698667
0.043825179 0.090283349 0.31300002 4281741336
0.044841807 0.090283349 0.31300002 4282005791
0.045858432 0.090283349 0.31300002 4282014009
0.046725292 0.0899949 0.31200001 4281752122
0.047738668 0.0899949 0.31200001 4281950271
0.048595794 0.089706458 0.31100002 4281950269
0.049446411 0.089418001 0.31 4281884989
0.05045329 0.089418001 0.31 4281293366
0.051294174 0.08912956 0.30900002 4280505903
0.052297805 0.08912956 0.30900002 4279980072
0.053128943 0.088841125 0.30800003 4280244012
0.054129332 0.088841125 0.30800003 4279848488
0.055129718 0.088841125 0.30800003 4279388705
0.056130096 0.088841125 0.30800003 4279454498
0.057130482 0.088841125 0.30800003 4279453728
0.05794213 0.088552669 0.30700001 4279978024
0.043965194 0.091591999 0.31400001 4282136094
0.044985071 0.091591999 0.31400001 4281873435
0.046004944 0.091591999 0.31400001 4282145081
0.046875052 0.091300309 0.31300002 4281883454
0.047738668 0.091008611 0.31200001 4281950271
0.048752047 0.091008611 0.31200001 4281950269
0.049605917 0.090716921 0.31100002 4281950269
0.05045329 0.090425216 0.31 4281752890
0.051460173 0.090425216 0.31 4281294136
0.052297805 0.090133525 0.30900002 4281163833
0.053301439 0.090133525 0.30900002 4279585312
0.054129332 0.089841835 0.30800003 4279586598
0.055129718 0.089841835 0.30800003 4279455010
0.056130096 0.089841835 0.30800003 4279192092
0.056944992 0.089550138 0.30700001 4278928666
0.05794213 0.089550138 0.30700001 4279454500
0.058939263 0.089550138 0.30700001 4279583779
0.059936401 0.089550138 0.30700001 4279912233
0.043965194 0.092612222 0.31400001 4282070301
0.045128338 0.092907168 0.31500003 4282399266
0.046004944 0.092612222 0.31400001 4282603066
0.047024813 0.092612222 0.31400001 4282211388
0.04789168 0.092317276 0.31300002 4281950271
0.048908304 0.092317276 0.31300002 4281950271
0.049765419 0.09202233 0.31200001 4281950269
0.050616048 0.091727391 0.31100002 4281752892
0.051460173 0.091432445 0.31 4281687612
0.052297805 0.091137506 0.30900002 4281227573
0.053301439 0.091137506 0.30900002 4281162550
0.054129332 0.090842567 0.30800003 4279387937
0.055129718 0.090842567 0.30800003 4279323428
0.056130096 0.090842567 0.30800003 4279389219
0.056944992 0.090547614 0.30700001 4278862875
0.05794213 0.090547614 0.30700001 4279388707
0.058939263 0.090547614 0.30700001 4279257121
0.059741173 0.090252675 0.30600002 4279322914
0.060735062 0.090252675 0.30600002 4279452963
0.061728947 0.090252675 0.30600002 4279911209
0.045271598 0.094228826 0.31600001 4282136092
0.046151459 0.093930639 0.31500003 4282072615
0.047174577 0.093930639 0.31500003 4282406972
0.048044685 0.093632437 0.31400001 4282146626
0.048908304 0.09333425 0.31300002 4282016064
0.049765419 0.093036056 0.31200001 4281950271
0.050616048 0.092737861 0.31100002 4281884478
0.051626176 0.092737861 0.31100002 4281686845
0.052467052 0.092439666 0.31 4281424440
0.053301439 0.092141479 0.30900002 4281227575
0.054129332 0.091843292 0.30800003 4281030966
0.055129718 0.091843292 0.30800003 4279782180
0.056130096 0.091843292 0.30800003 4279321629
0.056944992 0.09154509 0.30700001 4279388705
0.05794213 0.09154509 0.30700001 4279454498
0.05874728 0.091246903 0.30600002 4279388705
0.059741173 0.091246903 0.30600002 4279257119
0.060735062 0.091246903 0.30600002 4279257121
0.061728947 0.091246903 0.30600002 4279717672
0.062517859 0.090948708 0.30500001 4279846692
0.045271598 0.095255546 0.31600001 4282332957
0.046297967 0.095255546 0.31600001 4282135580
0.047174577 0.094954103 0.31500003 4282138408
0.048197698 0.094954103 0.31500003 4282342462
0.049064562 0.09465266 0.31400001 4282079802
0.049924929 0.094351225 0.31300002 4281752120
0.050778799 0.094049774 0.31200001 4281752890
0.051626176 0.093748339 0.31100002 4281358134
0.052467052 0.093446888 0.31 4281424440
0.053301439 0.093145452 0.30900002 4281161268
0.054305073 0.093145452 0.30900002 4281292852
0.055129718 0.092844017 0.30800003 4280833585
0.056130096 0.092844017 0.30800003 4280570926
0.056944992 0.092542566 0.30700001 4279584801
0.05794213 0.092542566 0.30700001 4279584801
0.05874728 0.092241131 0.30600002 4279453728
0.059741173 0.092241131 0.30600002 4279453728
0.060735062 0.092241131 0.30600002 4279453728
0.061527215 0.091939688 0.30500001 4279387935
0.062517859 0.091939688 0.30500001 4279650592
0.063508496 0.091939688 0.30500001 4279847201
0.045271598 0.096282251 0.31600001 4282398752
0.046297967 0.096282251 0.31600001 4282596129
0.047324333 0.096282251 0.31600001 4282399264
0.048197698 0.095977567 0.31500003 4282140716
0.049220819 0.095977567 0.31500003 4282407740
0.050084431 0.095672868 0.31400001 4281883195
0.050941553 0.095368184 0.31300002 4281751609
0.051792175 0.095063485 0.31200001 4281621306
0.052636303 0.094758801 0.31100002 4281621306
0.053473935 0.094454102 0.31 4281358134
0.054305073 0.094149418 0.30900002 4281423925
0.055129718 0.093844734 0.30800003 4281292852
0.056130096 0.093844734 0.30800003 4280832815
0.056944992 0.093540035 0.30700001 4280373547
0.05794213 0.093540035 0.30700001 4280110375
0.05874728 0.093235351 0.30600002 4279716387
0.059741173 0.093235351 0.30600002 4279585314
0.060536578 0.092930652 0.30500001 4279651105
0.061527215 0.092930652 0.30500001 4279453726
0.062517859 0.092930652 0.30500001 4279387933
0.063300274 0.092625968 0.30400002 4279256347
0.06428767 0.092625968 0.30400002 4279453215
0.065275058 0.092625968 0.30400002 4279781412
0.046444479 0.097616903 0.317 4282267680
0.047324333 0.097308971 0.31600001 4282465059
0.048350703 0.097308971 0.31600001 4282202916
0.049220819 0.097001038 0.31500003 4282205746
0.050084431 0.096693091 0.31400001 4282080320
0.050941553 0.096385151 0.31300002 4281620536
0.051792175 0.096077211 0.31200001 4281752892
0.052636303 0.095769271 0.31100002 4281160755
0.053473935 0.095461331 0.31 4281555513
0.054305073 0.095153391 0.30900002 4281423925
0.055308707 0.095153391 0.30900002 4281095473
0.056130096 0.094845459 0.30800003 4281095475
0.057130482 0.094845459 0.30800003 4280898608
0.05794213 0.094537511 0.30700001 4280832815
0.05874728 0.094229579 0.30600002 4280373547
0.059741173 0.094229579 0.30600002 4279519006
0.060536578 0.093921632 0.30500001 4279584799
0.061527215 0.093921632 0.30500001 4279453726
0.062517859 0.093921632 0.30500001 4279257117
0.063300274 0.093613699 0.30400002 4279257117
0.06428767 0.093613699 0.30400002 4279519519
0.065060332 0.093305752 0.303 4279584801
0.06604448 0.093305752 0.303 4279715104
0.049220819 0.098024502 0.31500003 4283585859
0.050084431 0.097713314 0.31400001 4282669377
0.050941553 0.097402126 0.31300002 4282407488
0.051792175 0.09709093 0.31200001 4281817402
0.052636303 0.096779749 0.31100002 4281554743
0.053473935 0.096468553 0.31 4281490233
0.054480813 0.096468553 0.31 4281161268
0.055308707 0.096157365 0.30900002 4281095475
0.056312338 0.096157365 0.30900002 4281358647
0.057130482 0.095846184 0.30800003 4281095475
0.05794213 0.095534988 0.30700001 4281161268
0.058939263 0.095534988 0.30700001 4280963885
0.059741173 0.095223807 0.30600002 4280701227
0.060735062 0.095223807 0.30600002 4280241959
0.061527215 0.094912611 0.30500001 4279387933
0.062312882 0.094601423 0.30400002 4279520291
0.063300274 0.094601423 0.30400002 4279322910
0.06428767 0.094601423 0.30400002 4279520289
0.065060332 0.094290234 0.303 4279453728
0.06604448 0.094290234 0.303 4279387937
0.066807412 0.093979046 0.30200002 4279651107
0.06778831 0.093979046 0.30200002 4279912483
0.050778799 0.098104656 0.31200001 4283326023
0.051626176 0.097790219 0.31100002 4282735683
0.052636303 0.097790219 0.31100002 4282079804
0.053473935 0.097475775 0.31 4281554743
0.054480813 0.097475775 0.31 4281555513
0.055308707 0.097161345 0.30900002 4281423925
0.056312338 0.097161345 0.30900002 4281489718
0.057130482 0.096846908 0.30800003 4281358645
0.058130872 0.096846908 0.30800003 4281358645
0.058939263 0.096532464 0.30700001 4281160753
0.059741173 0.096218035 0.30600002 4280437030
0.060735062 0.096218035 0.30600002 4280832815
0.061527215 0.09590359 0.30500001 4280241961
0.062517859 0.09590359 0.30500001 4279913766
0.063300274 0.095589153 0.30400002 4279519519
0.064076193 0.095274709 0.303 4279454496
0.065060332 0.095274709 0.303 4279651107
0.06604448 0.095274709 0.303 4279387935
0.066807412 0.09496028 0.30200002 4279453728
0.06778831 0.09496028 0.30200002 4279256349
0.068769202 0.09496028 0.30200002 4279650596
0.0697501 0.09496028 0.30200002 4280567594
0.070730999 0.09496028 0.30200002 4280696100
0.07171189 0.09496028 0.30200002 4285627245
0.050616048 0.098800689 0.31100002 4283916112
0.051626176 0.098800689 0.31100002 4283852115
0.052467052 0.098483004 0.31 4283918422
0.053473935 0.098483004 0.31 4282013245
0.054480813 0.098483004 0.31 4281816380
0.055308707 0.098165318 0.30900002 4281751609
0.056312338 0.098165318 0.30900002 4281358132
0.057315972 0.098165318 0.30900002 4281095473
0.058130872 0.097847633 0.30800003 4281095475
0.058939263 0.09752994 0.30700001 4281092909
0.059936401 0.09752994 0.30700001 4280828456
0.060735062 0.097212255 0.30600002 4281026348
0.061527215 0.09689457 0.30500001 4281028397
0.062517859 0.09689457 0.30500001 4280832813
0.063300274 0.096576884 0.30400002 4280241959
0.064076193 0.096259192 0.303 4279585312
0.065060332 0.096259192 0.303 4279651105
0.06604448 0.096259192 0.303 4279453726
0.066807412 0.095941506 0.30200002 4279519773
0.06778831 0.095941506 0.30200002 4279519773
0.068769202 0.095941506 0.30200002 4279453726
0.0697501 0.095941506 0.30200002 4279650592
0.070730999 0.095941506 0.30200002 4279715102
0.07171189 0.095941506 0.30200002 4280764462
0.072692789 0.095941506 0.30200002 4282078784
0.050616048 0.099811159 0.31100002 4284179284
0.051460173 0.099490218 0.31 4284114774
0.052467052 0.099490218 0.31 4284114774
0.053473935 0.099490218 0.31 4283983701
0.054480813 0.099490218 0.31 4283392848
0.055308707 0.099169284 0.30900002 4281816378
0.056312338 0.099169284 0.30900002 4281686075
0.057315972 0.099169284 0.30900002 4281292600
0.058130872 0.09884835 0.30800003 4280634159
0.05913125 0.09884835 0.30800003 4280826921
0.059936401 0.098527409 0.30700001 4280497186
0.060735062 0.098206475 0.30600002 4280762147
0.061728947 0.098206475 0.30600002 4281356081
0.062517859 0.097885534 0.30500001 4281029682
0.063300274 0.0975646 0.30400002 4280832817
0.06428767 0.0975646 0.30400002 4280241959
0.065060332 0.097243659 0.303 4279321627
0.06604448 0.097243659 0.303 4279453980
0.066807412 0.096922733 0.30200002 4279453980
0.06778831 0.096922733 0.30200002 4279651359
0.068769202 0.096922733 0.30200002 4279256601
0.0697501 0.096922733 0.30200002 4279125015
0.070730999 0.096922733 0.30200002 4279256347
0.07171189 0.096922733 0.30200002 4279847205
0.072692789 0.096922733 0.30200002 4279846438
0.051460173 0.10049744 0.31 4284507479
0.052467052 0.10049744 0.31 4284639835
0.053473935 0.10049744 0.31 4284574809
0.054480813 0.10049744 0.31 4284772958
0.055487696 0.10049744 0.31 4283787090
0.056312338 0.10017326 0.30900002 4282669892
0.057315972 0.10017326 0.30900002 4281618233
0.058319602 0.10017326 0.30900002 4281288755
0.05913125 0.099849075 0.30800003 4280694565
0.059936401 0.099524885 0.30700001 4281813300
0.060933538 0.099524885 0.30700001 4281816630
0.061728947 0.099200703 0.30600002 4281554741
0.062517859 0.098876514 0.30500001 4281226546
0.063300274 0.098552331 0.30400002 4281029682
0.06428767 0.098552331 0.30400002 4280832815
0.065060332 0.098228142 0.303 4280832815
0.06604448 0.098228142 0.303 4280110375
0.066807412 0.097903959 0.30200002 4279781408
0.06778831 0.097903959 0.30200002 4279651359
0.068769202 0.097903959 0.30200002 4279717152
0.0697501 0.097903959 0.30200002 4279388957
0.070730999 0.097903959 0.30200002 4279125785
0.07171189 0.097903959 0.30200002 4279585053
0.072692789 0.097903959 0.30200002 4279715615
0.073673688 0.097903959 0.30200002 4279912485
0.074654587 0.097903959 0.30200002 4279977256
0.075635478 0.097903959 0.30200002 4281157171
0.056312338 0.10117723 0.30900002 4284640602
0.057315972 0.10117723 0.30900002 4284181594
0.058319602 0.10117723 0.30900002 4282405953
0.05913125 0.1008498 0.30800003 4281024554
0.060131636 0.1008498 0.30800003 4281748790
0.060933538 0.10052236 0.30700001 4281356851
0.061728947 0.10019493 0.30600002 4281488948
0.062517859 0.099867493 0.30500001 4280236834
0.063300274 0.099540062 0.30400002 4279972125
0.06428767 0.099540062 0.30400002 4281157934
0.065060332 0.099212624 0.303 4281159731
0.06604448 0.099212624 0.303 4280963889
0.067028627 0.099212624 0.303 4280767024
0.06778831 0.098885193 0.30200002 4279781410
0.068769202 0.098885193 0.30200002 4279453728
0.0697501 0.098885193 0.30200002 4279388705
0.070730999 0.098885193 0.30200002 4279322912
0.07171189 0.098885193 0.30200002 4279322912
0.072692789 0.098885193 0.30200002 4279059740
0.073673688 0.098885193 0.30200002 4279387935
0.074654587 0.098885193 0.30200002 4279651107
0.075635478 0.098885193 0.30200002 4280109610
0.076616377 0.098885193 0.30200002 4280238116
0.058319602 0.1021812 0.30900002 4284510299
0.05913125 0.10185052 0.30800003 4282931781
0.060131636 0.10185052 0.30800003 4282406718
0.060933538 0.10151984 0.30700001 4281882171
0.061728947 0.10118916 0.30600002 4280631592
0.062517859 0.10085847 0.30500001 4280496674
0.063300274 0.10052779 0.30400002 4280825641
0.06428767 0.10052779 0.30400002 4280497186
0.065060332 0.1001971 0.303 4280234268
0.06604448 0.1001971 0.303 4281554230
0.067028627 0.1001971 0.303 4281029169
0.068012767 0.1001971 0.303 4280701227
0.068769202 0.09986642 0.30200002 4280307239
0.0697501 0.09986642 0.30200002 4279651109
0.070730999 0.09986642 0.30200002 4279454498
0.07171189 0.09986642 0.30200002 4279586084
0.072692789 0.09986642 0.30200002 4279322912
0.073673688 0.09986642 0.30200002 4279387935
0.074654587 0.09986642 0.30200002 4279387935
0.075635478 0.09986642 0.30200002 4279519008
0.076616377 0.09986642 0.30200002 4279519010
0.077597275 0.09986642 0.30200002 4280764462
0.078578167 0.09986642 0.30200002 4281354032
0.059936401 0.10251731 0.30700001 4284707676
0.060933538 0.10251731 0.30700001 4282210624
0.061728947 0.10218338 0.30600002 4282275904
0.062517859 0.10184944 0.30500001 4280233502
0.063300274 0.10151551 0.30400002 4280759848
0.06428767 0.10151551 0.30400002 4280694567
0.065275058 0.10151551 0.30400002 4280431395
0.06604448 0.10118157 0.303 4280561184
0.067028627 0.10118157 0.303 4280958509
0.068012767 0.10118157 0.303 4280963376
0.068996914 0.10118157 0.303 4280700204
0.0697501 0.10084765 0.30200002 4280702001
0.070730999 0.10084765 0.30200002 4279847205
0.07171189 0.10084765 0.30200002 4279584029
0.072692789 0.10084765 0.30200002 4279519260
0.073673688 0.10084765 0.30200002 4279586336
0.074654587 0.10084765 0.30200002 4279256347
0.075635478 0.10084765 0.30200002 4279257119
0.076616377 0.10084765 0.30200002 4279256351
0.077597275 0.10084765 0.30200002 4279715365
0.078578167 0.10084765 0.30200002 4279846951
0.079559065 0.10084765 0.30200002 4280894764
0.061527215 0.10284042 0.30500001 4283261516
0.062517859 0.10284042 0.30500001 4282209341
0.063300274 0.10250324 0.30400002 4281484335
0.06428767 0.10250324 0.30400002 4280562467
0.065275058 0.10250324 0.30400002 4281351470
0.06604448 0.10216605 0.303 4281023018
0.067028627 0.10216605 0.303 4280562467
0.068012767 0.10216605 0.303 4280301092
0.068996914 0.10216605 0.303 4281157934
0.069981061 0.10216605 0.303 4280963889
0.070730999 0.10182887 0.30200002 4280832817
0.07171189 0.10182887 0.30200002 4280700715
0.072692789 0.10182887 0.30200002 4279977506
0.073673688 0.10182887 0.30200002 4279847203
0.074654587 0.10182887 0.30200002 4279584801
0.075635478 0.10182887 0.30200002 4279453728
0.076616377 0.10182887 0.30200002 4279453728
0.077597275 0.10182887 0.30200002 4279452445
0.078578167 0.10182887 0.30200002 4279715617
0.079559065 0.10182887 0.30200002 4279978278
0.080273278 0.1014917 0.30100003 4280174119
0.081250928 0.1014917 0.30100003 4281156399
0.082228571 0.1014917 0.30100003 4284378977
0.062517859 0.1038314 0.30500001 4284510297
0.063300274 0.10349097 0.30400002 4282668093
0.06428767 0.10349097 0.30400002 4282470716
0.065275058 0.10349097 0.30400002 4280825637
0.066262454 0.10349097 0.30400002 4281088809
0.067249849 0.10349097 0.30400002 4281549874
0.068012767 0.10315053 0.303 4280694567
0.068996914 0.10315053 0.303 4280562981
0.069981061 0.10315053 0.303 4280302114
0.070965201 0.10315053 0.303 4281553976
0.07171189 0.10281011 0.30200002 4281094962
0.072692789 0.10281011 0.30200002 4281029682
0.073673688 0.10281011 0.30200002 4280109864
0.074654587 0.10281011 0.30200002 4279781410
0.075635478 0.10281011 0.30200002 4279716387
0.076616377 0.10281011 0.30200002 4279782178
0.077597275 0.10281011 0.30200002 4279650592
0.078578167 0.10281011 0.30200002 4279519006
0.079559065 0.10281011 0.30200002 4279387937
0.080273278 0.10246968 0.30100003 4279979561
0.081250928 0.10246968 0.30100003 4280240680
0.082228571 0.10246968 0.30100003 4280568618
0.06428767 0.10447869 0.30400002 4283523664
0.065275058 0.10447869 0.30400002 4282603332
0.066262454 0.10447869 0.30400002 4281484083
0.067249849 0.10447869 0.30400002 4280693540
0.068237238 0.10447869 0.30400002 4280495393
0.068996914 0.10413501 0.303 4281285677
0.069981061 0.10413501 0.303 4281023018
0.070965201 0.10413501 0.303 4280825641
0.071949348 0.10413501 0.303 4281223989
0.072933495 0.10413501 0.303 4280699698
0.073673688 0.10379133 0.30200002 4280964403
0.074654587 0.10379133 0.30200002 4280307241
0.075635478 0.10379133 0.30200002 4279913766
0.076616377 0.10379133 0.30200002 4279716385
0.077597275 0.10379133 0.30200002 4279716385
0.078578167 0.10379133 0.30200002 4279782178
0.079559065 0.10379133 0.30200002 4279453213
0.080273278 0.10344766 0.30100003 4279453215
0.081250928 0.10344766 0.30100003 4279584801
0.082228571 0.10344766 0.30100003 4279912996
0.083206221 0.10344766 0.30100003 4280567848
0.084183872 0.10344766 0.30100003 4281419571
0.066262454 0.10546643 0.30400002 4282932297
0.067249849 0.10546643 0.30400002 4282340160
0.068237238 0.10546643 0.30400002 4281154093
0.069224633 0.10546643 0.30400002 4280693540
0.070212021 0.10546643 0.30400002 4280957225
0.070965201 0.10511949 0.303 4281023018
0.071949348 0.10511949 0.303 4280627749
0.072933495 0.10511949 0.303 4280761132
0.073917635 0.10511949 0.303 4281028145
0.074901782 0.10511949 0.303 4281029167
0.075635478 0.10477257 0.30200002 4280241961
0.076616377 0.10477257 0.30200002 4280110375
0.077597275 0.10477257 0.30200002 4279650594
0.078578167 0.10477257 0.30200002 4279716387
0.079559065 0.10477257 0.30200002 4279650592
0.080273278 0.10442565 0.30100003 4279453215
0.081250928 0.10442565 0.30100003 4279716387
0.082228571 0.10442565 0.30100003 4279519008
0.082929783 0.10407871 0.30000001 4279716387
0.083904184 0.10407871 0.30000001 4280109862
0.084595665 0.10373178 0.29900002 4280829485
0.084708281 0.10269099 0.296 4281682745
0.067471065 0.10680432 0.30500001 4283588943
0.068237238 0.10645415 0.30400002 4282734402
0.069224633 0.10645415 0.30400002 4281418288
0.070212021 0.10645415 0.30400002 4280825126
0.071199417 0.10645415 0.30400002 4281088298
0.071949348 0.10610396 0.303 4281154091
0.072933495 0.10610396 0.303 4280693540
0.073917635 0.10610396 0.303 4280365088
0.074901782 0.10610396 0.303 4281419312
0.075885922 0.10610396 0.303 4280700463
0.076870069 0.10610396 0.303 4280569645
0.077597275 0.10575379 0.30200002 4280636208
0.078578167 0.10575379 0.30200002 4279584803
0.079559065 0.10575379 0.30200002 4279519010
0.080273278 0.10540362 0.30100003 4279716389
0.081250928 0.10540362 0.30100003 4279585314
0.081955381 0.10505343 0.30000001 4279453728
0.082929783 0.10505343 0.30000001 4279190556
0.083624512 0.10470325 0.29900002 4279584801
0.084595665 0.10470325 0.29900002 4279847203
0.084708281 0.10365272 0.296 4280240426
0.085669689 0.10365272 0.296 4281156401
0.086631089 0.10365272 0.296 4283852633
0.067471065 0.1077953 0.30500001 4285297767
0.068461701 0.1077953 0.30500001 4284575838
0.069224633 0.10744188 0.30400002 4282208574
0.070212021 0.10744188 0.30400002 4282734918
0.071199417 0.10744188 0.30400002 4280562979
0.072186805 0.10744188 0.30400002 4281483058
0.073174201 0.10744188 0.30400002 4281614642
0.074161589 0.10744188 0.30400002 4281088296
0.074901782 0.10708845 0.303 4280561184
0.075885922 0.10708845 0.303 4281155116
0.076870069 0.10708845 0.303 4281225013
0.077597275 0.10673502 0.30200002 4280963635
0.078578167 0.10673502 0.30200002 4280306989
0.079295628 0.1063816 0.30100003 4280110893
0.080273278 0.1063816 0.30100003 4279453730
0.080980986 0.10602816 0.30000001 4279585314
0.081955381 0.10602816 0.30000001 4279519521
0.082653359 0.10567474 0.29900002 4279519521
0.083624512 0.10567474 0.29900002 4279387935
0.08431273 0.10532131 0.29800001 4279321629
0.084994465 0.10496788 0.29700002 4279650594
0.085959122 0.10496788 0.29700002 4280042787
0.086631089 0.10461445 0.296 4280501542
0.086704746 0.10355417 0.29300001 4282667845
0.069224633 0.1084296 0.30400002 4285233255
0.070212021 0.1084296 0.30400002 4283392330
0.071199417 0.1084296 0.30400002 4282406205
0.072186805 0.1084296 0.30400002 4280892716
0.073174201 0.1084296 0.30400002 4280628774
0.074161589 0.1084296 0.30400002 4280627747
0.075148985 0.1084296 0.30400002 4280561956
0.075885922 0.10807292 0.303 4280826153
0.076870069 0.10807292 0.303 4281421368
0.077854216 0.10807292 0.303 4281093940
0.078578167 0.10771625 0.30200002 4281029428
0.079295628 0.10735958 0.30100003 4280570161
0.080273278 0.10735958 0.30100003 4280373036
0.080980986 0.1070029 0.30000001 4279649826
0.081682198 0.10664622 0.29900002 4279584801
0.082653359 0.10664622 0.29900002 4279651105
0.083624512 0.10664622 0.29900002 4279650592
0.08431273 0.10628954 0.29800001 4279584031
0.084994465 0.10593287 0.29700002 4279649824
0.085959122 0.10593287 0.29700002 4279584031
0.086631089 0.10557619 0.296 4279846692
0.087592505 0.10557619 0.296 4280370215
0.087058067 0.10379281 0.29100001 4280499239
0.087700829 0.10343613 0.29000002 4283982422
0.071199417 0.10941733 0.30400002 4285232739
0.072186805 0.10941733 0.30400002 4281880376
0.073174201 0.10941733 0.30400002 4281418288
0.074161589 0.10941733 0.30400002 4280759844
0.075148985 0.10941733 0.30400002 4282010429
0.076136373 0.10941733 0.30400002 4281486647
0.076870069 0.1090574 0.303 4281158966
0.077854216 0.1090574 0.303 4281225013
0.078578167 0.10869748 0.30200002 4280501290
0.079295628 0.10833756 0.30100003 4280896559
0.080006585 0.10797763 0.30000001 4281160755
0.080980986 0.10797763 0.30000001 4280701231
0.081682198 0.10761771 0.29900002 4280241448
0.082653359 0.10761771 0.29900002 4279649309
0.083344825 0.10725778 0.29800001 4280110373
0.08431273 0.10725778 0.29800001 4279715619
0.084994465 0.10689785 0.29700002 4279847205
0.085959122 0.10689785 0.29700002 4279321631
0.086631089 0.10653792 0.296 4279255838
0.087592505 0.10653792 0.296 4279781412
0.087357245 0.10509823 0.29200003 4279780899
0.088003241 0.1047383 0.29100001 4280501288
0.088337079 0.10401845 0.289 4281486136
0.072424263 0.11076822 0.30500001 4285232739
0.073174201 0.11040506 0.30400002 4283720270
0.074161589 0.11040506 0.30400002 4281222446
0.075148985 0.11040506 0.30400002 4280960044
0.076136373 0.11040506 0.30400002 4280894764
0.076870069 0.11004187 0.303 4281421108
0.077854216 0.11004187 0.303 4281157421
0.078578167 0.1096787 0.30200002 4281091628
0.079295628 0.10931554 0.30100003 4280829483
0.080006585 0.10895235 0.30000001 4280829483
0.080980986 0.10895235 0.30000001 4281094192
0.081682198 0.10858919 0.29900002 4280963376
0.08237692 0.108226 0.29800001 4280832817
0.083344825 0.108226 0.29800001 4279978278
0.084029801 0.10786283 0.29700002 4279912996
0.084994465 0.10786283 0.29700002 4279716387
0.085669689 0.10749965 0.296 4279519521
0.086631089 0.10749965 0.296 4279453730
0.087296583 0.10713648 0.29500002 4279387937
0.087357245 0.10604696 0.29200003 4279453730
0.088003241 0.10568378 0.29100001 4279715619
0.088337079 0.10495743 0.289 4280043301
0.088966846 0.10459426 0.28800002 4280632106
0.089590102 0.10423108 0.287 4281420343
0.090522274 0.10423108 0.287 4281353017
0.063270457 0.096364476 0.30595437 4294967295
0.063270457 0.096364476 0.30595437 4294901760
0.063479364 0.095938332 0.30579701 4294901760
0.063688271 0.095512182 0.30563968 4294901760
0.063897178 0.095086038 0.30548233 4294901760
0.064106084 0.094659895 0.30532497 4294901760
0.064314991 0.094233744 0.30516765 4294901760
0.064523898 0.0938076 0.30501029 4294901760
0.064732805 0.093381457 0.30485296 4294901760
0.064941712 0.092955306 0.30469561 4294901760
0.065150619 0.092529163 0.30453825 4294901760
0.065359525 0.092103019 0.30438092 4294901760
0.065568432 0.091676868 0.30422357 4294901760
0.065777339 0.091250725 0.30406621 4294901760
0.065986246 0.090824582 0.30390888 4294901760
0.06619516 0.090398431 0.30375153 4294901760
0.066404067 0.089972287 0.3035942 4294901760
0.066612974 0.089546144 0.30343685 4294901760
0.066821881 0.089119993 0.30327949 4294901760
0.067030787 0.08869385 0.30312216 4294901760
0.067239694 0.088267706 0.30296481 4294901760
0.067448601 0.087841555 0.30280745 4294901760
0.067657508 0.087415412 0.30265012 4294901760
0.067866415 0.086989269 0.30249277 4294901760
0.068075322 0.086563118 0.30233544 4294901760
0.068284228 0.086136974 0.30217808 4294901760
0.068493135 0.085710831 0.30202073 4294901760
0.068702042 0.08528468 0.3018634 4294901760
0.068910949 0.084858537 0.30170605 4294901760
0.069119856 0.084432393 0.30154869 4294901760
0.069328763 0.08400625 0.30139136 4294901760
0.069537669 0.083580099 0.30123401 4294901760
0.069746576 0.083153956 0.30107665 4294901760
0.069955483 0.082727805 0.30091932 4294901760
0.07016439 0.082301661 0.30076197 4294901760
0.070373297 0.081875518 0.30060464 4294901760
0.070582204 0.081449375 0.30044729 4294901760
0.07079111 0.081023224 0.30028993 4294901760
0.071000025 0.08059708 0.3001326 4294901760
0.071208924 0.080170929 0.29997525 4294901760
0.071417838 0.079744786 0.29981789 4294901760
0.071626745 0.079318643 0.29966056 4294901760
0.071835652 0.078892499 0.29950321 4294901760
0.072044559 0.078466348 0.29934588 4294901760
0.072253466 0.078040205 0.29918852 4294901760
0.072462372 0.077614054 0.29903117 4294901760
0.072671279 0.077187911 0.29887384 4294901760
0.072880186 0.076761767 0.29871649 4294901760
0.073089093 0.076335624 0.29855913 4294901760
0.073298 0.075909473 0.2984018 4294901760
0.073506907 0.07548333 0.29824445 4294901760
0.073715813 0.075057179 0.29808712 4294901760
0.07392472 0.074631035 0.29792976 4294901760
0.074133627 0.074204892 0.29777241 4294901760
0.074342534 0.073778749 0.29761508 4294901760
0.074551441 0.073352598 0.29745772 4294901760
0.074760348 0.072926454 0.29730037 4294901760
0.074969254 0.072500303 0.29714304 4294901760
0.075178161 0.07207416 0.29698569 4294901760
0.075387068 0.071648017 0.29682833 4294901760
0.075595975 0.071221873 0.296671 4294901760
0.075804889 0.070795722 0.29651365 4294901760
0.076013789 0.070369579 0.29635632 4294901760
0.076222703 0.069943428 0.29619896 4294901760
0.076431602 0.069517285 0.29604161 4294901760
0.076640517 0.069091141 0.29588428 4294901760
0.076849416 0.068664998 0.29572693 4294901760
0.07705833 0.068238847 0.29556957 4294901760
0.077267237 0.067812704 0.29541224 4294901760
0.077476144 0.067386553 0.29525489 4294901760
0.077685051 0.066960409 0.29509756 4294901760
0.077893957 0.066534266 0.2949402 4294901760
0.078102864 0.066108122 0.29478285 4294901760
0.078311771 0.065681972 0.29462552 4294901760
0.078520678 0.065255828 0.29446816 4294901760
0.078729585 0.064829677 0.29431081 4294901760
0.078938492 0.064403534 0.29415348 4294901760
0.079147398 0.063977391 0.29399613 4294901760
0.079356305 0.063551247 0.2938388 4294901760
0.079565212 0.063125104 0.29368144 4294901760
0.079774119 0.062698953 0.29352409 4294901760
0.079983026 0.062272806 0.29336676 4294901760
0.080191933 0.061846662 0.2932094 4294901760
0.080400839 0.061420515 0.29305205 4294901760
0.080609746 0.060994368 0.29289472 4294901760
0.080818653 0.060568225 0.29273736 4294901760
0.081027567 0.060142078 0.29258001 4294901760
0.081236467 0.05971593 0.29242268 4294901760
0.081445381 0.059289787 0.29226533 4294901760
0.08165428 0.05886364 0.292108 4294901760
0.081863195 0.058437493 0.29195064 4294901760
0.082072094 0.058011349 0.29179329 4294901760
0.082281008 0.057585202 0.29163596 4294901760
0.082489915 0.057159055 0.2914786 4294901760
0.082698822 0.056732912 0.29132125 4294901760
0.082907729 0.056306764 0.29116392 4294901760
0.083116636 0.055880617 0.29100657 4294901760
0.083325543 0.055454474 0.29084924 4294901760
0.083534449 0.055028327 0.29069188 4294901760
0.083743356 0.05460218 0.29053453 4294901760
0.083952263 0.054176036 0.2903772 4294901760
0.08416117 0.053749889 0.29021984 4294901760
0.063270457 0.096364476 0.30595437 4278255360
0.063669227 0.096619457 0.30579323 4278255360
0.064068004 0.096874446 0.30563211 4278255360
0.064466774 0.097129427 0.30547097 4278255360
0.064865552 0.097384408 0.30530983 4278255360
0.065264322 0.097639389 0.30514869 4278255360
0.065663092 0.097894371 0.30498758 4278255360
0.066061869 0.098149359 0.30482644 4278255360
0.066460639 0.09840434 0.3046653 4278255360
0.066859417 0.098659322 0.30450419 4278255360
0.067258187 0.09891431 0.30434304 4278255360
0.067656964 0.099169292 0.3041819 4278255360
0.068055734 0.099424273 0.30402076 4278255360
0.068454504 0.099679254 0.30385965 4278255360
0.068853281 0.099934235 0.30369851 4278255360
0.069252051 0.10018922 0.30353737 4278255360
0.069650829 0.10044421 0.30337626 4278255360
0.070049599 0.10069919 0.30321512 4278255360
0.070448369 0.10095417 0.30305398 4278255360
0.070847146 0.10120916 0.30289286 4278255360
0.071245916 0.10146414 0.30273172 4278255360
0.071644694 0.10171912 0.30257058 4278255360
0.072043464 0.1019741 0.30240944 4278255360
0.072442234 0.10222909 0.30224833 4278255360
0.072841011 0.10248407 0.30208719 4278255360
0.073239781 0.10273905 0.30192605 4278255360
0.073638558 0.10299403 0.30176494 4278255360
0.074037328 0.10324902 0.30160379 4278255360
0.074436098 0.103504 0.30144265 4278255360
0.074834876 0.10375898 0.30128151 4278255360
0.075233646 0.10401397 0.3011204 4278255360
0.075632423 0.10426895 0.30095926 4278255360
0.076031193 0.10452393 0.30079812 4278255360
0.076429971 0.10477892 0.30063701 4278255360
0.076828741 0.1050339 0.30047587 4278255360
0.077227511 0.10528889 0.30031472 4278255360
0.077626288 0.10554387 0.30015358 4278255360
0.078025058 0.10579885 0.29999247 4278255360
0.078423828 0.10605383 0.29983133 4278255360
0.078822605 0.10630882 0.29967019 4278255360
0.079221383 0.1065638 0.29950908 4278255360
0.079620153 0.10681878 0.29934794 4278255360
0.080018923 0.10707377 0.2991868 4278255360
0.0804177 0.10732875 0.29902565 4278255360
0.08081647 0.10758373 0.29886454 4278255360
0.081215248 0.10783871 0.2987034 4278255360
0.081614017 0.10809369 0.29854226 4278255360
0.082012787 0.10834868 0.29838115 4278255360
0.082411557 0.10860366 0.29822001 4278255360
0.082810335 0.10885864 0.29805887 4278255360
0.083209112 0.10911363 0.29789776 4278255360
0.083607882 0.10936861 0.29773661 4278255360
0.084006652 0.1096236 0.29757547 4278255360
0.084405422 0.10987858 0.29741433 4278255360
0.0848042 0.11013357 0.29725322 4278255360
0.085202977 0.11038855 0.29709208 4278255360
0.085601747 0.11064353 0.29693094 4278255360
0.086000517 0.11089851 0.29676983 4278255360
0.086399294 0.1111535 0.29660869 4278255360
0.086798064 0.11140848 0.29644755 4278255360
0.087196842 0.11166346 0.2962864 4278255360
0.087595612 0.11191844 0.29612529 4278255360
0.087994382 0.11217342 0.29596415 4278255360
0.088393159 0.11242841 0.29580301 4278255360
0.088791929 0.11268339 0.2956419 4278255360
0.089190707 0.11293837 0.29548076 4278255360
0.089589477 0.11319336 0.29531962 4278255360
0.089988247 0.11344834 0.29515848 4278255360
0.090387024 0.11370333 0.29499736 4278255360
0.090785794 0.11395831 0.29483622 4278255360
0.091184571 0.11421329 0.29467508 4278255360
0.091583341 0.11446828 0.29451397 4278255360
0.091982119 0.11472326 0.29435283 4278255360
0.092380889 0.11497824 0.29419169 4278255360
0.092779666 0.11523323 0.29403055 4278255360
0.093178436 0.11548821 0.29386944 4278255360
0.093577206 0.11574319 0.29370829 4278255360
0.093975976 0.11599817 0.29354715 4278255360
0.094374754 0.11625315 0.29338604 4278255360
0.094773531 0.11650814 0.2932249 4278255360
0.095172301 0.11676312 0.29306376 4278255360
0.095571071 0.1170181 0.29290265 4278255360
0.095969841 0.11727309 0.29274151 4278255360
0.096368618 0.11752807 0.29258037 4278255360
0.096767396 0.11778305 0.29241922 4278255360
0.097166166 0.11803804 0.29225811 4278255360
0.097564936 0.11829302 0.29209697 4278255360
0.097963706 0.11854801 0.29193583 4278255360
0.098362483 0.11880299 0.29177472 4278255360
0.098761261 0.11905797 0.29161358 4278255360
0.09916003 0.11931296 0.29145244 4278255360
0.0995588 0.11956794 0.2912913 4278255360
0.099957578 0.11982292 0.29113019 4278255360
0.10035635 0.1200779 0.29096904 4278255360
0.10075513 0.12033288 0.2908079 4278255360
0.1011539 0.12058787 0.29064679 4278255360
0.10155267 0.12084285 0.29048565 4278255360
0.10195144 0.12109783 0.29032451 4278255360
0.10235022 0.12135282 0.29016337 4278255360
0.10274899 0.1216078 0.29000226 4278255360
0.10314776 0.12186278 0.28984112 4278255360
0.063270457 0.096364476 0.30595437 4278190335
0.063466281 0.096292689 0.30640879 4278190335
0.063662104 0.096220903 0.30686322 4278190335
0.063857935 0.096149117 0.30731764 4278190335
0.064053759 0.096077323 0.30777204 4278190335
0.064249583 0.096005537 0.30822647 4278190335
0.064445406 0.09593375 0.30868089 4278190335
0.06464123 0.095861964 0.30913532 4278190335
0.064837061 0.095790178 0.30958974 4278190335
0.065032884 0.095718391 0.31004417 4278190335
0.065228708 0.095646605 0.3104986 4278190335
0.065424532 0.095574811 0.31095302 4278190335
0.065620355 0.095503025 0.31140742 4278190335
0.065816179 0.095431238 0.31186184 4278190335
0.06601201 0.095359452 0.31231627 4278190335
0.066207834 0.095287666 0.31277069 4278190335
0.066403657 0.095215879 0.31322512 4278190335
0.066599481 0.095144093 0.31367955 4278190335
0.066795304 0.095072299 0.31413397 4278190335
0.066991135 0.095000513 0.3145884 4278190335
0.067186959 0.094928727 0.31504279 4278190335
0.067382783 0.09485694 0.31549722 4278190335
0.067578606 0.094785154 0.31595165 4278190335
0.06777443 0.094713368 0.31640607 4278190335
0.067970261 0.094641581 0.3168605 4278190335
0.068166085 0.094569787 0.31731492 4278190335
0.068361908 0.094498001 0.31776935 4278190335
0.068557732 0.094426215 0.31822377 4278190335
0.068753555 0.094354428 0.31867817 4278190335
0.068949386 0.094282642 0.3191326 4278190335
0.06914521 0.094210856 0.31958702 4278190335
0.069341034 0.094139069 0.32004145 4278190335
0.069536857 0.094067283 0.32049587 4278190335
0.069732681 0.093995489 0.3209503 4278190335
0.069928512 0.093923703 0.32140473 4278190335
0.070124336 0.093851916 0.32185912 4278190335
0.070320159 0.09378013 0.32231355 4278190335
0.070515983 0.093708344 0.32276797 4278190335
0.070711806 0.093636557 0.3232224 4278190335
0.07090763 0.093564771 0.32367682 4278190335
0.071103461 0.093492977 0.32413125 4278190335
0.071299285 0.093421191 0.32458568 4278190335
0.071495108 0.093349405 0.3250401 4278190335
0.071690932 0.093277618 0.3254945 4278190335
0.071886756 0.093205832 0.32594892 4278190335
0.072082579 0.093134046 0.32640335 4278190335
0.07227841 0.093062259 0.32685778 4278190335
0.072474234 0.092990465 0.3273122 4278190335
0.072670057 0.092918679 0.32776663 4278190335
0.072865881 0.092846893 0.32822105 4278190335
0.073061705 0.092775106 0.32867545 4278190335
0.073257536 0.09270332 0.32912987 4278190335
0.073453359 0.092631534 0.3295843 4278190335
0.073649183 0.092559747 0.33003873 4278190335
0.073845007 0.092487954 0.33049315 4278190335
0.07404083 0.092416167 0.33094758 4278190335
0.074236661 0.092344381 0.331402 4278190335
0.074432485 0.092272595 0.33185643 4278190335
0.074628308 0.092200808 0.33231083 4278190335
0.074824132 0.092129022 0.33276525 4278190335
0.075019956 0.092057236 0.33321968 4278190335
0.075215787 0.091985442 0.3336741 4278190335
0.07541161 0.091913655 0.33412853 4278190335
0.075607434 0.091841869 0.33458295 4278190335
0.075803258 0.091770083 0.33503738 4278190335
0.075999081 0.091698296 0.33549178 4278190335
0.076194912 0.09162651 0.3359462 4278190335
0.076390736 0.091554724 0.33640063 4278190335
0.076586559 0.091482937 0.33685505 4278190335
0.076782383 0.091411144 0.33730948 4278190335
0.076978207 0.091339357 0.33776391 4278190335
0.07717403 0.091267571 0.33821833 4278190335
0.077369861 0.091195785 0.33867276 4278190335
0.077565685 0.091123998 0.33912718 4278190335
0.077761509 0.091052212 0.33958158 4278190335
0.077957332 0.090980425 0.340036 4278190335
0.078153156 0.090908632 0.34049043 4278190335
0.078348987 0.090836845 0.34094486 4278190335
0.07854481 0.090765059 0.34139928 4278190335
0.078740634 0.090693273 0.34185371 4278190335
0.078936458 0.090621486 0.34230813 4278190335
0.079132289 0.0905497 0.34276253 4278190335
0.079328105 0.090477914 0.34321696 4278190335
0.079523936 0.09040612 0.34367138 4278190335
0.07971976 0.090334333 0.34412581 4278190335
0.079915583 0.090262547 0.34458023 4278190335
0.080111414 0.090190761 0.34503466 4278190335
0.08030723 0.090118974 0.34548908 4278190335
0.080503061 0.090047188 0.34594351 4278190335
0.080698885 0.089975402 0.34639791 4278190335
0.080894709 0.089903608 0.34685233 4278190335
0.081090532 0.089831822 0.34730676 4278190335
0.081286356 0.089760035 0.34776118 4278190335
0.081482187 0.089688249 0.34821561 4278190335
0.081678011 0.089616463 0.34867004 4278190335
0.081873834 0.089544676 0.34912446 4278190335
0.082069658 0.08947289 0.34957886 4278190335
0.082265481 0.089401096 0.35003328 4278190335
0.082461312 0.08932931 0.35048771 4278190335
0.082657136 0.089257523 0.35094213 4278190335
0.08285296 0.089185737 0.35139656 4278190335
0.063270457 0.096364476 0.30595437 4294967295
0.062095508 0.096795201 0.30322784 4294967295
0.060920559 0.097225927 0.30050132 4294967295
0.059745606 0.097656645 0.29777476 4294967295
0.058570657 0.09808737 0.29504824 4294967295
0.057395708 0.098518096 0.29232171 4294967295
0.056220755 0.098948821 0.28959519 4294967295
0.055045806 0.099379547 0.28686866 4294967295
0.053870857 0.099810272 0.28414214 4294967295
0.052695908 0.10024099 0.28141558 4294967295
0.051520955 0.10067172 0.27868906 4294967295
0.050346006 0.10110244 0.27596253 4294967295
0.049171057 0.10153317 0.27323601 4294967295
0.047996107 0.10196389 0.27050948 4294967295
0.046821155 0.10239462 0.26778293 4294967295
0.045646206 0.10282534 0.2650564 4294967295
0.044471256 0.10325606 0.26232988 4294967295
0.043296307 0.10368679 0.25960335 4294967295
0.042121354 0.10411751 0.25687683 4294967295
0.040946405 0.10454824 0.25415027 4294967295
0.039771453 0.10497896 0.25142375 4294967295
0.038596503 0.10540968 0.24869722 4294967295
0.037421554 0.10584041 0.2459707 4294967295
0.036246605 0.10627113 0.24324416 4294967295
0.035071656 0.10670186 0.24051763 4294967295
0.033896707 0.10713258 0.23779109 4294967295
0.032721758 0.1075633 0.23506457 4294967295
0.031546805 0.10799403 0.23233804 4294967295
0.030371856 0.10842475 0.22961152 4294967295
0.029196907 0.10885548 0.22688498 4294967295
0.028021954 0.1092862 0.22415844 4294967295
0.026847005 0.10971693 0.22143191 4294967295
0.025672056 0.11014766 0.21870539 4294967295
0.024497103 0.11057837 0.21597885 4294967295
0.023322154 0.1110091 0.21325232 4294967295
0.022147205 0.11143982 0.2105258 4294967295
0.020972252 0.11187055 0.20779926 4294967295
0.019797303 0.11230128 0.20507273 4294967295
0.018622354 0.11273199 0.20234621 4294967295
0.017447405 0.11316272 0.19961968 4294967295
0.016272452 0.11359344 0.19689313 4294967295
0.015097503 0.11402417 0.1941666 4294967295
0.013922554 0.1144549 0.19144008 4294967295
0.012747604 0.11488562 0.18871355 4294967295
0.011572655 0.11531635 0.18598703 4294967295
0.010397706 0.11574706 0.18326049 4294967295
0.0092227533 0.11617779 0.18053395 4294967295
0.0080478042 0.11660852 0.17780742 4294967295
0.0068728551 0.11703924 0.1750809 4294967295
0.0056979023 0.11746997 0.17235436 4294967295
0.0045229532 0.11790068 0.16962783 4294967295
0.0033480041 0.11833141 0.16690131 4294967295
0.002173055 0.11876214 0.16417478 4294967295
0.00099810585 0.11919286 0.16144824 4294967295
-0.00017684698 0.11962359 0.1587217 4294967295
-0.0013517961 0.12005431 0.15599518 4294967295
-0.0025267452 0.12048504 0.15326865 4294967295
-0.0037016943 0.12091576 0.15054211 4294967295
-0.0048766434 0.12134648 0.14781559 4294967295
-0.0060515925 0.12177721 0.14508906 4294967295
-0.0072265491 0.12220793 0.14236252 4294967295
-0.0084014982 0.12263866 0.139636 4294967295
-0.0095764473 0.12306938 0.13690946 4294967295
-0.010751396 0.1235001 0.13418293 4294967295
-0.011926346 0.12393083 0.1314564 4294967295
-0.013101295 0.12436155 0.12872988 4294967295
-0.014276251 0.12479228 0.12600332 4294967295
-0.0154512 0.125223 0.1232768 4294967295
-0.016626149 0.12565373 0.12055027 4294967295
-0.017801099 0.12608445 0.11782375 4294967295
-0.018976048 0.12651518 0.11509722 4294967295
-0.020150997 0.1269459 0.11237068 4294967295
-0.021325953 0.12737662 0.10964414 4294967295
-0.022500902 0.12780735 0.10691762 4294967295
-0.023675852 0.12823807 0.10419109 4294967295
-0.024850801 0.12866879 0.10146457 4294967295
-0.02602575 0.12909952 0.09873803 4294967295
-0.027200699 0.12953025 0.096011505 4294967295
-0.028375648 0.12996097 0.093284979 4294967295
-0.029550605 0.13039169 0.090558439 4294967295
-0.030725554 0.13082242 0.0878319 4294967295
-0.031900503 0.13125314 0.085105374 4294967295
-0.033075452 0.13168386 0.082378849 4294967295
-0.034250401 0.13211459 0.079652324 4294967295
-0.03542535 0.13254531 0.076925799 4294967295
-0.036600299 0.13297604 0.074199244 4294967295
-0.037775248 0.13340676 0.071472719 4294967295
-0.038950197 0.13383749 0.068746194 4294967295
-0.040125147 0.13426821 0.066019669 4294967295
-0.041300096 0.13469893 0.063293129 4294967295
-0.042475045 0.13512966 0.060566604 4294967295
-0.043650001 0.13556038 0.057840064 4294967295
-0.04482495 0.13599111 0.055113524 4294967295
-0.0459999 0.13642183 0.052386999 4294967295
-0.047174849 0.13685256 0.049660474 4294967295
-0.048349798 0.13728328 0.046933949 4294967295
-0.049524747 0.137714 0.044207424 4294967295
-0.050699703 0.13814473 0.041480869 4294967295
-0.051874653 0.13857545 0.038754344 4294967295
-0.053049602 0.13900617 0.036027819 4294967295
-0.054224551 0.1394369 0.033301294 4294967295
