# .PCD v0.7 - Point Cloud Data file format
VERSION 0.7
FIELDS x y z rgb
SIZE 4 4 4 4
TYPE F F F U
COUNT 1 1 1 1
WIDTH 953
HEIGHT 1
VIEWPOINT 0 0 0 1 0 0 0
POINTS 953
DATA ascii
-0.042412139 0.0087414617 0.39700001 4279523119
-0.041122679 0.0087414617 0.39700001 4280246842
-0.042412139 0.010031355 0.39700001 4279456810
-0.041122679 0.010031355 0.39700001 4279062822
-0.039933562 0.010056623 0.39800003 4279524398
-0.038737942 0.010081891 0.39900002 4279393582
-0.037535828 0.010107159 0.40000001 4279987518
-0.036236629 0.010107159 0.40000001 4283605365
-0.035024773 0.010132426 0.40100002 4280576836
-0.033722326 0.010132426 0.40100002 4280380227
-0.032419875 0.010132426 0.40100002 4280051262
-0.042412139 0.011321248 0.39700001 4279323428
-0.039933562 0.011349767 0.39800003 4278996255
-0.038737942 0.011378283 0.39900002 4279194918
-0.037535828 0.0114068 0.40000001 4278999335
-0.036236629 0.0114068 0.40000001 4278671654
-0.035024773 0.011435317 0.40100002 4279921207
-0.033722326 0.011435317 0.40100002 4279329586
-0.032419875 0.011435317 0.40100002 4279658551
-0.031195026 0.011463834 0.40200001 4279592758
-0.02988933 0.011463834 0.40200001 4279198000
-0.028583631 0.011463834 0.40200001 4279461170
-0.027345791 0.011492351 0.40300003 4279724342
-0.026036849 0.011492351 0.40300003 4279526963
-0.024727901 0.011492351 0.40300003 4279132205
-0.023360845 0.011463834 0.40200001 4279987000
-0.022055149 0.011463834 0.40200001 4279723312
-0.020749452 0.011463834 0.40200001 4279986484
-0.042412139 0.012611143 0.39700001 4279585314
-0.041226264 0.01264291 0.39800003 4279322910
-0.039933562 0.01264291 0.39800003 4279323937
-0.038737942 0.012674675 0.39900002 4279456293
-0.037535828 0.012706441 0.40000001 4279063845
-0.036236629 0.012706441 0.40000001 4278999076
-0.035024773 0.012738207 0.40100002 4278933796
-0.033722326 0.012738207 0.40100002 4278737187
-0.032419875 0.012738207 0.40100002 4279197998
-0.031195026 0.012769973 0.40200001 4279526963
-0.02988933 0.012769973 0.40200001 4278803240
-0.028654736 0.012801739 0.40300003 4278606115
-0.027345791 0.012801739 0.40300003 4278671908
-0.026036849 0.012801739 0.40300003 4278803494
-0.024727901 0.012801739 0.40300003 4279000873
-0.023418957 0.012801739 0.40300003 4279066666
-0.022055149 0.012769973 0.40200001 4279000359
-0.020749452 0.012769973 0.40200001 4279000359
-0.042412139 0.013901036 0.39700001 4279454498
-0.041226264 0.013936052 0.39800003 4278928152
-0.039933562 0.013936052 0.39800003 4278731800
-0.038737942 0.013971067 0.39900002 4279522086
-0.037535828 0.014006081 0.40000001 4278931746
-0.036236629 0.014006081 0.40000001 4279063845
-0.035024773 0.014041097 0.40100002 4279064869
-0.033722326 0.014041097 0.40100002 4279131175
-0.032500722 0.014076112 0.40200001 4279262761
-0.031195026 0.014076112 0.40200001 4279131175
-0.029963681 0.014111128 0.40300003 4278802980
-0.028654736 0.014111128 0.40300003 4278802980
-0.027345791 0.014111128 0.40300003 4278802210
-0.026101455 0.014146143 0.40400001 4278999589
-0.024789261 0.014146143 0.40400001 4279196455
-0.023477068 0.014146143 0.40400001 4278867490
-0.022055149 0.014076112 0.40200001 4278868003
-0.020749452 0.014076112 0.40200001 4278737187
-0.042412139 0.015190929 0.39700001 4279454500
-0.041226264 0.015229194 0.39800003 4279322912
-0.040033896 0.015267458 0.39900002 4279323939
-0.038737942 0.015267458 0.39900002 4279390502
-0.037535828 0.015305722 0.40000001 4279193636
-0.036236629 0.015305722 0.40000001 4279391783
-0.034937426 0.015305722 0.40000001 4279195431
-0.033722326 0.015343987 0.40100002 4279130408
-0.032500722 0.015382251 0.40200001 4279327787
-0.031195026 0.015382251 0.40200001 4279130408
-0.029963681 0.015420516 0.40300003 4278867749
-0.028654736 0.015420516 0.40300003 4278867749
-0.027413648 0.015458779 0.40400001 4279065128
-0.026101455 0.015458779 0.40400001 4278339611
-0.024850622 0.015497045 0.40500003 4278797597
-0.023535181 0.015497045 0.40500003 4279457060
-0.022384331 0.015611837 0.40800002 4278933283
-0.02111076 0.015650101 0.40900001 4278933283
-0.013525696 0.016109273 0.42100003 4279064869
-0.01081651 0.016147537 0.42200002 4278933796
-0.009468236 0.016185801 0.42300001 4278474015
-0.0080943312 0.016185801 0.42300001 4278737187
-0.042412139 0.016480822 0.39700001 4279453728
-0.041226264 0.016522337 0.39800003 4279519521
-0.040033896 0.01656385 0.39900002 4279192353
-0.038737942 0.01656385 0.39900002 4279258916
-0.037441991 0.01656385 0.39900002 4279588394
-0.036236629 0.016605362 0.40000001 4279194404
-0.034937426 0.016605362 0.40000001 4279195431
-0.033722326 0.016646877 0.40100002 4279327017
-0.032500722 0.01668839 0.40200001 4279524396
-0.031195026 0.01668839 0.40200001 4279063845
-0.029963681 0.016729904 0.40300003 4278801956
-0.028725838 0.016771417 0.40400001 4278867749
-0.027413648 0.016771417 0.40400001 4278999335
-0.026166065 0.01681293 0.40500003 4278865955
-0.024911981 0.016854443 0.40600002 4278271251
-0.023593292 0.016854443 0.40600002 4279456293
-0.022384331 0.01693747 0.40800002 4279456806
-0.02111076 0.016978983 0.40900001 4279523369
-0.01622189 0.017435631 0.42000002 4279523883
-0.014893104 0.017477145 0.42100003 4278800160
-0.013525696 0.017477145 0.42100003 4278800673
-0.012187166 0.017518658 0.42200002 4278735650
-0.01081651 0.017518658 0.42200002 4278669857
-0.009468236 0.017560171 0.42300001 4278867236
-0.0080943312 0.017560171 0.42300001 4278735904
-0.042518973 0.01781548 0.39800003 4279519521
-0.041226264 0.01781548 0.39800003 4279585312
-0.040033896 0.017860241 0.39900002 4279126045
-0.038737942 0.017860241 0.39900002 4279127328
-0.037441991 0.017860241 0.39900002 4279325220
-0.036236629 0.017905002 0.40000001 4279391783
-0.034937426 0.017905002 0.40000001 4279327017
-0.033722326 0.017949766 0.40100002 4279524396
-0.032500722 0.017994529 0.40200001 4279590189
-0.031195026 0.017994529 0.40200001 4279063845
-0.029963681 0.018039292 0.40300003 4278867238
-0.028725838 0.018084053 0.40400001 4278604579
-0.027481504 0.018128816 0.40500003 4279130410
-0.026230671 0.018173579 0.40600002 4278206229
-0.024911981 0.018173579 0.40600002 4280178735
-0.023651402 0.01821834 0.40700001 4279850281
-0.022439193 0.018307867 0.40900001 4278462990
-0.021162378 0.01835263 0.41000003 4278527248
-0.020024167 0.01853168 0.41400003 4278658066
-0.018769732 0.018621203 0.41600001 4278592019
-0.017502308 0.018710729 0.41800001 4278197770
-0.01622189 0.018800253 0.42000002 4278593556
-0.014857729 0.018800253 0.42000002 4278197767
-0.013525696 0.018845016 0.42100003 4280177199
-0.012187166 0.018889779 0.42200002 4278201095
-0.010842141 0.01893454 0.42300001 4278200069
-0.009468236 0.01893454 0.42300001 4278203156
-0.0081134671 0.018979304 0.42400002 4278401306
-0.0067522014 0.019024067 0.42500001 4278336281
-0.005384441 0.01906883 0.42600003 4279257894
-0.0040101837 0.019113591 0.42700002 4279127845
-0.0026294305 0.019158354 0.42800003 4279851568
-0.0012334945 0.01906883 0.42600003 4279588396
0.0074500251 0.020098368 0.44900003 4278539554
0.008908378 0.020098368 0.44900003 4278934314
-0.042518973 0.019108623 0.39800003 4279322914
-0.04132985 0.019156635 0.39900002 4279257633
-0.040033896 0.019156635 0.39900002 4279389730
-0.038737942 0.019156635 0.39900002 4279325220
-0.037535828 0.019204644 0.40000001 4279260197
-0.036236629 0.019204644 0.40000001 4279325990
-0.034937426 0.019204644 0.40000001 4279129638
-0.033722326 0.019252658 0.40100002 4279327017
-0.032500722 0.019300669 0.40200001 4279458603
-0.031195026 0.019300669 0.40200001 4279261224
-0.029963681 0.019348681 0.40300003 4279195431
-0.028725838 0.019396693 0.40400001 4279195431
-0.027481504 0.019444704 0.40500003 4279194918
-0.026230671 0.019492716 0.40600002 4278336531
-0.024973338 0.019540727 0.40700001 4280441393
-0.023709515 0.019588739 0.40800002 4278203917
-0.022494059 0.019684762 0.41000003 4278789138
-0.021213992 0.019732773 0.41100001 4278919187
-0.020024167 0.01987681 0.41400003 4279116055
-0.018769732 0.019972831 0.41600001 4279313432
-0.017502308 0.020068854 0.41800001 4279313432
-0.016183266 0.020116867 0.41900003 4279050260
-0.014893104 0.020212891 0.42100003 4278854677
-0.013525696 0.020212891 0.42100003 4280175918
-0.012187166 0.020260902 0.42200002 4279390250
-0.010842141 0.020308912 0.42300001 4279456043
-0.0094906203 0.020356925 0.42400002 4279981617
-0.0081326021 0.020404935 0.42500001 4280112690
-0.0067680893 0.020452948 0.42600003 4280375862
-0.0053970804 0.02050096 0.42700002 4280112690
-0.0040195752 0.020548971 0.42800003 4280704313
-0.0026355737 0.020596983 0.42900002 4280177969
-0.00123639 0.02050096 0.42700002 4279650857
0.00015579387 0.021221135 0.44200003 4278663962
0.0015950111 0.021269144 0.44300002 4278202640
0.0030407244 0.021317158 0.44400004 4278201355
0.0045030299 0.021413179 0.44600001 4278200070
0.0059649837 0.021461193 0.44700003 4279258146
0.0074334322 0.021509202 0.44800001 4278998822
0.008908378 0.021557216 0.44900003 4279130410
0.010366731 0.021557216 0.44900003 4279391535
-0.043811675 0.020401767 0.39800003 4279584810
-0.042625804 0.020453027 0.39900002 4279125797
-0.04132985 0.020453027 0.39900002 4279192355
-0.040033896 0.020453027 0.39900002 4279456808
-0.03883503 0.020504287 0.40000001 4279193636
-0.037535828 0.020504287 0.40000001 4279129127
-0.036236629 0.020504287 0.40000001 4279326504
-0.035024773 0.020555547 0.40100002 4278998822
-0.033722326 0.020555547 0.40100002 4279130408
-0.032500722 0.020606807 0.40200001 4278998822
-0.031272627 0.020658068 0.40300003 4279195431
-0.029963681 0.020658068 0.40300003 4279129638
-0.028725838 0.020709328 0.40400001 4279063845
-0.027481504 0.02076059 0.40500003 4279325990
-0.026230671 0.02081185 0.40600002 4278200833
-0.024973338 0.02086311 0.40700001 4279521318
-0.023767626 0.020965632 0.40900001 4278201606
-0.022494059 0.021016894 0.41000003 4281093175
-0.021265609 0.021119416 0.41200003 4280500266
-0.020024167 0.021221938 0.41400003 4279908129
-0.018769732 0.021324458 0.41600001 4280829231
-0.017502308 0.021426979 0.41800001 4280368682
-0.016183266 0.021478241 0.41900003 4280369454
-0.014893104 0.021580761 0.42100003 4278197510
-0.013557822 0.021632021 0.42200002 4279914029
-0.012216046 0.021683281 0.42300001 4279258918
-0.010867773 0.021734543 0.42400002 4278200835
-0.0095130038 0.021785803 0.42500001 4279653676
-0.008151738 0.021837065 0.42600003 4278206230
-0.0067839767 0.021888325 0.42700002 4279390504
-0.0054097199 0.021939587 0.42800003 4278205715
-0.0040383581 0.022042107 0.43000001 4279456808
-0.0026540044 0.022144629 0.43200001 4279456808
-0.0012653453 0.022400932 0.43700001 4279325222
0.00015544138 0.022605976 0.44100001 4279391015
0.0015950111 0.022708498 0.44300002 4279391015
0.0030407244 0.022759758 0.44400004 4279391017
0.0045030299 0.022862278 0.44600001 4280442168
0.0059649837 0.02291354 0.44700003 4279717672
0.0074334322 0.0229648 0.44800001 4279129638
0.008908378 0.023016062 0.44900003 4278800673
0.010366731 0.023016062 0.44900003 4279456558
-0.045104381 0.021694908 0.39800003 4279649320
-0.043921754 0.021749416 0.39900002 4279650090
-0.042625804 0.021749416 0.39900002 4279585832
-0.04132985 0.021749416 0.39900002 4279388707
-0.040134232 0.021803927 0.40000001 4279126562
-0.03883503 0.021803927 0.40000001 4279851568
-0.037535828 0.021803927 0.40000001 4279063845
-0.036236629 0.021803927 0.40000001 4278998052
-0.035024773 0.021858437 0.40100002 4279130408
-0.033722326 0.021858437 0.40100002 4279130408
-0.032500722 0.021912945 0.40200001 4279655982
-0.031272627 0.021967458 0.40300003 4279063845
-0.030038033 0.022021966 0.40400001 4279129638
-0.028796943 0.022076476 0.40500003 4279129638
-0.027549358 0.022130987 0.40600002 4279719465
-0.026295278 0.022185495 0.40700001 4278200064
-0.0250347 0.022240005 0.40800002 4279323941
-0.023767626 0.022294514 0.40900001 4278199557
-0.022548921 0.022403535 0.41100001 4279384092
-0.021265609 0.022458045 0.41200003 4278462990
-0.020024167 0.022567065 0.41400003 4278196736
-0.018769732 0.022676084 0.41600001 4281092403
-0.017502308 0.022785103 0.41800001 4278197510
-0.01622189 0.022894124 0.42000002 4279252252
-0.014893104 0.022948634 0.42100003 4278198280
-0.013557822 0.023003142 0.42200002 4280046383
-0.012216046 0.023057653 0.42300001 4278198786
-0.010867773 0.023112163 0.42400002 4278199307
-0.0095130038 0.023166671 0.42500001 4278466835
-0.0081708739 0.023275692 0.42700002 4279388707
-0.0067998646 0.023330202 0.42800003 4278797084
-0.0054223593 0.023384711 0.42900002 4279915565
-0.00404775 0.023493731 0.43100002 4278469402
-0.0026601481 0.023602752 0.43300003 4278203917
-0.0012653453 0.02382079 0.43700001 4278272021
0.00015544138 0.024038829 0.44100001 4278201859
0.0015950111 0.02414785 0.44300002 4279126562
0.0030407244 0.02420236 0.44400004 4279654189
0.0045030299 0.024311379 0.44600001 4280048434
0.0059649837 0.024365889 0.44700003 4279389734
0.0074334322 0.024420397 0.44800001 4279063334
0.008908378 0.024474908 0.44900003 4279195433
0.010366731 0.024474908 0.44900003 4279456043
-0.045217704 0.023045808 0.39900002 4279715367
-0.043921754 0.023045808 0.39900002 4279716137
-0.042625804 0.023045808 0.39900002 4279454498
-0.041433431 0.023103567 0.40000001 4279455012
-0.040134232 0.023103567 0.40000001 4279389732
-0.03883503 0.023103567 0.40000001 4279456295
-0.037629671 0.023161327 0.40100002 4279326758
-0.036327224 0.023161327 0.40100002 4279195685
-0.035024773 0.023161327 0.40100002 4279196201
-0.033806417 0.023219084 0.40200001 4279196201
-0.032581568 0.023276845 0.40300003 4278867236
-0.031272627 0.023276845 0.40300003 4278998822
-0.030038033 0.023334604 0.40400001 4278867236
-0.028796943 0.023392363 0.40500003 4278998822
-0.027549358 0.023450121 0.40600002 4279258146
-0.026295278 0.02350788 0.40700001 4278201867
-0.0250347 0.023565639 0.40800002 4280244276
-0.023767626 0.023623398 0.40900001 4278332947
-0.022548921 0.023738915 0.41100001 4278920984
-0.021317223 0.023854433 0.41300002 4278460685
-0.020072535 0.023969952 0.41500002 4278854927
-0.018769732 0.024027709 0.41600001 4279117586
-0.017502308 0.024143228 0.41800001 4279053592
-0.01622189 0.024258746 0.42000002 4279909666
-0.014893104 0.024316506 0.42100003 4278198277
-0.013557822 0.024374263 0.42200002 4280375348
-0.012244926 0.024489783 0.42400002 4278658834
-0.010893404 0.02454754 0.42500001 4279184408
-0.0095353872 0.0246053 0.42600003 4279321377
-0.0081708739 0.024663059 0.42700002 4278796570
-0.0068157515 0.024778577 0.42900002 4278203148
-0.0054349988 0.024836333 0.43000001 4278731804
-0.004057141 0.024951853 0.43200001 4279060517
-0.002672435 0.025125131 0.43500003 4278401560
-0.0012682409 0.025298407 0.43800002 4278202121
0.00015544138 0.025471684 0.44100001 4279914281
0.0015950111 0.025587201 0.44300002 4279124511
0.0030475727 0.025702719 0.44500002 4279718186
0.0045030299 0.025760477 0.44600001 4278863390
0.0059649837 0.025818236 0.44700003 4279784492
0.0074334322 0.025875995 0.44800001 4278931748
0.008908378 0.025933756 0.44900003 4279326506
0.010366731 0.025933756 0.44900003 4278731550
-0.045217704 0.0243422 0.39900002 4280110123
-0.044031832 0.024403207 0.40000001 4279585316
-0.042732634 0.024403207 0.40000001 4279520291
-0.041433431 0.024403207 0.40000001 4279455012
-0.040234569 0.024464216 0.40100002 4279456295
-0.038932119 0.024464216 0.40100002 4279522086
-0.037629671 0.024464216 0.40100002 4279523623
-0.036327224 0.024464216 0.40100002 4279326758
-0.035112113 0.024525223 0.40200001 4279196201
-0.033806417 0.024525223 0.40200001 4279130408
-0.032581568 0.024586232 0.40300003 4278867236
-0.031350225 0.02464724 0.40400001 4278933029
-0.030112386 0.024708249 0.40500003 4279064615
-0.028796943 0.024708249 0.40500003 4278933029
-0.027549358 0.024769256 0.40600002 4279850285
-0.026295278 0.024830263 0.40700001 4279585064
-0.0250347 0.024891272 0.40800002 4280244278
-0.023825739 0.025013288 0.41000003 4278200593
-0.022548921 0.025074296 0.41100001 4279248154
-0.021317223 0.025196312 0.41300002 4279050522
-0.020072535 0.025318328 0.41500002 4279050260
-0.018814852 0.025440345 0.41700003 4279116053
-0.017502308 0.025501352 0.41800001 4279181846
-0.01622189 0.025623368 0.42000002 4279116053
-0.014893104 0.025684377 0.42100003 4280241198
-0.013557822 0.025745384 0.42200002 4279717932
-0.012244926 0.025867401 0.42400002 4278529556
-0.010893404 0.025928408 0.42500001 4280502832
-0.0095353872 0.025989417 0.42600003 4280244278
-0.0081900097 0.026111433 0.42800003 4279323428
-0.0068157515 0.02617244 0.42900002 4279784490
-0.0054476387 0.026294457 0.43100002 4279389732
-0.0040665329 0.026416473 0.43300003 4279850283
-0.0026785785 0.026599497 0.43600002 4280245043
-0.0012711363 0.02678252 0.43900001 4279850285
0.00015544138 0.026904536 0.44100001 4279718699
0.0015950111 0.027026553 0.44300002 4279191842
0.0030475727 0.027148569 0.44500002 4279521320
0.0045030299 0.027209576 0.44600001 4278202376
0.0059783277 0.027331593 0.44800001 4279587881
0.0074334322 0.027331593 0.44800001 4279457578
0.008908378 0.027392602 0.44900003 4279260713
-0.045331031 0.025702849 0.40000001 4279913516
-0.044031832 0.025702849 0.40000001 4279848488
-0.042732634 0.025702849 0.40000001 4279454498
-0.041433431 0.025702849 0.40000001 4279586598
-0.040234569 0.025767108 0.40100002 4279719467
-0.038932119 0.025767108 0.40100002 4279588392
-0.037723508 0.025831364 0.40200001 4279457576
-0.036417812 0.025831364 0.40200001 4279327017
-0.035112113 0.025831364 0.40200001 4279064615
-0.033890516 0.025895622 0.40300003 4278998824
-0.032581568 0.025895622 0.40300003 4278735650
-0.031350225 0.025959879 0.40400001 4279064615
-0.030112386 0.026024137 0.40500003 4278933029
-0.028868046 0.026088392 0.40600002 4279195431
-0.027549358 0.026088392 0.40600002 4278731291
-0.026295278 0.02615265 0.40700001 4278664984
-0.0250347 0.026216907 0.40800002 4279456556
-0.023825739 0.026345422 0.41000003 4279587631
-0.022548921 0.026409678 0.41100001 4279583527
-0.021317223 0.026538193 0.41300002 4279779625
-0.020072535 0.026666706 0.41500002 4279318560
-0.018814852 0.026795221 0.41700003 4279318047
-0.017502308 0.026859477 0.41800001 4279383070
-0.01622189 0.026987992 0.42000002 4279119385
-0.014893104 0.027052252 0.42100003 4280438323
-0.01358995 0.027180763 0.42300001 4278198020
-0.012244926 0.027245022 0.42400002 4278198534
-0.010893404 0.027309278 0.42500001 4278197764
-0.0095353872 0.027373536 0.42600003 4278198534
-0.0081900097 0.027502051 0.42800003 4278196992
-0.006831639 0.027630564 0.43000001 4278198787
-0.0054476387 0.027694821 0.43100002 4278199815
-0.0040759244 0.027887592 0.43400002 4278200843
-0.0026785785 0.028016107 0.43600002 4278202384
-0.0012711363 0.028208878 0.43900001 4278268691
0.00015579387 0.02840165 0.44200003 4278334484
0.0015986116 0.028530166 0.44400004 4278664732
0.0030544212 0.028658677 0.44600001 4279520041
0.0045131263 0.028722936 0.44700003 4278270999
0.0059783277 0.028787192 0.44800001 4279588394
0.0074500251 0.028851449 0.44900003 4279194920
0.008908378 0.028851449 0.44900003 4279326506
-0.045331031 0.027002489 0.40000001 4280044332
-0.044031832 0.027002489 0.40000001 4280044330
-0.042732634 0.027002489 0.40000001 4279585314
-0.041537017 0.027069997 0.40100002 4279849254
-0.040234569 0.027069997 0.40100002 4279587879
-0.038932119 0.027069997 0.40100002 4279391013
-0.037723508 0.027137503 0.40200001 4279326504
-0.036417812 0.027137503 0.40200001 4279655982
-0.03519946 0.027205011 0.40300003 4279854131
-0.033890516 0.027205011 0.40300003 4279196201
-0.032662418 0.027272515 0.40400001 4279525166
-0.031350225 0.027272515 0.40400001 4278998822
-0.030112386 0.027340023 0.40500003 4279195431
-0.028868046 0.027407529 0.40600002 4279129125
-0.027617212 0.027475033 0.40700001 4278535195
-0.026295278 0.027475033 0.40700001 4280112944
-0.0250347 0.027542541 0.40800002 4279260201
-0.023825739 0.027677553 0.41000003 4279325994
-0.022548921 0.027745059 0.41100001 4279391785
-0.021317223 0.027880071 0.41300002 4279457578
-0.020072535 0.028015085 0.41500002 4279522603
-0.018814852 0.028150097 0.41700003 4279391017
-0.017502308 0.028217603 0.41800001 4279391017
-0.01622189 0.028352614 0.42000002 4279522603
-0.014893104 0.028420122 0.42100003 4279456810
-0.01358995 0.028555132 0.42300001 4279456810
-0.012244926 0.02862264 0.42400002 4279456810
-0.010893404 0.028690146 0.42500001 4279456043
-0.0095353872 0.028757654 0.42600003 4279652652
-0.0081900097 0.028892666 0.42800003 4279587629
-0.006831639 0.029027676 0.43000001 4279521836
-0.0054476387 0.029095184 0.43100002 4279390250
-0.0040759244 0.029297702 0.43400002 4279258664
-0.002684722 0.02950022 0.43700001 4279982387
-0.0012740319 0.02970274 0.44000003 4280178996
0.00015579387 0.029837754 0.44200003 4279586346
0.0015986116 0.029972766 0.44400004 4280178483
0.0030612696 0.030175284 0.44700003 4280243762
0.0045232228 0.03024279 0.44800001 4279522088
0.0059916726 0.030310297 0.44900003 4279522601
0.0074500251 0.030310297 0.44900003 4279194920
0.008908378 0.030310297 0.44900003 4279127845
-0.042732634 0.028302131 0.40000001 4280110125
-0.041537017 0.028372888 0.40100002 4280440373
-0.040234569 0.028372888 0.40100002 4280047151
-0.039029203 0.028443642 0.40200001 4279981871
-0.037723508 0.028443642 0.40200001 4279456808
-0.036417812 0.028443642 0.40200001 4279523371
-0.03519946 0.028514398 0.40300003 4279655984
-0.033890516 0.028514398 0.40300003 4279196203
-0.032662418 0.028585153 0.40400001 4279196203
-0.031427827 0.028655909 0.40500003 4279261226
-0.030112386 0.028655909 0.40500003 4279195433
-0.028868046 0.028726663 0.40600002 4279327021
-0.027617212 0.028797418 0.40700001 4279458353
-0.026295278 0.028797418 0.40700001 4279326508
-0.0250347 0.028868174 0.40800002 4279392301
-0.023825739 0.029009685 0.41000003 4279392299
-0.022548921 0.029080439 0.41100001 4279326506
-0.021317223 0.02922195 0.41300002 4279589678
-0.020072535 0.029363461 0.41500002 4279260713
-0.018814852 0.029504972 0.41700003 4279326506
-0.017502308 0.029575726 0.41800001 4279326508
-0.01622189 0.029717239 0.42000002 4279326508
-0.014893104 0.029787995 0.42100003 4279129129
-0.013557822 0.029858749 0.42200002 4279260713
-0.012244926 0.03000026 0.42400002 4279260713
-0.010893404 0.030071015 0.42500001 4279129129
-0.0095353872 0.030141771 0.42600003 4279194408
-0.0081900097 0.030283282 0.42800003 4279260201
-0.0068157515 0.030354036 0.42900002 4279129129
-0.0054476387 0.030495547 0.43100002 4279194922
-0.0040759244 0.030707812 0.43400002 4279063336
-0.002684722 0.030920077 0.43700001 4279129129
-0.0012740319 0.031132344 0.44000003 4279129129
0.00015614633 0.031344611 0.44300002 4279523373
0.0016022121 0.03148612 0.44500002 4279588396
0.0030681181 0.031698387 0.44800001 4279983154
0.0045232228 0.031698387 0.44800001 4279456808
0.0059916726 0.031769142 0.44900003 4279588394
0.007466617 0.031839896 0.45000002 4279653935
0.0089282179 0.031839896 0.45000002 4283466086
-0.039029203 0.029749781 0.40200001 4280702008
-0.037723508 0.029749781 0.40200001 4280769338
-0.036508407 0.029823786 0.40300003 4280638520
-0.03519946 0.029823786 0.40300003 4280179250
-0.03397461 0.029897789 0.40400001 4280048434
-0.032662418 0.029897789 0.40400001 4279983154
-0.031427827 0.029971795 0.40500003 4279653935
-0.030112386 0.029971795 0.40500003 4279851314
-0.028868046 0.030045798 0.40600002 4279391533
-0.027617212 0.030119803 0.40700001 4279982900
-0.026295278 0.030119803 0.40700001 4279127591
-0.0250347 0.030193808 0.40800002 4279588142
-0.023825739 0.030341817 0.41000003 4279193384
-0.022548921 0.03041582 0.41100001 4279194154
-0.021317223 0.030563829 0.41300002 4279194154
-0.020072535 0.030711839 0.41500002 4279457580
-0.018814852 0.030859848 0.41700003 4279654959
-0.017502308 0.030933851 0.41800001 4279193638
-0.01622189 0.031081861 0.42000002 4279720752
-0.014893104 0.031155866 0.42100003 4279523373
-0.013557822 0.03122987 0.42200002 4279391787
-0.012244926 0.031377878 0.42400002 4279786545
-0.010893404 0.031451881 0.42500001 4279523373
-0.0095353872 0.031525888 0.42600003 4279523119
-0.0081900097 0.031673897 0.42800003 4279654705
-0.0068157515 0.0317479 0.42900002 4279391533
-0.0054476387 0.031895909 0.43100002 4279194668
-0.0040759244 0.032117922 0.43400002 4279326256
-0.002684722 0.032339934 0.43700001 4279523121
-0.0012740319 0.03256195 0.44000003 4279522351
0.00015614633 0.032783963 0.44300002 4279587890
0.0016022121 0.032931972 0.44500002 4279521586
0.0030818151 0.033301994 0.45000002 4279126830
0.0045232228 0.033153985 0.44800001 4279060013
0.0060050171 0.033301994 0.45000002 4279979318
0.007466617 0.033301994 0.45000002 4284910967
-0.036508407 0.031133173 0.40300003 4285765511
-0.03519946 0.031133173 0.40300003 4285764989
-0.03397461 0.031210426 0.40400001 4284844657
-0.032662418 0.031210426 0.40400001 4284384108
-0.031427827 0.031287681 0.40500003 4283791973
-0.030112386 0.031287681 0.40500003 4282806105
-0.028868046 0.031364933 0.40600002 4282280531
-0.027617212 0.031442188 0.40700001 4282017359
-0.026359886 0.031519443 0.40800002 4281688394
-0.0250347 0.031519443 0.40800002 4281096770
-0.023825739 0.031673949 0.41000003 4281030977
-0.022548921 0.031751201 0.41100001 4280702012
-0.021317223 0.031905707 0.41300002 4280702010
-0.020072535 0.032060217 0.41500002 4280702780
-0.018769732 0.032137468 0.41600001 4280636987
-0.017502308 0.032291975 0.41800001 4280636987
-0.01622189 0.032446481 0.42000002 4280702780
-0.014893104 0.032523736 0.42100003 4280044850
-0.013557822 0.032600991 0.42200002 4280374328
-0.012244926 0.032755498 0.42400002 4280374328
-0.010893404 0.032832749 0.42500001 4280176949
-0.0095353872 0.032910004 0.42600003 4280571707
-0.0081708739 0.032987259 0.42700002 4280702780
-0.0068157515 0.033141766 0.42900002 4281688653
-0.0054349988 0.033219017 0.43000001 4282675289
-0.0040759244 0.033528034 0.43400002 4283925356
-0.002684722 0.033759791 0.43700001 4285240444
-0.0012740319 0.033991553 0.44000003 4286292620
0.003095512 0.034918595 0.45200002 4286752917
0.0045737051 0.03499585 0.45300001 4286226573
0.0060183615 0.034841344 0.45100003 4286620048
-0.020607689 0.023092808 0.4156878 4294967295
-0.020607689 0.023092808 0.4156878 4294901760
-0.020480515 0.022610199 0.41565755 4294901760
-0.020353341 0.022127587 0.41562733 4294901760
-0.020226168 0.021644978 0.41559708 4294901760
-0.020098994 0.021162368 0.41556683 4294901760
-0.01997182 0.020679759 0.41553661 4294901760
-0.019844647 0.020197149 0.41550636 4294901760
-0.019717474 0.019714538 0.41547611 4294901760
-0.0195903 0.019231929 0.41544586 4294901760
-0.019463126 0.018749319 0.41541564 4294901760
-0.019335952 0.018266708 0.4153854 4294901760
-0.019208778 0.017784098 0.41535515 4294901760
-0.019081604 0.017301489 0.41532493 4294901760
-0.01895443 0.016818879 0.41529468 4294901760
-0.018827256 0.016336268 0.41526443 4294901760
-0.018700082 0.015853658 0.41523421 4294901760
-0.018572908 0.015371049 0.41520396 4294901760
-0.018445734 0.014888438 0.41517371 4294901760
-0.01831856 0.014405828 0.41514349 4294901760
-0.018191386 0.013923218 0.41511324 4294901760
-0.018064214 0.013440608 0.41508299 4294901760
-0.01793704 0.012957999 0.41505277 4294901760
-0.017809866 0.012475389 0.41502252 4294901760
-0.017682692 0.011992779 0.41499227 4294901760
-0.017555518 0.011510169 0.41496202 4294901760
-0.017428344 0.011027559 0.4149318 4294901760
-0.01730117 0.010544949 0.41490155 4294901760
-0.017173996 0.010062338 0.41487131 4294901760
-0.017046822 0.0095797284 0.41484109 4294901760
-0.016919648 0.0090971189 0.41481084 4294901760
-0.016792474 0.0086145084 0.41478059 4294901760
-0.016665302 0.0081318989 0.41475037 4294901760
-0.016538128 0.0076492894 0.41472012 4294901760
-0.016410954 0.0071666781 0.41468987 4294901760
-0.01628378 0.0066840686 0.41465965 4294901760
-0.016156606 0.0062014591 0.4146294 4294901760
-0.016029432 0.0057188477 0.41459915 4294901760
-0.015902258 0.0052362382 0.4145689 4294901760
-0.015775084 0.0047536287 0.41453868 4294901760
-0.015647911 0.0042710193 0.41450843 4294901760
-0.015520737 0.0037884079 0.41447818 4294901760
-0.015393563 0.0033057984 0.41444796 4294901760
-0.01526639 0.0028231889 0.41441771 4294901760
-0.015139216 0.0023405794 0.41438746 4294901760
-0.015012042 0.0018579699 0.41435724 4294901760
-0.014884869 0.0013753604 0.414327 4294901760
-0.014757694 0.00089274906 0.41429675 4294901760
-0.014630521 0.00041013956 0.41426653 4294901760
-0.014503347 -7.2469935e-05 0.41423628 4294901760
-0.014376173 -0.00055508129 0.41420603 4294901760
-0.014248999 -0.0010376908 0.41417581 4294901760
-0.014121825 -0.0015203003 0.41414556 4294901760
-0.013994651 -0.0020029098 0.41411531 4294901760
-0.013867478 -0.0024855193 0.41408506 4294901760
-0.013740303 -0.0029681325 0.41405484 4294901760
-0.013613129 -0.003450742 0.41402459 4294901760
-0.013485956 -0.0039333515 0.41399434 4294901760
-0.013358782 -0.004415961 0.41396412 4294901760
-0.013231609 -0.0048985705 0.41393387 4294901760
-0.013104435 -0.00538118 0.41390362 4294901760
-0.012977261 -0.0058637913 0.4138734 4294901760
-0.012850087 -0.0063464008 0.41384315 4294901760
-0.012722913 -0.0068290103 0.41381291 4294901760
-0.012595739 -0.0073116198 0.41378269 4294901760
-0.012468565 -0.0077942293 0.41375244 4294901760
-0.012341392 -0.0082768407 0.41372219 4294901760
-0.012214217 -0.008759452 0.41369194 4294901760
-0.012087043 -0.0092420597 0.41366172 4294901760
-0.01195987 -0.009724671 0.41363147 4294901760
-0.011832696 -0.010207279 0.41360122 4294901760
-0.011705522 -0.01068989 0.413571 4294901760
-0.011578349 -0.011172498 0.41354075 4294901760
-0.011451175 -0.011655113 0.4135105 4294901760
-0.011324001 -0.01213772 0.41348028 4294901760
-0.011196828 -0.012620332 0.41345003 4294901760
-0.011069654 -0.013102939 0.41341978 4294901760
-0.01094248 -0.013585551 0.41338956 4294901760
-0.010815307 -0.014068158 0.41335931 4294901760
-0.010688133 -0.01455077 0.41332906 4294901760
-0.010560958 -0.015033381 0.41329882 4294901760
-0.010433785 -0.015515992 0.4132686 4294901760
-0.010306611 -0.0159986 0.41323835 4294901760
-0.010179437 -0.016481211 0.4132081 4294901760
-0.010052264 -0.016963819 0.41317788 4294901760
-0.0099250898 -0.01744643 0.41314763 4294901760
-0.0097979149 -0.017929042 0.41311738 4294901760
-0.0096707419 -0.018411649 0.41308716 4294901760
-0.0095435679 -0.018894261 0.41305691 4294901760
-0.0094163939 -0.019376868 0.41302666 4294901760
-0.00928922 -0.01985948 0.41299644 4294901760
-0.0091620469 -0.020342087 0.41296619 4294901760
-0.0090348721 -0.020824702 0.41293594 4294901760
-0.0089076981 -0.02130731 0.41290572 4294901760
-0.0087805251 -0.021789921 0.41287547 4294901760
-0.0086533511 -0.022272529 0.41284522 4294901760
-0.0085261771 -0.02275514 0.41281497 4294901760
-0.0083990041 -0.023237748 0.41278476 4294901760
-0.0082718292 -0.023720359 0.41275451 4294901760
-0.0081446553 -0.024202971 0.41272426 4294901760
-0.0080174822 -0.024685578 0.41269404 4294901760
-0.0078903083 -0.02516819 0.41266379 4294901760
-0.020607689 0.023092808 0.4156878 4278255360
-0.020269882 0.023159103 0.4160504 4278255360
-0.019932074 0.023225399 0.41641304 4278255360
-0.019594267 0.023291694 0.41677564 4278255360
-0.019256458 0.023357989 0.41713828 4278255360
-0.01891865 0.023424285 0.41750088 4278255360
-0.018580843 0.02349058 0.41786349 4278255360
-0.018243035 0.023556875 0.41822612 4278255360
-0.017905228 0.023623168 0.41858873 4278255360
-0.017567419 0.023689464 0.41895136 4278255360
-0.017229611 0.023755759 0.41931397 4278255360
-0.016891804 0.023822054 0.41967657 4278255360
-0.016553996 0.02388835 0.42003921 4278255360
-0.016216189 0.023954645 0.42040181 4278255360
-0.015878379 0.02402094 0.42076445 4278255360
-0.015540572 0.024087235 0.42112705 4278255360
-0.015202764 0.024153531 0.42148966 4278255360
-0.014864957 0.024219826 0.42185229 4278255360
-0.014527149 0.024286121 0.4222149 4278255360
-0.014189341 0.024352416 0.42257753 4278255360
-0.013851533 0.024418712 0.42294014 4278255360
-0.013513725 0.024485007 0.42330274 4278255360
-0.013175918 0.024551302 0.42366537 4278255360
-0.01283811 0.024617597 0.42402798 4278255360
-0.012500303 0.024683893 0.42439061 4278255360
-0.012162494 0.024750188 0.42475322 4278255360
-0.011824687 0.024816481 0.42511582 4278255360
-0.011486879 0.024882777 0.42547846 4278255360
-0.011149071 0.024949072 0.42584106 4278255360
-0.010811264 0.025015367 0.4262037 4278255360
-0.010473455 0.025081662 0.4265663 4278255360
-0.010135648 0.025147958 0.42692891 4278255360
-0.0097978404 0.025214253 0.42729154 4278255360
-0.009460032 0.025280548 0.42765415 4278255360
-0.0091222245 0.025346844 0.42801678 4278255360
-0.0087844171 0.025413139 0.42837939 4278255360
-0.0084466087 0.025479434 0.42874199 4278255360
-0.0081088012 0.025545729 0.42910463 4278255360
-0.0077709928 0.025612025 0.42946723 4278255360
-0.0074331854 0.02567832 0.42982987 4278255360
-0.007095377 0.025744615 0.43019247 4278255360
-0.0067575695 0.025810909 0.43055508 4278255360
-0.006419762 0.025877204 0.43091771 4278255360
-0.0060819536 0.025943499 0.43128031 4278255360
-0.0057441462 0.026009794 0.43164295 4278255360
-0.0054063387 0.02607609 0.43200555 4278255360
-0.0050685303 0.026142385 0.43236816 4278255360
-0.0047307238 0.02620868 0.43273079 4278255360
-0.0043929163 0.026274975 0.4330934 4278255360
-0.004055107 0.026341271 0.43345603 4278255360
-0.0037172996 0.026407566 0.43381864 4278255360
-0.0033794921 0.026473861 0.43418124 4278255360
-0.0030416846 0.026540156 0.43454388 4278255360
-0.0027038772 0.026606452 0.43490648 4278255360
-0.0023660678 0.026672747 0.43526912 4278255360
-0.0020282604 0.026739042 0.43563172 4278255360
-0.0016904529 0.026805338 0.43599433 4278255360
-0.0013526455 0.026871633 0.43635696 4278255360
-0.001014838 0.026937928 0.43671957 4278255360
-0.00067703053 0.027004221 0.4370822 4278255360
-0.00033922121 0.027070519 0.43744481 4278255360
-1.4137477e-06 0.027136814 0.43780741 4278255360
0.00033639371 0.027203107 0.43817005 4278255360
0.00067420118 0.027269403 0.43853265 4278255360
0.0010120086 0.027335698 0.43889529 4278255360
0.0013498161 0.027401993 0.43925789 4278255360
0.0016876254 0.027468288 0.43962049 4278255360
0.0020254329 0.027534584 0.43998313 4278255360
0.0023632403 0.027600879 0.44034573 4278255360
0.0027010478 0.027667174 0.44070837 4278255360
0.0030388553 0.027733469 0.44107097 4278255360
0.0033766627 0.027799765 0.44143358 4278255360
0.0037144721 0.02786606 0.44179621 4278255360
0.0040522795 0.027932355 0.44215882 4278255360
0.004390087 0.027998649 0.44252145 4278255360
0.0047278944 0.028064944 0.44288406 4278255360
0.0050657038 0.028131239 0.44324666 4278255360
0.0054035112 0.028197534 0.4436093 4278255360
0.0057413187 0.02826383 0.4439719 4278255360
0.006079128 0.028330125 0.44433454 4278255360
0.0064169355 0.02839642 0.44469714 4278255360
0.0067547429 0.028462715 0.44505975 4278255360
0.0070925504 0.028529011 0.44542238 4278255360
0.0074303579 0.028595306 0.44578499 4278255360
0.0077681653 0.028661601 0.44614762 4278255360
0.0081059746 0.028727897 0.44651023 4278255360
0.0084437821 0.028794192 0.44687283 4278255360
0.0087815896 0.028860487 0.44723547 4278255360
0.009119397 0.028926782 0.44759807 4278255360
0.0094572045 0.028993078 0.4479607 4278255360
0.009795012 0.029059373 0.44832331 4278255360
0.010132821 0.029125668 0.44868591 4278255360
0.010470629 0.029191963 0.44904855 4278255360
0.010808436 0.029258259 0.44941115 4278255360
0.011146242 0.029324552 0.44977379 4278255360
0.011484051 0.029390847 0.45013639 4278255360
0.011821857 0.029457143 0.450499 4278255360
0.012159666 0.029523438 0.45086163 4278255360
0.012497475 0.029589733 0.45122424 4278255360
0.012835281 0.029656028 0.45158687 4278255360
0.01317309 0.029722324 0.45194948 4278255360
-0.020607689 0.023092808 0.4156878 4278190335
-0.0208057 0.023012307 0.41613981 4278190335
-0.021003712 0.022931807 0.41659182 4278190335
-0.021201722 0.022851305 0.41704383 4278190335
-0.021399733 0.022770803 0.41749582 4278190335
-0.021597743 0.022690304 0.41794783 4278190335
-0.021795755 0.022609802 0.41839984 4278190335
-0.021993766 0.0225293 0.41885185 4278190335
-0.022191776 0.022448801 0.41930386 4278190335
-0.022389786 0.022368299 0.41975588 4278190335
-0.022587799 0.022287797 0.42020789 4278190335
-0.022785809 0.022207297 0.4206599 4278190335
-0.022983819 0.022126796 0.42111188 4278190335
-0.02318183 0.022046294 0.42156389 4278190335
-0.023379842 0.021965794 0.42201591 4278190335
-0.023577852 0.021885293 0.42246792 4278190335
-0.023775863 0.021804791 0.42291993 4278190335
-0.023973875 0.021724291 0.42337194 4278190335
-0.024171885 0.021643789 0.42382395 4278190335
-0.024369895 0.021563288 0.42427596 4278190335
-0.024567906 0.021482788 0.42472795 4278190335
-0.024765916 0.021402286 0.42517996 4278190335
-0.024963928 0.021321785 0.42563197 4278190335
-0.025161939 0.021241283 0.42608398 4278190335
-0.025359951 0.021160783 0.42653599 4278190335
-0.025557961 0.021080282 0.42698801 4278190335
-0.025755972 0.020999782 0.42744002 4278190335
-0.025953982 0.02091928 0.42789203 4278190335
-0.026151992 0.020838778 0.42834401 4278190335
-0.026350005 0.020758279 0.42879602 4278190335
-0.026548015 0.020677777 0.42924803 4278190335
-0.026746027 0.020597275 0.42970005 4278190335
-0.026944038 0.020516774 0.43015206 4278190335
-0.027142048 0.020436274 0.43060407 4278190335
-0.027340058 0.020355772 0.43105608 4278190335
-0.027538069 0.020275271 0.43150806 4278190335
-0.027736081 0.020194771 0.43196008 4278190335
-0.027934091 0.020114269 0.43241209 4278190335
-0.028132102 0.020033767 0.4328641 4278190335
-0.028330114 0.019953268 0.43331611 4278190335
-0.028528124 0.019872766 0.43376812 4278190335
-0.028726134 0.019792264 0.43422014 4278190335
-0.028924145 0.019711765 0.43467212 4278190335
-0.029122155 0.019631263 0.43512413 4278190335
-0.029320167 0.019550761 0.43557614 4278190335
-0.029518178 0.019470261 0.43602815 4278190335
-0.02971619 0.01938976 0.43648016 4278190335
-0.0299142 0.019309258 0.43693218 4278190335
-0.030112211 0.019228758 0.43738419 4278190335
-0.030310221 0.019148257 0.4378362 4278190335
-0.030508231 0.019067755 0.43828821 4278190335
-0.030706242 0.018987253 0.43874019 4278190335
-0.030904254 0.018906754 0.43919221 4278190335
-0.031102264 0.018826252 0.43964422 4278190335
-0.031300277 0.01874575 0.44009623 4278190335
-0.031498287 0.01866525 0.44054824 4278190335
-0.031696297 0.018584749 0.44100025 4278190335
-0.031894308 0.018504247 0.44145226 4278190335
-0.032092318 0.018423747 0.44190425 4278190335
-0.032290328 0.018343246 0.44235626 4278190335
-0.032488342 0.018262744 0.44280827 4278190335
-0.032686353 0.018182244 0.44326028 4278190335
-0.032884363 0.018101742 0.44371229 4278190335
-0.033082373 0.018021241 0.44416431 4278190335
-0.033280384 0.017940741 0.44461632 4278190335
-0.033478394 0.017860239 0.4450683 4278190335
-0.033676408 0.017779738 0.44552031 4278190335
-0.033874419 0.017699238 0.44597232 4278190335
-0.034072429 0.017618736 0.44642434 4278190335
-0.034270439 0.017538235 0.44687635 4278190335
-0.03446845 0.017457735 0.44732836 4278190335
-0.03466646 0.017377233 0.44778037 4278190335
-0.03486447 0.017296731 0.44823238 4278190335
-0.035062484 0.017216232 0.44868439 4278190335
-0.035260491 0.01713573 0.44913638 4278190335
-0.035458505 0.017055228 0.44958839 4278190335
-0.035656516 0.016974729 0.4500404 4278190335
-0.035854526 0.016894227 0.45049241 4278190335
-0.036052536 0.016813725 0.45094442 4278190335
-0.036250547 0.016733225 0.45139644 4278190335
-0.036448561 0.016652724 0.45184845 4278190335
-0.036646567 0.016572222 0.45230043 4278190335
-0.036844581 0.016491722 0.45275244 4278190335
-0.037042588 0.016411221 0.45320445 4278190335
-0.037240602 0.016330719 0.45365646 4278190335
-0.037438612 0.016250219 0.45410848 4278190335
-0.037636623 0.016169718 0.45456049 4278190335
-0.037834637 0.016089216 0.4550125 4278190335
-0.038032643 0.016008716 0.45546448 4278190335
-0.038230658 0.015928214 0.45591649 4278190335
-0.038428664 0.015847713 0.45636851 4278190335
-0.038626678 0.015767213 0.45682052 4278190335
-0.038824689 0.015686711 0.45727253 4278190335
-0.039022699 0.01560621 0.45772454 4278190335
-0.039220709 0.015525709 0.45817655 4278190335
-0.03941872 0.015445208 0.45862857 4278190335
-0.039616734 0.015364707 0.45908058 4278190335
-0.03981474 0.015284206 0.45953256 4278190335
-0.040012754 0.015203705 0.45998457 4278190335
-0.040210765 0.015123203 0.46043658 4278190335
-0.040408775 0.015042703 0.46088859 4278190335
-0.020607689 0.023092808 0.4156878 4294967295
-0.019419624 0.023575814 0.41297576 4294967295
-0.01823156 0.024058821 0.41026372 4294967295
-0.017043494 0.024541827 0.40755165 4294967295
-0.015855428 0.025024833 0.40483961 4294967295
-0.014667364 0.025507839 0.40212756 4294967295
-0.013479298 0.025990846 0.39941552 4294967295
-0.012291233 0.026473852 0.39670345 4294967295
-0.011103168 0.026956858 0.39399141 4294967295
-0.0099151023 0.027439866 0.39127937 4294967295
-0.0087270373 0.027922872 0.38856733 4294967295
-0.0075389724 0.028405879 0.38585526 4294967295
-0.0063509075 0.028888885 0.38314322 4294967295
-0.0051628426 0.029371891 0.38043118 4294967295
-0.0039747767 0.029854897 0.37771913 4294967295
-0.0027867109 0.030337904 0.37500706 4294967295
-0.0015986469 0.03082091 0.37229502 4294967295
-0.00041058101 0.031303916 0.36958298 4294967295
0.00077748485 0.031786922 0.36687094 4294967295
0.0019655488 0.032269929 0.36415887 4294967295
0.0031536147 0.032752935 0.36144683 4294967295
0.0043416787 0.033235941 0.35873479 4294967295
0.0055297446 0.033718947 0.35602275 4294967295
0.0067178104 0.034201954 0.3533107 4294967295
0.0079058744 0.03468496 0.35059863 4294967295
0.0090939403 0.035167966 0.34788659 4294967295
0.010282004 0.035650972 0.34517455 4294967295
0.01147007 0.036133979 0.34246248 4294967295
0.012658136 0.036616985 0.33975044 4294967295
0.013846202 0.037099991 0.3370384 4294967295
0.015034268 0.037582997 0.33432636 4294967295
0.01622233 0.038066003 0.33161432 4294967295
0.017410396 0.03854901 0.32890224 4294967295
0.018598462 0.03903202 0.3261902 4294967295
0.019786527 0.039515022 0.32347816 4294967295
0.020974593 0.039998028 0.32076612 4294967295
0.022162659 0.040481038 0.31805405 4294967295
0.023350721 0.040964045 0.31534201 4294967295
0.024538787 0.041447047 0.31262997 4294967295
0.025726853 0.041930053 0.30991793 4294967295
0.026914919 0.042413063 0.30720586 4294967295
0.028102985 0.04289607 0.30449381 4294967295
0.029291047 0.043379072 0.30178177 4294967295
0.030479113 0.043862082 0.2990697 4294967295
0.03166718 0.044345088 0.29635769 4294967295
0.032855242 0.044828091 0.29364562 4294967295
0.034043312 0.045311101 0.29093358 4294967295
0.035231374 0.045794107 0.28822154 4294967295
0.036419436 0.046277113 0.28550947 4294967295
0.037607506 0.046760119 0.28279743 4294967295
0.038795568 0.047243126 0.28008538 4294967295
0.039983638 0.047726132 0.27737334 4294967295
0.0411717 0.048209138 0.2746613 4294967295
0.042359762 0.048692141 0.27194923 4294967295
0.043547831 0.049175151 0.26923719 4294967295
0.044735901 0.049658157 0.26652515 4294967295
0.045923963 0.050141163 0.26381308 4294967295
0.047112025 0.050624169 0.26110107 4294967295
0.048300095 0.051107176 0.258389 4294967295
0.049488157 0.051590182 0.25567695 4294967295
0.050676227 0.052073188 0.25296491 4294967295
0.051864289 0.052556194 0.25025284 4294967295
0.053052351 0.053039201 0.2475408 4294967295
0.05424042 0.053522207 0.24482876 4294967295
0.055428483 0.054005213 0.24211672 4294967295
0.056616545 0.054488219 0.23940466 4294967295
0.057804614 0.054971226 0.23669261 4294967295
0.058992684 0.055454232 0.23398057 4294967295
0.060180746 0.055937238 0.23126851 4294967295
0.061368808 0.056420244 0.22855647 4294967295
0.062556878 0.056903251 0.22584443 4294967295
0.06374494 0.057386257 0.22313237 4294967295
0.064933009 0.057869263 0.22042032 4294967295
0.066121072 0.058352269 0.21770827 4294967295
0.067309134 0.058835275 0.21499622 4294967295
0.068497203 0.059318282 0.21228418 4294967295
0.069685265 0.059801288 0.20957214 4294967295
0.070873328 0.060284294 0.20686008 4294967295
0.072061397 0.0607673 0.20414804 4294967295
0.073249467 0.061250307 0.20143598 4294967295
0.074437529 0.061733313 0.19872393 4294967295
0.075625591 0.062216319 0.19601189 4294967295
0.076813661 0.062699325 0.19329984 4294967295
0.078001723 0.063182332 0.19058779 4294967295
0.079189785 0.063665338 0.18787575 4294967295
0.080377854 0.064148344 0.18516369 4294967295
0.081565917 0.06463135 0.18245164 4294967295
0.082753986 0.065114357 0.17973959 4294967295
0.083942048 0.065597363 0.17702755 4294967295
0.08513011 0.066080369 0.17431551 4294967295
0.08631818 0.066563375 0.17160346 4294967295
0.08750625 0.067046382 0.1688914 4294967295
0.088694312 0.067529388 0.16617936 4294967295
0.089882374 0.068012394 0.16346732 4294967295
0.091070443 0.0684954 0.16075525 4294967295
0.092258506 0.068978406 0.15804321 4294967295
0.093446568 0.069461413 0.15533116 4294967295
0.094634637 0.069944419 0.15261909 4294967295
0.095822699 0.070427425 0.14990705 4294967295
0.097010769 0.070910431 0.14719501 4294967295
0.098198831 0.071393438 0.14448297 4294967295
