# .PCD v0.7 - Point Cloud Data file format
VERSION 0.7
FIELDS x y z rgb
SIZE 4 4 4 4
TYPE F F F U
COUNT 1 1 1 1
WIDTH 878
HEIGHT 1
VIEWPOINT 0 0 0 1 0 0 0
POINTS 878
DATA ascii
-0.10963747 0.02678252 0.43900001 4280694565
-0.10821159 0.02678252 0.43900001 4281946937
-0.10629922 0.026660504 0.43700001 4279584031
-0.10463984 0.026599497 0.43600002 4279519008
-0.10298698 0.026538489 0.43500003 4279125533
-0.10134058 0.02647748 0.43400002 4279126047
-0.09233705 0.025928408 0.42500001 4278993947
-0.090956643 0.025928408 0.42500001 4279125531
-0.11131633 0.028273135 0.44000003 4280432167
-0.10963747 0.028208878 0.43900001 4280628774
-0.1079651 0.02814462 0.43800002 4281421106
-0.10605597 0.028016107 0.43600002 4279452445
-0.10439985 0.02795185 0.43500003 4279519008
-0.10275022 0.027887592 0.43400002 4279257119
-0.10110708 0.027823336 0.43300003 4279125533
-0.098779671 0.027566306 0.42900002 4278928668
-0.097159281 0.027502051 0.42800003 4278928668
-0.095321611 0.027373536 0.42600003 4279716902
-0.093937963 0.027373536 0.42600003 4279451682
-0.09233705 0.027309278 0.42500001 4278333453
-0.090956643 0.027309278 0.42500001 4279124763
-0.089365482 0.027245022 0.42400002 4278928152
-0.11106334 0.029635234 0.43900001 4280431915
-0.10938773 0.029567728 0.43800002 4280366374
-0.1077186 0.02950022 0.43700001 4281092655
-0.10605597 0.029432716 0.43600002 4279386652
-0.10439985 0.02936521 0.43500003 4279519006
-0.10251347 0.029230196 0.43300003 4279387933
-0.10087357 0.02916269 0.43200001 4279387933
-0.098779671 0.028960172 0.42900002 4279059738
-0.09693227 0.028825158 0.42700002 4279059738
-0.095321611 0.028757654 0.42600003 4279256351
-0.093937963 0.028757654 0.42600003 4279846951
-0.09233705 0.028690146 0.42500001 4279320607
-0.090742633 0.02862264 0.42400002 4279058970
-0.089365482 0.02862264 0.42400002 4278663699
-0.087780803 0.028555132 0.42300001 4279321629
-0.086406901 0.028555132 0.42300001 4279124250
-0.057451516 0.027205011 0.40300003 4279127330
-0.056142576 0.027205011 0.40300003 4279390502
-0.054833632 0.027205011 0.40300003 4279258918
-0.053524684 0.027205011 0.40300003 4279456297
-0.052215744 0.027205011 0.40300003 4279456297
-0.11106334 0.031061588 0.43900001 4280563753
-0.10938773 0.030990833 0.43800002 4280892714
-0.1077186 0.030920077 0.43700001 4281159472
-0.10581274 0.030778568 0.43500003 4279255836
-0.10415985 0.030707812 0.43400002 4279585312
-0.10227671 0.030566301 0.43200001 4279519519
-0.10064007 0.030495547 0.43100002 4279387933
-0.098779671 0.030354036 0.42900002 4279125531
-0.09693227 0.030212525 0.42700002 4279059738
-0.095321611 0.030141771 0.42600003 4279190045
-0.093717448 0.030071015 0.42500001 4278196736
-0.09233705 0.030071015 0.42500001 4278991644
-0.090742633 0.03000026 0.42400002 4279452193
-0.089365482 0.03000026 0.42400002 4278525451
-0.087780803 0.029929504 0.42300001 4278656267
-0.086202629 0.029858749 0.42200002 4278590474
-0.084429927 0.029717239 0.42000002 4278656267
-0.082867987 0.029646484 0.41900003 4278262279
-0.081312552 0.029575726 0.41800001 4278262279
-0.079954885 0.029575726 0.41800001 4278329351
-0.078409187 0.029504972 0.41700003 4278593291
-0.070434563 0.029009685 0.41000003 4279255836
-0.068934336 0.028938929 0.40900001 4279256349
-0.067440607 0.028868174 0.40800002 4278993947
-0.065953381 0.028797418 0.40700001 4278928154
-0.064472646 0.028726663 0.40600002 4279059738
-0.062998399 0.028655909 0.40500003 4279059738
-0.061682966 0.028655909 0.40500003 4279059738
-0.060218465 0.028585153 0.40400001 4278994461
-0.058906268 0.028585153 0.40400001 4279126562
-0.057451516 0.028514398 0.40300003 4278929183
-0.056142576 0.028514398 0.40300003 4278863388
-0.054833632 0.028514398 0.40300003 4278863390
-0.053524684 0.028514398 0.40300003 4278929183
-0.052215744 0.028514398 0.40300003 4278798367
-0.050780475 0.028443642 0.40200001 4279061539
-0.04947478 0.028443642 0.40200001 4278929953
-0.04816908 0.028443642 0.40200001 4279258918
-0.046863385 0.028443642 0.40200001 4279851568
-0.045557689 0.028443642 0.40200001 4279588396
-0.044251993 0.028443642 0.40200001 4279653422
-0.042946298 0.028443642 0.40200001 4280309557
-0.11131633 0.03256195 0.44000003 4280957225
-0.10938773 0.032413941 0.43800002 4281025583
-0.1077186 0.032339934 0.43700001 4280567594
-0.10581274 0.032191928 0.43500003 4279321629
-0.10415985 0.032117922 0.43400002 4279190556
-0.10227671 0.031969912 0.43200001 4279453726
-0.10040656 0.031821903 0.43000001 4279256347
-0.098779671 0.0317479 0.42900002 4279125531
-0.09693227 0.03159989 0.42700002 4279059738
-0.095321611 0.031525888 0.42600003 4279452445
-0.093717448 0.031451881 0.42500001 4278198533
-0.09233705 0.031451881 0.42500001 4279320096
-0.090742633 0.031377878 0.42400002 4278397970
-0.089154705 0.031303871 0.42300001 4278721295
-0.087573282 0.03122987 0.42200002 4278983697
-0.085998364 0.031155866 0.42100003 4278983437
-0.084429927 0.031081861 0.42000002 4278917644
-0.082867987 0.031007856 0.41900003 4278917390
-0.081312552 0.030933851 0.41800001 4278917390
-0.079763606 0.030859848 0.41700003 4278917390
-0.078409187 0.030859848 0.41700003 4278720525
-0.076869987 0.030785842 0.41600001 4278590222
-0.075337283 0.030711839 0.41500002 4279975977
-0.073811077 0.030637836 0.41400003 4278331917
-0.072291359 0.030563829 0.41300002 4278198275
-0.070606358 0.03041582 0.41100001 4278197248
-0.069102883 0.030341817 0.41000003 4278196480
-0.067605905 0.03026781 0.40900001 4278198018
-0.066115431 0.030193808 0.40800002 4278727187
-0.06463144 0.030119803 0.40700001 4279254555
-0.063153952 0.030045798 0.40600002 4279255066
-0.061682966 0.029971795 0.40500003 4279255834
-0.060218465 0.029897789 0.40400001 4279124250
-0.058906268 0.029897789 0.40400001 4278993947
-0.057451516 0.029823786 0.40300003 4279059740
-0.056142576 0.029823786 0.40300003 4279125533
-0.054833632 0.029823786 0.40300003 4278994461
-0.053524684 0.029823786 0.40300003 4278863388
-0.052086174 0.029749781 0.40200001 4278929181
-0.050780475 0.029749781 0.40200001 4279126560
-0.04947478 0.029749781 0.40200001 4279192353
-0.04816908 0.029749781 0.40200001 4278863388
-0.046863385 0.029749781 0.40200001 4278732572
-0.045557689 0.029749781 0.40200001 4278929953
-0.044251993 0.029749781 0.40200001 4278929953
-0.042946298 0.029749781 0.40200001 4279456297
-0.041744184 0.029823786 0.40300003 4279126310
-0.04043524 0.029823786 0.40300003 4285701765
-0.039126292 0.029823786 0.40300003 4280110645
-0.11131633 0.033991553 0.44000003 4280957223
-0.10938773 0.033837046 0.43800002 4281222446
-0.10747211 0.03368254 0.43600002 4280238883
-0.10581274 0.033605289 0.43500003 4279321629
-0.10391985 0.033450779 0.43300003 4279519521
-0.10227671 0.033373524 0.43200001 4279387935
-0.10040656 0.033219017 0.43000001 4279453728
-0.098549418 0.033064511 0.42800003 4279190556
-0.09693227 0.032987259 0.42700002 4279256349
-0.095321611 0.032910004 0.42600003 4279847205
-0.093717448 0.032832749 0.42500001 4278196736
-0.092119791 0.032755498 0.42400002 4279385119
-0.090742633 0.032755498 0.42400002 4278199563
-0.089154705 0.032678243 0.42300001 4279511324
-0.087573282 0.032600991 0.42200002 4278656269
-0.085998364 0.032523736 0.42100003 4279511065
-0.084429927 0.032446481 0.42000002 4279445272
-0.082867987 0.03236923 0.41900003 4279774237
-0.081312552 0.032291975 0.41800001 4280103202
-0.079763606 0.032214724 0.41700003 4279182100
-0.078409187 0.032214724 0.41700003 4279049490
-0.076869987 0.032137468 0.41600001 4278852365
-0.075337283 0.032060217 0.41500002 4280172584
-0.073811077 0.031982962 0.41400003 4279386141
-0.072291359 0.031905707 0.41300002 4279517727
-0.070778146 0.031828456 0.41200003 4279320348
-0.069271423 0.031751201 0.41100001 4279386141
-0.067771204 0.031673949 0.41000003 4279517727
-0.066277474 0.031596694 0.40900001 4279649313
-0.064790241 0.031519443 0.40800002 4279713568
-0.063309498 0.031442188 0.40700001 4279121431
-0.061835267 0.031364933 0.40600002 4278529294
-0.060367521 0.031287681 0.40500003 4278199816
-0.058906268 0.031210426 0.40400001 4278196992
-0.057594076 0.031210426 0.40400001 4278198530
-0.056142576 0.031133173 0.40300003 4278200329
-0.054833632 0.031133173 0.40300003 4278990361
-0.053524684 0.031133173 0.40300003 4279320094
-0.052086174 0.03105592 0.40200001 4279583779
-0.050780475 0.03105592 0.40200001 4279583779
-0.04947478 0.03105592 0.40200001 4279123998
-0.04816908 0.03105592 0.40200001 4278993179
-0.046863385 0.03105592 0.40200001 4279059742
-0.045557689 0.03105592 0.40200001 4278862877
-0.044251993 0.03105592 0.40200001 4278994463
-0.042946298 0.03105592 0.40200001 4278929183
-0.041744184 0.031133173 0.40300003 4279257894
-0.04043524 0.031133173 0.40300003 4278928164
-0.039126292 0.031133173 0.40300003 4279652141
-0.037817348 0.031133173 0.40300003 4279256869
-0.036508407 0.031133173 0.40300003 4279188771
-0.11106334 0.035340656 0.43900001 4280102682
-0.10913798 0.035179649 0.43700001 4279511828
-0.10747211 0.035099149 0.43600002 4279844895
-0.10556948 0.034938142 0.43400002 4279519521
-0.10391985 0.034857642 0.43300003 4279387933
-0.10203996 0.034696635 0.43100002 4279453726
-0.10040656 0.034616131 0.43000001 4279256347
-0.098549418 0.034455128 0.42800003 4279190556
-0.09693227 0.034374624 0.42700002 4279124763
-0.095321611 0.034294121 0.42600003 4279320348
-0.093717448 0.034213617 0.42500001 4278196224
-0.092119791 0.034133118 0.42400002 4279516703
-0.090742633 0.034133118 0.42400002 4278198533
-0.089154705 0.034052614 0.42300001 4279445785
-0.087573282 0.033972111 0.42200002 4279379990
-0.085998364 0.033891611 0.42100003 4278788621
-0.084429927 0.033811107 0.42000002 4278195204
-0.082867987 0.033730604 0.41900003 4280235301
-0.081312552 0.0336501 0.41800001 4278393865
-0.079763606 0.033569597 0.41700003 4278195717
-0.07822115 0.033489093 0.41600001 4279841311
-0.076869987 0.033489093 0.41600001 4278787853
-0.075337283 0.033408593 0.41500002 4279778080
-0.073811077 0.03332809 0.41400003 4279386654
-0.072291359 0.033247586 0.41300002 4278200588
-0.070778146 0.033167087 0.41200003 4278198276
-0.069271423 0.033086583 0.41100001 4279516703
-0.067936495 0.033086583 0.41100001 4278200071
-0.066439524 0.033006079 0.41000003 4279254301
-0.064949036 0.032925576 0.40900001 4279189791
-0.063465059 0.032845076 0.40800002 4279255584
-0.061987568 0.032764569 0.40700001 4279320607
-0.060516577 0.032684069 0.40600002 4279386654
-0.05905208 0.032603566 0.40500003 4279386654
-0.057594076 0.032523062 0.40400001 4279320861
-0.056142576 0.032442562 0.40300003 4279649313
-0.054833632 0.032442562 0.40300003 4279911461
-0.053524684 0.032442562 0.40300003 4279253017
-0.052215744 0.032442562 0.40300003 4279713055
-0.050780475 0.032362059 0.40200001 4278726160
-0.04947478 0.032362059 0.40200001 4278197762
-0.04816908 0.032362059 0.40200001 4278198276
-0.046863385 0.032362059 0.40200001 4279189023
-0.045557689 0.032362059 0.40200001 4278928416
-0.044251993 0.032362059 0.40200001 4278862877
-0.042946298 0.032362059 0.40200001 4279059742
-0.041640598 0.032362059 0.40200001 4278862877
-0.04043524 0.032442562 0.40300003 4279126049
-0.039126292 0.032442562 0.40300003 4278797084
-0.037817348 0.032442562 0.40300003 4279125535
-0.036508407 0.032442562 0.40300003 4278729755
-0.11106334 0.03676701 0.43900001 4282205748
-0.10913798 0.036599506 0.43700001 4280761382
-0.10722561 0.036432005 0.43500003 4279779102
-0.10556948 0.036348253 0.43400002 4278730003
-0.10391985 0.036264502 0.43300003 4279387933
-0.10203996 0.036096998 0.43100002 4279519773
-0.10040656 0.036013246 0.43000001 4279256601
-0.098549418 0.035845742 0.42800003 4279190556
-0.09693227 0.03576199 0.42700002 4279256349
-0.095321611 0.035678241 0.42600003 4278858259
-0.093717448 0.035594486 0.42500001 4278198024
-0.092119791 0.035510737 0.42400002 4279911461
-0.090742633 0.035510737 0.42400002 4278199561
-0.089154705 0.035426982 0.42300001 4278721549
-0.087573282 0.035343233 0.42200002 4278589963
-0.085998364 0.035259482 0.42100003 4278984719
-0.084228903 0.035091978 0.41900003 4278852363
-0.082670212 0.035008226 0.41800001 4279773467
-0.081312552 0.035008226 0.41800001 4278589193
-0.079763606 0.034924474 0.41700003 4279973408
-0.07822115 0.034840722 0.41600001 4280039201
-0.076869987 0.034840722 0.41600001 4278393863
-0.075337283 0.03475697 0.41500002 4279713055
-0.073989362 0.03475697 0.41500002 4278594576
-0.072466403 0.034673218 0.41400003 4278722830
-0.070949942 0.034589466 0.41300002 4278722832
-0.06943997 0.034505714 0.41200003 4279119385
-0.067936495 0.034421962 0.41100001 4279582498
-0.066439524 0.034338214 0.41000003 4278200588
-0.065107845 0.034338214 0.41000003 4278266636
-0.063620605 0.034254458 0.40900001 4279977254
-0.062139876 0.03417071 0.40800002 4278464785
-0.060516577 0.034003206 0.40600002 4279320861
-0.05905208 0.033919454 0.40500003 4279124252
-0.057736639 0.033919454 0.40500003 4279255838
-0.056281887 0.033835702 0.40400001 4279190045
-0.054833632 0.03375195 0.40300003 4279124252
-0.053524684 0.03375195 0.40300003 4279255838
-0.052215744 0.03375195 0.40300003 4279255838
-0.050906796 0.03375195 0.40300003 4279255838
-0.049597852 0.03375195 0.40300003 4279386654
-0.04816908 0.033668198 0.40200001 4279911461
-0.046863385 0.033668198 0.40200001 4278464017
-0.045557689 0.033668198 0.40200001 4278927904
-0.044251993 0.033668198 0.40200001 4278993695
-0.042946298 0.033668198 0.40200001 4278993949
-0.041640598 0.033668198 0.40200001 4278928156
-0.040334903 0.033668198 0.40200001 4278928156
-0.039029203 0.033668198 0.40200001 4278862361
-0.037817348 0.03375195 0.40300003 4278927384
-0.036508407 0.03375195 0.40300003 4278729494
-0.11055735 0.038019363 0.43700001 4279572483
-0.10888824 0.037932366 0.43600002 4279116555
-0.10722561 0.037845366 0.43500003 4279581721
-0.10556948 0.037758362 0.43400002 4279386650
-0.10391985 0.037671361 0.43300003 4279387933
-0.10203996 0.03749736 0.43100002 4279190554
-0.10040656 0.03741036 0.43000001 4279190554
-0.098779671 0.037323359 0.42900002 4279190554
-0.09693227 0.037149355 0.42700002 4278993175
-0.095321611 0.037062358 0.42600003 4279189275
-0.093717448 0.036975354 0.42500001 4279779875
-0.09233705 0.036975354 0.42500001 4279385887
-0.090742633 0.036888354 0.42400002 4278595089
-0.089154705 0.036801353 0.42300001 4278918928
-0.087573282 0.036714353 0.42200002 4278721549
-0.085794091 0.036540352 0.42000002 4278983183
-0.084228903 0.036453351 0.41900003 4278917390
-0.082670212 0.036366347 0.41800001 4278983183
-0.081312552 0.036366347 0.41800001 4278983183
-0.079763606 0.036279351 0.41700003 4278852365
-0.07822115 0.036192346 0.41600001 4278523400
-0.076869987 0.036192346 0.41600001 4278195712
-0.075337283 0.036105346 0.41500002 4279582236
-0.073989362 0.036105346 0.41500002 4278198791
-0.072466403 0.036018349 0.41400003 4278985232
-0.070949942 0.035931345 0.41300002 4278919441
-0.06960851 0.035931345 0.41300002 4279842338
-0.068101794 0.035844345 0.41200003 4279582498
-0.066601567 0.035757344 0.41100001 4278266638
-0.065107845 0.035670344 0.41000003 4278198787
-0.063620605 0.03558334 0.40900001 4279516957
-0.062139876 0.035496343 0.40800002 4278199815
-0.06066563 0.035409339 0.40700001 4278266124
-0.059197884 0.035322338 0.40600002 4278200591
-0.057736639 0.035235338 0.40500003 4279254303
-0.056281887 0.035148337 0.40400001 4278859543
-0.054969691 0.035148337 0.40400001 4278198787
-0.053524684 0.035061337 0.40300003 4278728724
-0.052215744 0.035061337 0.40300003 4278860310
-0.050906796 0.035061337 0.40300003 4278794517
-0.049597852 0.035061337 0.40300003 4279190045
-0.048288908 0.035061337 0.40300003 4279583779
-0.046979964 0.035061337 0.40300003 4278530578
-0.045557689 0.034974337 0.40200001 4279058720
-0.044251993 0.034974337 0.40200001 4278993697
-0.042946298 0.034974337 0.40200001 4278862363
-0.041640598 0.034974337 0.40200001 4278862363
-0.040334903 0.034974337 0.40200001 4278993949
-0.039029203 0.034974337 0.40200001 4278796570
-0.037723508 0.034974337 0.40200001 4279124252
-0.036417812 0.034974337 0.40200001 4278729240
-0.11055735 0.039439224 0.43700001 4281150230
-0.1086385 0.039258726 0.43500003 4279971346
-0.10722561 0.039258726 0.43500003 4279909914
-0.10556948 0.039168477 0.43400002 4279321881
-0.10391985 0.039078228 0.43300003 4279256347
-0.10203996 0.038897727 0.43100002 4279190554
-0.10040656 0.038807474 0.43000001 4279256347
-0.098779671 0.038717225 0.42900002 4279190554
-0.097159281 0.038626976 0.42800003 4279124761
-0.095545366 0.038536727 0.42700002 4278200842
-0.093937963 0.038446479 0.42600003 4278727189
-0.09233705 0.038356226 0.42500001 4279320607
-0.090742633 0.038265977 0.42400002 4279386400
-0.089154705 0.038175724 0.42300001 4280174119
-0.087573282 0.038085476 0.42200002 4279976229
-0.085794091 0.037904978 0.42000002 4279118615
-0.084228903 0.037814729 0.41900003 4278723345
-0.082670212 0.037724476 0.41800001 4278590476
-0.081312552 0.037724476 0.41800001 4278524170
-0.079763606 0.037634227 0.41700003 4278983951
-0.07822115 0.037543975 0.41600001 4278983183
-0.076869987 0.037543975 0.41600001 4278393867
-0.075337283 0.037453726 0.41500002 4279713055
-0.073989362 0.037453726 0.41500002 4280108326
-0.072466403 0.037363477 0.41400003 4278658832
-0.071121737 0.037363477 0.41400003 4279908129
-0.06960851 0.037273228 0.41300002 4279844641
-0.068267085 0.037273228 0.41300002 4279187224
-0.066763617 0.037182979 0.41200003 4280174119
-0.065266639 0.037092727 0.41100001 4280239914
-0.063776158 0.037002478 0.41000003 4278199815
-0.062292177 0.036912225 0.40900001 4279121945
-0.06081469 0.036821976 0.40800002 4280174119
-0.059343692 0.036731727 0.40700001 4279186459
-0.057879195 0.036641479 0.40600002 4278198280
-0.056421202 0.03655123 0.40500003 4278726162
-0.054969691 0.036460977 0.40400001 4279713570
-0.053657498 0.036460977 0.40400001 4278199046
-0.052215744 0.036370728 0.40300003 4278660882
-0.050906796 0.036370728 0.40300003 4278726675
-0.049597852 0.036370728 0.40300003 4279452447
-0.048288908 0.036370728 0.40300003 4279189275
-0.046979964 0.036370728 0.40300003 4279254301
-0.045671016 0.036370728 0.40300003 4279124511
-0.044362072 0.036370728 0.40300003 4279125281
-0.042946298 0.036280476 0.40200001 4278927902
-0.041640598 0.036280476 0.40200001 4278927902
-0.040334903 0.036280476 0.40200001 4279059742
-0.039029203 0.036280476 0.40200001 4278862363
-0.037723508 0.036280476 0.40200001 4278730007
-0.036417812 0.036280476 0.40200001 4279190045
-0.1086385 0.040672086 0.43500003 4279903756
-0.10722561 0.040672086 0.43500003 4279908631
-0.10556948 0.040578585 0.43400002 4279255064
-0.10391985 0.040485088 0.43300003 4279190554
-0.10203996 0.040298089 0.43100002 4279256349
-0.10040656 0.040204588 0.43000001 4279058970
-0.098779671 0.040111091 0.42900002 4279124763
-0.097159281 0.040017594 0.42800003 4279058970
-0.095545366 0.039924093 0.42700002 4279190043
-0.093937963 0.039830595 0.42600003 4279190043
-0.09233705 0.039737094 0.42500001 4279124252
-0.090742633 0.039643597 0.42400002 4279124250
-0.089154705 0.039550096 0.42300001 4279058457
-0.087573282 0.039456598 0.42200002 4279255836
-0.085998364 0.039363101 0.42100003 4279255838
-0.084228903 0.039176103 0.41900003 4278992666
-0.082670212 0.039082602 0.41800001 4279190045
-0.081312552 0.039082602 0.41800001 4279320861
-0.079763606 0.038989104 0.41700003 4279451164
-0.078409187 0.038989104 0.41700003 4279779615
-0.076869987 0.038895603 0.41600001 4279713568
-0.075518817 0.038895603 0.41600001 4279186713
-0.073989362 0.038802106 0.41500002 4278660369
-0.07264144 0.038802106 0.41500002 4278197763
-0.071121737 0.038708605 0.41400003 4278198280
-0.069777057 0.038708605 0.41400003 4278196225
-0.068267085 0.038615108 0.41300002 4278922258
-0.066763617 0.038521606 0.41200003 4279514908
-0.065425441 0.038521606 0.41200003 4279911461
-0.063931711 0.038428109 0.41100001 4279582496
-0.062292177 0.038241111 0.40900001 4279386141
-0.06081469 0.03814761 0.40800002 4279386141
-0.059343692 0.038054112 0.40700001 4279386141
-0.057879195 0.037960611 0.40600002 4279386141
-0.056421202 0.037867114 0.40500003 4279451934
-0.054969691 0.037773613 0.40400001 4279187992
-0.053657498 0.037773613 0.40400001 4279648289
-0.052345309 0.037773613 0.40400001 4278595087
-0.050906796 0.037680116 0.40300003 4278198533
-0.049597852 0.037680116 0.40300003 4279385887
-0.048288908 0.037680116 0.40300003 4279517473
-0.046979964 0.037680116 0.40300003 4279319326
-0.045671016 0.037680116 0.40300003 4279255838
-0.044362072 0.037680116 0.40300003 4279058972
-0.043053132 0.037680116 0.40300003 4279125281
-0.041744184 0.037680116 0.40300003 4278862109
-0.040334903 0.037586614 0.40200001 4278928156
-0.039029203 0.037586614 0.40200001 4278796570
-0.037817348 0.037680116 0.40300003 4279124765
-0.036508407 0.037680116 0.40300003 4279321631
-0.10722561 0.042085446 0.43500003 4281154593
-0.10556948 0.041988697 0.43400002 4279712022
-0.10391985 0.041891947 0.43300003 4279515926
-0.10227671 0.041795198 0.43200001 4279582746
-0.10040656 0.041601703 0.43000001 4279386137
-0.099009924 0.041601703 0.43000001 4279189271
-0.097386286 0.041504957 0.42900002 4279255064
-0.09576913 0.041408207 0.42800003 4279320859
-0.094158471 0.041311458 0.42700002 4279320859
-0.092554316 0.041214712 0.42600003 4279124250
-0.090956643 0.041117962 0.42500001 4279124250
-0.089154705 0.040924467 0.42300001 4278861078
-0.087573282 0.040827718 0.42200002 4278993177
-0.085998364 0.040730972 0.42100003 4278993177
-0.084429927 0.040634222 0.42000002 4279124763
-0.082867987 0.040537477 0.41900003 4278993177
-0.081312552 0.040440727 0.41800001 4279190556
-0.079763606 0.040343978 0.41700003 4279190554
-0.078409187 0.040343978 0.41700003 4279124761
-0.076869987 0.040247228 0.41600001 4279190554
-0.075518817 0.040247228 0.41600001 4279124763
-0.073989362 0.040150482 0.41500002 4279321629
-0.07264144 0.040150482 0.41500002 4279190043
-0.071293525 0.040150482 0.41500002 4279715106
-0.069777057 0.040053736 0.41400003 4279715106
-0.068432383 0.040053736 0.41400003 4279911715
-0.066925667 0.039956983 0.41300002 4279516703
-0.065425441 0.039860237 0.41200003 4279581984
-0.063931711 0.039763488 0.41100001 4278660882
-0.062444482 0.039666742 0.41000003 4278331150
-0.060963742 0.039569993 0.40900001 4278197508
-0.059343692 0.039376494 0.40700001 4278198023
-0.057879195 0.039279748 0.40600002 4278397197
-0.056421202 0.039183002 0.40500003 4278726675
-0.055105757 0.039183002 0.40500003 4279647777
-0.053657498 0.039086252 0.40400001 4279845668
-0.052345309 0.039086252 0.40400001 4279911715
-0.051033117 0.039086252 0.40400001 4279451164
-0.049720924 0.039086252 0.40400001 4279254555
-0.048408728 0.039086252 0.40400001 4280240426
-0.047096539 0.039086252 0.40400001 4280240426
-0.045671016 0.038989503 0.40300003 4279124511
-0.044362072 0.038989503 0.40300003 4279387683
-0.043053132 0.038989503 0.40300003 4279190304
-0.041744184 0.038989503 0.40300003 4278927902
-0.04043524 0.038989503 0.40300003 4279124511
-0.039126292 0.038989503 0.40300003 4278992925
-0.037817348 0.038989503 0.40300003 4278730007
-0.036508407 0.038989503 0.40300003 4278861080
-0.10040656 0.042998817 0.43000001 4279841811
-0.099009924 0.042998817 0.43000001 4279514643
-0.097386286 0.042898819 0.42900002 4279844121
-0.09576913 0.042798825 0.42800003 4279779098
-0.094158471 0.042698827 0.42700002 4279648025
-0.092554316 0.042598829 0.42600003 4279319574
-0.090956643 0.042498831 0.42500001 4279451160
-0.089365482 0.042398833 0.42400002 4278860308
-0.087573282 0.042198841 0.42200002 4278992664
-0.085998364 0.042098843 0.42100003 4278861078
-0.084429927 0.041998845 0.42000002 4278992664
-0.082867987 0.04189885 0.41900003 4278861078
-0.081312552 0.041798849 0.41800001 4279058457
-0.079954885 0.041798849 0.41800001 4278795798
-0.078409187 0.041698854 0.41700003 4278927384
-0.077054776 0.041698854 0.41700003 4278993177
-0.075518817 0.041598856 0.41600001 4279190556
-0.074167646 0.041598856 0.41600001 4279190556
-0.07264144 0.041498858 0.41500002 4279124763
-0.071293525 0.041498858 0.41500002 4279190556
-0.069945604 0.041498858 0.41500002 4279058970
-0.068432383 0.041398864 0.41400003 4279387935
-0.066925667 0.041298863 0.41300002 4279255836
-0.065584242 0.041298863 0.41300002 4279255836
-0.064087264 0.041198868 0.41200003 4279255838
-0.062444482 0.040998872 0.41000003 4279255838
-0.060963742 0.040898874 0.40900001 4279386654
-0.0594895 0.040798876 0.40800002 4279385887
-0.058021754 0.040698878 0.40700001 4279649059
-0.056560513 0.040598884 0.40600002 4279648289
-0.055105757 0.040498886 0.40500003 4279845668
-0.053790316 0.040498886 0.40500003 4279253017
-0.052345309 0.040398888 0.40400001 4278595087
-0.051033117 0.040398888 0.40400001 4278197762
-0.049720924 0.040398888 0.40400001 4278330634
-0.048408728 0.040398888 0.40400001 4278198533
-0.047096539 0.040398888 0.40400001 4279649059
-0.045784343 0.040398888 0.40400001 4279059488
-0.044472151 0.040398888 0.40400001 4279059488
-0.043159962 0.040398888 0.40400001 4279322660
-0.041744184 0.040298894 0.40300003 4279059488
-0.04043524 0.040298894 0.40300003 4279190304
-0.039126292 0.040298894 0.40300003 4278598167
-0.037817348 0.040298894 0.40300003 4278795033
-0.036508407 0.040298894 0.40300003 4278530578
-0.099240184 0.044499177 0.43100002 4279836680
-0.09761329 0.044395931 0.43000001 4279837450
-0.095992886 0.044292685 0.42900002 4279312389
-0.094378985 0.044189438 0.42800003 4279247109
-0.092771575 0.044086192 0.42700002 4278656256
-0.090956643 0.043879699 0.42500001 4278985736
-0.089365482 0.043776453 0.42400002 4279184912
-0.087780803 0.043673206 0.42300001 4279580440
-0.086202629 0.04356996 0.42200002 4279581723
-0.084429927 0.043363467 0.42000002 4279319064
-0.083065763 0.043363467 0.42000002 4279319578
-0.081507079 0.04326022 0.41900003 4279385371
-0.079954885 0.043156974 0.41800001 4279123480
-0.078409187 0.043053728 0.41700003 4279320859
-0.077054776 0.043053728 0.41700003 4279320859
-0.075700358 0.043053728 0.41700003 4279255066
-0.074167646 0.042950481 0.41600001 4279255836
-0.072816476 0.042950481 0.41600001 4279124765
-0.071465313 0.042950481 0.41600001 4279190304
-0.069945604 0.042847235 0.41500002 4279256351
-0.068597674 0.042847235 0.41500002 4279256349
-0.067087717 0.042743992 0.41400003 4279058970
-0.065584242 0.042640742 0.41300002 4279190556
-0.064087264 0.042537499 0.41200003 4279190556
-0.062596783 0.042434249 0.41100001 4279124763
-0.060963742 0.042227756 0.40900001 4279190556
-0.0594895 0.04212451 0.40800002 4279256349
-0.058021754 0.042021263 0.40700001 4279256351
-0.056560513 0.041918017 0.40600002 4279190304
-0.055105757 0.041814774 0.40500003 4279190304
-0.053790316 0.041814774 0.40500003 4279256097
-0.052474879 0.041814774 0.40500003 4279256097
-0.051159438 0.041814774 0.40500003 4279189791
-0.049843997 0.041814774 0.40500003 4279649572
-0.048528556 0.041814774 0.40500003 4279254814
-0.047213115 0.041814774 0.40500003 4279189791
-0.045784343 0.041711524 0.40400001 4279125281
-0.044472151 0.041711524 0.40400001 4278993695
-0.043159962 0.041711524 0.40400001 4278993695
-0.041847765 0.041711524 0.40400001 4278993695
-0.040535573 0.041711524 0.40400001 4278927902
-0.03922338 0.041711524 0.40400001 4278664730
-0.037911188 0.041711524 0.40400001 4278860056
-0.036508407 0.041608281 0.40300003 4278791701
-0.095992886 0.04568655 0.42900002 4279770889
-0.094378985 0.045580056 0.42800003 4279639303
-0.092771575 0.045473557 0.42700002 4279508235
-0.091170669 0.045367062 0.42600003 4279244809
-0.089365482 0.045154072 0.42400002 4279180553
-0.087780803 0.045047574 0.42300001 4279048713
-0.086202629 0.044941083 0.42200002 4279181066
-0.084630951 0.044834588 0.42100003 4279313166
-0.083065763 0.044728089 0.42000002 4278984969
-0.081507079 0.044621594 0.41900003 4279774739
-0.079954885 0.044515099 0.41800001 4279579156
-0.078597218 0.044515099 0.41800001 4279184910
-0.077054776 0.044408605 0.41700003 4279250703
-0.075700358 0.044408605 0.41700003 4279646744
-0.074167646 0.044302106 0.41600001 4279845670
-0.072816476 0.044302106 0.41600001 4279846440
-0.071465313 0.044302106 0.41600001 4279846440
-0.070114143 0.044302106 0.41600001 4279780647
-0.068597674 0.044195615 0.41500002 4279781160
-0.06724976 0.044195615 0.41500002 4279583781
-0.065743044 0.04408912 0.41400003 4279584549
-0.064087264 0.043876126 0.41200003 4279584549
-0.062596783 0.043769632 0.41100001 4279584549
-0.061112799 0.043663137 0.41000003 4279453217
-0.0594895 0.043450143 0.40800002 4279321377
-0.058021754 0.043343648 0.40700001 4279453476
-0.056560513 0.043237153 0.40600002 4279387683
-0.055241819 0.043237153 0.40600002 4279256097
-0.053790316 0.043130659 0.40500003 4279387683
-0.052474879 0.043130659 0.40500003 4279453476
-0.051159438 0.043130659 0.40500003 4279190304
-0.049843997 0.043130659 0.40500003 4279387683
-0.048528556 0.043130659 0.40500003 4279256097
-0.047213115 0.043130659 0.40500003 4279256351
-0.045897674 0.043130659 0.40500003 4279125535
-0.044582233 0.043130659 0.40500003 4279059742
-0.043266792 0.043130659 0.40500003 4278993949
-0.041951351 0.043130659 0.40500003 4278928156
-0.040535573 0.043024164 0.40400001 4279058718
-0.03922338 0.043024164 0.40400001 4279058205
-0.037911188 0.043024164 0.40400001 4279186459
-0.036598995 0.043024164 0.40400001 4281881407
-0.071465313 0.045653734 0.41600001 4285368436
-0.070114143 0.045653734 0.41600001 4283921504
-0.068597674 0.045543991 0.41500002 4282145865
-0.06724976 0.045543991 0.41500002 4281290556
-0.065743044 0.045434248 0.41400003 4280237866
-0.06424281 0.045324501 0.41300002 4279777313
-0.062596783 0.04510501 0.41100001 4279711520
-0.061112799 0.044995267 0.41000003 4279514141
-0.059635308 0.04488552 0.40900001 4279778598
-0.058164313 0.044775777 0.40800002 4279581732
-0.056560513 0.04455629 0.40600002 4279517223
-0.055241819 0.04455629 0.40600002 4279780395
-0.053790316 0.044446547 0.40500003 4279714600
-0.052474879 0.044446547 0.40500003 4280043049
-0.051159438 0.044446547 0.40500003 4279649061
-0.049843997 0.044446547 0.40500003 4279715367
-0.048528556 0.044446547 0.40500003 4279649574
-0.047213115 0.044446547 0.40500003 4279452195
-0.045897674 0.044446547 0.40500003 4279583781
-0.044582233 0.044446547 0.40500003 4279583781
-0.043266792 0.044446547 0.40500003 4279386402
-0.041951351 0.044446547 0.40500003 4279452195
-0.04063591 0.044446547 0.40500003 4279715367
-0.039320469 0.044446547 0.40500003 4279055900
-0.037911188 0.0443368 0.40400001 4281026100
-0.062596783 0.046440393 0.41100001 4285697401
-0.061112799 0.046327401 0.41000003 4285895294
-0.059635308 0.046214405 0.40900001 4286224259
-0.058164313 0.04610141 0.40800002 4286157952
-0.056560513 0.045875423 0.40600002 4286158466
-0.055241819 0.045875423 0.40600002 4286158466
-0.053790316 0.045762431 0.40500003 4285501306
-0.052474879 0.045762431 0.40500003 4285303927
-0.051159438 0.045762431 0.40500003 4284974962
-0.049843997 0.045762431 0.40500003 4284514411
-0.048528556 0.045762431 0.40500003 4283856994
-0.047213115 0.045762431 0.40500003 4282606927
-0.045897674 0.045762431 0.40500003 4282343242
-0.044582233 0.045762431 0.40500003 4281422140
-0.043266792 0.045762431 0.40500003 4280764208
-0.041951351 0.045762431 0.40500003 4280501290
-0.04063591 0.045762431 0.40500003 4281421622
-0.039320469 0.045762431 0.40500003 4284184676
-0.056560513 0.047194559 0.40600002 4286091394
-0.055241819 0.047194559 0.40600002 4285894269
-0.053790316 0.047078319 0.40500003 4285762681
-0.052474879 0.047078319 0.40500003 4285696888
-0.051159438 0.047078319 0.40500003 4285631095
-0.049843997 0.047078319 0.40500003 4285367923
-0.048528556 0.047078319 0.40500003 4285302130
-0.047213115 0.047078319 0.40500003 4285038958
-0.046010997 0.047194559 0.40600002 4284907372
-0.044692311 0.047194559 0.40600002 4284907885
-0.043266792 0.047078319 0.40500003 4284710506
-0.041951351 0.047078319 0.40500003 4284842092
-0.04063591 0.047078319 0.40500003 4284776299
-0.070668004 0.03679619 0.41455254 4294967295
-0.070668004 0.03679619 0.41455254 4294901760
-0.070668004 0.03679619 0.41505253 4294901760
-0.070668004 0.03679619 0.41555253 4294901760
-0.070668004 0.03679619 0.41605255 4294901760
-0.070668004 0.03679619 0.41655254 4294901760
-0.070668004 0.03679619 0.41705254 4294901760
-0.070668004 0.03679619 0.41755253 4294901760
-0.070668004 0.03679619 0.41805255 4294901760
-0.070668004 0.03679619 0.41855255 4294901760
-0.070668004 0.03679619 0.41905254 4294901760
-0.070668004 0.03679619 0.41955253 4294901760
-0.070668004 0.03679619 0.42005253 4294901760
-0.070668004 0.03679619 0.42055255 4294901760
-0.070668004 0.03679619 0.42105255 4294901760
-0.070668004 0.03679619 0.42155254 4294901760
-0.070668004 0.03679619 0.42205253 4294901760
-0.070668004 0.03679619 0.42255253 4294901760
-0.070668004 0.03679619 0.42305255 4294901760
-0.070668004 0.03679619 0.42355254 4294901760
-0.070668004 0.03679619 0.42405254 4294901760
-0.070668004 0.03679619 0.42455253 4294901760
-0.070668004 0.03679619 0.42505255 4294901760
-0.070668004 0.03679619 0.42555255 4294901760
-0.070668004 0.03679619 0.42605254 4294901760
-0.070668004 0.03679619 0.42655253 4294901760
-0.070668004 0.03679619 0.42705256 4294901760
-0.070668004 0.03679619 0.42755255 4294901760
-0.070668004 0.03679619 0.42805254 4294901760
-0.070668004 0.03679619 0.42855254 4294901760
-0.070668004 0.03679619 0.42905253 4294901760
-0.070668004 0.03679619 0.42955256 4294901760
-0.070668004 0.03679619 0.43005255 4294901760
-0.070668004 0.03679619 0.43055254 4294901760
-0.070668004 0.03679619 0.43105254 4294901760
-0.070668004 0.03679619 0.43155253 4294901760
-0.070668004 0.03679619 0.43205255 4294901760
-0.070668004 0.03679619 0.43255255 4294901760
-0.070668004 0.03679619 0.43305254 4294901760
-0.070668004 0.03679619 0.43355253 4294901760
-0.070668004 0.03679619 0.43405256 4294901760
-0.070668004 0.03679619 0.43455255 4294901760
-0.070668004 0.03679619 0.43505254 4294901760
-0.070668004 0.03679619 0.43555254 4294901760
-0.070668004 0.03679619 0.43605256 4294901760
-0.070668004 0.03679619 0.43655255 4294901760
-0.070668004 0.03679619 0.43705255 4294901760
-0.070668004 0.03679619 0.43755254 4294901760
-0.070668004 0.03679619 0.43805254 4294901760
-0.070668004 0.03679619 0.43855256 4294901760
-0.070668004 0.03679619 0.43905255 4294901760
-0.070668004 0.03679619 0.43955255 4294901760
-0.070668004 0.03679619 0.44005254 4294901760
-0.070668004 0.03679619 0.44055253 4294901760
-0.070668004 0.03679619 0.44105256 4294901760
-0.070668004 0.03679619 0.44155255 4294901760
-0.070668004 0.03679619 0.44205254 4294901760
-0.070668004 0.03679619 0.44255254 4294901760
-0.070668004 0.03679619 0.44305253 4294901760
-0.070668004 0.03679619 0.44355255 4294901760
-0.070668004 0.03679619 0.44405255 4294901760
-0.070668004 0.03679619 0.44455254 4294901760
-0.070668004 0.03679619 0.44505253 4294901760
-0.070668004 0.03679619 0.44555256 4294901760
-0.070668004 0.03679619 0.44605255 4294901760
-0.070668004 0.03679619 0.44655254 4294901760
-0.070668004 0.03679619 0.44705254 4294901760
-0.070668004 0.03679619 0.44755256 4294901760
-0.070668004 0.03679619 0.44805256 4294901760
-0.070668004 0.03679619 0.44855255 4294901760
-0.070668004 0.03679619 0.44905254 4294901760
-0.070668004 0.03679619 0.44955254 4294901760
-0.070668004 0.03679619 0.45005256 4294901760
-0.070668004 0.03679619 0.45055255 4294901760
-0.070668004 0.03679619 0.45105255 4294901760
-0.070668004 0.03679619 0.45155254 4294901760
-0.070668004 0.03679619 0.45205253 4294901760
-0.070668004 0.03679619 0.45255256 4294901760
-0.070668004 0.03679619 0.45305255 4294901760
-0.070668004 0.03679619 0.45355254 4294901760
-0.070668004 0.03679619 0.45405254 4294901760
-0.070668004 0.03679619 0.45455256 4294901760
-0.070668004 0.03679619 0.45505255 4294901760
-0.070668004 0.03679619 0.45555255 4294901760
-0.070668004 0.03679619 0.45605254 4294901760
-0.070668004 0.03679619 0.45655254 4294901760
-0.070668004 0.03679619 0.45705256 4294901760
-0.070668004 0.03679619 0.45755255 4294901760
-0.070668004 0.03679619 0.45805255 4294901760
-0.070668004 0.03679619 0.45855254 4294901760
-0.070668004 0.03679619 0.45905256 4294901760
-0.070668004 0.03679619 0.45955256 4294901760
-0.070668004 0.03679619 0.46005255 4294901760
-0.070668004 0.03679619 0.46055254 4294901760
-0.070668004 0.03679619 0.46105254 4294901760
-0.070668004 0.03679619 0.46155256 4294901760
-0.070668004 0.03679619 0.46205255 4294901760
-0.070668004 0.03679619 0.46255255 4294901760
-0.070668004 0.03679619 0.46305254 4294901760
-0.070668004 0.03679619 0.46355256 4294901760
-0.070668004 0.03679619 0.46405256 4294901760
-0.070668004 0.03679619 0.46455255 4294901760
-0.070668004 0.03679619 0.41455254 4278255360
-0.070425771 0.036742624 0.41498664 4278255360
-0.070183545 0.036689062 0.41542077 4278255360
-0.069941312 0.036635496 0.41585487 4278255360
-0.069699079 0.036581933 0.416289 4278255360
-0.069456853 0.036528368 0.4167231 4278255360
-0.06921462 0.036474805 0.41715723 4278255360
-0.068972386 0.036421239 0.41759133 4278255360
-0.068730161 0.036367677 0.41802546 4278255360
-0.068487927 0.036314111 0.41845956 4278255360
-0.068245694 0.036260549 0.41889369 4278255360
-0.068003468 0.036206983 0.4193278 4278255360
-0.067761235 0.036153421 0.41976193 4278255360
-0.067519009 0.036099855 0.42019603 4278255360
-0.067276776 0.036046293 0.42063013 4278255360
-0.067034543 0.035992727 0.42106426 4278255360
-0.066792317 0.035939164 0.42149836 4278255360
-0.066550083 0.035885599 0.42193249 4278255360
-0.06630785 0.035832036 0.42236659 4278255360
-0.066065624 0.03577847 0.42280072 4278255360
-0.065823391 0.035724908 0.42323482 4278255360
-0.065581158 0.035671342 0.42366895 4278255360
-0.065338932 0.03561778 0.42410305 4278255360
-0.065096699 0.035564214 0.42453718 4278255360
-0.064854465 0.035510652 0.42497128 4278255360
-0.06461224 0.035457086 0.42540538 4278255360
-0.064370006 0.03540352 0.42583951 4278255360
-0.064127773 0.035349958 0.42627361 4278255360
-0.063885547 0.035296392 0.42670774 4278255360
-0.063643314 0.035242829 0.42714185 4278255360
-0.063401081 0.035189264 0.42757598 4278255360
-0.063158855 0.035135701 0.42801008 4278255360
-0.062916622 0.035082135 0.42844421 4278255360
-0.062674388 0.035028573 0.42887831 4278255360
-0.062432162 0.034975007 0.42931244 4278255360
-0.062189929 0.034921445 0.42974654 4278255360
-0.0619477 0.034867879 0.43018067 4278255360
-0.06170547 0.034814317 0.43061477 4278255360
-0.061463241 0.034760751 0.43104887 4278255360
-0.061221011 0.034707189 0.431483 4278255360
-0.060978778 0.034653623 0.4319171 4278255360
-0.060736548 0.03460006 0.43235123 4278255360
-0.060494319 0.034546494 0.43278533 4278255360
-0.060252085 0.034492932 0.43321946 4278255360
-0.060009856 0.034439366 0.43365356 4278255360
-0.059767626 0.034385804 0.43408769 4278255360
-0.059525393 0.034332238 0.43452179 4278255360
-0.059283163 0.034278676 0.43495592 4278255360
-0.059040934 0.03422511 0.43539003 4278255360
-0.058798701 0.034171544 0.43582416 4278255360
-0.058556471 0.034117982 0.43625826 4278255360
-0.058314241 0.03406442 0.43669236 4278255360
-0.058072008 0.034010854 0.43712649 4278255360
-0.057829779 0.033957288 0.43756059 4278255360
-0.057587549 0.033903725 0.43799472 4278255360
-0.057345316 0.033850159 0.43842882 4278255360
-0.057103086 0.033796597 0.43886295 4278255360
-0.056860857 0.033743031 0.43929705 4278255360
-0.056618627 0.033689469 0.43973118 4278255360
-0.056376398 0.033635903 0.44016528 4278255360
-0.056134164 0.033582341 0.44059941 4278255360
-0.055891931 0.033528775 0.44103351 4278255360
-0.055649702 0.033475213 0.44146764 4278255360
-0.055407472 0.033421647 0.44190174 4278255360
-0.055165242 0.033368085 0.44233584 4278255360
-0.054923013 0.033314519 0.44276997 4278255360
-0.05468078 0.033260956 0.44320408 4278255360
-0.05443855 0.03320739 0.44363821 4278255360
-0.05419632 0.033153828 0.44407231 4278255360
-0.053954087 0.033100262 0.44450644 4278255360
-0.053711858 0.0330467 0.44494054 4278255360
-0.053469628 0.032993134 0.44537467 4278255360
-0.053227395 0.032939568 0.44580877 4278255360
-0.052985165 0.032886006 0.4462429 4278255360
-0.052742936 0.032832444 0.446677 4278255360
-0.052500702 0.032778878 0.44711113 4278255360
-0.052258477 0.032725312 0.44754523 4278255360
-0.052016243 0.03267175 0.44797933 4278255360
-0.051774014 0.032618187 0.44841346 4278255360
-0.051531781 0.032564621 0.44884756 4278255360
-0.051289551 0.032511055 0.44928169 4278255360
-0.051047318 0.032457493 0.44971579 4278255360
-0.050805092 0.032403927 0.45014992 4278255360
-0.050562859 0.032350365 0.45058402 4278255360
-0.050320629 0.032296799 0.45101815 4278255360
-0.050078399 0.032243237 0.45145226 4278255360
-0.049836166 0.032189671 0.45188639 4278255360
-0.049593937 0.032136109 0.45232049 4278255360
-0.049351707 0.032082543 0.45275462 4278255360
-0.049109474 0.032028981 0.45318872 4278255360
-0.048867244 0.031975415 0.45362282 4278255360
-0.048625015 0.031921852 0.45405695 4278255360
-0.048382781 0.031868286 0.45449105 4278255360
-0.048140552 0.031814724 0.45492518 4278255360
-0.047898322 0.031761158 0.45535928 4278255360
-0.047656089 0.031707596 0.45579341 4278255360
-0.047413863 0.03165403 0.45622751 4278255360
-0.04717163 0.031600468 0.45666164 4278255360
-0.046929397 0.031546902 0.45709574 4278255360
-0.046687167 0.031493336 0.45752984 4278255360
-0.046444938 0.031439774 0.45796397 4278255360
