# .PCD v0.7 - Point Cloud Data file format
VERSION 0.7
FIELDS x y z rgb
SIZE 4 4 4 4
TYPE F F F U
COUNT 1 1 1 1
WIDTH 1054
HEIGHT 1
VIEWPOINT 0 0 0 1 0 0 0
POINTS 1054
DATA ascii
0.021226062 0.03864383 0.34200001 4278590476
0.022271566 0.038530838 0.34100002 4279383838
0.023310574 0.038417842 0.34 4279320607
0.024343086 0.03830485 0.33900002 4279189275
0.025369102 0.038191859 0.33800003 4279320861
0.026388623 0.038078863 0.33700001 4279320861
0.027401647 0.037965868 0.33600003 4279516957
0.028408175 0.037852872 0.33500001 4279845922
0.029320156 0.037626885 0.333 4278462990
0.030219149 0.037400901 0.33100003 4278197762
0.031199694 0.037287906 0.33000001 4278196992
0.032271534 0.037287906 0.33000001 4278198020
0.033242337 0.037174914 0.32900003 4278397708
0.034206636 0.037061919 0.32800001 4278727187
0.03527198 0.037061919 0.32800001 4279320859
0.036226545 0.036948927 0.32700002 4279321629
0.037174605 0.036835931 0.32600001 4278927382
0.038116176 0.036722939 0.32500002 4279124761
0.039171774 0.036722939 0.32500002 4278797080
0.040103596 0.036609944 0.324 4278862873
0.041028924 0.036496952 0.32300001 4278665494
0.042078033 0.036496952 0.32300001 4278797080
0.04299362 0.036383957 0.32200003 4278797593
0.043902703 0.036270961 0.32100001 4278600984
0.044805296 0.036157969 0.32000002 4278667290
0.045701392 0.036044974 0.31900001 4278601499
0.046590995 0.035931982 0.31800002 4278601499
0.047623854 0.035931982 0.31800002 4278667292
0.04880973 0.036044974 0.31900001 4278931234
0.049845841 0.036044974 0.31900001 4278799648
0.051918067 0.036044974 0.31900001 4281495110
0.052954178 0.036044974 0.31900001 4283661916
0.05399029 0.036044974 0.31900001 4279715106
0.055026405 0.036044974 0.31900001 4279914281
0.055886775 0.035931982 0.31800002 4280700979
0.0047239466 0.041149933 0.354 4278863390
0.0058571463 0.041033693 0.35300002 4280044584
0.0070036915 0.041033693 0.35300002 4278196736
0.0081271483 0.040917452 0.35200003 4279386400
0.0092441076 0.040801208 0.35100001 4279649572
0.010384156 0.040801208 0.35100001 4278657037
0.011491373 0.040684965 0.35000002 4279446553
0.012592091 0.040568721 0.34900001 4279973410
0.013686316 0.04045248 0.34800002 4278394378
0.014774044 0.040336236 0.347 4278393865
0.015855277 0.040219992 0.34600002 4278657037
0.016930014 0.040103752 0.34500003 4278459656
0.017998252 0.039987508 0.34400001 4278590472
0.019059997 0.039871268 0.34300002 4278524681
0.020115245 0.03975502 0.34200001 4280169506
0.021226062 0.03975502 0.34200001 4278525451
0.022271566 0.03963878 0.34100002 4279713057
0.023310574 0.039522536 0.34 4279058972
0.024343086 0.039406296 0.33900002 4278861080
0.025369102 0.039290052 0.33800003 4278398992
0.026388623 0.039173808 0.33700001 4279452447
0.027401647 0.039057568 0.33600003 4279058459
0.028408175 0.038941324 0.33500001 4278992666
0.029320156 0.038708836 0.333 4279190045
0.030310445 0.038592596 0.33200002 4279124252
0.031294242 0.038476355 0.33100003 4279584033
0.032271534 0.038360108 0.33000001 4279517727
0.033242337 0.038243867 0.32900003 4279516703
0.034310929 0.038243867 0.32900003 4279318810
0.03527198 0.038127623 0.32800001 4278462990
0.036226545 0.038011383 0.32700002 4278199561
0.037174605 0.037895139 0.32600001 4278195968
0.038116176 0.037778895 0.32500002 4278196738
0.039171774 0.037778895 0.32500002 4278199307
0.040103596 0.037662651 0.324 4278595089
0.041028924 0.037546411 0.32300001 4279320861
0.042078033 0.037546411 0.32300001 4279321631
0.04299362 0.037430171 0.32200003 4278664982
0.043902703 0.037313923 0.32100001 4278665494
0.044805296 0.037197683 0.32000002 4278533908
0.045701392 0.037081439 0.31900001 4278600216
0.046737507 0.037081439 0.31900001 4278731802
0.047773615 0.037081439 0.31900001 4279126560
0.04880973 0.037081439 0.31900001 4278666779
0.049845841 0.037081439 0.31900001 4278666779
0.050881952 0.037081439 0.31900001 4278995744
0.051918067 0.037081439 0.31900001 4279193123
0.052954178 0.037081439 0.31900001 4280506164
0.053821042 0.036965199 0.31800002 4280111660
0.054853909 0.036965199 0.31800002 4279388707
0.055886775 0.036965199 0.31800002 4279257121
0.056919642 0.036965199 0.31800002 4281159481
0.0035741536 0.042300116 0.354 4278797597
0.0047239466 0.042300116 0.354 4278928670
0.0058571463 0.042180628 0.35300002 4278200844
0.0070036915 0.042180628 0.35300002 4278197513
0.0081271483 0.042061135 0.35200003 4279451164
0.0092441076 0.041941643 0.35100001 4278859797
0.010384156 0.041941643 0.35100001 4278787853
0.011491373 0.04182215 0.35000002 4278589963
0.012592091 0.041702658 0.34900001 4278524170
0.013686316 0.041583166 0.34800002 4278524683
0.014774044 0.041463673 0.347 4278919439
0.015855277 0.041344184 0.34600002 4278985232
0.016930014 0.041224692 0.34500003 4278721549
0.017998252 0.0411052 0.34400001 4279444502
0.019059997 0.040985707 0.34300002 4279843106
0.020115245 0.040866215 0.34200001 4278328585
0.021163998 0.040746726 0.34100002 4278195203
0.022271566 0.040746726 0.34100002 4279450396
0.023310574 0.04062723 0.34 4279190043
0.024343086 0.040507741 0.33900002 4278200074
0.025369102 0.040388249 0.33800003 4278853648
0.026388623 0.040268756 0.33700001 4278195716
0.027401647 0.040149264 0.33600003 4279450912
0.028408175 0.040029772 0.33500001 4278198018
0.029408207 0.039910283 0.33400002 4278200840
0.030310445 0.039671298 0.33200002 4279058459
0.031294242 0.039551806 0.33100003 4278730005
0.032271534 0.039432313 0.33000001 4279058970
0.033343375 0.039432313 0.33000001 4279058972
0.034310929 0.039312821 0.32900003 4279058972
0.03527198 0.039193328 0.32800001 4279124765
0.036226545 0.03907384 0.32700002 4279190045
0.037174605 0.038954344 0.32600001 4279058459
0.038233455 0.038954344 0.32600001 4279715365
0.039171774 0.038834855 0.32500002 4279648291
0.040103596 0.038715359 0.324 4279055640
0.041028924 0.03859587 0.32300001 4278330634
0.042078033 0.03859587 0.32300001 4278198020
0.04299362 0.038476381 0.32200003 4278197510
0.043902703 0.038356885 0.32100001 4278197766
0.044945311 0.038356885 0.32100001 4278198533
0.045844659 0.038237397 0.32000002 4278858773
0.046737507 0.0381179 0.31900001 4278797084
0.047773615 0.0381179 0.31900001 4278797082
0.04880973 0.0381179 0.31900001 4278797595
0.049845841 0.0381179 0.31900001 4278731802
0.050881952 0.0381179 0.31900001 4278929179
0.051918067 0.0381179 0.31900001 4278797593
0.052788179 0.037998412 0.31800002 4278731800
0.053821042 0.037998412 0.31800002 4278797593
0.054853909 0.037998412 0.31800002 4278666007
0.055886775 0.037998412 0.31800002 4278797082
0.056919642 0.037998412 0.31800002 4279845670
0.0012781691 0.043573041 0.35500002 4278929183
0.0024312097 0.043573041 0.35500002 4278929183
0.0035741536 0.0434503 0.354 4278862877
0.0047239466 0.0434503 0.354 4278862877
0.0058571463 0.043327559 0.35300002 4279124511
0.0070036915 0.043327559 0.35300002 4278924314
0.0081271483 0.043204818 0.35200003 4279386654
0.0092704445 0.043204818 0.35200003 4279386654
0.010384156 0.043082077 0.35100001 4278589963
0.011491373 0.042959336 0.35000002 4278917644
0.012592091 0.042836595 0.34900001 4278917644
0.013686316 0.042713854 0.34800002 4278851851
0.014731468 0.042468373 0.34600002 4278851851
0.015809454 0.042345632 0.34500003 4278851851
0.016880941 0.042222891 0.34400001 4278720779
0.017998252 0.042222891 0.34400001 4278524170
0.019059997 0.04210015 0.34300002 4279250199
0.020115245 0.041977406 0.34200001 4279710750
0.021163998 0.041854668 0.34100002 4278195457
0.022271566 0.041854668 0.34100002 4279318810
0.023310574 0.041731924 0.34 4278266638
0.024343086 0.041609187 0.33900002 4278460173
0.025369102 0.041486446 0.33800003 4278786318
0.026388623 0.041363701 0.33700001 4278194951
0.027401647 0.041240964 0.33600003 4278396173
0.028408175 0.041118219 0.33500001 4279581471
0.029408207 0.040995482 0.33400002 4279318810
0.03040174 0.040872738 0.333 4278727187
0.031388782 0.040750001 0.33200002 4278201097
0.032369327 0.04062726 0.33100003 4279187738
0.033343375 0.040504515 0.33000001 4278201098
0.034310929 0.040381778 0.32900003 4279058972
0.03527198 0.040259033 0.32800001 4278927386
0.036226545 0.040136296 0.32700002 4278928156
0.037174605 0.040013552 0.32600001 4278862363
0.038233455 0.040013552 0.32600001 4278993949
0.039171774 0.039890811 0.32500002 4279124765
0.040103596 0.03976807 0.324 4279124765
0.041028924 0.039645329 0.32300001 4279124252
0.042078033 0.039645329 0.32300001 4279190045
0.04299362 0.039522592 0.32200003 4278861080
0.044039473 0.039522592 0.32200003 4279715365
0.044945311 0.039399847 0.32100001 4279187226
0.045844659 0.039277107 0.32000002 4278198534
0.046884019 0.039277107 0.32000002 4278663960
0.047773615 0.039154366 0.31900001 4278797084
0.04880973 0.039154366 0.31900001 4278862875
0.049845841 0.039154366 0.31900001 4278797082
0.050881952 0.039154366 0.31900001 4278797080
0.051755317 0.039031625 0.31800002 4278665494
0.052788179 0.039031625 0.31800002 4278731287
0.053821042 0.039031625 0.31800002 4278533908
0.054853909 0.039031625 0.31800002 4278533908
0.055886775 0.039031625 0.31800002 4278731289
0.056919642 0.039031625 0.31800002 4279254814
0.05777026 0.038908884 0.317 4281291065
0.0012781691 0.044726476 0.35500002 4278863390
0.0024312097 0.044726476 0.35500002 4278863390
0.0035842503 0.044726476 0.35500002 4278929183
0.0047239466 0.044600483 0.354 4278731802
0.0058737388 0.044600483 0.354 4278202382
0.0070036915 0.044474494 0.35300002 4278595349
0.0081502357 0.044474494 0.35300002 4278861080
0.0092704445 0.044348504 0.35200003 4278993949
0.010384156 0.044222515 0.35100001 4279185689
0.011491373 0.044096526 0.35000002 4278262279
0.012592091 0.043970533 0.34900001 4278721549
0.013686316 0.043844543 0.34800002 4278786572
0.014731468 0.043592565 0.34600002 4278917390
0.015809454 0.043466575 0.34500003 4278851597
0.016880941 0.043340582 0.34400001 4278851597
0.017945932 0.043214593 0.34300002 4278851597
0.019059997 0.043214593 0.34300002 4278851597
0.020115245 0.043088604 0.34200001 4278851597
0.021163998 0.042962614 0.34100002 4278196484
0.022206252 0.042836621 0.34 4279121947
0.023310574 0.042836621 0.34 4279845670
0.024343086 0.042710632 0.33900002 4278657039
0.025369102 0.042584646 0.33800003 4278983951
0.026388623 0.042458653 0.33700001 4278853135
0.027401647 0.042332664 0.33600003 4278922519
0.028408175 0.042206671 0.33500001 4279516191
0.029408207 0.042080685 0.33400002 4279319324
0.03040174 0.041954692 0.333 4278858773
0.031388782 0.041828703 0.33200002 4279253271
0.032369327 0.041702714 0.33100003 4279057176
0.033343375 0.041576721 0.33000001 4278661396
0.034310929 0.041450735 0.32900003 4279121179
0.03527198 0.041324742 0.32800001 4278859545
0.036226545 0.041198753 0.32700002 4278267919
0.03728864 0.041198753 0.32700002 4278862363
0.038233455 0.04107276 0.32600001 4278664984
0.039171774 0.040946774 0.32500002 4278993179
0.040103596 0.040820781 0.324 4278927386
0.041155949 0.040820781 0.324 4278796570
0.042078033 0.040694792 0.32300001 4278664984
0.04299362 0.040568803 0.32200003 4278928156
0.044039473 0.040568803 0.32200003 4278993949
0.044945311 0.040442813 0.32100001 4279058972
0.045987923 0.040442813 0.32100001 4278200586
0.046884019 0.040316824 0.32000002 4279451680
0.047923379 0.040316824 0.32000002 4278862363
0.04880973 0.040190831 0.31900001 4278928668
0.049845841 0.040190831 0.31900001 4278731289
0.050881952 0.040190831 0.31900001 4278468115
0.051755317 0.040064842 0.31800002 4278665494
0.052788179 0.040064842 0.31800002 4278731287
0.053821042 0.040064842 0.31800002 4278533908
0.054853909 0.040064842 0.31800002 4278664980
0.055711027 0.039938848 0.317 4278599189
0.056740645 0.039938848 0.317 4278794517
0.05777026 0.039938848 0.317 4279579934
0.0012781691 0.045879904 0.35500002 4278797597
0.0024312097 0.045879904 0.35500002 4278666011
0.0035842503 0.045879904 0.35500002 4278797597
0.0047239466 0.045750663 0.354 4278797597
0.0058737388 0.045750663 0.354 4278927132
0.0070235315 0.045750663 0.354 4278662679
0.0081502357 0.045621425 0.35300002 4279058972
0.0092704445 0.045492187 0.35200003 4278928156
0.010413741 0.045492187 0.35200003 4278928156
0.011491373 0.045233708 0.35000002 4279058972
0.012592091 0.045104466 0.34900001 4279254816
0.013686316 0.044975229 0.34800002 4279649061
0.014774044 0.044845987 0.347 4279976742
0.015809454 0.044587512 0.34500003 4278856211
0.016880941 0.04445827 0.34400001 4278328074
0.017945932 0.044329032 0.34300002 4278524683
0.019059997 0.044329032 0.34300002 4278983183
0.020115245 0.044199791 0.34200001 4278916877
0.021163998 0.044070557 0.34100002 4278195458
0.022206252 0.043941315 0.34 4279385117
0.023242014 0.043812077 0.33900002 4279781412
0.024343086 0.043812077 0.33900002 4278856978
0.025294045 0.043553598 0.33700001 4278787853
0.026310319 0.04342436 0.33600003 4278987029
0.027320093 0.043295119 0.33500001 4279450912
0.028408175 0.043295119 0.33500001 4278198789
0.029408207 0.043165881 0.33400002 4278200329
0.03040174 0.04303664 0.333 4279385117
0.031388782 0.042907402 0.33200002 4278200329
0.032369327 0.042778164 0.33100003 4279516703
0.033343375 0.042648923 0.33000001 4278199046
0.034310929 0.042519685 0.32900003 4279450398
0.03527198 0.042390443 0.32800001 4278331917
0.036337327 0.042390443 0.32800001 4278199564
0.03728864 0.042261206 0.32700002 4278200072
0.038233455 0.042131964 0.32600001 4278266122
0.039171774 0.04200273 0.32500002 4279647777
0.040103596 0.041873489 0.324 4278200331
0.041155949 0.041873489 0.324 4279452963
0.042078033 0.041744251 0.32300001 4278200583
0.04299362 0.041615013 0.32200003 4278532115
0.044039473 0.041615013 0.32200003 4278862361
0.044945311 0.041485772 0.32100001 4278664982
0.045987923 0.041485772 0.32100001 4278201099
0.046884019 0.041356534 0.32000002 4279187740
0.047923379 0.041356534 0.32000002 4278993179
0.048962738 0.041356534 0.32000002 4278993947
0.049845841 0.041227292 0.31900001 4278862361
0.050881952 0.041227292 0.31900001 4278862361
0.051755317 0.041098054 0.31800002 4278862359
0.052788179 0.041098054 0.31800002 4278533394
0.053821042 0.041098054 0.31800002 4278664980
0.054681409 0.040968813 0.317 4278664980
0.055711027 0.040968813 0.317 4278598419
0.056740645 0.040968813 0.317 4278859797
0.05777026 0.040968813 0.317 4279119637
0.0012781691 0.047033336 0.35500002 4279058718
0.0024312097 0.047033336 0.35500002 4278927132
0.0035842503 0.047033336 0.35500002 4278796830
0.004737291 0.047033336 0.35500002 4278731037
0.0058737388 0.046900846 0.354 4278665498
0.0070235315 0.046900846 0.354 4278862877
0.0081502357 0.04676836 0.35300002 4278797084
0.0092967805 0.04676836 0.35300002 4278731291
0.010413741 0.046635874 0.35200003 4278731291
0.011524205 0.046503384 0.35100001 4278862877
0.012628173 0.046370897 0.35000002 4278993949
0.013686316 0.046105918 0.34800002 4278928156
0.014774044 0.045973428 0.347 4278928156
0.015809454 0.045708455 0.34500003 4278993179
0.016880941 0.045575965 0.34400001 4279123998
0.017945932 0.045443479 0.34300002 4278925849
0.019059997 0.045443479 0.34300002 4279582498
0.020115245 0.045310989 0.34200001 4279976742
0.021163998 0.045178503 0.34100002 4279384090
0.022206252 0.045046009 0.34 4278200072
0.023242014 0.044913523 0.33900002 4278197762
0.024271278 0.044781037 0.33800003 4278197509
0.025294045 0.044648547 0.33700001 4278593039
0.026310319 0.044516061 0.33600003 4279251482
0.027320093 0.044383571 0.33500001 4279845668
0.028323375 0.044251084 0.33400002 4279254555
0.029320156 0.044118594 0.333 4279189275
0.030310445 0.043986108 0.33200002 4279255068
0.031388782 0.043986108 0.33200002 4278991896
0.032369327 0.043853618 0.33100003 4278794004
0.033343375 0.043721128 0.33000001 4279320094
0.034310929 0.043588642 0.32900003 4279320094
0.03527198 0.043456152 0.32800001 4278198789
0.036226545 0.043323666 0.32700002 4279055386
0.03728864 0.043323666 0.32700002 4278265609
0.038233455 0.043191176 0.32600001 4278199301
0.039171774 0.04305869 0.32500002 4279187740
0.040103596 0.0429262 0.324 4278661396
0.041155949 0.0429262 0.324 4279318812
0.042078033 0.04279371 0.32300001 4278989847
0.04299362 0.042661224 0.32200003 4279318812
0.044039473 0.042661224 0.32200003 4279123228
0.044945311 0.042528734 0.32100001 4279124765
0.045987923 0.042528734 0.32100001 4278199817
0.047030531 0.042528734 0.32100001 4279319324
0.047923379 0.042396247 0.32000002 4278993179
0.048962738 0.042396247 0.32000002 4278862875
0.049845841 0.042263757 0.31900001 4278797082
0.050881952 0.042263757 0.31900001 4278797082
0.051755317 0.042131271 0.31800002 4278533910
0.052788179 0.042131271 0.31800002 4278862359
0.053651791 0.041998781 0.317 4278533648
0.054681409 0.041998781 0.317 4278598417
0.055711027 0.041998781 0.317 4278795285
0.056740645 0.041998781 0.317 4278991383
0.05777026 0.041998781 0.317 4279119637
0.0012817696 0.048322503 0.35600001 4279582234
0.0024312097 0.048186764 0.35500002 4279516955
0.0035842503 0.048186764 0.35500002 4279189275
0.004737291 0.048186764 0.35500002 4279058459
0.0058903312 0.048186764 0.35500002 4278993179
0.0070235315 0.048051026 0.354 4278927386
0.0081733242 0.048051026 0.354 4278665498
0.0092967805 0.047915291 0.35300002 4278533912
0.010443325 0.047915291 0.35300002 4278665498
0.011557038 0.047779553 0.35200003 4278731291
0.012628173 0.04750808 0.35000002 4278731291
0.013725644 0.047372341 0.34900001 4278731291
0.014774044 0.047100864 0.347 4278731291
0.015855277 0.04696513 0.34600002 4278731291
0.016880941 0.046693653 0.34400001 4278797084
0.017945932 0.046557918 0.34300002 4278862877
0.019059997 0.046557918 0.34300002 4278928156
0.020115245 0.04642218 0.34200001 4279059742
0.021163998 0.046286441 0.34100002 4278993947
0.022271566 0.046286441 0.34100002 4278993177
0.023310574 0.046150703 0.34 4278992666
0.024271278 0.04587923 0.33800003 4279715619
0.025294045 0.045743492 0.33700001 4279187738
0.026310319 0.045607757 0.33600003 4278858259
0.027320093 0.045472018 0.33500001 4278264841
0.028323375 0.04533628 0.33400002 4278196224
0.029320156 0.045200542 0.333 4278197506
0.030310445 0.045064807 0.33200002 4278198533
0.031294242 0.044929069 0.33100003 4278726673
0.032369327 0.044929069 0.33100003 4279516703
0.033343375 0.04479333 0.33000001 4279452193
0.034310929 0.044657595 0.32900003 4279124252
0.03527198 0.044521853 0.32800001 4279124252
0.036226545 0.044386119 0.32700002 4279189791
0.037174605 0.04425038 0.32600001 4278992412
0.038233455 0.04425038 0.32600001 4279058205
0.039171774 0.044114646 0.32500002 4278201356
0.040103596 0.043978903 0.324 4278333201
0.041028924 0.043843169 0.32300001 4279648037
0.042078033 0.043843169 0.32300001 4278529556
0.04299362 0.043707434 0.32200003 4278660369
0.044039473 0.043707434 0.32200003 4279779875
0.044945311 0.043571692 0.32100001 4279124252
0.045987923 0.043571692 0.32100001 4278199301
0.047030531 0.043571692 0.32100001 4279649059
0.047923379 0.043435957 0.32000002 4278993179
0.048962738 0.043435957 0.32000002 4278797082
0.049845841 0.043300219 0.31900001 4278797082
0.050881952 0.043300219 0.31900001 4278731289
0.051755317 0.043164484 0.31800002 4278665496
0.052788179 0.043164484 0.31800002 4278797082
0.053651791 0.043028742 0.317 4278796568
0.054681409 0.043028742 0.317 4278597906
0.055711027 0.043028742 0.317 4278991894
0.056740645 0.043028742 0.317 4279320346
0.05777026 0.043028742 0.317 4278595855
0.0024312097 0.0493402 0.35500002 4279181830
0.0035842503 0.0493402 0.35500002 4279447057
0.004737291 0.0493402 0.35500002 4279974428
0.0058903312 0.0493402 0.35500002 4279516443
0.0070433724 0.0493402 0.35500002 4279319576
0.0081733242 0.049201209 0.354 4279057174
0.0093231164 0.049201209 0.354 4278926101
0.010443325 0.049062226 0.35300002 4279256351
0.011557038 0.048923239 0.35200003 4278862363
0.012664253 0.048784252 0.35100001 4278797084
0.013725644 0.048506279 0.34900001 4278731291
0.014816621 0.048367295 0.34800002 4278533912
0.015855277 0.048089322 0.34600002 4278797084
0.016930014 0.047950335 0.34500003 4278468117
0.017998252 0.047811348 0.34400001 4278797082
0.019059997 0.047672361 0.34300002 4278862875
0.020174062 0.047672361 0.34300002 4278862875
0.021226062 0.047533374 0.34200001 4278797082
0.022271566 0.047394387 0.34100002 4278862875
0.023310574 0.047255401 0.34 4278797084
0.024343086 0.047116414 0.33900002 4278928156
0.025294045 0.04683844 0.33700001 4278927386
0.026310319 0.046699457 0.33600003 4279058970
0.027320093 0.046560466 0.33500001 4278992664
0.028323375 0.046421483 0.33400002 4278861080
0.029320156 0.046282496 0.333 4279320607
0.030310445 0.046143509 0.33200002 4279781158
0.031294242 0.046004526 0.33100003 4279252252
0.032271534 0.045865536 0.33000001 4278198279
0.033242337 0.045726553 0.32900003 4278196481
0.034310929 0.045726553 0.32900003 4278195714
0.03527198 0.045587562 0.32800001 4278196998
0.036226545 0.045448579 0.32700002 4278594322
0.037174605 0.045309588 0.32600001 4279056922
0.038116176 0.045170605 0.32500002 4279254555
0.039171774 0.045170605 0.32500002 4279453217
0.040103596 0.045031615 0.324 4279058972
0.041028924 0.044892631 0.32300001 4279058718
0.042078033 0.044892631 0.32300001 4279255584
0.04299362 0.044753648 0.32200003 4279385887
0.044039473 0.044753648 0.32200003 4279254814
0.044945311 0.044614658 0.32100001 4279386400
0.045987923 0.044614658 0.32100001 4278198016
0.047030531 0.044614658 0.32100001 4279188762
0.047923379 0.044475675 0.32000002 4279058970
0.048962738 0.044475675 0.32000002 4278928154
0.049845841 0.044336684 0.31900001 4278796568
0.050881952 0.044336684 0.31900001 4278665496
0.051755317 0.044197701 0.31800002 4278665496
0.052788179 0.044197701 0.31800002 4278731289
0.053651791 0.04405871 0.317 4278796568
0.054681409 0.04405871 0.317 4278664212
0.055711027 0.04405871 0.317 4278927384
0.056740645 0.04405871 0.317 4279190043
0.05777026 0.04405871 0.317 4278464269
0.0035842503 0.050493632 0.35500002 4280296461
0.004737291 0.050493632 0.35500002 4280165647
0.0058903312 0.050493632 0.35500002 4279640073
0.0070433724 0.050493632 0.35500002 4279509000
0.0081733242 0.050351396 0.354 4278721281
0.0093231164 0.050351396 0.354 4279314701
0.010443325 0.050209161 0.35300002 4279515160
0.011557038 0.050066926 0.35200003 4279713822
0.012664253 0.04992469 0.35100001 4278860310
0.013725644 0.049640216 0.34900001 4278861080
0.014816621 0.049497984 0.34800002 4278795287
0.015855277 0.049213514 0.34600002 4278795800
0.016930014 0.049071278 0.34500003 4278993177
0.017998252 0.048929039 0.34400001 4278927384
0.019115565 0.048929039 0.34400001 4278664980
0.020174062 0.048786808 0.34300002 4278533908
0.021226062 0.048644569 0.34200001 4278928668
0.022336878 0.048644569 0.34200001 4278797082
0.023310574 0.048360098 0.34 4278862875
0.024343086 0.048217863 0.33900002 4278862875
0.025294045 0.047933392 0.33700001 4278862875
0.026310319 0.047791157 0.33600003 4278862875
0.02723854 0.047506686 0.33400002 4278862875
0.028238574 0.047364447 0.333 4278862877
0.029232109 0.047222216 0.33200002 4278862623
0.030310445 0.047222216 0.33200002 4278796830
0.031294242 0.04707998 0.33100003 4278993949
0.032271534 0.046937741 0.33000001 4278993179
0.033242337 0.04679551 0.32900003 4279058459
0.034206636 0.046653271 0.32800001 4279255584
0.035164446 0.046511035 0.32700002 4279649061
0.036226545 0.046511035 0.32700002 4279450912
0.037174605 0.0463688 0.32600001 4278725138
0.038116176 0.046226565 0.32500002 4278197252
0.039051246 0.046084326 0.324 4278195712
0.040103596 0.046084326 0.324 4278196481
0.041028924 0.045942094 0.32300001 4278198279
0.04194776 0.045799859 0.32200003 4279121431
0.04299362 0.045799859 0.32200003 4279715619
0.044039473 0.045799859 0.32200003 4279124250
0.044945311 0.04565762 0.32100001 4279386652
0.045987923 0.04565762 0.32100001 4278199559
0.046884019 0.045515388 0.32000002 4279123482
0.047923379 0.045515388 0.32000002 4279058970
0.048962738 0.045515388 0.32000002 4279256347
0.049845841 0.045373149 0.31900001 4278928152
0.050881952 0.045373149 0.31900001 4278862359
0.051755317 0.045230918 0.31800002 4278401810
0.052788179 0.045230918 0.31800002 4278796568
0.053821042 0.045230918 0.31800002 4278862361
0.054681409 0.045088679 0.317 4278663701
0.055711027 0.045088679 0.317 4278729494
0.056740645 0.045088679 0.317 4278860310
0.05777026 0.045088679 0.317 4278725908
0.0058903312 0.05164706 0.35500002 4280362002
0.0070433724 0.05164706 0.35500002 4279967244
0.0081964135 0.05164706 0.35500002 4279508233
0.0093231164 0.051501572 0.354 4279245063
0.010443325 0.051356092 0.35300002 4278851588
0.011557038 0.051210608 0.35200003 4278852099
0.012664253 0.051065121 0.35100001 4278195712
0.013725644 0.05077415 0.34900001 4278657287
0.014816621 0.05062867 0.34800002 4278659084
0.015855277 0.050337698 0.34600002 4279120918
0.016979085 0.050337698 0.34600002 4279187990
0.018050574 0.050192215 0.34500003 4279386137
0.019115565 0.050046727 0.34400001 4278992664
0.020232879 0.050046727 0.34400001 4279124763
0.021288127 0.049901247 0.34300002 4279387937
0.022336878 0.04975576 0.34200001 4279387937
0.023379136 0.049610276 0.34100002 4279058972
0.024414893 0.049464788 0.34 4278862363
0.025294045 0.049028337 0.33700001 4278928156
0.026232013 0.048737366 0.33500001 4278862877
0.02723854 0.048591882 0.33400002 4278731291
0.028238574 0.048446395 0.333 4278533912
0.029232109 0.048300914 0.33200002 4278600218
0.030219149 0.048155431 0.33100003 4278863390
0.031199694 0.048009943 0.33000001 4278797597
0.032271534 0.048009943 0.33000001 4278797595
0.033242337 0.047864459 0.32900003 4278797082
0.034206636 0.047718972 0.32800001 4278862875
0.035164446 0.047573492 0.32700002 4278796568
0.036115758 0.047428004 0.32600001 4278928154
0.037060574 0.047282521 0.32500002 4278993177
0.038116176 0.047282521 0.32500002 4279255836
0.039051246 0.047137033 0.324 4279320861
0.039979823 0.046991549 0.32300001 4278991383
0.041028924 0.046991549 0.32300001 4279318810
0.04194776 0.046846069 0.32200003 4278199818
0.04299362 0.046846069 0.32200003 4278197767
0.043902703 0.046700582 0.32100001 4278196997
0.044945311 0.046700582 0.32100001 4278394376
0.045987923 0.046700582 0.32100001 4278591755
0.046884019 0.046555098 0.32000002 4279123230
0.047923379 0.046555098 0.32000002 4279190558
0.04880973 0.046409611 0.31900001 4279058970
0.049845841 0.046409611 0.31900001 4278862359
0.050881952 0.046409611 0.31900001 4278862359
0.051755317 0.046264127 0.31800002 4278796566
0.052788179 0.046264127 0.31800002 4278796568
0.053821042 0.046264127 0.31800002 4279058970
0.054681409 0.046118639 0.317 4278532626
0.055711027 0.046118639 0.317 4278663699
0.056740645 0.046118639 0.317 4279122199
0.05777026 0.046118639 0.317 4280435758
0.0093231164 0.052651759 0.354 4279507465
0.010443325 0.052503027 0.35300002 4279507465
0.011557038 0.052354295 0.35200003 4279310086
0.012664253 0.052205559 0.35100001 4279113477
0.013725644 0.051908091 0.34900001 4279179016
0.014816621 0.051759358 0.34800002 4279048713
0.015901102 0.051610623 0.347 4278917640
0.016979085 0.05146189 0.34600002 4279312650
0.018050574 0.051313158 0.34500003 4279445774
0.019171134 0.051313158 0.34500003 4279315984
0.020291695 0.051313158 0.34500003 4279778078
0.02135019 0.051164422 0.34400001 4279121693
0.022402192 0.05101569 0.34300002 4279517223
0.023447696 0.050866954 0.34200001 4279649320
0.024486704 0.050718222 0.34100002 4279649320
0.025218988 0.049974553 0.33600003 4279452963
0.026232013 0.049825817 0.33500001 4279584549
0.02723854 0.049677085 0.33400002 4279452963
0.028238574 0.049528349 0.333 4279321377
0.029232109 0.049379617 0.33200002 4278993697
0.030219149 0.049230885 0.33100003 4278862625
0.031199694 0.049082149 0.33000001 4278928670
0.032173742 0.048933417 0.32900003 4278862877
0.033242337 0.048933417 0.32900003 4278862877
0.034206636 0.048784681 0.32800001 4278797084
0.035164446 0.048635948 0.32700002 4278731289
0.036115758 0.048487213 0.32600001 4278797082
0.037060574 0.04833848 0.32500002 4278862873
0.037998892 0.048189744 0.324 4278862873
0.039051246 0.048189744 0.324 4278993945
0.039979823 0.048041012 0.32300001 4278993945
0.040901903 0.04789228 0.32200003 4279124761
0.04194776 0.04789228 0.32200003 4279058970
0.042860094 0.047743544 0.32100001 4279058459
0.043902703 0.047743544 0.32100001 4279255068
0.044945311 0.047743544 0.32100001 4279779615
0.045844659 0.047594812 0.32000002 4279450910
0.046884019 0.047594812 0.32000002 4279189275
0.047923379 0.047594812 0.32000002 4279255838
0.04880973 0.047446076 0.31900001 4279058970
0.049845841 0.047446076 0.31900001 4279058970
0.050881952 0.047446076 0.31900001 4278796566
0.051755317 0.047297344 0.31800002 4278862359
0.052788179 0.047297344 0.31800002 4278928154
0.053821042 0.047297344 0.31800002 4278664982
0.054853909 0.047297344 0.31800002 4278729492
0.055711027 0.047148608 0.317 4278728724
0.056740645 0.047148608 0.317 4279121179
0.05777026 0.047148608 0.317 4282803541
0.011524205 0.053345989 0.35100001 4279375625
0.012628173 0.053194009 0.35000002 4279375625
0.013725644 0.053042024 0.34900001 4279375625
0.014816621 0.052890044 0.34800002 4279309062
0.015901102 0.052738059 0.347 4279309832
0.016979085 0.052586075 0.34600002 4279244809
0.018102894 0.052586075 0.34600002 4279442188
0.019171134 0.052434094 0.34500003 4280100885
0.020291695 0.052434094 0.34500003 4280825891
0.02135019 0.05228211 0.34400001 4286158214
0.022467503 0.05228211 0.34400001 4286356876
0.023516256 0.052130129 0.34300002 4285830021
0.024630321 0.052130129 0.34300002 4282737748
0.025744384 0.052130129 0.34300002 4279975207
0.026858451 0.052130129 0.34300002 4279186461
0.027972514 0.052130129 0.34300002 4279713316
0.029086581 0.052130129 0.34300002 4279911209
0.029144062 0.050306335 0.33100003 4279649320
0.030219149 0.050306335 0.33100003 4279452711
0.031199694 0.050154351 0.33000001 4279256099
0.032173742 0.05000237 0.32900003 4279256099
0.033242337 0.05000237 0.32900003 4279387685
0.03410235 0.049698401 0.32700002 4279124513
0.035164446 0.049698401 0.32700002 4279059488
0.036004975 0.049394436 0.32500002 4279059488
0.037060574 0.049394436 0.32500002 4278928156
0.037998892 0.049242452 0.324 4278993949
0.038930718 0.049090471 0.32300001 4279059740
0.039979823 0.049090471 0.32300001 4279059740
0.040901903 0.04893849 0.32200003 4278862361
0.041817486 0.048786502 0.32100001 4279124763
0.042860094 0.048786502 0.32100001 4278993177
0.043902703 0.048786502 0.32100001 4279190556
0.044805296 0.048634522 0.32000002 4279124763
0.045844659 0.048634522 0.32000002 4278993177
0.046884019 0.048634522 0.32000002 4279124763
0.047773615 0.048482537 0.31900001 4279058970
0.04880973 0.048482537 0.31900001 4278795798
0.049845841 0.048482537 0.31900001 4278862359
0.050881952 0.048482537 0.31900001 4278862359
0.051918067 0.048482537 0.31900001 4278664982
0.052788179 0.048330557 0.31800002 4278664982
0.053821042 0.048330557 0.31800002 4278467603
0.054853909 0.048330557 0.31800002 4278597906
0.055886775 0.048330557 0.31800002 4278859797
0.056919642 0.048330557 0.31800002 4278856215
0.014774044 0.0538655 0.347 4279638029
0.015901102 0.0538655 0.347 4279506443
0.016979085 0.053710267 0.34600002 4279375627
0.018102894 0.053710267 0.34600002 4279638799
0.019226702 0.053710267 0.34600002 4280429085
0.020291695 0.053555038 0.34500003 4281548849
0.021412257 0.053555038 0.34500003 4286551947
0.022532815 0.053555038 0.34500003 4286026116
0.023653379 0.053555038 0.34500003 4286091909
0.024773939 0.053555038 0.34500003 4286026114
0.025894497 0.053555038 0.34500003 4286289286
0.02701506 0.053555038 0.34500003 4286091907
0.02813562 0.053555038 0.34500003 4286421386
0.031199694 0.051226556 0.33000001 4280436276
0.032173742 0.051071327 0.32900003 4279581480
0.033242337 0.051071327 0.32900003 4279318562
0.034310929 0.051071327 0.32900003 4279515939
0.035379518 0.051071327 0.32900003 4279977774
0.036004975 0.050450396 0.32500002 4279780395
0.037060574 0.050450396 0.32500002 4279649061
0.037998892 0.050295163 0.324 4279649059
0.038930718 0.050139934 0.32300001 4279649572
0.039979823 0.050139934 0.32300001 4279583779
0.040901903 0.049984701 0.32200003 4279518756
0.041817486 0.049829468 0.32100001 4279518756
0.042860094 0.049829468 0.32100001 4279452963
0.043765936 0.049674239 0.32000002 4279189791
0.044805296 0.049674239 0.32000002 4279190045
0.045844659 0.049674239 0.32000002 4278993179
0.046884019 0.049674239 0.32000002 4278993179
0.047773615 0.049519002 0.31900001 4279058972
0.04880973 0.049519002 0.31900001 4279058970
0.049845841 0.049519002 0.31900001 4278795798
0.050881952 0.049519002 0.31900001 4278730005
0.051918067 0.049519002 0.31900001 4278664212
0.052788179 0.049363773 0.31800002 4278730005
0.053821042 0.049363773 0.31800002 4278730007
0.054853909 0.049363773 0.31800002 4278729240
0.055886775 0.049363773 0.31800002 4278925336
0.056919642 0.049363773 0.31800002 4279579168
0.041817486 0.050872426 0.32100001 4279778598
0.042726576 0.050713949 0.32000002 4279713570
0.043765936 0.050713949 0.32000002 4279845670
0.044805296 0.050713949 0.32000002 4279517475
0.045844659 0.050713949 0.32000002 4279649061
0.046737507 0.050555464 0.31900001 4279320607
0.047773615 0.050555464 0.31900001 4279255584
0.04880973 0.050555464 0.31900001 4279124252
0.049845841 0.050555464 0.31900001 4279058459
0.050881952 0.050555464 0.31900001 4279189791
0.051918067 0.050555464 0.31900001 4279189791
0.052954178 0.050555464 0.31900001 4279189791
0.053821042 0.050396986 0.31800002 4278992412
0.054853909 0.050396986 0.31800002 4278990361
0.055886775 0.050396986 0.31800002 4279842338
0.041817486 0.051915392 0.32100001 4285763456
0.042726576 0.051753663 0.32000002 4285763710
0.043765936 0.051753663 0.32000002 4285565815
0.044805296 0.051753663 0.32000002 4284513641
0.045701392 0.051591929 0.31900001 4283066967
0.046737507 0.051591929 0.31900001 4281553726
0.047773615 0.051591929 0.31900001 4280434473
0.04880973 0.051591929 0.31900001 4279514395
0.049845841 0.051591929 0.31900001 4279317529
0.050881952 0.051591929 0.31900001 4279054103
0.051918067 0.051591929 0.31900001 4279515424
0.052954178 0.051591929 0.31900001 4279647010
0.053821042 0.051430203 0.31800002 4279252252
0.054853909 0.051430203 0.31800002 4281683515
0.055886775 0.051430203 0.31800002 4284709995
0.043765936 0.052793372 0.32000002 4285433718
0.044665277 0.05262839 0.31900001 4285367925
0.045701392 0.05262839 0.31900001 4285038960
0.046737507 0.05262839 0.31900001 4284972397
0.047773615 0.05262839 0.31900001 4284841579
0.04880973 0.05262839 0.31900001 4284644713
0.049845841 0.05262839 0.31900001 4284447334
0.050881952 0.05262839 0.31900001 4284776297
0.051918067 0.05262839 0.31900001 4285171055
0.052954178 0.05262839 0.31900001 4285236848
0.05399029 0.05262839 0.31900001 4284841577
0.054853909 0.052463412 0.31800002 4284578407
0.055886775 0.052463412 0.31800002 4284841579
0.028653994 0.042948026 0.33587769 4294967295
0.028653994 0.042948026 0.33587769 4294901760
0.028697373 0.042450145 0.33589289 4294901760
0.028740754 0.04195226 0.33590809 4294901760
0.028784133 0.041454379 0.33592328 4294901760
0.028827513 0.040956493 0.33593848 4294901760
0.028870892 0.040458612 0.33595365 4294901760
0.028914273 0.039960731 0.33596885 4294901760
0.028957652 0.039462846 0.33598405 4294901760
0.029001031 0.038964964 0.33599925 4294901760
0.029044412 0.038467079 0.33601445 4294901760
0.029087791 0.037969198 0.33602965 4294901760
0.02913117 0.037471317 0.33604485 4294901760
0.02917455 0.036973432 0.33606005 4294901760
0.029217931 0.03647555 0.33607525 4294901760
0.02926131 0.035977669 0.33609042 4294901760
0.029304689 0.035479784 0.33610561 4294901760
0.029348068 0.034981903 0.33612081 4294901760
0.029391449 0.034484018 0.33613601 4294901760
0.029434828 0.033986136 0.33615121 4294901760
0.029478207 0.033488251 0.33616641 4294901760
0.029521588 0.03299037 0.33618161 4294901760
0.029564967 0.032492489 0.33619681 4294901760
0.029608347 0.031994604 0.33621201 4294901760
0.029651726 0.031496722 0.33622718 4294901760
0.029695107 0.030998841 0.33624238 4294901760
0.029738486 0.030500956 0.33625758 4294901760
0.029781865 0.030003075 0.33627278 4294901760
0.029825246 0.02950519 0.33628798 4294901760
0.029868625 0.029007308 0.33630317 4294901760
0.029912004 0.028509427 0.33631837 4294901760
0.029955383 0.028011542 0.33633357 4294901760
0.029998764 0.02751366 0.33634877 4294901760
0.030042144 0.027015777 0.33636394 4294901760
0.030085523 0.026517894 0.33637914 4294901760
0.030128904 0.026020011 0.33639434 4294901760
0.030172283 0.02552213 0.33640954 4294901760
0.030215662 0.025024246 0.33642474 4294901760
0.030259041 0.024526363 0.33643994 4294901760
0.030302422 0.02402848 0.33645514 4294901760
0.030345801 0.023530599 0.33647034 4294901760
0.03038918 0.023032716 0.33648553 4294901760
0.03043256 0.022534832 0.3365007 4294901760
0.030475941 0.022036951 0.3365159 4294901760
0.03051932 0.021539066 0.3365311 4294901760
0.030562699 0.021041185 0.3365463 4294901760
0.03060608 0.020543301 0.3365615 4294901760
0.030649459 0.020045418 0.3365767 4294901760
0.030692838 0.019547535 0.3365919 4294901760
0.030736217 0.019049654 0.3366071 4294901760
0.030779598 0.018551771 0.3366223 4294901760
0.030822977 0.018053887 0.3366375 4294901760
0.030866357 0.017556004 0.33665267 4294901760
0.030909736 0.017058123 0.33666787 4294901760
0.030953117 0.01656024 0.33668306 4294901760
0.030996496 0.016062355 0.33669826 4294901760
0.031039875 0.015564473 0.33671346 4294901760
0.031083256 0.01506659 0.33672866 4294901760
0.031126635 0.014568709 0.33674386 4294901760
0.031170014 0.014070826 0.33675906 4294901760
0.031213395 0.013572944 0.33677426 4294901760
0.031256773 0.013075059 0.33678943 4294901760
0.031300154 0.012577176 0.33680463 4294901760
0.031343535 0.012079295 0.33681983 4294901760
0.031386912 0.01158141 0.33683503 4294901760
0.031430293 0.011083528 0.33685023 4294901760
0.031473674 0.010585647 0.33686543 4294901760
0.031517051 0.010087762 0.33688062 4294901760
0.031560432 0.0095898807 0.33689582 4294901760
0.031603813 0.0090919957 0.33691102 4294901760
0.03164719 0.0085941143 0.33692619 4294901760
0.031690571 0.008096233 0.33694139 4294901760
0.031733949 0.0075983517 0.33695659 4294901760
0.03177733 0.0071004666 0.33697179 4294901760
0.031820711 0.0066025816 0.33698699 4294901760
0.031864088 0.0061047003 0.33700219 4294901760
0.031907469 0.0056068189 0.33701739 4294901760
0.03195085 0.0051089339 0.33703259 4294901760
0.031994227 0.0046110526 0.33704779 4294901760
0.032037608 0.0041131712 0.33706295 4294901760
0.032080989 0.0036152862 0.33707815 4294901760
0.032124367 0.0031174049 0.33709335 4294901760
0.032167748 0.0026195198 0.33710855 4294901760
0.032211125 0.0021216385 0.33712375 4294901760
0.032254506 0.0016237572 0.33713895 4294901760
0.032297887 0.0011258759 0.33715415 4294901760
0.032341264 0.00062799081 0.33716935 4294901760
0.032384645 0.00013010576 0.33718455 4294901760
0.032428026 -0.00036777556 0.33719972 4294901760
0.032471403 -0.00086565688 0.33721492 4294901760
0.032514784 -0.0013635419 0.33723012 4294901760
0.032558165 -0.0018614233 0.33724532 4294901760
0.032601543 -0.0023593083 0.33726051 4294901760
0.032644924 -0.0028571896 0.33727571 4294901760
0.032688305 -0.0033550709 0.33729091 4294901760
0.032731682 -0.003852956 0.33730611 4294901760
0.032775063 -0.0043508373 0.33732131 4294901760
0.03281844 -0.0048487186 0.33733648 4294901760
0.032861821 -0.0053466037 0.33735168 4294901760
0.032905202 -0.005844485 0.33736688 4294901760
0.03294858 -0.0063423701 0.33738208 4294901760
0.032991961 -0.0068402514 0.33739728 4294901760
0.028653994 0.042948026 0.33587769 4278255360
0.029030053 0.042970758 0.33554897 4278255360
0.02940611 0.04299349 0.33522022 4278255360
0.029782169 0.043016221 0.3348915 4278255360
0.030158225 0.043038953 0.33456278 4278255360
0.030534284 0.043061689 0.33423403 4278255360
0.030910341 0.04308442 0.33390531 4278255360
0.0312864 0.043107152 0.33357656 4278255360
0.031662457 0.043129884 0.33324784 4278255360
0.032038514 0.043152615 0.33291912 4278255360
0.032414574 0.043175347 0.33259037 4278255360
0.032790631 0.043198079 0.33226165 4278255360
0.033166688 0.043220811 0.33193293 4278255360
0.033542745 0.043243542 0.33160418 4278255360
0.033918805 0.043266278 0.33127546 4278255360
0.034294862 0.043289009 0.33094671 4278255360
0.034670919 0.043311741 0.33061799 4278255360
0.03504698 0.043334473 0.33028927 4278255360
0.035423037 0.043357205 0.32996053 4278255360
0.035799094 0.043379936 0.32963181 4278255360
0.03617515 0.043402668 0.32930309 4278255360
0.036551207 0.0434254 0.32897434 4278255360
0.036927268 0.043448132 0.32864562 4278255360
0.037303325 0.043470867 0.32831687 4278255360
0.037679382 0.043493599 0.32798815 4278255360
0.038055442 0.04351633 0.32765943 4278255360
0.038431499 0.043539062 0.32733068 4278255360
0.038807556 0.043561794 0.32700196 4278255360
0.039183613 0.043584526 0.32667324 4278255360
0.03955967 0.043607257 0.32634449 4278255360
0.03993573 0.043629989 0.32601577 4278255360
0.040311787 0.043652721 0.32568705 4278255360
0.040687844 0.043675456 0.3253583 4278255360
0.041063905 0.043698188 0.32502958 4278255360
0.041439962 0.04372092 0.32470083 4278255360
0.041816019 0.043743651 0.32437211 4278255360
0.042192079 0.043766383 0.32404339 4278255360
0.042568136 0.043789115 0.32371464 4278255360
0.042944193 0.043811847 0.32338592 4278255360
0.04332025 0.043834578 0.3230572 4278255360
0.043696307 0.04385731 0.32272846 4278255360
0.044072367 0.043880045 0.32239974 4278255360
0.044448424 0.043902777 0.32207099 4278255360
0.044824481 0.043925509 0.32174227 4278255360
0.045200542 0.043948241 0.32141355 4278255360
0.045576595 0.043970972 0.3210848 4278255360
0.045952655 0.043993704 0.32075608 4278255360
0.046328712 0.044016436 0.32042736 4278255360
0.046704769 0.044039167 0.32009861 4278255360
0.04708083 0.044061899 0.31976989 4278255360
0.047456887 0.044084631 0.31944114 4278255360
0.047832943 0.044107366 0.31911242 4278255360
0.048209004 0.044130098 0.3187837 4278255360
0.048585057 0.04415283 0.31845495 4278255360
0.048961118 0.044175562 0.31812623 4278255360
0.049337178 0.044198293 0.31779751 4278255360
0.049713232 0.044221025 0.31746876 4278255360
0.050089292 0.044243757 0.31714004 4278255360
0.050465349 0.044266488 0.31681132 4278255360
0.050841406 0.04428922 0.31648257 4278255360
0.051217467 0.044311956 0.31615385 4278255360
0.051593523 0.044334687 0.3158251 4278255360
0.05196958 0.044357419 0.31549639 4278255360
0.052345641 0.044380151 0.31516767 4278255360
0.052721694 0.044402882 0.31483892 4278255360
0.053097755 0.044425614 0.3145102 4278255360
0.053473815 0.044448346 0.31418148 4278255360
0.053849868 0.044471078 0.31385273 4278255360
0.054225929 0.044493809 0.31352401 4278255360
0.054601986 0.044516545 0.31319529 4278255360
0.054978043 0.044539277 0.31286654 4278255360
0.0553541 0.044562008 0.31253782 4278255360
0.05573016 0.04458474 0.31220907 4278255360
0.056106217 0.044607472 0.31188035 4278255360
0.056482278 0.044630203 0.31155163 4278255360
0.056858331 0.044652935 0.31122288 4278255360
0.057234392 0.044675667 0.31089416 4278255360
0.057610448 0.044698399 0.31056541 4278255360
0.057986505 0.044721134 0.31023669 4278255360
0.058362566 0.044743866 0.30990797 4278255360
0.058738623 0.044766597 0.30957922 4278255360
0.05911468 0.044789329 0.3092505 4278255360
0.059490737 0.044812061 0.30892178 4278255360
0.059866793 0.044834793 0.30859303 4278255360
0.060242854 0.044857524 0.30826432 4278255360
0.060618911 0.044880256 0.3079356 4278255360
0.060994972 0.044902988 0.30760685 4278255360
0.061371028 0.044925723 0.30727813 4278255360
0.061747085 0.044948455 0.30694938 4278255360
0.062123142 0.044971187 0.30662066 4278255360
0.062499199 0.044993918 0.30629194 4278255360
0.062875256 0.04501665 0.30596319 4278255360
0.063251317 0.045039382 0.30563447 4278255360
0.063627377 0.045062114 0.30530575 4278255360
0.06400343 0.045084845 0.304977 4278255360
0.064379491 0.045107577 0.30464828 4278255360
0.064755544 0.045130312 0.30431956 4278255360
0.065131605 0.045153044 0.30399081 4278255360
0.065507665 0.045175776 0.30366209 4278255360
0.065883726 0.045198508 0.30333334 4278255360
0.066259779 0.045221239 0.30300462 4278255360
0.028653994 0.042948026 0.33587769 4278190335
0.028995149 0.042988837 0.33624095 4278190335
0.029336302 0.043029647 0.33660418 4278190335
0.029677456 0.043070458 0.33696744 4278190335
0.030018611 0.043111268 0.33733067 4278190335
0.030359764 0.043152079 0.33769393 4278190335
0.030700918 0.04319289 0.33805716 4278190335
0.031042073 0.0432337 0.33842042 4278190335
0.031383228 0.043274511 0.33878365 4278190335
0.031724382 0.043315321 0.33914691 4278190335
0.032065533 0.043356135 0.33951014 4278190335
0.032406688 0.043396946 0.3398734 4278190335
0.032747842 0.043437757 0.34023666 4278190335
0.033088997 0.043478567 0.34059989 4278190335
0.033430152 0.043519378 0.34096316 4278190335
0.033771306 0.043560188 0.34132639 4278190335
0.034112457 0.043600999 0.34168965 4278190335
0.034453612 0.043641809 0.34205288 4278190335
0.034794766 0.04368262 0.34241614 4278190335
0.035135921 0.04372343 0.34277937 4278190335
0.035477076 0.043764241 0.34314263 4278190335
0.03581823 0.043805052 0.34350589 4278190335
0.036159381 0.043845862 0.34386912 4278190335
0.036500536 0.043886673 0.34423238 4278190335
0.036841691 0.043927483 0.34459561 4278190335
0.037182845 0.043968294 0.34495887 4278190335
0.037524 0.044009104 0.3453221 4278190335
0.037865154 0.044049915 0.34568536 4278190335
0.038206309 0.044090725 0.34604859 4278190335
0.03854746 0.044131536 0.34641185 4278190335
0.038888615 0.044172347 0.34677511 4278190335
0.039229769 0.044213161 0.34713835 4278190335
0.039570924 0.044253971 0.34750161 4278190335
0.039912079 0.044294782 0.34786484 4278190335
0.040253229 0.044335593 0.3482281 4278190335
0.040594384 0.044376403 0.34859133 4278190335
0.040935539 0.044417214 0.34895459 4278190335
0.041276693 0.044458024 0.34931782 4278190335
0.041617848 0.044498835 0.34968108 4278190335
0.041959003 0.044539645 0.35004431 4278190335
0.042300157 0.044580456 0.35040757 4278190335
0.042641312 0.044621266 0.35077083 4278190335
0.042982463 0.044662077 0.35113406 4278190335
0.043323617 0.044702888 0.35149732 4278190335
0.043664772 0.044743698 0.35186055 4278190335
0.044005927 0.044784509 0.35222381 4278190335
0.044347078 0.044825319 0.35258704 4278190335
0.044688232 0.04486613 0.3529503 4278190335
0.045029387 0.04490694 0.35331354 4278190335
0.045370542 0.044947751 0.3536768 4278190335
0.045711696 0.044988565 0.35404003 4278190335
0.046052851 0.045029376 0.35440329 4278190335
0.046394005 0.045070186 0.35476655 4278190335
0.04673516 0.045110997 0.35512978 4278190335
0.047076315 0.045151807 0.35549304 4278190335
0.047417469 0.045192618 0.35585627 4278190335
0.04775862 0.045233428 0.35621953 4278190335
0.048099775 0.045274239 0.35658276 4278190335
0.048440926 0.04531505 0.35694602 4278190335
0.04878208 0.04535586 0.35730925 4278190335
0.049123235 0.045396671 0.35767251 4278190335
0.04946439 0.045437481 0.35803577 4278190335
0.049805544 0.045478292 0.358399 4278190335
0.050146699 0.045519102 0.35876226 4278190335
0.050487854 0.045559913 0.35912549 4278190335
0.050829008 0.045600723 0.35948876 4278190335
0.051170163 0.045641534 0.35985199 4278190335
0.051511317 0.045682345 0.36021525 4278190335
0.051852468 0.045723155 0.36057848 4278190335
0.052193623 0.045763966 0.36094174 4278190335
0.052534774 0.045804776 0.361305 4278190335
0.052875929 0.045845591 0.36166823 4278190335
0.053217083 0.045886401 0.36203149 4278190335
0.053558238 0.045927212 0.36239472 4278190335
0.053899392 0.045968022 0.36275798 4278190335
0.054240547 0.046008833 0.36312121 4278190335
0.054581702 0.046049643 0.36348447 4278190335
0.054922856 0.046090454 0.3638477 4278190335
0.055264011 0.046131264 0.36421096 4278190335
0.055605166 0.046172075 0.36457419 4278190335
0.05594632 0.046212886 0.36493745 4278190335
0.056287471 0.046253696 0.36530071 4278190335
0.056628626 0.046294507 0.36566395 4278190335
0.056969777 0.046335317 0.36602721 4278190335
0.057310931 0.046376128 0.36639044 4278190335
0.057652086 0.046416938 0.3667537 4278190335
0.057993241 0.046457749 0.36711693 4278190335
0.058334395 0.046498559 0.36748019 4278190335
0.05867555 0.04653937 0.36784342 4278190335
0.059016705 0.046580181 0.36820668 4278190335
0.059357859 0.046620995 0.36856991 4278190335
0.059699014 0.046661805 0.36893317 4278190335
