# .PCD v0.7 - Point Cloud Data file format
VERSION 0.7
FIELDS x y z rgb
SIZE 4 4 4 4
TYPE F F F U
COUNT 1 1 1 1
WIDTH 1066
HEIGHT 1
VIEWPOINT 0 0 0 1 0 0 0
POINTS 1066
DATA ascii
0.051679473 0.041873489 0.324 4279121431
0.052569076 0.041744251 0.32300001 4279055892
0.053618181 0.041744251 0.32300001 4278990613
0.054667283 0.041744251 0.32300001 4279056406
0.055543896 0.041615013 0.32200003 4278794517
0.056589752 0.041615013 0.32200003 4278729494
0.057635613 0.041615013 0.32200003 4278532628
0.058681466 0.041615013 0.32200003 4278598419
0.059727322 0.041615013 0.32200003 4278532626
0.060584441 0.041485772 0.32100001 4278598419
0.061627045 0.041485772 0.32100001 4278598419
0.062864892 0.041615013 0.32200003 4278532626
0.063910753 0.041615013 0.32200003 4278532626
0.064956605 0.041615013 0.32200003 4278532628
0.066207439 0.041744251 0.32300001 4278532626
0.06725654 0.041744251 0.32300001 4278532626
0.068305649 0.041744251 0.32300001 4278664212
0.069569468 0.041873489 0.324 4278795287
0.070621818 0.041873489 0.324 4278327302
0.071674176 0.041873489 0.324 4278195459
0.072726525 0.041873489 0.324 4278726673
0.073778875 0.041873489 0.324 4279318297
0.0750622 0.04200273 0.32500002 4278522886
0.076117791 0.04200273 0.32500002 4278456839
0.077410847 0.042131964 0.32600001 4278456326
0.078469701 0.042131964 0.32600001 4278587912
0.079772502 0.042261206 0.32700002 4278456839
0.080834597 0.042261206 0.32700002 4278391046
0.082147136 0.042390443 0.32800001 4278522632
0.083212487 0.042390443 0.32800001 4278391046
0.084534779 0.042519685 0.32900003 4278654732
0.085603371 0.042519685 0.32900003 4278458888
0.086935401 0.042648923 0.33000001 4278723343
0.088007249 0.042648923 0.33000001 4278393095
0.089349031 0.042778164 0.33100003 4279118099
0.090424113 0.042778164 0.33100003 4279055640
0.091775626 0.042907402 0.33200002 4278196997
0.092853971 0.042907402 0.33200002 4278654472
0.093932308 0.042907402 0.33200002 4278851338
0.095296815 0.04303664 0.333 4278720265
0.096378401 0.04303664 0.333 4278788875
0.097752653 0.043165881 0.33400002 4279317529
0.098837487 0.043165881 0.33400002 4279318299
0.099922322 0.043165881 0.33400002 4278331404
0.10130957 0.043295119 0.33500001 4278528013
0.10239765 0.043295119 0.33500001 4279121431
0.10379466 0.04342436 0.33600003 4278462988
0.10488598 0.04342436 0.33600003 4279317529
0.10629271 0.043553598 0.33700001 4278921488
0.10770595 0.04368284 0.33800003 4278394630
0.10880377 0.04368284 0.33800003 4278461707
0.11022675 0.043812077 0.33900002 4278396427
0.11165622 0.043941315 0.34 4278857746
0.11276054 0.043941315 0.34 4278265609
0.11419976 0.044070557 0.34100002 4278396425
0.11530732 0.044070557 0.34100002 4278922769
0.11675628 0.044199791 0.34200001 4278198273
0.11821175 0.044329032 0.34300002 4278990611
0.11932582 0.044329032 0.34300002 4279121172
0.12079101 0.04445827 0.34400001 4278987279
0.12226272 0.044587512 0.34500003 4278925588
0.1237409 0.044716749 0.34600002 4278794515
0.1248647 0.044716749 0.34600002 4278729492
0.12635264 0.044845987 0.347 4278795285
0.12784709 0.044975229 0.34800002 4278795285
0.12897739 0.044975229 0.34800002 4278992664
0.13048157 0.045104466 0.34900001 4279515930
0.033545457 0.043986108 0.33200002 4285565563
0.034623791 0.043986108 0.33200002 4284842354
0.035702128 0.043986108 0.33200002 4285171321
0.036004975 0.04305869 0.32500002 4285171321
0.037060574 0.04305869 0.32500002 4285171321
0.038350739 0.043323666 0.32700002 4285237114
0.039412834 0.043323666 0.32700002 4285171321
0.040351149 0.043191176 0.32600001 4285434491
0.041409999 0.043191176 0.32600001 4285171319
0.042338576 0.04305869 0.32500002 4285105526
0.043394178 0.04305869 0.32500002 4285433979
0.044449776 0.04305869 0.32500002 4283919457
0.045505378 0.04305869 0.32500002 4279969049
0.04656098 0.04305869 0.32500002 4280494878
0.047616582 0.04305869 0.32500002 4280562719
0.048672181 0.04305869 0.32500002 4279446035
0.04957477 0.0429262 0.324 4279251223
0.050627124 0.0429262 0.324 4279251734
0.051679473 0.0429262 0.324 4278989845
0.052569076 0.04279371 0.32300001 4278858259
0.053618181 0.04279371 0.32300001 4278661648
0.054667283 0.04279371 0.32300001 4278859027
0.055716392 0.04279371 0.32300001 4278926103
0.056589752 0.042661224 0.32200003 4278663701
0.057635613 0.042661224 0.32200003 4278532628
0.058681466 0.042661224 0.32200003 4278466835
0.059727322 0.042661224 0.32200003 4278466835
0.060584441 0.042528734 0.32100001 4278466835
0.061819036 0.042661224 0.32200003 4278532628
0.062864892 0.042661224 0.32200003 4278598421
0.063910753 0.042661224 0.32200003 4278532628
0.06515833 0.04279371 0.32300001 4278664212
0.066207439 0.04279371 0.32300001 4278664212
0.06725654 0.04279371 0.32300001 4278532626
0.068305649 0.04279371 0.32300001 4278532626
0.069569468 0.0429262 0.324 4278597654
0.070621818 0.0429262 0.324 4278526478
0.071674176 0.0429262 0.324 4279512857
0.072726525 0.0429262 0.324 4278990613
0.073778875 0.0429262 0.324 4278792466
0.0750622 0.04305869 0.32500002 4278522886
0.076117791 0.04305869 0.32500002 4278719498
0.077410847 0.043191176 0.32600001 4278652937
0.078469701 0.043191176 0.32600001 4278652935
0.079772502 0.043323666 0.32700002 4278718728
0.080834597 0.043323666 0.32700002 4278718728
0.082147136 0.043456152 0.32800001 4278718728
0.083466187 0.043588642 0.32900003 4278456326
0.084534779 0.043588642 0.32900003 4278456326
0.08586356 0.043721128 0.33000001 4278522119
0.086935401 0.043721128 0.33000001 4278522119
0.088273942 0.043853618 0.33100003 4278522632
0.089349031 0.043853618 0.33100003 4279514141
0.090424113 0.043853618 0.33100003 4278727959
0.091775626 0.043986108 0.33200002 4278593039
0.092853971 0.043986108 0.33200002 4278589193
0.094215229 0.044118594 0.333 4278720011
0.095296815 0.044118594 0.333 4278984721
0.096378401 0.044118594 0.333 4279251223
0.097752653 0.044251084 0.33400002 4278195968
0.098837487 0.044251084 0.33400002 4278198276
0.099922322 0.044251084 0.33400002 4279055127
0.10130957 0.044383571 0.33500001 4278197506
0.10270333 0.044516061 0.33600003 4278395914
0.10379466 0.044516061 0.33600003 4278593804
0.10519814 0.044648547 0.33700001 4279712285
0.10629271 0.044648547 0.33700001 4278197507
0.10770595 0.044781037 0.33800003 4278724109
0.10912567 0.044913523 0.33900002 4278921488
0.11022675 0.044913523 0.33900002 4278461707
0.11165622 0.045046009 0.34 4279382809
0.1130922 0.045178503 0.34100002 4278330634
0.11419976 0.045178503 0.34100002 4278194688
0.11564547 0.045310989 0.34200001 4278921488
0.11675628 0.045310989 0.34200001 4278593291
0.11821175 0.045443479 0.34300002 4278990097
0.11932582 0.045443479 0.34300002 4278592523
0.12079101 0.045575965 0.34400001 4279513625
0.12226272 0.045708455 0.34500003 4278991379
0.1237409 0.045840941 0.34600002 4278860306
0.1248647 0.045840941 0.34600002 4278860306
0.12635264 0.045973428 0.347 4278663697
0.12784709 0.046105918 0.34800002 4278597904
0.12897739 0.046105918 0.34800002 4278728722
0.03285829 0.045607757 0.33600003 4284378463
0.033949621 0.045607757 0.33600003 4285105528
0.035040949 0.045607757 0.33600003 4285039735
0.034841835 0.043978903 0.324 4285171321
0.035894189 0.043978903 0.324 4285171321
0.036946539 0.043978903 0.324 4285237114
0.038116176 0.044114646 0.32500002 4285237114
0.039171774 0.044114646 0.32500002 4285237114
0.040227376 0.044114646 0.32500002 4285237114
0.041282974 0.044114646 0.32500002 4285302907
0.042338576 0.044114646 0.32500002 4285237114
0.043394178 0.044114646 0.32500002 4285039735
0.044449776 0.044114646 0.32500002 4285039735
0.045505378 0.044114646 0.32500002 4286157700
0.04656098 0.044114646 0.32500002 4279774750
0.047616582 0.044114646 0.32500002 4279642647
0.048672181 0.044114646 0.32500002 4279314195
0.04957477 0.043978903 0.324 4278922258
0.050627124 0.043978903 0.324 4279185943
0.051679473 0.043978903 0.324 4279120918
0.052731827 0.043978903 0.324 4279055125
0.053618181 0.043843169 0.32300001 4278924820
0.054667283 0.043843169 0.32300001 4278794004
0.055716392 0.043843169 0.32300001 4278728724
0.056589752 0.043707434 0.32200003 4278663701
0.057635613 0.043707434 0.32200003 4278597908
0.058681466 0.043707434 0.32200003 4278532115
0.059727322 0.043707434 0.32200003 4278598421
0.060773183 0.043707434 0.32200003 4278664214
0.061819036 0.043707434 0.32200003 4278598421
0.062864892 0.043707434 0.32200003 4278598421
0.063910753 0.043707434 0.32200003 4278466835
0.06515833 0.043843169 0.32300001 4278664212
0.066207439 0.043843169 0.32300001 4278598419
0.06725654 0.043843169 0.32300001 4278466835
0.068305649 0.043843169 0.32300001 4278532628
0.069569468 0.043978903 0.324 4278199813
0.070621818 0.043978903 0.324 4278198279
0.071674176 0.043978903 0.324 4278462736
0.072726525 0.043978903 0.324 4278794517
0.073778875 0.043978903 0.324 4278662931
0.0750622 0.044114646 0.32500002 4279316762
0.076117791 0.044114646 0.32500002 4279117588
0.077410847 0.04425038 0.32600001 4278524683
0.078469701 0.04425038 0.32600001 4278326021
0.079772502 0.044386119 0.32700002 4278587396
0.0810818 0.044521853 0.32800001 4278521603
0.082147136 0.044521853 0.32800001 4278522119
0.083466187 0.044657595 0.32900003 4278456326
0.084534779 0.044657595 0.32900003 4278587912
0.08586356 0.04479333 0.33000001 4278718728
0.086935401 0.04479333 0.33000001 4278718728
0.088273942 0.044929069 0.33100003 4278719498
0.089349031 0.044929069 0.33100003 4278922517
0.090697289 0.045064807 0.33200002 4278200077
0.091775626 0.045064807 0.33200002 4279119637
0.092853971 0.045064807 0.33200002 4279579164
0.094215229 0.045200542 0.333 4279512859
0.095296815 0.045200542 0.333 4279579166
0.096378401 0.045200542 0.333 4279449113
0.097752653 0.04533628 0.33400002 4279383320
0.098837487 0.04533628 0.33400002 4278989845
0.10022149 0.045472018 0.33500001 4279121431
0.10130957 0.045472018 0.33500001 4279187224
0.10270333 0.045607757 0.33600003 4278989845
0.10379466 0.045607757 0.33600003 4279186965
0.10519814 0.045743492 0.33700001 4279187478
0.10660812 0.04587923 0.33800003 4279055638
0.10770595 0.04587923 0.33800003 4279187224
0.10912567 0.046014968 0.33900002 4279187478
0.11055189 0.046150703 0.34 4278858513
0.11165622 0.046150703 0.34 4279054357
0.1130922 0.046286441 0.34100002 4279383322
0.11419976 0.046286441 0.34100002 4279053844
0.11564547 0.04642218 0.34200001 4278593293
0.11675628 0.04642218 0.34200001 4279054355
0.11821175 0.046557918 0.34300002 4279121685
0.11932582 0.046557918 0.34300002 4278196738
0.12079101 0.046693653 0.34400001 4279711774
0.12226272 0.046829391 0.34500003 4278859793
0.12338327 0.046829391 0.34500003 4278859793
0.1248647 0.04696513 0.34600002 4278860306
0.12635264 0.047100864 0.347 4278794513
0.1274797 0.047100864 0.347 4278794515
0.12897739 0.047236603 0.34800002 4278991383
0.033053875 0.046977431 0.33800003 4285104761
0.034151699 0.046977431 0.33800003 4285171068
0.035249524 0.046977431 0.33800003 4285171068
0.034841835 0.045031615 0.324 4285237114
0.035894189 0.045031615 0.324 4285105528
0.036832508 0.044892631 0.32300001 4285171321
0.037998892 0.045031615 0.324 4285171321
0.039051246 0.045031615 0.324 4285105528
0.040103596 0.045031615 0.324 4285105528
0.041155949 0.045031615 0.324 4285171321
0.042338576 0.045170605 0.32500002 4285171321
0.043394178 0.045170605 0.32500002 4285237114
0.044449776 0.045170605 0.32500002 4285237114
0.045505378 0.045170605 0.32500002 4284973942
0.04656098 0.045170605 0.32500002 4285631870
0.047616582 0.045170605 0.32500002 4283459928
0.048672181 0.045170605 0.32500002 4279183896
0.04957477 0.045031615 0.324 4278987029
0.050627124 0.045031615 0.324 4279119383
0.051679473 0.045031615 0.324 4279185943
0.052731827 0.045031615 0.324 4279317781
0.053618181 0.044892631 0.32300001 4278990099
0.054667283 0.044892631 0.32300001 4279056406
0.055716392 0.044892631 0.32300001 4278926103
0.056765497 0.044892631 0.32300001 4278729494
0.057635613 0.044753648 0.32200003 4278597908
0.058681466 0.044753648 0.32200003 4278597908
0.059727322 0.044753648 0.32200003 4278598421
0.060773183 0.044753648 0.32200003 4278598421
0.061819036 0.044753648 0.32200003 4278598421
0.062864892 0.044753648 0.32200003 4278730007
0.063910753 0.044753648 0.32200003 4278532628
0.064956605 0.044753648 0.32200003 4278730007
0.066207439 0.044892631 0.32300001 4278466835
0.06725654 0.044892631 0.32300001 4278335249
0.068305649 0.044892631 0.32300001 4278532628
0.06935475 0.044892631 0.32300001 4278199557
0.070621818 0.045031615 0.324 4278594322
0.071674176 0.045031615 0.324 4278594322
0.072726525 0.045031615 0.324 4278728724
0.073778875 0.045031615 0.324 4278926103
0.0750622 0.045170605 0.32500002 4278859797
0.076117791 0.045170605 0.32500002 4278859797
0.077410847 0.045309588 0.32600001 4278990359
0.078710407 0.045448579 0.32700002 4278990359
0.079772502 0.045448579 0.32700002 4279253017
0.0810818 0.045587562 0.32800001 4279055638
0.082147136 0.045587562 0.32800001 4279055638
0.083466187 0.045726553 0.32900003 4279120918
0.084534779 0.045726553 0.32900003 4279448602
0.08586356 0.045865536 0.33000001 4279119637
0.086935401 0.045865536 0.33000001 4279119637
0.088273942 0.046004526 0.33100003 4279119637
0.089349031 0.046004526 0.33100003 4279120920
0.090697289 0.046143509 0.33200002 4278856724
0.091775626 0.046143509 0.33200002 4278854927
0.093133643 0.046282496 0.333 4278723341
0.094215229 0.046282496 0.333 4278196997
0.095296815 0.046282496 0.333 4278194688
0.096667834 0.046421483 0.33400002 4278195712
0.097752653 0.046421483 0.33400002 4278195714
0.098837487 0.046421483 0.33400002 4278192896
0.10022149 0.046560466 0.33500001 4278195462
0.10130957 0.046560466 0.33500001 4278194176
0.10270333 0.046699457 0.33600003 4278193408
0.10410357 0.04683844 0.33700001 4278195456
0.10519814 0.04683844 0.33700001 4278195969
0.10660812 0.046977431 0.33800003 4278198024
0.1080246 0.047116414 0.33900002 4278527246
0.10912567 0.047116414 0.33900002 4278790672
0.11055189 0.047255401 0.34 4279185943
0.11165622 0.047255401 0.34 4279120920
0.1130922 0.047394387 0.34100002 4279252504
0.11453465 0.047533374 0.34200001 4279384090
0.11564547 0.047533374 0.34200001 4278923539
0.11709768 0.047672361 0.34300002 4279253271
0.11821175 0.047672361 0.34300002 4278858513
0.11932582 0.047672361 0.34300002 4278196999
0.12079101 0.047811348 0.34400001 4279120666
0.12226272 0.047950335 0.34500003 4278925588
0.12338327 0.047950335 0.34500003 4278859795
0.1248647 0.048089322 0.34600002 4278728209
0.12635264 0.048228305 0.347 4278991381
0.1274797 0.048228305 0.347 4278794002
0.12897739 0.048367295 0.34800002 4278990613
0.033151668 0.048217863 0.33900002 4285236347
0.03425274 0.048217863 0.33900002 4285236347
0.035353813 0.048217863 0.33900002 4285105275
0.036454882 0.048217863 0.33900002 4285171321
0.035783406 0.045942094 0.32300001 4285105528
0.036718477 0.045799859 0.32200003 4285237114
0.037881613 0.045942094 0.32300001 4285237114
0.03881019 0.045799859 0.32200003 4285237114
0.039856046 0.045799859 0.32200003 4285105528
0.040901903 0.045799859 0.32200003 4285236600
0.042338576 0.046226565 0.32500002 4285302393
0.043394178 0.046226565 0.32500002 4285236600
0.044449776 0.046226565 0.32500002 4285302393
0.045505378 0.046226565 0.32500002 4285170807
0.04656098 0.046226565 0.32500002 4285236600
0.047616582 0.046226565 0.32500002 4285105014
0.048672181 0.046226565 0.32500002 4285434491
0.04957477 0.046084326 0.324 4284645229
0.050627124 0.046084326 0.324 4280105512
0.051679473 0.046084326 0.324 4278723857
0.052731827 0.046084326 0.324 4279250199
0.053618181 0.045942094 0.32300001 4279055640
0.054667283 0.045942094 0.32300001 4279121947
0.055716392 0.045942094 0.32300001 4278991896
0.056765497 0.045942094 0.32300001 4278794517
0.057635613 0.045799859 0.32200003 4278860308
0.058681466 0.045799859 0.32200003 4278729492
0.059727322 0.045799859 0.32200003 4278466833
0.060773183 0.045799859 0.32200003 4278664214
0.061819036 0.045799859 0.32200003 4278598421
0.062864892 0.045799859 0.32200003 4278532628
0.063910753 0.045799859 0.32200003 4278664214
0.064956605 0.045799859 0.32200003 4278466835
0.066002466 0.045799859 0.32200003 4278597908
0.06725654 0.045942094 0.32300001 4278663701
0.068305649 0.045942094 0.32300001 4278729494
0.06935475 0.045942094 0.32300001 4278663701
0.070403859 0.045942094 0.32300001 4278926103
0.071674176 0.046084326 0.324 4278794517
0.072726525 0.046084326 0.324 4278794517
0.073778875 0.046084326 0.324 4278794517
0.0750622 0.046226565 0.32500002 4278728724
0.076117791 0.046226565 0.32500002 4278860310
0.077410847 0.0463688 0.32600001 4278794517
0.078710407 0.046511035 0.32700002 4278794517
0.079772502 0.046511035 0.32700002 4278926103
0.0810818 0.046653271 0.32800001 4278794517
0.082397588 0.04679551 0.32900003 4278926103
0.083466187 0.04679551 0.32900003 4278794517
0.08479172 0.046937741 0.33000001 4278860308
0.08586356 0.046937741 0.33000001 4278794515
0.087198846 0.04707998 0.33100003 4278794515
0.088273942 0.04707998 0.33100003 4278728722
0.089618966 0.047222216 0.33200002 4278794004
0.090697289 0.047222216 0.33200002 4278925590
0.091775626 0.047222216 0.33200002 4279056406
0.093133643 0.047364447 0.333 4279121685
0.094215229 0.047364447 0.333 4279121685
0.095582999 0.047506686 0.33400002 4279319064
0.096667834 0.047506686 0.33400002 4279121685
0.097752653 0.047506686 0.33400002 4279055892
0.09913341 0.047648918 0.33500001 4279252504
0.10022149 0.047648918 0.33500001 4279186711
0.10161199 0.047791157 0.33600003 4279712287
0.10270333 0.047791157 0.33600003 4279185943
0.10410357 0.047933392 0.33700001 4279383068
0.10551031 0.048075628 0.33800003 4279317529
0.10692353 0.048217863 0.33900002 4279448602
0.1080246 0.048217863 0.33900002 4279316762
0.10944758 0.048360098 0.34 4278658062
0.11055189 0.048360098 0.34 4279052820
0.11198463 0.048502333 0.34100002 4278196997
0.1130922 0.048502333 0.34100002 4278195970
0.11453465 0.048644569 0.34200001 4278195973
0.11564547 0.048644569 0.34200001 4278197258
0.11709768 0.048786808 0.34300002 4278194944
0.11821175 0.048786808 0.34300002 4278195715
0.1196737 0.048929039 0.34400001 4279382809
0.12079101 0.048929039 0.34400001 4279319324
0.12226272 0.049071278 0.34500003 4278861078
0.12338327 0.049071278 0.34500003 4278795283
0.1248647 0.049213514 0.34600002 4278991892
0.12635264 0.049355745 0.347 4278860308
0.1274797 0.049355745 0.347 4278728211
0.033249456 0.049464788 0.34 4285236600
0.034353778 0.049464788 0.34 4285368186
0.035458099 0.049464788 0.34 4285302393
0.03656242 0.049464788 0.34 4285302140
0.035672624 0.046846069 0.32200003 4285434240
0.036718477 0.046846069 0.32200003 4285237114
0.037764337 0.046846069 0.32200003 4285171321
0.03881019 0.046846069 0.32200003 4285105528
0.03973227 0.046700582 0.32100001 4285171321
0.040774874 0.046700582 0.32100001 4285236600
0.041687217 0.046555098 0.32000002 4285302393
0.043394178 0.047282521 0.32500002 4285368186
0.044449776 0.047282521 0.32500002 4285236600
0.045505378 0.047282521 0.32500002 4285236600
0.04656098 0.047282521 0.32500002 4285302393
0.047616582 0.047282521 0.32500002 4285302393
0.048522417 0.047137033 0.324 4285236598
0.04957477 0.047137033 0.324 4285302391
0.050627124 0.047137033 0.324 4285171319
0.051679473 0.047137033 0.324 4285631870
0.052731827 0.047137033 0.324 4283132506
0.053618181 0.046991549 0.32300001 4279843110
0.054667283 0.046991549 0.32300001 4278987799
0.055716392 0.046991549 0.32300001 4279317527
0.056765497 0.046991549 0.32300001 4279515676
0.057635613 0.046846069 0.32200003 4279385371
0.058681466 0.046846069 0.32200003 4279319578
0.059727322 0.046846069 0.32200003 4278991383
0.060773183 0.046846069 0.32200003 4278794263
0.061819036 0.046846069 0.32200003 4279123230
0.062864892 0.046846069 0.32200003 4279123228
0.063910753 0.046846069 0.32200003 4279123482
0.064956605 0.046846069 0.32200003 4278926103
0.066002466 0.046846069 0.32200003 4278991896
0.067048319 0.046846069 0.32200003 4278860310
0.068305649 0.046991549 0.32300001 4278926103
0.06935475 0.046991549 0.32300001 4278860310
0.070403859 0.046991549 0.32300001 4278729494
0.071674176 0.047137033 0.324 4278795287
0.072726525 0.047137033 0.324 4278860310
0.073778875 0.047137033 0.324 4278662931
0.0750622 0.047282521 0.32500002 4278794517
0.076352 0.047428004 0.32600001 4278794517
0.077410847 0.047428004 0.32600001 4278861080
0.078710407 0.047573492 0.32700002 4278400527
0.080016449 0.047718972 0.32800001 4278400527
0.0810818 0.047718972 0.32800001 4278795285
0.082397588 0.047864459 0.32900003 4278663701
0.083466187 0.047864459 0.32900003 4278532115
0.08479172 0.048009943 0.33000001 4278663699
0.08586356 0.048009943 0.33000001 4278597906
0.087198846 0.048155431 0.33100003 4278729492
0.088273942 0.048155431 0.33100003 4278597906
0.089618966 0.048300914 0.33200002 4278597906
0.090697289 0.048300914 0.33200002 4278663699
0.092052057 0.048446395 0.333 4278794515
0.093133643 0.048446395 0.333 4278860308
0.094215229 0.048446395 0.333 4278531343
0.095582999 0.048591882 0.33400002 4278531345
0.096667834 0.048591882 0.33400002 4278794517
0.097752653 0.048591882 0.33400002 4278860310
0.09913341 0.048737366 0.33500001 4278991896
0.10022149 0.048737366 0.33500001 4278728724
0.10161199 0.048882853 0.33600003 4278728724
0.10300899 0.049028337 0.33700001 4278859797
0.10441248 0.049173824 0.33800003 4278859797
0.10551031 0.049173824 0.33800003 4278859797
0.10692353 0.049319305 0.33900002 4278859027
0.10834325 0.049464788 0.34 4279056406
0.10944758 0.049464788 0.34 4279187992
0.11087705 0.049610276 0.34100002 4279122197
0.11198463 0.049610276 0.34100002 4279056404
0.11342384 0.04975576 0.34200001 4279122199
0.11453465 0.04975576 0.34200001 4279122199
0.11564547 0.04975576 0.34200001 4279122199
0.11709768 0.049901247 0.34300002 4279122199
0.11821175 0.049901247 0.34300002 4279319064
0.1196737 0.050046727 0.34400001 4279122199
0.12079101 0.050046727 0.34400001 4278991383
0.12226272 0.050192215 0.34500003 4278728724
0.12338327 0.050192215 0.34500003 4278926101
0.1248647 0.050337698 0.34600002 4279057174
0.12598851 0.050337698 0.34600002 4279188760
0.1274797 0.050483182 0.347 4279450650
0.033347253 0.050718222 0.34100002 4285105012
0.034454823 0.050718222 0.34100002 4285236600
0.035562389 0.050718222 0.34100002 4285368186
0.036669958 0.050718222 0.34100002 4285302393
0.037777528 0.050718222 0.34100002 4285433979
0.036604442 0.047743544 0.32100001 4285302907
0.037647054 0.047743544 0.32100001 4285237114
0.038689662 0.047743544 0.32100001 4285105528
0.03973227 0.047743544 0.32100001 4285237114
0.040774874 0.047743544 0.32100001 4285237114
0.041687217 0.047594812 0.32000002 4285171321
0.043394178 0.04833848 0.32500002 4285368186
0.044449776 0.04833848 0.32500002 4285368186
0.045505378 0.04833848 0.32500002 4285368186
0.04656098 0.04833848 0.32500002 4285368186
0.047470067 0.048189744 0.324 4285302393
0.048522417 0.048189744 0.324 4285302393
0.04957477 0.048189744 0.324 4285433977
0.050627124 0.048189744 0.324 4285433977
0.051679473 0.048189744 0.324 4285302391
0.052569076 0.048041012 0.32300001 4285236598
0.053618181 0.048041012 0.32300001 4285170805
0.054667283 0.048041012 0.32300001 4285828735
0.055716392 0.048041012 0.32300001 4285500286
0.056765497 0.048041012 0.32300001 4283460703
0.057635613 0.04789228 0.32200003 4281224761
0.058681466 0.04789228 0.32200003 4279710750
0.059727322 0.04789228 0.32200003 4279448861
0.060773183 0.04789228 0.32200003 4278988310
0.061819036 0.04789228 0.32200003 4279120666
0.062864892 0.04789228 0.32200003 4279187226
0.063910753 0.04789228 0.32200003 4279647777
0.064956605 0.04789228 0.32200003 4279384092
0.066002466 0.04789228 0.32200003 4279450398
0.067048319 0.04789228 0.32200003 4279385119
0.068094179 0.04789228 0.32200003 4279319326
0.06935475 0.048041012 0.32300001 4279319326
0.070403859 0.048041012 0.32300001 4279319324
0.071674176 0.048189744 0.324 4279187992
0.072726525 0.048189744 0.324 4279188762
0.073778875 0.048189744 0.324 4278991383
0.0750622 0.04833848 0.32500002 4278991383
0.076352 0.048487213 0.32600001 4278925590
0.077410847 0.048487213 0.32600001 4278794004
0.078710407 0.048635948 0.32700002 4278991383
0.080016449 0.048784681 0.32800001 4278925588
0.0810818 0.048784681 0.32800001 4278860308
0.082397588 0.048933417 0.32900003 4278991894
0.083719879 0.049082149 0.33000001 4278991894
0.08479172 0.049082149 0.33000001 4278794515
0.086123757 0.049230885 0.33100003 4278926101
0.087198846 0.049230885 0.33100003 4278795285
0.088540621 0.049379617 0.33200002 4278729492
0.089618966 0.049379617 0.33200002 4278860308
0.090970472 0.049528349 0.333 4278794515
0.092052057 0.049528349 0.333 4278662929
0.093133643 0.049528349 0.333 4278860308
0.094498165 0.049677085 0.33400002 4279123480
0.095582999 0.049677085 0.33400002 4278794515
0.096667834 0.049677085 0.33400002 4278728722
0.098045327 0.049825817 0.33500001 4278663699
0.09913341 0.049825817 0.33500001 4278532113
0.10052066 0.049974553 0.33600003 4278729492
0.10161199 0.049974553 0.33600003 4278794515
0.10300899 0.050123286 0.33700001 4278794515
0.10441248 0.050272021 0.33800003 4278860308
0.10582246 0.050420754 0.33900002 4278728722
0.10723893 0.050569486 0.34 4278728722
0.10834325 0.050569486 0.34 4278860308
0.10976949 0.050718222 0.34100002 4278859795
0.11087705 0.050718222 0.34100002 4278991381
0.11231302 0.050866954 0.34200001 4278859795
0.11342384 0.050866954 0.34200001 4278991381
0.11453465 0.050866954 0.34200001 4279188762
0.11598361 0.05101569 0.34300002 4278794004
0.11709768 0.05101569 0.34300002 4278991383
0.11821175 0.05101569 0.34300002 4278794004
0.1196737 0.051164422 0.34400001 4279057176
0.12079101 0.051164422 0.34400001 4278991383
0.12226272 0.051313158 0.34500003 4278794515
0.12338327 0.051313158 0.34500003 4279057174
0.1248647 0.05146189 0.34600002 4279320346
0.12598851 0.05146189 0.34600002 4279385369
0.032239683 0.051826164 0.34100002 4284643178
0.033347253 0.051826164 0.34100002 4285039733
0.034454823 0.051826164 0.34100002 4285302140
0.035562389 0.051826164 0.34100002 4285367933
0.036669958 0.051826164 0.34100002 4285302393
0.037777528 0.051826164 0.34100002 4285368186
0.038885094 0.051826164 0.34100002 4285237114
0.037647054 0.048786502 0.32100001 4285171321
0.038689662 0.048786502 0.32100001 4285171321
0.03973227 0.048786502 0.32100001 4285302393
0.040774874 0.048786502 0.32100001 4285302393
0.041687217 0.048634522 0.32000002 4285302393
0.042726576 0.048634522 0.32000002 4285302393
0.043765936 0.048634522 0.32000002 4285302393
0.045505378 0.049394436 0.32500002 4285367673
0.04656098 0.049394436 0.32500002 4285499259
0.047616582 0.049394436 0.32500002 4285368186
0.048672181 0.049394436 0.32500002 4285302393
0.04957477 0.049242452 0.324 4285368186
0.050627124 0.049242452 0.324 4285368184
0.051679473 0.049242452 0.324 4285368184
0.052731827 0.049242452 0.324 4285302391
0.05378418 0.049242452 0.324 4285236598
0.05483653 0.049242452 0.324 4285236598
0.055888884 0.049242452 0.324 4285236598
0.056941237 0.049242452 0.324 4285170807
0.057993591 0.049242452 0.324 4285105012
0.059045941 0.049242452 0.324 4285170805
0.060098294 0.049242452 0.324 4285170805
0.061150651 0.049242452 0.324 4285433464
0.062202998 0.049242452 0.324 4285500538
0.063255355 0.049242452 0.324 4285434745
0.064307705 0.049242452 0.324 4285435515
0.066002466 0.04893849 0.32200003 4284776815
0.067048319 0.04893849 0.32200003 4284118885
0.068094179 0.04893849 0.32200003 4282672209
0.069140032 0.04893849 0.32200003 4281948484
0.070403859 0.049090471 0.32300001 4280830003
0.07145296 0.049090471 0.32300001 4280500268
0.072726525 0.049242452 0.324 4279843106
0.073778875 0.049242452 0.324 4279382555
0.0750622 0.049394436 0.32500002 4279251223
0.076352 0.049546417 0.32600001 4279448602
0.077410847 0.049546417 0.32600001 4279712285
0.078710407 0.049698401 0.32700002 4278923539
0.080016449 0.049850386 0.32800001 4279581469
0.0810818 0.049850386 0.32800001 4279515676
0.082397588 0.05000237 0.32900003 4279121172
0.083719879 0.050154351 0.33000001 4279384344
0.08479172 0.050154351 0.33000001 4279516441
0.086123757 0.050306335 0.33100003 4279451162
0.087198846 0.050306335 0.33100003 4278991383
0.088540621 0.050458316 0.33200002 4278925590
0.089618966 0.050458316 0.33200002 4278794002
0.090970472 0.050610296 0.333 4279188760
0.092052057 0.050610296 0.333 4278991381
0.093133643 0.050610296 0.333 4279320346
0.094498165 0.050762285 0.33400002 4278794004
0.095582999 0.050762285 0.33400002 4278859797
0.096667834 0.050762285 0.33400002 4278728211
0.098045327 0.050914265 0.33500001 4278859797
0.09913341 0.050914265 0.33500001 4278991383
0.10052066 0.05106625 0.33600003 4278991383
0.10191441 0.05121823 0.33700001 4278991383
0.10300899 0.05121823 0.33700001 4279320348
0.10441248 0.051370215 0.33800003 4279122199
0.10582246 0.051522195 0.33900002 4279056406
0.10723893 0.051674176 0.34 4279122197
0.10834325 0.051674176 0.34 4279187990
0.10976949 0.051826164 0.34100002 4279319576
0.11087705 0.051826164 0.34100002 4279187990
0.11231302 0.051978145 0.34200001 4279187990
0.11342384 0.051978145 0.34200001 4279451162
0.11453465 0.051978145 0.34200001 4279122199
0.11598361 0.052130129 0.34300002 4279319578
0.11709768 0.052130129 0.34300002 4279319578
0.11821175 0.052130129 0.34300002 4279516957
0.1196737 0.05228211 0.34400001 4279582236
0.12079101 0.05228211 0.34400001 4279581982
0.12226272 0.052434094 0.34500003 4279516189
0.12338327 0.052434094 0.34500003 4279581723
0.12450383 0.052434094 0.34500003 4279578902
0.032239683 0.05293411 0.34100002 4285433213
0.033347253 0.05293411 0.34100002 4285302140
0.034454823 0.05293411 0.34100002 4285368186
0.035562389 0.05293411 0.34100002 4285368186
0.036669958 0.05293411 0.34100002 4285302393
0.037777528 0.05293411 0.34100002 4285302393
0.038885094 0.05293411 0.34100002 4285368186
0.037647054 0.049829468 0.32100001 4285368186
0.038689662 0.049829468 0.32100001 4285302393
0.03973227 0.049829468 0.32100001 4285368186
0.040647853 0.049674239 0.32000002 4285368186
0.041687217 0.049674239 0.32000002 4285368186
0.042726576 0.049674239 0.32000002 4285368186
0.066002466 0.049984701 0.32200003 4285301880
0.067048319 0.049984701 0.32200003 4285236087
0.068094179 0.049984701 0.32200003 4285302393
0.069140032 0.049984701 0.32200003 4285302907
0.090970472 0.051692251 0.333 4280302887
0.092052057 0.051692251 0.333 4279908129
0.093133643 0.051692251 0.333 4279842336
0.094498165 0.051847484 0.33400002 4279579418
0.095582999 0.051847484 0.33400002 4279711004
0.096667834 0.051847484 0.33400002 4279711004
0.098045327 0.052002717 0.33500001 4279579418
0.09913341 0.052002717 0.33500001 4279645211
0.10052066 0.05215795 0.33600003 4279908383
0.10191441 0.052313179 0.33700001 4279842590
0.10300899 0.052313179 0.33700001 4280039969
0.10441248 0.052468415 0.33800003 4280105762
0.10582246 0.052623644 0.33900002 4280105762
0.10723893 0.052778874 0.34 4280434213
0.10834325 0.052778874 0.34 4280631338
0.10976949 0.05293411 0.34100002 4280763178
0.11087705 0.05293411 0.34100002 4280697385
0.11231302 0.053089339 0.34200001 4281486134
0.11342384 0.053089339 0.34200001 4281684026
0.11453465 0.053089339 0.34200001 4282012991
0.11598361 0.053244572 0.34300002 4282341956
0.11709768 0.053244572 0.34300002 4283328851
0.11821175 0.053244572 0.34300002 4283394898
0.1196737 0.053399805 0.34400001 4284446301
0.12079101 0.053399805 0.34400001 4284841059
0.12226272 0.053555038 0.34500003 4285893234
0.032239683 0.054042049 0.34100002 4285697151
0.033347253 0.054042049 0.34100002 4285237114
0.034454823 0.054042049 0.34100002 4285433979
0.035562389 0.054042049 0.34100002 4285433979
0.036669958 0.054042049 0.34100002 4285367673
0.037777528 0.054042049 0.34100002 4285499259
0.038885094 0.054042049 0.34100002 4285433466
0.037647054 0.050872426 0.32100001 4285433979
0.038689662 0.050872426 0.32100001 4285302393
0.03973227 0.050872426 0.32100001 4285236600
0.040647853 0.050713949 0.32000002 4285302393
0.041687217 0.050713949 0.32000002 4285368186
0.042726576 0.050713949 0.32000002 4285302393
0.032239683 0.055149995 0.34100002 4285894530
0.033347253 0.055149995 0.34100002 4285302393
0.034454823 0.055149995 0.34100002 4285367673
0.035562389 0.055149995 0.34100002 4285630845
0.036669958 0.055149995 0.34100002 4285433466
0.037777528 0.055149995 0.34100002 4285433466
0.038885094 0.055149995 0.34100002 4285433466
0.039992664 0.055149995 0.34100002 4285499259
0.038689662 0.051915392 0.32100001 4285499259
0.03973227 0.051915392 0.32100001 4285301880
0.040774874 0.051915392 0.32100001 4285499259
0.032334227 0.056422915 0.34200001 4285762944
0.033445042 0.056422915 0.34200001 4285368186
0.03455586 0.056422915 0.34200001 4285499259
0.035666678 0.056422915 0.34200001 4285433466
0.036777493 0.056422915 0.34200001 4285499259
0.037888311 0.056422915 0.34200001 4285302393
0.038999125 0.056422915 0.34200001 4285302393
0.040109944 0.056422915 0.34200001 4285368186
0.031223409 0.05753411 0.34200001 4281153323
0.032334227 0.05753411 0.34200001 4285762431
0.033445042 0.05753411 0.34200001 4285433979
0.03455586 0.05753411 0.34200001 4285565565
0.035666678 0.05753411 0.34200001 4285565565
0.036777493 0.05753411 0.34200001 4285368186
0.037888311 0.05753411 0.34200001 4285302140
0.038999125 0.05753411 0.34200001 4285368186
0.032334227 0.058645301 0.34200001 4285301878
0.033445042 0.058645301 0.34200001 4285433466
0.03455586 0.058645301 0.34200001 4285433979
0.035666678 0.058645301 0.34200001 4285697151
0.032334227 0.059756495 0.34200001 4285564282
0.033445042 0.059756495 0.34200001 4285630845
0.032428775 0.061045669 0.34300002 4285433213
0.032428775 0.062160108 0.34300002 4285367420
0.032523315 0.063459024 0.34400001 4285564029
0.030288691 0.065694407 0.34400001 4285169524
0.029256182 0.06700632 0.34500003 4285038706
0.030376742 0.06700632 0.34500003 4285301880
0.072488979 0.041246336 0.32985142 4294967295
0.072488979 0.041246336 0.32985142 4294901760
0.072532907 0.040751282 0.32979673 4294901760
0.072576828 0.040256228 0.32974201 4294901760
0.072620757 0.039761174 0.32968733 4294901760
0.072664678 0.039266121 0.32963261 4294901760
0.072708607 0.038771067 0.32957792 4294901760
0.072752535 0.038276013 0.32952324 4294901760
0.072796457 0.037780955 0.32946852 4294901760
0.072840385 0.037285902 0.32941383 4294901760
0.072884314 0.036790848 0.32935914 4294901760
0.072928235 0.036295794 0.32930443 4294901760
0.072972164 0.03580074 0.32924974 4294901760
0.073016085 0.035305686 0.32919502 4294901760
0.073060013 0.034810632 0.32914034 4294901760
0.073103942 0.034315579 0.32908565 4294901760
0.073147863 0.033820525 0.32903093 4294901760
0.073191792 0.033325471 0.32897624 4294901760
0.07323572 0.032830417 0.32892156 4294901760
0.073279642 0.032335363 0.32886684 4294901760
0.07332357 0.03184031 0.32881215 4294901760
0.073367491 0.031345252 0.32875744 4294901760
0.07341142 0.0308502 0.32870275 4294901760
0.073455349 0.030355144 0.32864806 4294901760
0.07349927 0.02986009 0.32859334 4294901760
0.073543198 0.029365037 0.32853866 4294901760
0.07358712 0.028869983 0.32848394 4294901760
0.073631048 0.028374929 0.32842925 4294901760
0.073674977 0.027879875 0.32837456 4294901760
0.073718898 0.027384821 0.32831985 4294901760
0.073762827 0.026889767 0.32826516 4294901760
0.073806755 0.026394712 0.32821047 4294901760
0.073850676 0.025899658 0.32815576 4294901760
0.073894605 0.025404604 0.32810107 4294901760
0.073938526 0.024909548 0.32804635 4294901760
0.073982455 0.024414495 0.32799166 4294901760
0.074026383 0.023919443 0.32793698 4294901760
0.074070305 0.023424387 0.32788226 4294901760
0.074114233 0.022929333 0.32782757 4294901760
0.074158162 0.022434279 0.32777289 4294901760
0.074202083 0.021939225 0.32771817 4294901760
0.074246012 0.02144417 0.32766348 4294901760
0.074289933 0.020949118 0.32760876 4294901760
0.074333861 0.020454064 0.32755408 4294901760
0.07437779 0.019959008 0.32749939 4294901760
0.074421711 0.019463954 0.32744467 4294901760
0.07446564 0.018968901 0.32738999 4294901760
0.074509569 0.018473845 0.3273353 4294901760
0.07455349 0.017978793 0.32728058 4294901760
0.074597418 0.017483739 0.32722589 4294901760
0.074641339 0.016988683 0.32717118 4294901760
0.074685268 0.01649363 0.32711649 4294901760
0.074729197 0.015998576 0.3270618 4294901760
0.074773118 0.015503522 0.32700709 4294901760
0.074817047 0.015008468 0.3269524 4294901760
0.074860975 0.014513412 0.32689768 4294901760
0.074904896 0.014018359 0.32684299 4294901760
0.074948825 0.013523305 0.32678831 4294901760
0.074992746 0.013028251 0.32673359 4294901760
0.075036675 0.012533197 0.3266789 4294901760
0.075080603 0.012038143 0.32662421 4294901760
0.075124525 0.011543088 0.3265695 4294901760
0.075168453 0.011048034 0.32651481 4294901760
0.075212374 0.01055298 0.32646009 4294901760
0.075256303 0.010057926 0.32640541 4294901760
0.075300232 0.0095628724 0.32635072 4294901760
0.075344153 0.0090678185 0.326296 4294901760
0.075388081 0.008572761 0.32624131 4294901760
0.07543201 0.0080777071 0.32618663 4294901760
0.075475931 0.0075826533 0.32613191 4294901760
0.07551986 0.0070876032 0.32607722 4294901760
0.075563781 0.0065925494 0.32602251 4294901760
0.07560771 0.0060974956 0.32596782 4294901760
0.075651638 0.005602438 0.32591313 4294901760
0.075695559 0.0051073842 0.32585841 4294901760
0.075739488 0.0046123303 0.32580373 4294901760
0.075783417 0.0041172765 0.32574904 4294901760
0.075827338 0.0036222227 0.32569432 4294901760
0.075871266 0.0031271689 0.32563964 4294901760
0.075915188 0.002632115 0.32558492 4294901760
0.075959116 0.0021370575 0.32553023 4294901760
0.076003045 0.0016420037 0.32547554 4294901760
0.076046966 0.0011469498 0.32542083 4294901760
0.076090895 0.00065189973 0.32536614 4294901760
0.076134816 0.0001568459 0.32531142 4294901760
0.076178744 -0.00033820793 0.32525674 4294901760
0.076222673 -0.00083326548 0.32520205 4294901760
0.076266594 -0.0013283193 0.32514733 4294901760
0.076310523 -0.0018233731 0.32509264 4294901760
0.076354451 -0.002318427 0.32503796 4294901760
0.076398373 -0.0028134808 0.32498324 4294901760
0.076442301 -0.0033085346 0.32492855 4294901760
0.076486222 -0.0038035922 0.32487383 4294901760
0.076530151 -0.004298646 0.32481915 4294901760
0.07657408 -0.0047936998 0.32476446 4294901760
0.076618001 -0.0052887499 0.32470974 4294901760
0.076661929 -0.0057838038 0.32465506 4294901760
0.076705858 -0.0062788576 0.32460037 4294901760
0.076749779 -0.0067739151 0.32454565 4294901760
0.076793708 -0.007268969 0.32449096 4294901760
0.076837629 -0.0077640228 0.32443625 4294901760
0.076881558 -0.0082590766 0.32438156 4294901760
0.072488979 0.041246336 0.32985142 4278255360
0.072981626 0.041281443 0.32992929 4278255360
0.073474281 0.041316554 0.33000717 4278255360
0.073966928 0.041351661 0.33008504 4278255360
0.074459575 0.041386772 0.33016288 4278255360
0.07495223 0.041421879 0.33024076 4278255360
0.075444877 0.041456986 0.33031863 4278255360
0.075937524 0.041492097 0.3303965 4278255360
0.076430179 0.041527204 0.33047438 4278255360
0.076922826 0.041562315 0.33055225 4278255360
0.077415474 0.041597422 0.33063012 4278255360
0.077908128 0.041632533 0.330708 4278255360
0.078400776 0.04166764 0.33078584 4278255360
0.078893423 0.041702747 0.33086371 4278255360
0.07938607 0.041737858 0.33094159 4278255360
0.079878725 0.041772965 0.33101946 4278255360
0.080371372 0.041808076 0.33109733 4278255360
0.080864027 0.041843183 0.33117521 4278255360
0.081356674 0.04187829 0.33125308 4278255360
0.081849322 0.041913401 0.33133096 4278255360
0.082341969 0.041948508 0.3314088 4278255360
0.082834624 0.041983619 0.33148667 4278255360
0.083327271 0.042018726 0.33156455 4278255360
0.083819918 0.042053834 0.33164242 4278255360
0.084312573 0.042088944 0.33172029 4278255360
0.08480522 0.042124052 0.33179817 4278255360
0.085297868 0.042159162 0.33187604 4278255360
0.085790522 0.04219427 0.33195388 4278255360
0.08628317 0.042229377 0.33203176 4278255360
0.086775817 0.042264488 0.33210963 4278255360
0.087268472 0.042299595 0.3321875 4278255360
0.087761119 0.042334706 0.33226538 4278255360
0.088253766 0.042369813 0.33234325 4278255360
0.088746421 0.042404924 0.33242112 4278255360
0.089239068 0.042440031 0.332499 4278255360
0.089731716 0.042475138 0.33257684 4278255360
0.09022437 0.042510249 0.33265471 4278255360
0.090717018 0.042545356 0.33273259 4278255360
0.091209665 0.042580467 0.33281046 4278255360
0.091702312 0.042615574 0.33288833 4278255360
0.092194967 0.042650681 0.33296621 4278255360
0.092687614 0.042685792 0.33304408 4278255360
0.093180262 0.042720899 0.33312196 4278255360
0.093672916 0.04275601 0.3331998 4278255360
0.094165564 0.042791117 0.33327767 4278255360
0.094658211 0.042826224 0.33335555 4278255360
0.095150866 0.042861335 0.33343342 4278255360
0.095643513 0.042896442 0.33351129 4278255360
0.09613616 0.042931553 0.33358917 4278255360
0.096628815 0.04296666 0.33366704 4278255360
0.097121462 0.043001771 0.33374488 4278255360
0.09761411 0.043036878 0.33382276 4278255360
0.098106757 0.043071985 0.33390063 4278255360
0.098599412 0.043107096 0.3339785 4278255360
0.099092066 0.043142203 0.33405638 4278255360
0.099584714 0.043177314 0.33413425 4278255360
0.10007736 0.043212421 0.33421212 4278255360
0.10057001 0.043247528 0.33429 4278255360
0.10106266 0.043282639 0.33436784 4278255360
0.10155531 0.043317746 0.33444571 4278255360
0.10204796 0.043352857 0.33452359 4278255360
0.10254061 0.043387964 0.33460146 4278255360
0.10303326 0.043423072 0.33467934 4278255360
0.10352591 0.043458182 0.33475721 4278255360
0.10401855 0.04349329 0.33483508 4278255360
0.1045112 0.0435284 0.33491296 4278255360
0.10500386 0.043563507 0.3349908 4278255360
0.10549651 0.043598615 0.33506867 4278255360
0.10598916 0.043633725 0.33514655 4278255360
0.10648181 0.043668833 0.33522442 4278255360
0.10697445 0.043703943 0.33530229 4278255360
0.1074671 0.043739051 0.33538017 4278255360
0.10795975 0.043774161 0.33545804 4278255360
0.10845241 0.043809269 0.33553591 4278255360
0.10894506 0.043844376 0.33561376 4278255360
0.1094377 0.043879487 0.33569163 4278255360
0.10993035 0.043914594 0.3357695 4278255360
0.110423 0.043949705 0.33584738 4278255360
0.11091565 0.043984812 0.33592525 4278255360
0.11140831 0.044019919 0.33600312 4278255360
0.11190096 0.04405503 0.336081 4278255360
0.1123936 0.044090137 0.33615884 4278255360
0.11288625 0.044125248 0.33623672 4278255360
0.1133789 0.044160355 0.33631459 4278255360
0.11387154 0.044195462 0.33639246 4278255360
0.11436421 0.044230573 0.33647034 4278255360
0.11485685 0.04426568 0.33654821 4278255360
0.1153495 0.044300791 0.33662608 4278255360
0.11584215 0.044335898 0.33670396 4278255360
0.1163348 0.044371009 0.3367818 4278255360
0.11682744 0.044406116 0.33685967 4278255360
0.11732011 0.044441223 0.33693755 4278255360
0.11781275 0.044476334 0.33701542 4278255360
0.1183054 0.044511441 0.33709329 4278255360
0.11879805 0.044546552 0.33717117 4278255360
0.11929069 0.044581659 0.33724904 4278255360
0.11978334 0.044616766 0.33732691 4278255360
0.120276 0.044651877 0.33740476 4278255360
0.12076865 0.044686984 0.33748263 4278255360
0.1212613 0.044722095 0.3375605 4278255360
0.12175395 0.044757202 0.33763838 4278255360
0.072488979 0.041246336 0.32985142 4278190335
0.07230325 0.041179106 0.33031076 4278190335
0.072117515 0.041111875 0.33077008 4278190335
0.071931787 0.041044641 0.33122942 4278190335
0.071746051 0.040977411 0.33168873 4278190335
0.071560323 0.040910181 0.33214808 4278190335
0.071374588 0.04084295 0.33260739 4278190335
0.07118886 0.04077572 0.33306673 4278190335
0.071003124 0.040708486 0.33352605 4278190335
0.070817396 0.040641256 0.33398539 4278190335
0.070631661 0.040574025 0.3344447 4278190335
0.070445932 0.040506795 0.33490404 4278190335
0.070260197 0.040439561 0.33536339 4278190335
0.070074469 0.040372331 0.3358227 4278190335
0.069888733 0.0403051 0.33628204 4278190335
0.069703005 0.04023787 0.33674136 4278190335
0.06951727 0.04017064 0.3372007 4278190335
0.069331542 0.040103406 0.33766001 4278190335
0.069145806 0.040036175 0.33811936 4278190335
0.068960078 0.039968945 0.33857867 4278190335
0.068774343 0.039901715 0.33903801 4278190335
0.068588614 0.039834484 0.33949736 4278190335
0.068402879 0.03976725 0.33995667 4278190335
0.068217151 0.03970002 0.34041601 4278190335
0.068031415 0.03963279 0.34087533 4278190335
0.067845687 0.039565559 0.34133467 4278190335
0.067659952 0.039498329 0.34179398 4278190335
0.067474224 0.039431095 0.34225333 4278190335
0.067288488 0.039363865 0.34271264 4278190335
0.06710276 0.039296634 0.34317198 4278190335
0.066917025 0.039229404 0.34363133 4278190335
0.066731296 0.039162174 0.34409064 4278190335
0.066545561 0.03909494 0.34454998 4278190335
0.066359833 0.03902771 0.3450093 4278190335
0.066174097 0.038960479 0.34546864 4278190335
0.065988369 0.038893249 0.34592795 4278190335
0.065802634 0.038826015 0.3463873 4278190335
0.065616906 0.038758785 0.34684661 4278190335
0.06543117 0.038691554 0.34730595 4278190335
0.065245442 0.038624324 0.34776527 4278190335
0.065059707 0.038557094 0.34822461 4278190335
0.064873978 0.03848986 0.34868395 4278190335
0.064688243 0.038422629 0.34914327 4278190335
0.064502515 0.038355399 0.34960261 4278190335
0.064316779 0.038288169 0.35006192 4278190335
0.064131051 0.038220938 0.35052127 4278190335
0.063945323 0.038153704 0.35098058 4278190335
0.063759588 0.038086474 0.35143992 4278190335
0.063573852 0.038019244 0.35189924 4278190335
0.063388124 0.037952013 0.35235858 4278190335
0.063202396 0.037884779 0.35281789 4278190335
0.063016661 0.037817549 0.35327724 4278190335
0.062830932 0.037750319 0.35373658 4278190335
0.062645197 0.037683088 0.35419589 4278190335
0.062459465 0.037615858 0.35465524 4278190335
0.062273733 0.037548624 0.35511455 4278190335
0.062088002 0.037481394 0.35557389 4278190335
0.06190227 0.037414163 0.35603321 4278190335
0.061716538 0.037346933 0.35649255 4278190335
0.061530806 0.037279703 0.35695186 4278190335
0.061345074 0.037212469 0.35741121 4278190335
0.061159343 0.037145238 0.35787055 4278190335
0.060973611 0.037078008 0.35832986 4278190335
0.060787879 0.037010778 0.35878921 4278190335
0.060602147 0.036943547 0.35924852 4278190335
0.060416415 0.036876313 0.35970786 4278190335
0.060230684 0.036809083 0.36016718 4278190335
0.060044952 0.036741853 0.36062652 4278190335
0.05985922 0.036674622 0.36108583 4278190335
0.059673488 0.036607392 0.36154518 4278190335
0.05948776 0.036540158 0.36200452 4278190335
0.059302025 0.036472928 0.36246383 4278190335
0.059116293 0.036405697 0.36292318 4278190335
0.058930561 0.036338467 0.36338249 4278190335
0.058744833 0.036271237 0.36384183 4278190335
0.058559097 0.036204003 0.36430115 4278190335
0.058373369 0.036136772 0.36476049 4278190335
0.058187637 0.036069542 0.3652198 4278190335
0.058001906 0.036002312 0.36567914 4278190335
0.05781617 0.035935078 0.36613846 4278190335
0.057630442 0.035867848 0.3665978 4278190335
0.057444707 0.035800617 0.36705714 4278190335
0.057258978 0.035733387 0.36751646 4278190335
0.057073247 0.035666157 0.3679758 4278190335
0.056887515 0.035598923 0.36843511 4278190335
0.056701779 0.035531692 0.36889446 4278190335
0.056516051 0.035464462 0.36935377 4278190335
0.056330316 0.035397232 0.36981311 4278190335
0.056144588 0.035329998 0.37027243 4278190335
0.055958856 0.035262767 0.37073177 4278190335
0.055773124 0.035195537 0.37119108 4278190335
0.055587389 0.035128307 0.37165043 4278190335
0.055401661 0.035061076 0.37210977 4278190335
0.055215929 0.034993842 0.37256908 4278190335
0.055030197 0.034926612 0.37302843 4278190335
0.054844465 0.034859382 0.37348774 4278190335
0.054658733 0.034792151 0.37394708 4278190335
0.054473002 0.034724921 0.3744064 4278190335
0.05428727 0.034657687 0.37486574 4278190335
0.054101538 0.034590457 0.37532508 4278190335
0.053915806 0.034523226 0.3757844 4278190335
0.072488979 0.041246336 0.32985142 4294967295
0.073603369 0.041649722 0.32709545 4294967295
0.07471776 0.042053111 0.32433945 4294967295
0.075832151 0.042456497 0.32158348 4294967295
0.076946542 0.042859882 0.31882751 4294967295
0.078060932 0.043263268 0.31607154 4294967295
0.079175323 0.043666657 0.31331554 4294967295
0.080289714 0.044070043 0.31055957 4294967295
0.081404105 0.044473428 0.3078036 4294967295
0.082518488 0.044876818 0.3050476 4294967295
0.083632879 0.045280203 0.30229163 4294967295
0.08474727 0.045683589 0.29953566 4294967295
0.085861661 0.046086974 0.29677969 4294967295
