# .PCD v0.7 - Point Cloud Data file format
VERSION 0.7
FIELDS x y z rgb
SIZE 4 4 4 4
TYPE F F F U
COUNT 1 1 1 1
WIDTH 1026
HEIGHT 1
VIEWPOINT 0 0 0 1 0 0 0
POINTS 1026
DATA ascii
-0.02611747 -0.0020108554 0.50600004 4279903254
-0.034131348 -0.00036463488 0.50300002 4280164877
-0.032562211 -0.00036535977 0.50400001 4280033809
-0.030925216 -0.00036535977 0.50400001 4279968532
-0.029346334 -0.00036608469 0.505 4279968532
-0.02776096 -0.00036680963 0.50600004 4279968532
-0.02611747 -0.00036680963 0.50600004 4279968532
-0.034131348 0.0012696636 0.50300002 4279967244
-0.032562211 0.0012721877 0.50400001 4280165393
-0.030925216 0.0012721877 0.50400001 4279837200
-0.029346334 0.0012747119 0.505 4279837200
-0.02776096 0.0012772362 0.50600004 4279837200
-0.02611747 0.0012772362 0.50600004 4279836946
-0.034199201 0.0029097351 0.50400001 4279967244
-0.032562211 0.0029097351 0.50400001 4279968014
-0.030986575 0.0029155083 0.505 4280033809
-0.029346334 0.0029155083 0.505 4279902993
-0.02776096 0.0029212818 0.50600004 4279836946
-0.02611747 0.0029212818 0.50600004 4279705360
-0.034199201 0.0045472826 0.50400001 4280164623
-0.032626819 0.0045563048 0.505 4280033807
-0.030986575 0.0045563048 0.505 4280033809
-0.029404448 0.0045653274 0.50600004 4280033809
-0.02776096 0.0045653274 0.50600004 4280099348
-0.02611747 0.0045653274 0.50600004 4279244809
-0.035836194 0.0061848299 0.50400001 4280361997
-0.034267057 0.0061971014 0.505 4280099600
-0.032691427 0.0062093735 0.50600004 4280099602
-0.031047937 0.0062093735 0.50600004 4279836430
-0.029462559 0.006221645 0.50700003 4279968016
-0.027815823 0.006221645 0.50700003 4279837461
-0.02611747 0.0062093735 0.50600004 4285169263
-0.035907295 0.0078378981 0.505 4280230668
-0.034334917 0.0078534195 0.50600004 4280033809
-0.032691427 0.0078534195 0.50600004 4279770637
-0.031109296 0.00786894 0.50700003 4279836176
-0.029462559 0.00786894 0.50700003 4280033555
-0.027815823 0.00786894 0.50700003 4282996808
-0.035907295 0.0094786948 0.505 4280362254
-0.034334917 0.0094974656 0.50600004 4280099600
-0.032756034 0.0095162345 0.50700003 4279704842
-0.031109296 0.0095162345 0.50700003 4279704590
-0.02952067 0.0095350044 0.50800002 4280100118
-0.027870687 0.0095350044 0.50800002 4284378975
-0.035907295 0.01111949 0.505 4280428047
-0.034334917 0.011141511 0.50600004 4279968016
-0.032756034 0.011163529 0.50700003 4279836430
-0.031170655 0.011185547 0.50800002 4279770383
-0.02952067 0.011185547 0.50800002 4279902741
-0.035836194 0.012735019 0.50400001 4280625169
-0.034334917 0.012785556 0.50600004 4280098830
-0.032691427 0.012785556 0.50600004 4279770637
-0.031109296 0.012810824 0.50700003 4279836176
-0.029462559 0.012810824 0.50700003 4279442188
-0.035765093 0.014344051 0.50300002 4280756755
-0.034199201 0.014372568 0.50400001 4280164623
-0.032626819 0.014401084 0.505 4280098832
-0.031047937 0.014429603 0.50600004 4280033809
-0.029404448 0.014429603 0.50600004 4279639569
-0.035622887 0.015914818 0.50100005 4280493331
-0.034063492 0.015946584 0.50200003 4280427538
-0.032497603 0.015978349 0.50300002 4280230159
-0.030863857 0.015978349 0.50300002 4280099350
-0.029230112 0.015978349 0.50300002 4279508498
-0.043060381 0.018864304 0.49300003 4281879361
-0.039938696 0.018902566 0.49400002 4280628524
-0.038411785 0.018940832 0.49500003 4280036387
-0.036804028 0.018940832 0.49500003 4280365090
-0.035267368 0.018979095 0.49600002 4280364577
-0.033656359 0.018979095 0.49600002 4280693288
-0.028823331 0.018979095 0.49600002 4281088813
-0.052774802 0.020507623 0.49400002 4281748286
-0.039777 0.020424597 0.49200001 4282076222
-0.038256586 0.02046611 0.49300003 4280431397
-0.036655322 0.02046611 0.49300003 4280299297
-0.035125159 0.020507623 0.49400002 4280627749
-0.033520646 0.020507623 0.49400002 4280298530
-0.031916138 0.020507623 0.49400002 4280956973
-0.030311622 0.020507623 0.49400002 4281023534
-0.028648997 0.02046611 0.49300003 4280694569
-0.026773416 0.020258544 0.48800004 4279904026
-0.025136774 0.020217029 0.48700002 4280101405
-0.023554998 0.020217029 0.48700002 4280236580
-0.021928102 0.020175517 0.48600003 4280042535
-0.039696153 0.021978391 0.49100003 4280694567
-0.036580972 0.022023154 0.49200001 4280036125
-0.034982953 0.022023154 0.49200001 4280693801
-0.033384938 0.022023154 0.49200001 4280496422
-0.031786922 0.022023154 0.49200001 4280957227
-0.030188901 0.022023154 0.49200001 4281089325
-0.028532773 0.021978391 0.49100003 4279904539
-0.026773416 0.021844106 0.48800004 4279509268
-0.025136774 0.021799341 0.48700002 4279772440
-0.02350663 0.02175458 0.48600003 4279381785
-0.021882981 0.021709817 0.48500001 4279516703
-0.020265831 0.021665055 0.48400003 4278731291
-0.018655173 0.021620292 0.48300001 4278665496
-0.017051013 0.021575529 0.48200002 4278666009
-0.015485475 0.021575529 0.48200002 4280770360
-0.01389106 0.021530768 0.48100004 4280770622
-0.039615307 0.023525691 0.49000001 4280825637
-0.038101386 0.023573702 0.49100003 4282273601
-0.036506619 0.023573702 0.49100003 4280102178
-0.034911849 0.023573702 0.49100003 4280759594
-0.033317082 0.023573702 0.49100003 4280825387
-0.031722315 0.023573702 0.49100003 4280891948
-0.030066183 0.023525691 0.49000001 4280957739
-0.02841655 0.023477679 0.48900002 4279377682
-0.026773416 0.023429668 0.48800004 4279509014
-0.025136774 0.023381656 0.48700002 4279707160
-0.02350663 0.023333644 0.48600003 4279249939
-0.021882981 0.023285633 0.48500001 4279319064
-0.020223958 0.02318961 0.48300001 4278598419
-0.01861655 0.023141598 0.48200002 4278927384
-0.017051013 0.023141598 0.48200002 4278731289
-0.015453348 0.023093587 0.48100004 4278533910
-0.01389106 0.023093587 0.48100004 4278600216
-0.012277507 0.022997564 0.47900003 4278402837
-0.010721715 0.022997564 0.47900003 4278337044
-0.036432266 0.025117749 0.49000001 4279707420
-0.034911849 0.025169011 0.49100003 4280825901
-0.033249225 0.025117749 0.49000001 4280694315
-0.031657707 0.025117749 0.49000001 4280957487
-0.030004824 0.025066489 0.48900002 4280891948
-0.02841655 0.025066489 0.48900002 4279640854
-0.026718551 0.024963968 0.48700002 4279509014
-0.025085159 0.024912708 0.48600003 4279641113
-0.023458261 0.024861448 0.48500001 4279381525
-0.021837862 0.024810188 0.48400003 4279252504
-0.020223958 0.024758926 0.48300001 4278532115
-0.01861655 0.024707666 0.48200002 4278730007
-0.017015638 0.024656406 0.48100004 4278664214
-0.015453348 0.024656406 0.48100004 4278664214
-0.01386218 0.024605144 0.48000002 4278401810
-0.012277507 0.024553884 0.47900003 4278336017
-0.010699331 0.024502622 0.47800002 4278664982
-0.0091276504 0.024451362 0.47700003 4278533396
-0.0075624655 0.0244001 0.47600001 4278533396
-0.006003778 0.02434884 0.47500002 4278467603
-0.0044609774 0.02434884 0.47500002 4278467603
-0.0029181761 0.02434884 0.47500002 4278336017
-0.0013753753 0.02434884 0.47500002 4278401810
-0.036432266 0.02670981 0.49000001 4280496936
-0.034840744 0.02670981 0.49000001 4280891696
-0.033249225 0.02670981 0.49000001 4280891696
-0.031657707 0.02670981 0.49000001 4281024052
-0.030004824 0.026655301 0.48900002 4280563499
-0.028358439 0.026600791 0.48800004 4279114769
-0.026718551 0.026546281 0.48700002 4279377428
-0.025085159 0.026491772 0.48600003 4279575574
-0.023458261 0.02643726 0.48500001 4279381525
-0.021837862 0.026382752 0.48400003 4279186711
-0.020223958 0.026328241 0.48300001 4278729494
-0.01861655 0.026273731 0.48200002 4278730007
-0.017015638 0.026219223 0.48100004 4278795800
-0.01542122 0.026164712 0.48000002 4278664214
-0.01386218 0.026164712 0.48000002 4278664212
-0.012277507 0.026110204 0.47900003 4278598419
-0.010699331 0.026055692 0.47800002 4278730005
-0.0091085145 0.025946673 0.47600001 4278466833
-0.0075624655 0.025946673 0.47600001 4278335247
-0.006003778 0.025892163 0.47500002 4278335247
-0.0044609774 0.025892163 0.47500002 4278331915
-0.0029181761 0.025892163 0.47500002 4278198273
-0.0013753753 0.025892163 0.47500002 4278203406
0.00016742553 0.025892163 0.47500002 4278466835
0.0017102263 0.025892163 0.47500002 4278335249
0.0032530271 0.025892163 0.47500002 4278401810
-0.038023785 0.028301869 0.49000001 4280694567
-0.036432266 0.028301869 0.49000001 4280102178
-0.034840744 0.028301869 0.49000001 4281088561
-0.033249225 0.028301869 0.49000001 4280694317
-0.031593099 0.028244112 0.48900002 4280825903
-0.029943464 0.028186353 0.48800004 4280563501
-0.028300326 0.028128594 0.48700002 4279312150
-0.026663689 0.028070835 0.48600003 4279640854
-0.025033543 0.028013075 0.48500001 4279575574
-0.023409896 0.027955318 0.48400003 4279250453
-0.021792741 0.027897557 0.48300001 4279253017
-0.020182086 0.027839798 0.48200002 4278664214
-0.018577926 0.027782042 0.48100004 4278730007
-0.016980261 0.027724281 0.48000002 4278795800
-0.01542122 0.027724281 0.48000002 4278598421
-0.0138333 0.027666522 0.47900003 4278730007
-0.012251875 0.027608763 0.47800002 4278532628
-0.010676947 0.027551005 0.47700003 4278532628
-0.0091085145 0.027493244 0.47600001 4278532628
-0.0075624655 0.027493244 0.47600001 4278532628
-0.006003778 0.027435487 0.47500002 4278729494
-0.0044609774 0.027435487 0.47500002 4278199816
-0.0029181761 0.027435487 0.47500002 4278331404
-0.0013753753 0.027435487 0.47500002 4278531091
0.00016742553 0.027435487 0.47500002 4278400275
0.0017102263 0.027435487 0.47500002 4278333712
0.0032530271 0.027435487 0.47500002 4278728724
0.0048059244 0.027493244 0.47600001 4278794517
0.0063519734 0.027493244 0.47600001 4278465552
0.0079146149 0.027551005 0.47700003 4278334734
0.0094639119 0.027551005 0.47700003 4278400527
0.015693931 0.027608763 0.47800002 4278532113
0.017246475 0.027608763 0.47800002 4278663699
0.01879902 0.027608763 0.47800002 4278597906
-0.039615307 0.029893929 0.49000001 4280301090
-0.038023785 0.029893929 0.49000001 4280037920
-0.036432266 0.029893929 0.49000001 4279904799
-0.034840744 0.029893929 0.49000001 4280364838
-0.033249225 0.029893929 0.49000001 4280431145
-0.031593099 0.029832922 0.48900002 4280826673
-0.029943464 0.029771915 0.48800004 4280826671
-0.028300326 0.029710906 0.48700002 4279575320
-0.026663689 0.029649898 0.48600003 4279640600
-0.024981929 0.029527882 0.48400003 4279641367
-0.023361526 0.029466873 0.48300001 4279052820
-0.021747623 0.029405866 0.48200002 4279055638
-0.020140216 0.029344859 0.48100004 4278795287
-0.018577926 0.029344859 0.48100004 4278795800
-0.016980261 0.02928385 0.48000002 4278467603
-0.015389093 0.029222842 0.47900003 4278598419
-0.0138333 0.029222842 0.47900003 4278927384
-0.012251875 0.029161833 0.47800002 4278532626
-0.010676947 0.029100826 0.47700003 4278664214
-0.0091085145 0.029039817 0.47600001 4278269456
-0.0075624655 0.029039817 0.47600001 4278400529
-0.006003778 0.02897881 0.47500002 4278597908
-0.0044609774 0.02897881 0.47500002 4278196226
-0.0029181761 0.02897881 0.47500002 4278988310
-0.0013753753 0.02897881 0.47500002 4278858773
0.00016742553 0.02897881 0.47500002 4278196992
0.0017102263 0.02897881 0.47500002 4278327302
0.0032530271 0.02897881 0.47500002 4278393095
0.0048059244 0.029039817 0.47600001 4278262279
0.0063519734 0.029039817 0.47600001 4278196228
0.0079146149 0.029100826 0.47700003 4278197253
0.0094639119 0.029100826 0.47700003 4278462220
0.011013209 0.029100826 0.47700003 4278725390
0.012562505 0.029100826 0.47700003 4279055125
0.014111802 0.029100826 0.47700003 4278924820
0.015693931 0.029161833 0.47800002 4278530832
0.017246475 0.029161833 0.47800002 4278728211
0.018759692 0.029100826 0.47700003 4278662931
0.02030899 0.029100826 0.47700003 4278532115
0.021812461 0.029039817 0.47600001 4278400529
0.023358511 0.029039817 0.47600001 4278532113
0.024852239 0.02897881 0.47500002 4278400527
0.02639504 0.02897881 0.47500002 4278532113
0.027937841 0.02897881 0.47500002 4278335247
0.029480642 0.02897881 0.47500002 4278795798
0.031023441 0.02897881 0.47500002 4278730005
0.032566246 0.02897881 0.47500002 4278664212
0.034109045 0.02897881 0.47500002 4278664212
0.035726897 0.029039817 0.47600001 4278467603
0.037272949 0.029039817 0.47600001 4278796568
0.03890055 0.029100826 0.47700003 4278664982
0.040534649 0.029161833 0.47800002 4278664982
0.042175245 0.029222842 0.47900003 4278665496
0.043731034 0.029222842 0.47900003 4278731289
0.045381371 0.02928385 0.48000002 4278994461
0.046940412 0.02928385 0.48000002 4279125535
0.048600499 0.029344859 0.48100004 4278993949
0.050162785 0.029344859 0.48100004 4278862109
-0.036506619 0.031550247 0.49100003 4279904285
-0.034911849 0.031550247 0.49100003 4280233250
-0.033249225 0.03148599 0.49000001 4280233252
-0.031593099 0.031421736 0.48900002 4280825903
-0.029943464 0.031357478 0.48800004 4281024050
-0.028242216 0.031228963 0.48600003 4279444248
-0.026608825 0.031164706 0.48500001 4279772186
-0.024981929 0.031100448 0.48400003 4279838746
-0.023361526 0.031036191 0.48300001 4279382039
-0.021747623 0.030971935 0.48200002 4279121431
-0.020140216 0.030907677 0.48100004 4278662931
-0.018539302 0.03084342 0.48000002 4278861080
-0.016944887 0.030779164 0.47900003 4278730005
-0.015389093 0.030779164 0.47900003 4278532626
-0.013804421 0.030714905 0.47800002 4278795798
-0.012226244 0.030650649 0.47700003 4278335249
-0.010676947 0.030650649 0.47700003 4278335249
-0.0091085145 0.030586392 0.47600001 4278466835
-0.0075465781 0.030522134 0.47500002 4278532115
-0.006003778 0.030522134 0.47500002 4278728724
-0.0044609774 0.030522134 0.47500002 4278195717
-0.0029181761 0.030522134 0.47500002 4279054103
-0.0013753753 0.030522134 0.47500002 4279383322
0.00016742553 0.030522134 0.47500002 4278458888
0.0017102263 0.030522134 0.47500002 4278654472
0.0032530271 0.030522134 0.47500002 4278720011
0.0048059244 0.030586392 0.47600001 4278785804
0.0063519734 0.030586392 0.47600001 4278654218
0.0079146149 0.030650649 0.47700003 4278785804
0.0094639119 0.030650649 0.47700003 4278588939
0.011013209 0.030650649 0.47700003 4278588939
0.012562505 0.030650649 0.47700003 4278523400
0.014111802 0.030650649 0.47700003 4278195971
0.0156611 0.030650649 0.47700003 4278856724
0.017210396 0.030650649 0.47700003 4278197766
0.018759692 0.030650649 0.47700003 4278197508
0.02030899 0.030650649 0.47700003 4278195712
0.021812461 0.030586392 0.47600001 4278195712
0.023358511 0.030586392 0.47600001 4278197509
0.024904558 0.030586392 0.47600001 4278199564
0.02639504 0.030522134 0.47500002 4278529296
0.027937841 0.030522134 0.47500002 4278727189
0.029480642 0.030522134 0.47500002 4278727957
0.031023441 0.030522134 0.47500002 4278465039
0.032566246 0.030522134 0.47500002 4278662931
0.03418085 0.030586392 0.47600001 4278531345
0.035726897 0.030586392 0.47600001 4278664212
0.037351254 0.030650649 0.47700003 4278598419
0.03890055 0.030650649 0.47700003 4278664212
0.040534649 0.030714905 0.47800002 4278664212
0.042175245 0.030779164 0.47900003 4278730005
0.043731034 0.030779164 0.47900003 4278533396
0.045381371 0.03084342 0.48000002 4278664982
0.046940412 0.03084342 0.48000002 4278796568
0.048600499 0.030907677 0.48100004 4278796568
0.050162785 0.030907677 0.48100004 4278731289
0.051725071 0.030907677 0.48100004 4278797084
0.053287365 0.030907677 0.48100004 4278862363
0.054849651 0.030907677 0.48100004 4278793750
-0.046075232 0.033145558 0.49100003 4280759331
-0.034911849 0.033145558 0.49100003 4280166946
-0.033317082 0.033145558 0.49100003 4280956975
-0.031657707 0.033078052 0.49000001 4280957487
-0.029943464 0.03294304 0.48800004 4279905569
-0.028242216 0.032808028 0.48600003 4279443734
-0.026608825 0.032740518 0.48500001 4279772953
-0.024930311 0.032605506 0.48300001 4279773467
-0.023313159 0.032538 0.48200002 4279382809
-0.021702504 0.032470495 0.48100004 4279121431
-0.020098343 0.032402989 0.48000002 4278860306
-0.01850068 0.032335483 0.47900003 4278926099
-0.016944887 0.032335483 0.47900003 4278730003
-0.015356964 0.032267977 0.47800002 4278532624
-0.013775541 0.032200471 0.47700003 4278532626
-0.012226244 0.032200471 0.47700003 4278269454
-0.010654564 0.032132965 0.47600001 4278598419
-0.0090893796 0.032065459 0.47500002 4278598419
-0.0075465781 0.032065459 0.47500002 4278597908
-0.006003778 0.032065459 0.47500002 4278728724
-0.0044609774 0.032065459 0.47500002 4278394378
-0.0029181761 0.032065459 0.47500002 4279055127
-0.0013753753 0.032065459 0.47500002 4278922258
0.00016742553 0.032065459 0.47500002 4278260996
0.0017102263 0.032065459 0.47500002 4278655756
0.0032530271 0.032065459 0.47500002 4278983951
0.0048059244 0.032132965 0.47600001 4279773467
0.0063519734 0.032132965 0.47600001 4279510295
0.0078980215 0.032132965 0.47600001 4279774237
0.0094639119 0.032200471 0.47700003 4278524170
0.011013209 0.032200471 0.47700003 4278918674
0.012562505 0.032200471 0.47700003 4278721295
0.014111802 0.032200471 0.47700003 4278194690
0.0156611 0.032200471 0.47700003 4279054357
0.017210396 0.032200471 0.47700003 4279055640
0.018759692 0.032200471 0.47700003 4279055640
0.02030899 0.032200471 0.47700003 4279187226
0.021812461 0.032132965 0.47600001 4279055640
0.023358511 0.032132965 0.47600001 4278858261
0.024904558 0.032132965 0.47600001 4279253019
0.026450608 0.032132965 0.47600001 4278858261
0.027996656 0.032132965 0.47600001 4279515678
0.029542705 0.032132965 0.47600001 4278660369
0.031088753 0.032132965 0.47600001 4278397197
0.032634802 0.032132965 0.47600001 4278196737
0.03418085 0.032132965 0.47600001 4278195200
0.035726897 0.032132965 0.47600001 4278195712
0.037351254 0.032200471 0.47700003 4278194944
0.03890055 0.032200471 0.47700003 4278199047
0.040534649 0.032267977 0.47800002 4278462990
0.042175245 0.032335483 0.47900003 4278726673
0.043731034 0.032335483 0.47900003 4278661394
0.045381371 0.032402989 0.48000002 4278794004
0.047038205 0.032470495 0.48100004 4278532115
0.048600499 0.032470495 0.48100004 4278532115
0.050162785 0.032470495 0.48100004 4278598421
0.051725071 0.032470495 0.48100004 4278796570
0.053287365 0.032470495 0.48100004 4278993949
0.054849651 0.032470495 0.48100004 4278993949
0.056411941 0.032470495 0.48100004 4278728470
-0.041375019 0.03481162 0.49200001 4280628772
-0.033317082 0.034740865 0.49100003 4280101664
-0.031657707 0.034670111 0.49000001 4280957487
-0.030004824 0.034599356 0.48900002 4280299043
-0.028242216 0.034387089 0.48600003 4279706393
-0.026553961 0.03424558 0.48400003 4279838746
-0.024930311 0.034174822 0.48300001 4279840028
-0.023313159 0.034104068 0.48200002 4279514906
-0.021702504 0.034033313 0.48100004 4278595601
-0.020098343 0.033962559 0.48000002 4278860308
-0.01850068 0.033891805 0.47900003 4278926101
-0.01690951 0.033821046 0.47800002 4278795283
-0.015324838 0.033750292 0.47700003 4278597904
-0.013775541 0.033750292 0.47700003 4278598417
-0.012200613 0.033679534 0.47600001 4278532624
-0.010632181 0.033608783 0.47500002 4278466831
-0.0090893796 0.033608783 0.47500002 4278466833
-0.0075465781 0.033608783 0.47500002 4278597908
-0.006003778 0.033608783 0.47500002 4278662677
-0.0044515859 0.033538029 0.47400004 4278196228
-0.0029181761 0.033608783 0.47500002 4278857746
-0.0013753753 0.033608783 0.47500002 4278592523
0.00016742553 0.033608783 0.47500002 4278524168
0.0017102263 0.033608783 0.47500002 4278524170
0.0032530271 0.033608783 0.47500002 4279313686
0.0048059244 0.033679534 0.47600001 4279906336
0.0063519734 0.033679534 0.47600001 4278194691
0.0078980215 0.033679534 0.47600001 4278524170
0.009444071 0.033679534 0.47600001 4278392330
0.011013209 0.033750292 0.47700003 4279248406
0.012562505 0.033750292 0.47700003 4278524683
0.014111802 0.033750292 0.47700003 4278262279
0.0156611 0.033750292 0.47700003 4278923541
0.017210396 0.033750292 0.47700003 4278462990
0.018759692 0.033750292 0.47700003 4278329097
0.02030899 0.033750292 0.47700003 4278197510
0.021812461 0.033679534 0.47600001 4278660115
0.023358511 0.033679534 0.47600001 4278198535
0.024904558 0.033679534 0.47600001 4278331917
0.026450608 0.033679534 0.47600001 4278726162
0.027996656 0.033679534 0.47600001 4278199561
0.029542705 0.033679534 0.47600001 4278858775
0.031088753 0.033679534 0.47600001 4278858775
0.032634802 0.033679534 0.47600001 4278858775
0.03418085 0.033679534 0.47600001 4279056154
0.035726897 0.033679534 0.47600001 4278858775
0.037351254 0.033750292 0.47700003 4278989847
0.038982101 0.033821046 0.47800002 4279120920
0.040534649 0.033821046 0.47800002 4279120920
0.042175245 0.033891805 0.47900003 4279252506
0.043822329 0.033962559 0.48000002 4279186713
0.045381371 0.033962559 0.48000002 4278526730
0.047038205 0.034033313 0.48100004 4278989847
0.048600499 0.034033313 0.48100004 4278531345
0.050162785 0.034033313 0.48100004 4278728724
0.051725071 0.034033313 0.48100004 4278335249
0.053398147 0.034104068 0.48200002 4278598421
0.054849651 0.034033313 0.48100004 4278795800
0.056411941 0.034033313 0.48100004 4278532115
0.05797423 0.034033313 0.48100004 4284318830
-0.035054058 0.036484186 0.49300003 4280825376
-0.033452794 0.036484186 0.49300003 4282536509
-0.031722315 0.036336176 0.49100003 4282537023
-0.030066183 0.036262169 0.49000001 4280496676
-0.028242216 0.035966154 0.48600003 4279509014
-0.026608825 0.035892148 0.48500001 4280365088
-0.024930311 0.035744138 0.48300001 4279708953
-0.023313159 0.035670135 0.48200002 4279514908
-0.021657383 0.035522126 0.48000002 4279056152
-0.020056473 0.035448123 0.47900003 4278795285
-0.018462054 0.035374116 0.47800002 4278729492
-0.01690951 0.035374116 0.47800002 4278729490
-0.015324838 0.035300113 0.47700003 4278400525
-0.013746661 0.035226107 0.47600001 4278598417
-0.012174981 0.035152104 0.47500002 4278730003
-0.010632181 0.035152104 0.47500002 4278532624
-0.0090702446 0.035078101 0.47400004 4278664212
-0.0075306911 0.035078101 0.47400004 4278400529
-0.0059911385 0.035078101 0.47400004 4278200072
-0.0044515859 0.035078101 0.47400004 4278525451
-0.0029120327 0.035078101 0.47400004 4279120918
-0.0013724798 0.035078101 0.47400004 4278195969
0.00016742553 0.035152104 0.47500002 4278654984
0.0017102263 0.035152104 0.47500002 4278785804
0.0032530271 0.035152104 0.47500002 4278654218
0.0047958279 0.035152104 0.47500002 4278588939
0.0063519734 0.035226107 0.47600001 4278523146
0.0078980215 0.035226107 0.47600001 4278588939
0.009444071 0.035226107 0.47600001 4278721295
0.01099012 0.035226107 0.47600001 4278854416
0.012562505 0.035300113 0.47700003 4278920209
0.014111802 0.035300113 0.47700003 4278591757
0.0156611 0.035300113 0.47700003 4279186972
0.017210396 0.035300113 0.47700003 4278328585
0.018759692 0.035300113 0.47700003 4278524429
0.02030899 0.035300113 0.47700003 4278458890
0.021858286 0.035300113 0.47700003 4278329097
0.023358511 0.035226107 0.47600001 4278989847
0.024904558 0.035226107 0.47600001 4278198532
0.026450608 0.035226107 0.47600001 4278199818
0.027996656 0.035226107 0.47600001 4278923541
0.029542705 0.035226107 0.47600001 4278196480
0.031088753 0.035226107 0.47600001 4278331663
0.032634802 0.035226107 0.47600001 4278199817
0.03418085 0.035226107 0.47600001 4278727189
0.035801958 0.035300113 0.47700003 4278990361
0.037351254 0.035300113 0.47700003 4278858773
0.038982101 0.035374116 0.47800002 4278661394
0.040619452 0.035448123 0.47900003 4278727441
0.042175245 0.035448123 0.47900003 4278858773
0.043822329 0.035522126 0.48000002 4278727187
0.045381371 0.035522126 0.48000002 4278988562
0.047038205 0.035596132 0.48100004 4279186711
0.048600499 0.035596132 0.48100004 4278728211
0.050162785 0.035596132 0.48100004 4278728724
0.051725071 0.035596132 0.48100004 4278400529
0.053287365 0.035596132 0.48100004 4278532115
0.054849651 0.035596132 0.48100004 4278532115
0.056411941 0.035596132 0.48100004 4278597908
0.05797423 0.035596132 0.48100004 4284318317
-0.030127542 0.037931483 0.49100003 4280957223
-0.028242216 0.037545215 0.48600003 4285365868
-0.026608825 0.037467964 0.48500001 4280300327
-0.024981929 0.037390709 0.48400003 4279907104
-0.023313159 0.037236203 0.48200002 4279581730
-0.021657383 0.037081696 0.48000002 4278925851
-0.020056473 0.037004441 0.47900003 4279058459
-0.018462054 0.036927186 0.47800002 4278795285
-0.016874135 0.036849935 0.47700003 4278861076
-0.01529271 0.03677268 0.47600001 4278663697
-0.013717782 0.036695428 0.47500002 4278597904
-0.012174981 0.036695428 0.47500002 4278334732
-0.010609797 0.036618177 0.47400004 4278532626
-0.0090702446 0.036618177 0.47400004 4278598419
-0.0075306911 0.036618177 0.47400004 4278466835
-0.0059911385 0.036618177 0.47400004 4278200842
-0.0044515859 0.036618177 0.47400004 4278461966
-0.0029120327 0.036618177 0.47400004 4278989847
-0.0013724798 0.036618177 0.47400004 4279055127
0.00016707306 0.036618177 0.47400004 4278393863
0.0017102263 0.036695428 0.47500002 4278392584
0.0032530271 0.036695428 0.47500002 4278391560
0.0047958279 0.036695428 0.47500002 4278588939
0.0063386289 0.036695428 0.47500002 4278654732
0.0078980215 0.03677268 0.47600001 4278785804
0.009444071 0.03677268 0.47600001 4278720013
0.01099012 0.03677268 0.47600001 4278720013
0.012536168 0.03677268 0.47600001 4278720011
0.014082218 0.03677268 0.47600001 4278987029
0.0156611 0.036849935 0.47700003 4279121179
0.017210396 0.036849935 0.47700003 4278789136
0.018759692 0.036849935 0.47700003 4278195205
0.02030899 0.036849935 0.47700003 4278854416
0.021858286 0.036849935 0.47700003 4279250969
0.023407584 0.036849935 0.47700003 4278199818
0.02495688 0.036849935 0.47700003 4278594576
0.026506176 0.036849935 0.47700003 4278331404
0.028055474 0.036849935 0.47700003 4278857748
0.02960477 0.036849935 0.47700003 4278199561
0.031154066 0.036849935 0.47700003 4278660369
0.032703366 0.036849935 0.47700003 4278528013
0.034252662 0.036849935 0.47700003 4278198024
0.035801958 0.036849935 0.47700003 4278197766
0.03742956 0.036927186 0.47800002 4279251736
0.038982101 0.036927186 0.47800002 4278528013
0.040619452 0.037004441 0.47900003 4278528013
0.042175245 0.037004441 0.47900003 4278199303
0.043822329 0.037081696 0.48000002 4279187738
0.045381371 0.037081696 0.48000002 4278396425
0.047038205 0.037158951 0.48100004 4279055125
0.048600499 0.037158951 0.48100004 4278662931
0.050162785 0.037158951 0.48100004 4278794517
0.051725071 0.037158951 0.48100004 4278531345
0.053287365 0.037158951 0.48100004 4278532115
0.054849651 0.037158951 0.48100004 4278597908
0.056411941 0.037158951 0.48100004 4278795035
0.05797423 0.037158951 0.48100004 4282870617
-0.030311622 0.039768301 0.49400002 4281286704
-0.028823331 0.039929304 0.49600002 4284446049
-0.026718551 0.039204784 0.48700002 4284842094
-0.025033543 0.039043777 0.48500001 4278789398
-0.023313159 0.03880227 0.48200002 4280108076
-0.021702504 0.038721766 0.48100004 4278925597
-0.020056473 0.038560763 0.47900003 4279058205
-0.018462054 0.038480259 0.47800002 4278861080
-0.016874135 0.038399756 0.47700003 4278663699
-0.01529271 0.038319252 0.47600001 4278795285
-0.013717782 0.038238753 0.47500002 4278663699
-0.01214935 0.038158249 0.47400004 4278729492
-0.010609797 0.038158249 0.47400004 4278729492
-0.0090511087 0.038077746 0.47300002 4278663699
-0.0075148032 0.038077746 0.47300002 4278794517
-0.0059784986 0.038077746 0.47300002 4278464785
-0.004442194 0.038077746 0.47300002 4278331917
-0.0029120327 0.038158249 0.47400004 4278793750
-0.0013724798 0.038158249 0.47400004 4278794004
0.00016707306 0.038158249 0.47400004 4278925590
0.0017066259 0.038158249 0.47400004 4278924820
0.0032530271 0.038238753 0.47500002 4279121685
0.0047958279 0.038238753 0.47500002 4278989845
0.0063386289 0.038238753 0.47500002 4279252506
0.007881429 0.038238753 0.47500002 4279251482
0.009444071 0.038319252 0.47600001 4278922517
0.01099012 0.038319252 0.47600001 4279381785
0.012536168 0.038319252 0.47600001 4278986000
0.014082218 0.038319252 0.47600001 4279646240
0.015628267 0.038319252 0.47600001 4278195712
0.017210396 0.038399756 0.47700003 4278194432
0.018759692 0.038399756 0.47700003 4278195200
0.02030899 0.038399756 0.47700003 4278460171
0.021858286 0.038399756 0.47700003 4278593041
0.023407584 0.038399756 0.47700003 4279251482
0.02495688 0.038399756 0.47700003 4279186459
0.026506176 0.038399756 0.47700003 4278989847
0.028055474 0.038399756 0.47700003 4279187226
0.02960477 0.038399756 0.47700003 4279055640
0.031154066 0.038399756 0.47700003 4279055640
0.032703366 0.038399756 0.47700003 4279055640
0.034252662 0.038399756 0.47700003 4279120920
0.035801958 0.038399756 0.47700003 4279120920
0.03742956 0.038480259 0.47800002 4278397197
0.038982101 0.038480259 0.47800002 4279252506
0.040619452 0.038560763 0.47900003 4278196736
0.042263292 0.038641263 0.48000002 4278331404
0.043822329 0.038641263 0.48000002 4278793752
0.045381371 0.038641263 0.48000002 4278198274
0.047038205 0.038721766 0.48100004 4278857746
0.048600499 0.038721766 0.48100004 4278531091
0.050162785 0.038721766 0.48100004 4278728470
0.051725071 0.038721766 0.48100004 4278531345
0.053287365 0.038721766 0.48100004 4278662931
0.054849651 0.038721766 0.48100004 4278597908
0.056411941 0.038721766 0.48100004 4279058205
0.05797423 0.038721766 0.48100004 4282015562
-0.03043434 0.041540861 0.49600002 4283195984
-0.028707108 0.041373357 0.49400002 4283986270
-0.02682828 0.040954597 0.48900002 4283986783
-0.025085159 0.040703345 0.48600003 4284381541
-0.023409896 0.040535841 0.48400003 4282802771
-0.021747623 0.040368337 0.48200002 4279053340
-0.020098343 0.040200833 0.48000002 4278793248
-0.01850068 0.040117081 0.47900003 4278925599
-0.016874135 0.039949577 0.47700003 4279254816
-0.01529271 0.039865825 0.47600001 4279058207
-0.013717782 0.039782073 0.47500002 4279124000
-0.01214935 0.039698325 0.47400004 4278860828
-0.010609797 0.039698325 0.47400004 4278992412
-0.0090511087 0.039614569 0.47300002 4278663447
-0.0075148032 0.039614569 0.47300002 4278925849
-0.0059784986 0.039614569 0.47300002 4278530578
-0.004442194 0.039614569 0.47300002 4278991129
-0.0029058892 0.039614569 0.47300002 4278728470
-0.0013724798 0.039698325 0.47400004 4278728470
0.00016707306 0.039698325 0.47400004 4278333966
0.0017066259 0.039698325 0.47400004 4278794517
0.0032530271 0.039782073 0.47500002 4278728724
0.0047958279 0.039782073 0.47500002 4278662931
0.0063386289 0.039782073 0.47500002 4278728724
0.007881429 0.039782073 0.47500002 4278662931
0.009444071 0.039865825 0.47600001 4278531345
0.01099012 0.039865825 0.47600001 4278728724
0.012536168 0.039865825 0.47600001 4278859797
0.014082218 0.039865825 0.47600001 4278924820
0.015628267 0.039865825 0.47600001 4278990613
0.017174315 0.039865825 0.47600001 4278924820
0.018720362 0.039865825 0.47600001 4278989845
0.02030899 0.039949577 0.47700003 4279187226
0.021858286 0.039949577 0.47700003 4279055127
0.023407584 0.039949577 0.47700003 4279252506
0.02495688 0.039949577 0.47700003 4279055127
0.026506176 0.039949577 0.47700003 4278660115
0.028055474 0.039949577 0.47700003 4278461966
0.02960477 0.039949577 0.47700003 4278198537
0.031154066 0.039949577 0.47700003 4278195968
0.032703366 0.039949577 0.47700003 4278195200
0.034252662 0.039949577 0.47700003 4278196996
0.035877012 0.040033329 0.47800002 4278198537
0.03742956 0.040033329 0.47800002 4278330634
0.039063655 0.040117081 0.47900003 4279054357
0.040619452 0.040117081 0.47900003 4279712287
0.042263292 0.040200833 0.48000002 4279186713
0.043822329 0.040200833 0.48000002 4279055640
0.045381371 0.040200833 0.48000002 4278198019
0.047038205 0.040284585 0.48100004 4279055638
0.048600499 0.040284585 0.48100004 4278663701
0.050162785 0.040284585 0.48100004 4278597908
0.051725071 0.040284585 0.48100004 4278597908
0.053287365 0.040284585 0.48100004 4278795287
0.054849651 0.040284585 0.48100004 4278663701
0.056411941 0.040284585 0.48100004 4278333712
0.05797423 0.040284585 0.48100004 4284909430
-0.030557061 0.043326415 0.49800003 4284248159
-0.02876522 0.043065414 0.49500003 4283854684
-0.026938006 0.042717412 0.49100003 4283986270
-0.02518839 0.042456411 0.48800004 4284249442
-0.023458261 0.042195406 0.48500001 4284315237
-0.021747623 0.041934405 0.48200002 4284513129
-0.020098343 0.0417604 0.48000002 4284974194
-0.01850068 0.0416734 0.47900003 4285039733
-0.016874135 0.041499399 0.47700003 4283856742
-0.01529271 0.041412398 0.47600001 4282607445
-0.013717782 0.041325398 0.47500002 4280042031
-0.01214935 0.041238397 0.47400004 4279120670
-0.010587414 0.041151397 0.47300002 4278530330
-0.0090511087 0.041151397 0.47300002 4278794015
-0.0075148032 0.041151397 0.47300002 4278596119
-0.0059784986 0.041151397 0.47300002 4279056670
-0.004442194 0.041151397 0.47300002 4278925597
-0.0029058892 0.041151397 0.47300002 4278925851
-0.0013695842 0.041151397 0.47300002 4278860058
0.00016707306 0.041238397 0.47400004 4278860058
0.0017066259 0.041238397 0.47400004 4278991642
0.0032461786 0.041238397 0.47400004 4278860056
0.0047958279 0.041325398 0.47500002 4278794517
0.0063386289 0.041325398 0.47500002 4278728724
0.007881429 0.041325398 0.47500002 4278662931
0.009424231 0.041325398 0.47500002 4278794517
0.01099012 0.041412398 0.47600001 4278662931
0.012536168 0.041412398 0.47600001 4278860310
0.014082218 0.041412398 0.47600001 4278728724
0.015628267 0.041412398 0.47600001 4278728724
0.017174315 0.041412398 0.47600001 4278794004
0.018720362 0.041412398 0.47600001 4278728211
0.020266412 0.041412398 0.47600001 4278793750
0.021858286 0.041499399 0.47700003 4278859543
0.023407584 0.041499399 0.47700003 4278794263
0.02495688 0.041499399 0.47700003 4278794263
0.026506176 0.041499399 0.47700003 4278859543
0.028055474 0.041499399 0.47700003 4278991129
0.02960477 0.041499399 0.47700003 4278727957
0.031154066 0.041499399 0.47700003 4278727959
0.032703366 0.041499399 0.47700003 4279056154
0.034252662 0.041499399 0.47700003 4278990361
0.035877012 0.041586399 0.47800002 4279516191
0.03742956 0.041586399 0.47800002 4279318812
0.039063655 0.0416734 0.47900003 4278858007
0.040619452 0.0416734 0.47900003 4279844389
0.042263292 0.0417604 0.48000002 4278923287
0.043822329 0.0417604 0.48000002 4278198793
0.045381371 0.0417604 0.48000002 4278792214
0.047038205 0.041847404 0.48100004 4278924566
0.048600499 0.041847404 0.48100004 4278728724
0.050162785 0.041847404 0.48100004 4278728724
0.051725071 0.041847404 0.48100004 4278399759
0.053287365 0.041847404 0.48100004 4278795287
0.054849651 0.041847404 0.48100004 4278729494
0.056411941 0.041847404 0.48100004 4278989593
0.05797423 0.041847404 0.48100004 4284448366
-0.030679777 0.04512497 0.5 4280957739
-0.028881442 0.04485422 0.49700001 4283985500
-0.027047733 0.044493224 0.49300003 4283985502
-0.02529162 0.04422247 0.49000001 4284182881
-0.023458261 0.043771222 0.48500001 4284315237
-0.021792741 0.043590721 0.48300001 4284249444
-0.020140216 0.043410223 0.48100004 4284447084
-0.01850068 0.043229725 0.47900003 4284644975
-0.016874135 0.043049224 0.47700003 4284710768
-0.01529271 0.042958971 0.47600001 4284710768
-0.013717782 0.042868722 0.47500002 4284644975
-0.01214935 0.042778477 0.47400004 4284973940
-0.010587414 0.042688224 0.47300002 4284842608
-0.0090511087 0.042688224 0.47300002 4284843378
-0.0075148032 0.042688224 0.47300002 4284646512
-0.0059784986 0.042688224 0.47300002 4284317547
-0.004442194 0.042688224 0.47300002 4283725156
-0.0029058892 0.042688224 0.47300002 4282606675
-0.0013695842 0.042688224 0.47300002 4281817159
0.00016707306 0.042778477 0.47400004 4279778346
0.0017066259 0.042778477 0.47400004 4278726425
0.0032461786 0.042778477 0.47400004 4278858009
0.0047958279 0.042868722 0.47500002 4278725910
0.0063386289 0.042868722 0.47500002 4278529042
0.007881429 0.042868722 0.47500002 4279187486
0.009424231 0.042868722 0.47500002 4279121693
0.01099012 0.042958971 0.47600001 4278990109
0.012536168 0.042958971 0.47600001 4278925086
0.014082218 0.042958971 0.47600001 4278991131
0.015628267 0.042958971 0.47600001 4279254301
0.017174315 0.042958971 0.47600001 4278990359
0.018720362 0.042958971 0.47600001 4279056152
0.020266412 0.042958971 0.47600001 4278793750
0.021812461 0.042958971 0.47600001 4278991131
0.023407584 0.043049224 0.47700003 4278859545
0.02495688 0.043049224 0.47700003 4278531093
0.026506176 0.043049224 0.47700003 4278728470
0.028055474 0.043049224 0.47700003 4278860056
0.02960477 0.043049224 0.47700003 4278925849
0.031154066 0.043049224 0.47700003 4278794263
0.032703366 0.043049224 0.47700003 4278662677
0.034252662 0.043049224 0.47700003 4278662677
0.035877012 0.043139473 0.47800002 4278793750
0.03742956 0.043139473 0.47800002 4278925336
0.039063655 0.043229725 0.47900003 4278991129
0.040619452 0.043229725 0.47900003 4278925336
0.042263292 0.043319974 0.48000002 4278859543
0.043822329 0.043319974 0.48000002 4278924566
0.045381371 0.043319974 0.48000002 4278991131
0.046940412 0.043319974 0.48000002 4279254303
0.048600499 0.043410223 0.48100004 4278728470
0.050162785 0.043410223 0.48100004 4278597654
0.051725071 0.043410223 0.48100004 4278729240
0.053287365 0.043410223 0.48100004 4278992412
0.054849651 0.043410223 0.48100004 4278925084
0.056411941 0.043410223 0.48100004 4284054121
0.05797423 0.043410223 0.48100004 4284579184
-0.020140216 0.044973042 0.48100004 4284578155
-0.018539302 0.044879541 0.48000002 4284776047
0.01099012 0.044505544 0.47600001 4284185709
0.012536168 0.044505544 0.47600001 4283264605
0.014082218 0.044505544 0.47600001 4281028413
0.015628267 0.044505544 0.47600001 4280238897
0.017174315 0.044505544 0.47600001 4279252254
0.018720362 0.044505544 0.47600001 4278923289
0.020266412 0.044505544 0.47600001 4278790931
0.021812461 0.044505544 0.47600001 4278462736
0.023407584 0.044599045 0.47700003 4278792214
0.02495688 0.044599045 0.47700003 4279581730
0.026506176 0.044599045 0.47700003 4278661142
0.028055474 0.044599045 0.47700003 4278661142
0.02960477 0.044599045 0.47700003 4278858523
0.031154066 0.044599045 0.47700003 4279055902
0.032703366 0.044599045 0.47700003 4278925084
0.034252662 0.044599045 0.47700003 4278990877
0.035877012 0.044692542 0.47800002 4279188256
0.03742956 0.044692542 0.47800002 4278793498
0.039063655 0.044786043 0.47900003 4279254049
0.040619452 0.044786043 0.47900003 4278925084
0.042263292 0.044879541 0.48000002 4279055900
0.043822329 0.044879541 0.48000002 4279121693
0.045381371 0.044879541 0.48000002 4278990361
0.046940412 0.044879541 0.48000002 4279056154
0.048499454 0.044879541 0.48000002 4278991131
0.050162785 0.044973042 0.48100004 4279188510
0.051725071 0.044973042 0.48100004 4279254303
0.053287365 0.044973042 0.48100004 4278595349
0.054849651 0.044973042 0.48100004 4283264346
0.056411941 0.044973042 0.48100004 4284579182
0.05797423 0.044973042 0.48100004 4284579184
0.043822329 0.046439111 0.48000002 4283331422
0.045381371 0.046439111 0.48000002 4283396961
0.046940412 0.046439111 0.48000002 4283067226
0.048499454 0.046439111 0.48000002 4283199064
0.050162785 0.046535861 0.48100004 4283264859
0.051725071 0.046535861 0.48100004 4284317547
0.053287365 0.046535861 0.48100004 4284843378
0.054849651 0.046535861 0.48100004 4284513643
0.0035595361 0.031653956 0.48205185 4294967295
0.0035595361 0.031653956 0.48205185 4294901760
0.0035595361 0.031653956 0.48255184 4294901760
0.0035595361 0.031653956 0.48305184 4294901760
0.0035595361 0.031653956 0.48355186 4294901760
0.0035595361 0.031653956 0.48405185 4294901760
0.0035595361 0.031653956 0.48455185 4294901760
0.0035595361 0.031653956 0.48505184 4294901760
0.0035595361 0.031653956 0.48555186 4294901760
0.0035595361 0.031653956 0.48605186 4294901760
0.0035595361 0.031653956 0.48655185 4294901760
0.0035595361 0.031653956 0.48705184 4294901760
0.0035595361 0.031653956 0.48755184 4294901760
0.0035595361 0.031653956 0.48805186 4294901760
0.0035595361 0.031653956 0.48855186 4294901760
0.0035595361 0.031653956 0.48905185 4294901760
0.0035595361 0.031653956 0.48955184 4294901760
0.0035595361 0.031653956 0.49005187 4294901760
0.0035595361 0.031653956 0.49055186 4294901760
0.0035595361 0.031653956 0.49105185 4294901760
0.0035595361 0.031653956 0.49155185 4294901760
0.0035595361 0.031653956 0.49205184 4294901760
0.0035595361 0.031653956 0.49255186 4294901760
0.0035595361 0.031653956 0.49305186 4294901760
0.0035595361 0.031653956 0.49355185 4294901760
0.0035595361 0.031653956 0.49405184 4294901760
0.0035595361 0.031653956 0.49455184 4294901760
0.0035595361 0.031653956 0.49505186 4294901760
0.0035595361 0.031653956 0.49555185 4294901760
0.0035595361 0.031653956 0.49605185 4294901760
0.0035595361 0.031653956 0.49655184 4294901760
0.0035595361 0.031653956 0.49705186 4294901760
0.0035595361 0.031653956 0.49755186 4294901760
0.0035595361 0.031653956 0.49805185 4294901760
0.0035595361 0.031653956 0.49855185 4294901760
0.0035595361 0.031653956 0.49905187 4294901760
0.0035595361 0.031653956 0.49955186 4294901760
0.0035595361 0.031653956 0.50005186 4294901760
0.0035595361 0.031653956 0.50055188 4294901760
0.0035595361 0.031653956 0.50105184 4294901760
0.0035595361 0.031653956 0.50155187 4294901760
0.0035595361 0.031653956 0.50205183 4294901760
0.0035595361 0.031653956 0.50255185 4294901760
0.0035595361 0.031653956 0.50305188 4294901760
0.0035595361 0.031653956 0.50355184 4294901760
0.0035595361 0.031653956 0.50405186 4294901760
0.0035595361 0.031653956 0.50455183 4294901760
0.0035595361 0.031653956 0.50505185 4294901760
0.0035595361 0.031653956 0.50555187 4294901760
0.0035595361 0.031653956 0.50605184 4294901760
0.0035595361 0.031653956 0.50655186 4294901760
0.0035595361 0.031653956 0.50705183 4294901760
0.0035595361 0.031653956 0.50755185 4294901760
0.0035595361 0.031653956 0.50805187 4294901760
0.0035595361 0.031653956 0.50855184 4294901760
0.0035595361 0.031653956 0.50905186 4294901760
0.0035595361 0.031653956 0.50955188 4294901760
0.0035595361 0.031653956 0.51005185 4294901760
0.0035595361 0.031653956 0.51055187 4294901760
0.0035595361 0.031653956 0.51105183 4294901760
0.0035595361 0.031653956 0.51155186 4294901760
0.0035595361 0.031653956 0.51205188 4294901760
0.0035595361 0.031653956 0.51255184 4294901760
0.0035595361 0.031653956 0.51305187 4294901760
0.0035595361 0.031653956 0.51355183 4294901760
0.0035595361 0.031653956 0.51405185 4294901760
0.0035595361 0.031653956 0.51455188 4294901760
0.0035595361 0.031653956 0.51505184 4294901760
0.0035595361 0.031653956 0.51555187 4294901760
0.0035595361 0.031653956 0.51605189 4294901760
0.0035595361 0.031653956 0.51655185 4294901760
0.0035595361 0.031653956 0.51705188 4294901760
0.0035595361 0.031653956 0.51755184 4294901760
0.0035595361 0.031653956 0.51805186 4294901760
0.0035595361 0.031653956 0.51855189 4294901760
0.0035595361 0.031653956 0.51905185 4294901760
0.0035595361 0.031653956 0.51955187 4294901760
0.0035595361 0.031653956 0.52005184 4294901760
0.0035595361 0.031653956 0.52055186 4294901760
0.0035595361 0.031653956 0.52105188 4294901760
0.0035595361 0.031653956 0.52155185 4294901760
0.0035595361 0.031653956 0.52205187 4294901760
0.0035595361 0.031653956 0.52255183 4294901760
0.0035595361 0.031653956 0.52305186 4294901760
0.0035595361 0.031653956 0.52355188 4294901760
0.0035595361 0.031653956 0.52405185 4294901760
0.0035595361 0.031653956 0.52455187 4294901760
0.0035595361 0.031653956 0.52505183 4294901760
0.0035595361 0.031653956 0.52555186 4294901760
0.0035595361 0.031653956 0.52605188 4294901760
0.0035595361 0.031653956 0.52655184 4294901760
0.0035595361 0.031653956 0.52705187 4294901760
0.0035595361 0.031653956 0.52755189 4294901760
0.0035595361 0.031653956 0.52805185 4294901760
0.0035595361 0.031653956 0.52855188 4294901760
0.0035595361 0.031653956 0.52905184 4294901760
0.0035595361 0.031653956 0.52955186 4294901760
0.0035595361 0.031653956 0.53005189 4294901760
0.0035595361 0.031653956 0.53055185 4294901760
0.0035595361 0.031653956 0.53105187 4294901760
0.0035595361 0.031653956 0.53155184 4294901760
0.0035595361 0.031653956 0.53205186 4294901760
0.0035595361 0.031653956 0.48205185 4278255360
0.0035008485 0.031678725 0.48254776 4278255360
0.003442161 0.031703494 0.4830437 4278255360
0.0033834733 0.031728264 0.48353964 4278255360
0.0033247857 0.031753033 0.48403555 4278255360
0.0032660982 0.031777803 0.48453146 4278255360
0.0032074107 0.031802572 0.4850274 4278255360
0.0031487229 0.031827342 0.48552334 4278255360
0.0030900354 0.031852111 0.48601925 4278255360
0.0030313479 0.031876881 0.48651516 4278255360
0.0029726604 0.03190165 0.4870111 4278255360
0.0029139728 0.03192642 0.48750705 4278255360
0.0028552851 0.031951189 0.48800296 4278255360
0.0027965975 0.031975958 0.48849887 4278255360
0.00273791 0.032000728 0.48899481 4278255360
0.0026792223 0.032025497 0.48949075 4278255360
0.002620535 0.032050267 0.48998666 4278255360
0.0025618472 0.032075036 0.49048257 4278255360
0.0025031597 0.032099806 0.49097851 4278255360
0.0024444722 0.032124575 0.49147445 4278255360
0.0023857844 0.032149345 0.49197036 4278255360
0.0023270971 0.032174114 0.49246627 4278255360
0.0022684094 0.032198884 0.49296221 4278255360
0.0022097218 0.032223653 0.49345815 4278255360
0.0021510343 0.032248423 0.49395406 4278255360
0.0020923465 0.032273188 0.49444997 4278255360
0.0020336593 0.032297958 0.49494591 4278255360
0.0019749715 0.032322727 0.49544185 4278255360
0.001916284 0.032347497 0.49593776 4278255360
0.0018575964 0.032372266 0.49643368 4278255360
0.0017989087 0.032397036 0.49692962 4278255360
0.0017402212 0.032421805 0.49742556 4278255360
0.0016815336 0.032446574 0.49792147 4278255360
0.001622846 0.032471344 0.49841738 4278255360
0.0015641584 0.032496113 0.49891332 4278255360
0.0015054708 0.032520883 0.49940926 4278255360
0.0014467833 0.032545652 0.49990517 4278255360
0.0013880958 0.032570422 0.50040108 4278255360
0.0013294083 0.032595191 0.50089705 4278255360
0.0012707207 0.032619961 0.50139296 4278255360
0.001212033 0.03264473 0.50188887 4278255360
0.0011533455 0.0326695 0.50238478 4278255360
0.0010946579 0.032694269 0.50288069 4278255360
0.0010359702 0.032719038 0.50337666 4278255360
0.00097728265 0.032743808 0.50387257 4278255360
0.00091859512 0.032768577 0.50436848 4278255360
0.0008599076 0.032793347 0.50486445 4278255360
0.00080122007 0.032818116 0.50536036 4278255360
0.00074253255 0.032842886 0.50585628 4278255360
0.00068384479 0.032867655 0.50635219 4278255360
0.00062515726 0.032892425 0.5068481 4278255360
0.00056646974 0.032917194 0.50734407 4278255360
0.00050778221 0.032941964 0.50783998 4278255360
0.00044909469 0.032966733 0.50833589 4278255360
0.00039040693 0.032991502 0.50883186 4278255360
0.00033171941 0.033016272 0.50932777 4278255360
0.00027303188 0.033041041 0.50982368 4278255360
0.00021434436 0.033065811 0.51031959 4278255360
0.00015565683 0.03309058 0.5108155 4278255360
9.6969306e-05 0.03311535 0.51131147 4278255360
3.8281316e-05 0.033140119 0.51180738 4278255360
-2.0406209e-05 0.033164889 0.51230329 4278255360
-7.9093734e-05 0.033189658 0.51279926 4278255360
-0.00013778126 0.033214428 0.51329517 4278255360
-0.00019646878 0.033239197 0.51379108 4278255360
-0.00025515631 0.033263966 0.51428699 4278255360
-0.00031384407 0.033288736 0.51478291 4278255360
-0.00037253159 0.033313505 0.51527888 4278255360
-0.00043121935 0.033338275 0.51577479 4278255360
-0.00048990664 0.033363044 0.5162707 4278255360
-0.0005485944 0.033387814 0.51676667 4278255360
-0.00060728169 0.033412583 0.51726258 4278255360
-0.00066596945 0.033437353 0.51775849 4278255360
-0.00072465721 0.033462122 0.5182544 4278255360
-0.0007833445 0.033486892 0.51875031 4278255360
-0.00084203226 0.033511661 0.51924628 4278255360
-0.00090071955 0.033536427 0.51974219 4278255360
-0.00095940731 0.033561196 0.5202381 4278255360
-0.0010180946 0.033585966 0.52073407 4278255360
-0.0010767824 0.033610735 0.52122998 4278255360
-0.0011354701 0.033635505 0.52172589 4278255360
-0.0011941574 0.033660274 0.5222218 4278255360
-0.0012528452 0.033685043 0.52271771 4278255360
-0.0013115325 0.033709813 0.52321368 4278255360
-0.0013702202 0.033734582 0.5237096 4278255360
-0.001428908 0.033759352 0.52420551 4278255360
-0.0014875957 0.033784121 0.52470148 4278255360
-0.001546283 0.033808891 0.52519739 4278255360
-0.0016049708 0.03383366 0.5256933 4278255360
-0.0016636581 0.03385843 0.52618921 4278255360
-0.0017223458 0.033883199 0.52668512 4278255360
-0.0017810336 0.033907969 0.52718109 4278255360
-0.0018397209 0.033932738 0.527677 4278255360
-0.0018984086 0.033957507 0.52817291 4278255360
-0.0019570959 0.033982277 0.52866888 4278255360
-0.0020157837 0.034007046 0.52916479 4278255360
-0.002074471 0.034031816 0.5296607 4278255360
-0.0021331592 0.034056585 0.53015661 4278255360
-0.0021918465 0.034081355 0.53065252 4278255360
