# .PCD v0.7 - Point Cloud Data file format
VERSION 0.7
FIELDS x y z rgb
SIZE 4 4 4 4
TYPE F F F U
COUNT 1 1 1 1
WIDTH 1036
HEIGHT 1
VIEWPOINT 0 0 0 1 0 0 0
POINTS 1036
DATA ascii
-0.020182086 0.024707666 0.48200002 4278664214
-0.018577926 0.024656406 0.48100004 4278730005
-0.016980261 0.024605144 0.48000002 4278664212
-0.015389093 0.024553884 0.47900003 4278664212
-0.013804421 0.024502622 0.47800002 4278335249
-0.012251875 0.024502622 0.47800002 4278532628
-0.010676947 0.024451362 0.47700003 4278532628
-0.0091085145 0.0244001 0.47600001 4278532628
-0.0075624655 0.0244001 0.47600001 4278532628
-0.006003778 0.02434884 0.47500002 4278335249
-0.0044609774 0.02434884 0.47500002 4278203149
-0.0029181761 0.02434884 0.47500002 4278467605
-0.0013753753 0.02434884 0.47500002 4278270740
0.00016742553 0.02434884 0.47500002 4278402326
-0.023409896 0.026382752 0.48400003 4278922517
-0.021747623 0.026273731 0.48200002 4279055640
-0.020140216 0.026219223 0.48100004 4278728724
-0.018539302 0.026164712 0.48000002 4278795287
-0.016944887 0.026110204 0.47900003 4278664214
-0.015356964 0.026055692 0.47800002 4278598419
-0.013804421 0.026055692 0.47800002 4278466833
-0.012226244 0.026001183 0.47700003 4278532626
-0.010654564 0.025946673 0.47600001 4278466833
-0.0091085145 0.025946673 0.47600001 4278993177
-0.0075465781 0.025892163 0.47500002 4278466835
-0.006003778 0.025892163 0.47500002 4278335249
-0.0044609774 0.025892163 0.47500002 4278989845
-0.0029181761 0.025892163 0.47500002 4278198787
-0.0013753753 0.025892163 0.47500002 4278597908
0.00016742553 0.025892163 0.47500002 4278532115
0.0017102263 0.025892163 0.47500002 4278203409
0.0032530271 0.025892163 0.47500002 4278598421
-0.023361526 0.027897557 0.48300001 4279053842
-0.021747623 0.027839798 0.48200002 4279187224
-0.020098343 0.027724281 0.48000002 4278860310
-0.01850068 0.027666522 0.47900003 4278729494
-0.01690951 0.027608763 0.47800002 4278795798
-0.015356964 0.027608763 0.47800002 4278664212
-0.013775541 0.027551005 0.47700003 4278664212
-0.012200613 0.027493244 0.47600001 4278335247
-0.010654564 0.027493244 0.47600001 4278466833
-0.0091085145 0.027493244 0.47600001 4278466833
-0.0075465781 0.027435487 0.47500002 4278400527
-0.006003778 0.027435487 0.47500002 4278597906
-0.0044609774 0.027435487 0.47500002 4279121431
-0.0029181761 0.027435487 0.47500002 4278989845
-0.0013753753 0.027435487 0.47500002 4278727957
0.00016742553 0.027435487 0.47500002 4278464785
0.0017102263 0.027435487 0.47500002 4278661396
0.0032530271 0.027435487 0.47500002 4278990359
0.0047958279 0.027435487 0.47500002 4278859543
0.0063386289 0.027435487 0.47500002 4278727957
0.007881429 0.027435487 0.47500002 4278727957
0.009424231 0.027435487 0.47500002 4278596371
0.01099012 0.027493244 0.47600001 4278728724
0.012536168 0.027493244 0.47600001 4278728724
0.014082218 0.027493244 0.47600001 4278532113
0.015628267 0.027493244 0.47600001 4278334734
0.017174315 0.027493244 0.47600001 4278597906
0.018720362 0.027493244 0.47600001 4278597906
0.020266412 0.027493244 0.47600001 4278532113
0.021766638 0.027435487 0.47500002 4278597906
0.026283903 0.027319968 0.47300002 4278401810
0.027820207 0.027319968 0.47300002 4278533396
0.02929445 0.027262211 0.47200003 4278468117
0.030827504 0.027262211 0.47200003 4278533910
0.032360565 0.027262211 0.47200003 4278533910
0.038492788 0.027262211 0.47200003 4278928668
0.040110648 0.027319968 0.47300002 4279257121
0.04164695 0.027319968 0.47300002 4279190304
0.043183252 0.027319968 0.47300002 4278992925
-0.023361526 0.029466873 0.48300001 4278660367
-0.021702504 0.029344859 0.48100004 4278925590
-0.020098343 0.02928385 0.48000002 4278664214
-0.01850068 0.029222842 0.47900003 4278795798
-0.01690951 0.029161833 0.47800002 4278664212
-0.015324838 0.029100826 0.47700003 4278532626
-0.013775541 0.029100826 0.47700003 4278466835
-0.012200613 0.029039817 0.47600001 4278335249
-0.010654564 0.029039817 0.47600001 4278532628
-0.0090893796 0.02897881 0.47500002 4278335249
-0.0075465781 0.02897881 0.47500002 4278400527
-0.006003778 0.02897881 0.47500002 4278202378
-0.0044609774 0.02897881 0.47500002 4278196742
-0.0029181761 0.02897881 0.47500002 4278725392
-0.0013753753 0.02897881 0.47500002 4279647777
0.00016742553 0.02897881 0.47500002 4278262279
0.0017102263 0.02897881 0.47500002 4278392584
0.0032530271 0.02897881 0.47500002 4278392330
0.0047958279 0.02897881 0.47500002 4278195718
0.0063386289 0.02897881 0.47500002 4278393095
0.007881429 0.02897881 0.47500002 4278262279
0.009444071 0.029039817 0.47600001 4278196486
0.01099012 0.029039817 0.47600001 4278196226
0.012536168 0.029039817 0.47600001 4278196480
0.014082218 0.029039817 0.47600001 4278266122
0.015628267 0.029039817 0.47600001 4278464015
0.017174315 0.029039817 0.47600001 4278398992
0.018720362 0.029039817 0.47600001 4278858773
0.020266412 0.029039817 0.47600001 4278596371
0.021766638 0.02897881 0.47500002 4279057176
0.023309439 0.02897881 0.47500002 4278531345
0.024799919 0.028917802 0.47400004 4278465552
0.026283903 0.028856793 0.47300002 4278334736
0.027820207 0.028856793 0.47300002 4278334734
0.029356513 0.028856793 0.47300002 4278532626
0.030827504 0.028795786 0.47200003 4278532626
0.032360565 0.028795786 0.47200003 4278466833
0.033893619 0.028795786 0.47200003 4278466831
0.035426673 0.028795786 0.47200003 4278532624
0.037038036 0.028856793 0.47300002 4278598417
0.038574342 0.028856793 0.47300002 4278533394
0.040110648 0.028856793 0.47300002 4278664982
0.041735001 0.028917802 0.47400004 4278664982
0.043274552 0.028917802 0.47400004 4278928154
0.04490865 0.02897881 0.47500002 4278797082
0.046549242 0.029039817 0.47600001 4278928670
0.048095293 0.029039817 0.47600001 4278731291
0.049641341 0.029039817 0.47600001 4278796830
0.051187389 0.029039817 0.47600001 4279256615
-0.023313159 0.030971935 0.48200002 4279318297
-0.021702504 0.030907677 0.48100004 4278924820
-0.020098343 0.03084342 0.48000002 4278598421
-0.01850068 0.030779164 0.47900003 4278730005
-0.01690951 0.030714905 0.47800002 4278795798
-0.015324838 0.030650649 0.47700003 4278532626
-0.013746661 0.030586392 0.47600001 4278532626
-0.012200613 0.030586392 0.47600001 4278598419
-0.010654564 0.030586392 0.47600001 4278532626
-0.0090893796 0.030522134 0.47500002 4278203661
-0.0075465781 0.030522134 0.47500002 4278532626
-0.006003778 0.030522134 0.47500002 4278729494
-0.0044609774 0.030522134 0.47500002 4278263306
-0.0029181761 0.030522134 0.47500002 4278923539
-0.0013753753 0.030522134 0.47500002 4278593039
0.00016742553 0.030522134 0.47500002 4278589963
0.0017102263 0.030522134 0.47500002 4278654732
0.0032530271 0.030522134 0.47500002 4278654732
0.0047958279 0.030522134 0.47500002 4278456839
0.0063386289 0.030522134 0.47500002 4278720011
0.007881429 0.030522134 0.47500002 4278851597
0.009444071 0.030586392 0.47600001 4278720011
0.01099012 0.030586392 0.47600001 4278720011
0.012536168 0.030586392 0.47600001 4278720011
0.014082218 0.030586392 0.47600001 4278195457
0.015628267 0.030586392 0.47600001 4279120920
0.017174315 0.030586392 0.47600001 4278923541
0.018720362 0.030586392 0.47600001 4279055127
0.020266412 0.030586392 0.47600001 4278857494
0.021766638 0.030522134 0.47500002 4278198022
0.023309439 0.030522134 0.47500002 4278196738
0.024852239 0.030522134 0.47500002 4278194688
0.026339471 0.030457878 0.47400004 4278196481
0.027879026 0.030457878 0.47400004 4278198019
0.029356513 0.030393621 0.47300002 4278198790
0.030892815 0.030393621 0.47300002 4278726162
0.032429121 0.030393621 0.47300002 4278661394
0.033965427 0.030393621 0.47300002 4279056152
0.03550173 0.030393621 0.47300002 4278990613
0.037038036 0.030393621 0.47300002 4278728211
0.038655896 0.030457878 0.47400004 4278662931
0.04019545 0.030457878 0.47400004 4278662931
0.041823048 0.030522134 0.47500002 4278729494
0.043457143 0.030586392 0.47600001 4278597908
0.045003194 0.030586392 0.47600001 4278203406
0.046647035 0.030650649 0.47700003 4278533398
0.048196334 0.030650649 0.47700003 4278664982
0.04974563 0.030650649 0.47700003 4278796568
0.051294927 0.030650649 0.47700003 4278797084
0.052955009 0.030714905 0.47800002 4278994463
0.05450755 0.030714905 0.47800002 4278795035
-0.023313159 0.032538 0.48200002 4279383320
-0.021702504 0.032470495 0.48100004 4278859027
-0.020098343 0.032402989 0.48000002 4278664212
-0.01850068 0.032335483 0.47900003 4278730005
-0.01690951 0.032267977 0.47800002 4278664212
-0.015324838 0.032200471 0.47700003 4278598417
-0.013746661 0.032132965 0.47600001 4278466833
-0.012200613 0.032132965 0.47600001 4278532626
-0.010654564 0.032132965 0.47600001 4278335247
-0.0090893796 0.032065459 0.47500002 4278532626
-0.0075465781 0.032065459 0.47500002 4278730007
-0.006003778 0.032065459 0.47500002 4278991896
-0.0044609774 0.032065459 0.47500002 4278198281
-0.0029181761 0.032065459 0.47500002 4279055638
-0.0013753753 0.032065459 0.47500002 4278196999
0.00016742553 0.032065459 0.47500002 4278656015
0.0017102263 0.032065459 0.47500002 4279774496
0.0032530271 0.032065459 0.47500002 4278590222
0.0047958279 0.032065459 0.47500002 4279840030
0.0063386289 0.032065459 0.47500002 4278589963
0.0078980215 0.032132965 0.47600001 4279445270
0.009444071 0.032132965 0.47600001 4278984719
0.01099012 0.032132965 0.47600001 4278852365
0.012536168 0.032132965 0.47600001 4279181330
0.014082218 0.032132965 0.47600001 4278657550
0.015628267 0.032132965 0.47600001 4279055125
0.017174315 0.032132965 0.47600001 4278661394
0.018720362 0.032132965 0.47600001 4278398222
0.020266412 0.032132965 0.47600001 4279121431
0.021812461 0.032132965 0.47600001 4279055640
0.023309439 0.032065459 0.47500002 4279055640
0.024852239 0.032065459 0.47500002 4279187224
0.026339471 0.031997953 0.47400004 4279187224
0.027879026 0.031997953 0.47400004 4279187224
0.029418578 0.031997953 0.47400004 4279055125
0.030958129 0.031997953 0.47400004 4279318297
0.032497685 0.031997953 0.47400004 4279581471
0.034037236 0.031997953 0.47400004 4278922771
0.035576787 0.031997953 0.47400004 4278528013
0.037116341 0.031997953 0.47400004 4278196992
0.038737446 0.032065459 0.47500002 4278195712
0.040280249 0.032065459 0.47500002 4278196736
0.041911095 0.032132965 0.47600001 4278194688
0.043548442 0.032200471 0.47700003 4278198534
0.045097739 0.032200471 0.47700003 4278397710
0.046647035 0.032200471 0.47700003 4278465552
0.048297372 0.032267977 0.47800002 4278335249
0.049849916 0.032267977 0.47800002 4278664214
0.051402461 0.032267977 0.47800002 4278664212
0.053065795 0.032335483 0.47900003 4279059740
0.054621585 0.032335483 0.47900003 4278927386
0.056177381 0.032335483 0.47900003 4278202641
-0.023361526 0.034174822 0.48300001 4279844641
-0.021702504 0.034033313 0.48100004 4279056406
-0.020098343 0.033962559 0.48000002 4278729494
-0.01850068 0.033891805 0.47900003 4278861078
-0.01690951 0.033821046 0.47800002 4278730005
-0.015324838 0.033750292 0.47700003 4278532626
-0.013775541 0.033750292 0.47700003 4278598419
-0.012200613 0.033679534 0.47600001 4278532626
-0.010654564 0.033679534 0.47600001 4278664212
-0.0090893796 0.033608783 0.47500002 4278598419
-0.0075465781 0.033608783 0.47500002 4278992664
-0.006003778 0.033608783 0.47500002 4278199815
-0.0044609774 0.033608783 0.47500002 4278460683
-0.0029181761 0.033608783 0.47500002 4278989845
-0.0013753753 0.033608783 0.47500002 4278195200
0.00016742553 0.033608783 0.47500002 4278656269
0.0017102263 0.033608783 0.47500002 4278392330
0.0032530271 0.033608783 0.47500002 4279181846
0.0047958279 0.033608783 0.47500002 4279116307
0.0063386289 0.033608783 0.47500002 4278260998
0.0078980215 0.033679534 0.47600001 4278655754
0.009444071 0.033679534 0.47600001 4278984721
0.01099012 0.033679534 0.47600001 4279314967
0.012536168 0.033679534 0.47600001 4278196486
0.014082218 0.033679534 0.47600001 4278460171
0.015628267 0.033679534 0.47600001 4278923539
0.017174315 0.033679534 0.47600001 4278196482
0.018720362 0.033679534 0.47600001 4278196486
0.020266412 0.033679534 0.47600001 4278195969
0.021812461 0.033679534 0.47600001 4278330380
0.023358511 0.033679534 0.47600001 4279252506
0.024852239 0.033608783 0.47500002 4278199561
0.02639504 0.033608783 0.47500002 4278199047
0.027937841 0.033608783 0.47500002 4278199561
0.029480642 0.033608783 0.47500002 4278726675
0.031023441 0.033608783 0.47500002 4279055638
0.032566246 0.033608783 0.47500002 4278990099
0.034109045 0.033608783 0.47500002 4278661648
0.035651844 0.033608783 0.47500002 4278859027
0.037194647 0.033608783 0.47500002 4278595855
0.038818996 0.033679534 0.47600001 4279055892
0.04044985 0.033750292 0.47700003 4278858513
0.041999146 0.033750292 0.47700003 4279055892
0.043639734 0.033821046 0.47800002 4279055892
0.045192283 0.033821046 0.47800002 4278593552
0.046744827 0.033821046 0.47800002 4279186713
0.048398416 0.033891805 0.47900003 4278728470
0.049954206 0.033891805 0.47900003 4278728470
0.051509999 0.033891805 0.47900003 4278532115
0.053065795 0.033891805 0.47900003 4278400529
0.054621585 0.033891805 0.47900003 4278531861
0.056177381 0.033891805 0.47900003 4278333712
0.057733171 0.033891805 0.47900003 4284844409
-0.023361526 0.035744138 0.48300001 4279516189
-0.021747623 0.035670135 0.48200002 4278794517
-0.020140216 0.035596132 0.48100004 4278992666
-0.01850068 0.035448123 0.47900003 4278730007
-0.016944887 0.035448123 0.47900003 4278730007
-0.015356964 0.035374116 0.47800002 4278532628
-0.013775541 0.035300113 0.47700003 4278598421
-0.012200613 0.035226107 0.47600001 4278203661
-0.010654564 0.035226107 0.47600001 4278466833
-0.0091085145 0.035226107 0.47600001 4278598419
-0.0075465781 0.035152104 0.47500002 4278663699
-0.006003778 0.035152104 0.47500002 4278925590
-0.0044609774 0.035152104 0.47500002 4278987027
-0.0029181761 0.035152104 0.47500002 4278858259
-0.0013753753 0.035152104 0.47500002 4278196228
0.00016742553 0.035152104 0.47500002 4278588939
0.0017102263 0.035152104 0.47500002 4278785804
0.0032530271 0.035152104 0.47500002 4278720013
0.0047958279 0.035152104 0.47500002 4278720011
0.0063386289 0.035152104 0.47500002 4278654218
0.0078980215 0.035226107 0.47600001 4278720011
0.009444071 0.035226107 0.47600001 4278523146
0.01099012 0.035226107 0.47600001 4278195461
0.012536168 0.035226107 0.47600001 4278524683
0.014082218 0.035226107 0.47600001 4279644957
0.015628267 0.035226107 0.47600001 4279120918
0.017174315 0.035226107 0.47600001 4278328074
0.018720362 0.035226107 0.47600001 4278589963
0.020266412 0.035226107 0.47600001 4278459660
0.021812461 0.035226107 0.47600001 4278198024
0.023358511 0.035226107 0.47600001 4278989847
0.024904558 0.035226107 0.47600001 4278266124
0.02639504 0.035152104 0.47500002 4278397197
0.027937841 0.035152104 0.47500002 4279055127
0.029480642 0.035152104 0.47500002 4278265611
0.031023441 0.035152104 0.47500002 4278198790
0.032566246 0.035152104 0.47500002 4278196992
0.03418085 0.035226107 0.47600001 4278199817
0.035726897 0.035226107 0.47600001 4278198532
0.037272949 0.035226107 0.47600001 4278197504
0.03890055 0.035300113 0.47700003 4278989847
0.04044985 0.035300113 0.47700003 4278266124
0.042087194 0.035374116 0.47800002 4278595601
0.043731034 0.035448123 0.47900003 4278727441
0.045286831 0.035448123 0.47900003 4278198023
0.04684262 0.035448123 0.47900003 4279515678
0.048398416 0.035448123 0.47900003 4278596371
0.049954206 0.035448123 0.47900003 4278727957
0.051509999 0.035448123 0.47900003 4278728470
0.053065795 0.035448123 0.47900003 4278663447
0.054621585 0.035448123 0.47900003 4278531861
0.056177381 0.035448123 0.47900003 4278662679
0.057733171 0.035448123 0.47900003 4284712821
-0.028474661 0.037854228 0.49000001 4284577637
-0.025085159 0.037545215 0.48600003 4279578654
-0.023409896 0.037390709 0.48400003 4279056670
-0.021792741 0.037313454 0.48300001 4278991644
-0.020140216 0.037158951 0.48100004 4278795546
-0.018539302 0.037081696 0.48000002 4278664214
-0.016944887 0.037004441 0.47900003 4278730005
-0.015356964 0.036927186 0.47800002 4278598419
-0.013775541 0.036849935 0.47700003 4278532626
-0.012226244 0.036849935 0.47700003 4278532626
-0.010654564 0.03677268 0.47600001 4278532626
-0.0091085145 0.03677268 0.47600001 4278269454
-0.0075624655 0.03677268 0.47600001 4278795287
-0.006003778 0.036695428 0.47500002 4278201099
-0.0044609774 0.036695428 0.47500002 4278198533
-0.0029181761 0.036695428 0.47500002 4279056152
-0.0013753753 0.036695428 0.47500002 4278990359
0.00016742553 0.036695428 0.47500002 4279054873
0.0017102263 0.036695428 0.47500002 4278723857
0.0032530271 0.036695428 0.47500002 4278789138
0.0047958279 0.036695428 0.47500002 4278524170
0.0063386289 0.036695428 0.47500002 4278194951
0.007881429 0.036695428 0.47500002 4278391562
0.009444071 0.03677268 0.47600001 4278588941
0.01099012 0.03677268 0.47600001 4278720013
0.012536168 0.03677268 0.47600001 4278785804
0.014082218 0.03677268 0.47600001 4279514141
0.015628267 0.03677268 0.47600001 4279384092
0.017174315 0.03677268 0.47600001 4279381273
0.018720362 0.03677268 0.47600001 4278986002
0.020266412 0.03677268 0.47600001 4279381785
0.021812461 0.03677268 0.47600001 4278988310
0.023358511 0.03677268 0.47600001 4278529042
0.024904558 0.03677268 0.47600001 4278858261
0.026450608 0.03677268 0.47600001 4278595089
0.027996656 0.03677268 0.47600001 4278197248
0.029542705 0.03677268 0.47600001 4279055127
0.031088753 0.03677268 0.47600001 4278198790
0.032634802 0.03677268 0.47600001 4278856724
0.03418085 0.03677268 0.47600001 4278264587
0.035801958 0.036849935 0.47700003 4278197254
0.037351254 0.036849935 0.47700003 4279514654
0.038982101 0.036927186 0.47800002 4278988310
0.040534649 0.036927186 0.47800002 4278922517
0.042175245 0.037004441 0.47900003 4278199301
0.043731034 0.037004441 0.47900003 4278925336
0.045381371 0.037081696 0.48000002 4278198018
0.046940412 0.037081696 0.48000002 4278989847
0.048499454 0.037081696 0.48000002 4278793750
0.050058495 0.037081696 0.48000002 4278793750
0.051617533 0.037081696 0.48000002 4278794263
0.053176578 0.037081696 0.48000002 4278663447
0.054621585 0.037004441 0.47900003 4278531861
0.056177381 0.037004441 0.47900003 4278925851
0.057733171 0.037004441 0.47900003 4284186477
-0.030311622 0.039768301 0.49400002 4284642149
-0.028590884 0.039607294 0.49200001 4284117858
-0.026883142 0.039446291 0.49000001 4284249442
-0.02518839 0.039285287 0.48800004 4280762415
-0.023458261 0.039043777 0.48500001 4279318562
-0.021837862 0.038963273 0.48400003 4278727705
-0.020182086 0.03880227 0.48200002 4278992414
-0.018577926 0.038721766 0.48100004 4278795033
-0.016980261 0.038641263 0.48000002 4278729494
-0.015389093 0.038560763 0.47900003 4278532115
-0.013804421 0.038480259 0.47800002 4278597908
-0.012226244 0.038399756 0.47700003 4278729494
-0.010654564 0.038319252 0.47600001 4278532115
-0.0091085145 0.038319252 0.47600001 4278532115
-0.0075624655 0.038319252 0.47600001 4278532115
-0.0060164174 0.038319252 0.47600001 4278662931
-0.0044609774 0.038238753 0.47500002 4278727957
-0.0029181761 0.038238753 0.47500002 4278728211
-0.0013753753 0.038238753 0.47500002 4278860310
0.00016742553 0.038238753 0.47500002 4278728724
0.0017102263 0.038238753 0.47500002 4278860056
0.0032530271 0.038238753 0.47500002 4278860056
0.0047958279 0.038238753 0.47500002 4278596371
0.0063386289 0.038238753 0.47500002 4278727187
0.007881429 0.038238753 0.47500002 4278924566
0.009424231 0.038238753 0.47500002 4279253017
0.01099012 0.038319252 0.47600001 4279251482
0.012536168 0.038319252 0.47600001 4279448861
0.014082218 0.038319252 0.47600001 4279055127
0.015628267 0.038319252 0.47600001 4278594576
0.017174315 0.038319252 0.47600001 4278659086
0.018720362 0.038319252 0.47600001 4278196997
0.020266412 0.038319252 0.47600001 4278196740
0.021812461 0.038319252 0.47600001 4278194688
0.023358511 0.038319252 0.47600001 4278194432
0.024904558 0.038319252 0.47600001 4278196998
0.026450608 0.038319252 0.47600001 4278461966
0.027996656 0.038319252 0.47600001 4279054103
0.029542705 0.038319252 0.47600001 4279252506
0.031088753 0.038319252 0.47600001 4279186713
0.032703366 0.038399756 0.47700003 4279121433
0.034252662 0.038399756 0.47700003 4279121433
0.035801958 0.038399756 0.47700003 4278989847
0.03742956 0.038480259 0.47800002 4278989847
0.038982101 0.038480259 0.47800002 4279252506
0.040619452 0.038560763 0.47900003 4279055127
0.042175245 0.038560763 0.47900003 4278792466
0.043822329 0.038641263 0.48000002 4278661394
0.045381371 0.038641263 0.48000002 4278196992
0.046940412 0.038641263 0.48000002 4278924568
0.048499454 0.038641263 0.48000002 4278728470
0.050058495 0.038641263 0.48000002 4278991642
0.051617533 0.038641263 0.48000002 4278465298
0.053176578 0.038641263 0.48000002 4278531861
0.054735616 0.038641263 0.48000002 4278531861
0.056294661 0.038641263 0.48000002 4279386400
0.057733171 0.038560763 0.47900003 4284580465
-0.03043434 0.041540861 0.49600002 4284643432
-0.028707108 0.041373357 0.49400002 4284117858
-0.026938006 0.041122101 0.49100003 4284249444
-0.025240006 0.040954597 0.48900002 4284381030
-0.023554998 0.040787093 0.48700002 4284907887
-0.021882981 0.040619589 0.48500001 4282540623
-0.020223958 0.040452085 0.48300001 4279317277
-0.018577926 0.040284585 0.48100004 4279054875
-0.016980261 0.040200833 0.48000002 4278859293
-0.015389093 0.040117081 0.47900003 4279056672
-0.013804421 0.040033329 0.47800002 4279056670
-0.012226244 0.039949577 0.47700003 4279254049
-0.010676947 0.039949577 0.47700003 4279188510
-0.0091085145 0.039865825 0.47600001 4278991644
-0.0075624655 0.039865825 0.47600001 4278795035
-0.0060164174 0.039865825 0.47600001 4278860828
-0.0044609774 0.039782073 0.47500002 4278860056
-0.0029181761 0.039782073 0.47500002 4278794517
-0.0013753753 0.039782073 0.47500002 4278728724
0.00016742553 0.039782073 0.47500002 4278926103
0.0017102263 0.039782073 0.47500002 4278794517
0.0032530271 0.039782073 0.47500002 4278794517
0.0047958279 0.039782073 0.47500002 4278794517
0.0063386289 0.039782073 0.47500002 4278728724
0.007881429 0.039782073 0.47500002 4278662931
0.009424231 0.039782073 0.47500002 4278531345
0.010967032 0.039782073 0.47500002 4278860310
0.012509832 0.039782073 0.47500002 4278794004
0.014052633 0.039782073 0.47500002 4278662677
0.015595434 0.039782073 0.47500002 4278531091
0.017138233 0.039782073 0.47500002 4278793750
0.018681034 0.039782073 0.47500002 4278858773
0.020223835 0.039782073 0.47500002 4278990359
0.021766638 0.039782073 0.47500002 4279121945
0.023358511 0.039865825 0.47600001 4279121431
0.024904558 0.039865825 0.47600001 4279055638
0.026450608 0.039865825 0.47600001 4279318299
0.027996656 0.039865825 0.47600001 4279120920
0.029542705 0.039865825 0.47600001 4279251736
0.031154066 0.039949577 0.47700003 4278791185
0.032703366 0.039949577 0.47700003 4278462220
0.034252662 0.039949577 0.47700003 4278198277
0.035877012 0.040033329 0.47800002 4278195456
0.03742956 0.040033329 0.47800002 4278195968
0.039063655 0.040117081 0.47900003 4278197507
0.040619452 0.040117081 0.47900003 4278196996
0.042263292 0.040200833 0.48000002 4278461707
0.043822329 0.040200833 0.48000002 4278922256
0.045381371 0.040200833 0.48000002 4278198020
0.046940412 0.040200833 0.48000002 4279055640
0.048499454 0.040200833 0.48000002 4278794263
0.050058495 0.040200833 0.48000002 4278662677
0.051617533 0.040200833 0.48000002 4278597654
0.053176578 0.040200833 0.48000002 4278729240
0.054735616 0.040200833 0.48000002 4278794263
0.056294661 0.040200833 0.48000002 4278463765
0.057853699 0.040200833 0.48000002 4284119916
-0.030557061 0.043326415 0.49800003 4284971884
-0.028823331 0.043152414 0.49600002 4284051295
-0.027047733 0.042891413 0.49300003 4283986272
-0.02529162 0.042630408 0.49000001 4284249444
-0.023603365 0.042456411 0.48800004 4284249703
-0.021928102 0.042282406 0.48600003 4284447082
-0.020265831 0.042108405 0.48400003 4284382057
-0.01861655 0.041934405 0.48200002 4284711022
-0.016980261 0.0417604 0.48000002 4285237366
-0.015389093 0.0416734 0.47900003 4285566331
-0.013804421 0.041586399 0.47800002 4285106550
-0.012251875 0.041586399 0.47800002 4283922022
-0.010676947 0.041499399 0.47700003 4282080331
-0.0091085145 0.041412398 0.47600001 4280106795
-0.0075624655 0.041412398 0.47600001 4278989343
-0.0060164174 0.041412398 0.47600001 4278529306
-0.0044703684 0.041412398 0.47600001 4278595353
-0.0029181761 0.041325398 0.47500002 4278661146
-0.0013753753 0.041325398 0.47500002 4278858523
0.00016742553 0.041325398 0.47500002 4278990109
0.0017102263 0.041325398 0.47500002 4278859293
0.0032530271 0.041325398 0.47500002 4278859291
0.0047958279 0.041325398 0.47500002 4278860058
0.0063386289 0.041325398 0.47500002 4278794265
0.007881429 0.041325398 0.47500002 4278991644
0.009424231 0.041325398 0.47500002 4278859545
0.010967032 0.041325398 0.47500002 4279123228
0.012509832 0.041325398 0.47500002 4278531091
0.014052633 0.041325398 0.47500002 4278794263
0.015595434 0.041325398 0.47500002 4278662677
0.017138233 0.041325398 0.47500002 4278728724
0.018681034 0.041325398 0.47500002 4278794517
0.020223835 0.041325398 0.47500002 4278333712
0.021766638 0.041325398 0.47500002 4278728470
0.023309439 0.041325398 0.47500002 4278662677
0.024904558 0.041412398 0.47600001 4278728470
0.026450608 0.041412398 0.47600001 4278662677
0.027996656 0.041412398 0.47600001 4278727957
0.02960477 0.041499399 0.47700003 4278793750
0.031154066 0.041499399 0.47700003 4278727957
0.032703366 0.041499399 0.47700003 4278859543
0.034252662 0.041499399 0.47700003 4278925336
0.035877012 0.041586399 0.47800002 4278925336
0.03742956 0.041586399 0.47800002 4278859543
0.039063655 0.0416734 0.47900003 4278858773
0.040619452 0.0416734 0.47900003 4278990361
0.042263292 0.0417604 0.48000002 4279253019
0.043822329 0.0417604 0.48000002 4279318299
0.045381371 0.0417604 0.48000002 4279121433
0.047038205 0.041847404 0.48100004 4279056154
0.048600499 0.041847404 0.48100004 4278991642
0.050162785 0.041847404 0.48100004 4278597654
0.051617533 0.0417604 0.48000002 4278597654
0.053176578 0.0417604 0.48000002 4278795033
0.054735616 0.0417604 0.48000002 4279254303
0.056294661 0.0417604 0.48000002 4282804308
0.057853699 0.0417604 0.48000002 4284185709
-0.028881442 0.04485422 0.49700001 4284378977
-0.027102597 0.044583473 0.49400002 4284182881
-0.025343237 0.044312723 0.49100003 4284248674
-0.023651732 0.044132221 0.48900002 4284249190
-0.021973221 0.043951724 0.48700002 4284380776
-0.020307701 0.043771222 0.48500001 4284512875
-0.01861655 0.043500472 0.48200002 4284710254
-0.017015638 0.043410223 0.48100004 4284907633
-0.015389093 0.043229725 0.47900003 4284842354
-0.013804421 0.043139473 0.47800002 4284842354
-0.012251875 0.043139473 0.47800002 4284776561
-0.010676947 0.043049224 0.47700003 4284776561
-0.0091276504 0.043049224 0.47700003 4284776561
-0.0075624655 0.042958971 0.47600001 4284381803
-0.0060164174 0.042958971 0.47600001 4284316010
-0.0044703684 0.042958971 0.47600001 4284184164
-0.0029243196 0.042958971 0.47600001 4283921506
-0.0013753753 0.042868722 0.47500002 4283855713
0.00016742553 0.042868722 0.47500002 4283263576
0.0017102263 0.042868722 0.47500002 4281224763
0.0032530271 0.042868722 0.47500002 4281816900
0.0047958279 0.042868722 0.47500002 4280371250
0.0063386289 0.042868722 0.47500002 4279450148
0.007881429 0.042868722 0.47500002 4278726425
0.009424231 0.042868722 0.47500002 4278594585
0.010967032 0.042868722 0.47500002 4278792216
0.012509832 0.042868722 0.47500002 4279121693
0.014052633 0.042868722 0.47500002 4279187488
0.015595434 0.042868722 0.47500002 4278925086
0.017138233 0.042868722 0.47500002 4279056670
0.018681034 0.042868722 0.47500002 4278990877
0.020223835 0.042868722 0.47500002 4278991131
0.021766638 0.042868722 0.47500002 4278991131
0.023309439 0.042868722 0.47500002 4279188508
0.024852239 0.042868722 0.47500002 4278859543
0.026450608 0.042958971 0.47600001 4278859543
0.027996656 0.042958971 0.47600001 4278925336
0.02960477 0.043049224 0.47700003 4278991129
0.031154066 0.043049224 0.47700003 4278859543
0.032703366 0.043049224 0.47700003 4278925849
0.034252662 0.043049224 0.47700003 4278794263
0.035877012 0.043139473 0.47800002 4278860056
0.03742956 0.043139473 0.47800002 4278860056
0.039063655 0.043229725 0.47900003 4278860056
0.040619452 0.043229725 0.47900003 4278794263
0.042263292 0.043319974 0.48000002 4278925849
0.043822329 0.043319974 0.48000002 4278991642
0.045381371 0.043319974 0.48000002 4278727959
0.047038205 0.043410223 0.48100004 4278727959
0.048600499 0.043410223 0.48100004 4278794265
0.050162785 0.043410223 0.48100004 4278728472
0.051725071 0.043410223 0.48100004 4278860056
0.053176578 0.043319974 0.48000002 4278991642
0.054735616 0.043319974 0.48000002 4278923291
0.056294661 0.043319974 0.48000002 4284448881
0.057853699 0.043319974 0.48000002 4284448368
0.014052633 0.044412047 0.47500002 4284974710
0.015595434 0.044412047 0.47500002 4284645745
0.017138233 0.044412047 0.47500002 4283659363
0.018681034 0.044412047 0.47500002 4283001433
0.020223835 0.044412047 0.47500002 4281225792
0.021766638 0.044412047 0.47500002 4280238897
0.023309439 0.044412047 0.47500002 4279647273
0.024852239 0.044412047 0.47500002 4279318562
0.026450608 0.044505544 0.47600001 4278924064
0.027996656 0.044505544 0.47600001 4278397974
0.02960477 0.044599045 0.47700003 4278331665
0.031154066 0.044599045 0.47700003 4278266386
0.032703366 0.044599045 0.47700003 4278397458
0.034252662 0.044599045 0.47700003 4278529044
0.035877012 0.044692542 0.47800002 4278397458
0.03742956 0.044692542 0.47800002 4278529044
0.039063655 0.044786043 0.47900003 4278726423
0.040619452 0.044786043 0.47900003 4278726423
0.042263292 0.044879541 0.48000002 4278989847
0.043822329 0.044879541 0.48000002 4279450398
0.045381371 0.044879541 0.48000002 4278989593
0.047038205 0.044973042 0.48100004 4278529558
0.048600499 0.044973042 0.48100004 4279121693
0.050162785 0.044973042 0.48100004 4278924314
0.051725071 0.044973042 0.48100004 4279121179
0.053287365 0.044973042 0.48100004 4281488448
0.054735616 0.044879541 0.48000002 4284974710
0.056294661 0.044879541 0.48000002 4284711538
0.057853699 0.044879541 0.48000002 4284776563
0.032703366 0.046148866 0.47700003 4284711538
0.034252662 0.046148866 0.47700003 4284711538
0.035877012 0.046245612 0.47800002 4284974710
0.03742956 0.046245612 0.47800002 4284908917
0.039063655 0.046342365 0.47900003 4284974710
0.040619452 0.046342365 0.47900003 4284843124
0.042175245 0.046342365 0.47900003 4284975477
0.043822329 0.046439111 0.48000002 4284778098
0.045381371 0.046439111 0.48000002 4284711538
0.047038205 0.046535861 0.48100004 4285040757
0.048600499 0.046535861 0.48100004 4284975477
0.050162785 0.046535861 0.48100004 4284843891
0.051725071 0.046535861 0.48100004 4284646260
0.053287365 0.046535861 0.48100004 4284317295
0.054849651 0.046535861 0.48100004 4284514161
0.056411941 0.046535861 0.48100004 4284579954
0.01381895 0.035255983 0.47749406 4294967295
0.01381895 0.035255983 0.47749406 4294901760
0.013858809 0.034757588 0.47749782 4294901760
0.013898668 0.034259193 0.47750157 4294901760
0.013938527 0.033760801 0.47750536 4294901760
0.013978385 0.033262406 0.47750911 4294901760
0.014018244 0.03276401 0.47751287 4294901760
0.014058103 0.032265615 0.47751662 4294901760
0.014097962 0.031767223 0.47752041 4294901760
0.01413782 0.031268828 0.47752416 4294901760
0.014177679 0.030770432 0.47752792 4294901760
0.014217539 0.030272037 0.47753167 4294901760
0.014257398 0.029773643 0.47753546 4294901760
0.014297256 0.02927525 0.47753921 4294901760
0.014337115 0.028776854 0.47754297 4294901760
0.014376974 0.028278459 0.47754672 4294901760
0.014416832 0.027780065 0.47755048 4294901760
0.014456691 0.027281672 0.47755426 4294901760
0.01449655 0.026783276 0.47755802 4294901760
0.014536409 0.026284881 0.47756177 4294901760
0.014576267 0.025786487 0.47756553 4294901760
0.014616126 0.025288092 0.47756931 4294901760
0.014655985 0.024789698 0.47757307 4294901760
0.014695844 0.024291303 0.47757682 4294901760
0.014735702 0.023792908 0.47758058 4294901760
0.014775561 0.023294514 0.47758436 4294901760
0.01481542 0.02279612 0.47758812 4294901760
0.014855279 0.022297725 0.47759187 4294901760
0.014895137 0.02179933 0.47759563 4294901760
0.014934996 0.021300936 0.47759938 4294901760
0.014974855 0.020802543 0.47760317 4294901760
0.015014714 0.020304147 0.47760692 4294901760
0.015054572 0.019805752 0.47761068 4294901760
0.015094432 0.019307358 0.47761443 4294901760
0.015134291 0.018808963 0.47761822 4294901760
0.01517415 0.018310569 0.47762197 4294901760
0.015214008 0.017812174 0.47762573 4294901760
0.015253867 0.017313778 0.47762948 4294901760
0.015293726 0.016815385 0.47763327 4294901760
0.015333585 0.016316991 0.47763702 4294901760
0.015373443 0.015818596 0.47764078 4294901760
0.015413302 0.0153202 0.47764453 4294901760
0.015453161 0.014821807 0.47764829 4294901760
0.015493019 0.014323413 0.47765207 4294901760
0.015532878 0.013825018 0.47765583 4294901760
0.015572737 0.013326623 0.47765958 4294901760
0.015612596 0.012828229 0.47766334 4294901760
0.015652455 0.012329834 0.47766712 4294901760
0.015692314 0.01183144 0.47767088 4294901760
0.015732173 0.011333045 0.47767463 4294901760
0.015772032 0.010834649 0.47767839 4294901760
0.01581189 0.010336256 0.47768217 4294901760
0.015851749 0.0098378621 0.47768593 4294901760
0.015891608 0.0093394667 0.47768968 4294901760
0.015931467 0.0088410731 0.47769344 4294901760
0.015971325 0.0083426759 0.47769719 4294901760
0.016011184 0.0078442823 0.47770098 4294901760
0.016051043 0.0073458888 0.47770473 4294901760
0.016090902 0.0068474934 0.47770849 4294901760
0.01613076 0.0063490998 0.47771224 4294901760
0.016170619 0.0058507062 0.47771603 4294901760
0.016210478 0.005352309 0.47771978 4294901760
0.016250337 0.0048539154 0.47772354 4294901760
0.016290195 0.00435552 0.47772729 4294901760
0.016330054 0.0038571283 0.47773105 4294901760
0.016369913 0.0033587329 0.47773483 4294901760
0.016409772 0.0028603375 0.47773859 4294901760
0.01644963 0.0023619421 0.47774234 4294901760
0.016489489 0.0018635467 0.4777461 4294901760
0.016529348 0.001365155 0.47774988 4294901760
0.016569206 0.00086675957 0.47775364 4294901760
0.016609065 0.00036836416 0.47775739 4294901760
0.016648924 -0.00013002753 0.47776115 4294901760
0.016688783 -0.00062842667 0.47776493 4294901760
0.016728641 -0.0011268184 0.47776869 4294901760
0.0167685 -0.0016252138 0.47777244 4294901760
0.016808359 -0.0021236092 0.4777762 4294901760
0.016848218 -0.0026220009 0.47777995 4294901760
0.016888076 -0.0031203963 0.47778374 4294901760
0.016927935 -0.0036187917 0.47778749 4294901760
0.016967796 -0.0041171871 0.47779125 4294901760
0.017007653 -0.0046155825 0.477795 4294901760
0.017047513 -0.0051139742 0.47779879 4294901760
0.01708737 -0.0056123696 0.47780254 4294901760
0.017127231 -0.006110765 0.4778063 4294901760
0.017167088 -0.0066091567 0.47781006 4294901760
0.017206948 -0.0071075559 0.47781384 4294901760
0.017246807 -0.0076059476 0.4778176 4294901760
0.017286666 -0.008104343 0.47782135 4294901760
0.017326524 -0.0086027384 0.47782511 4294901760
0.017366383 -0.0091011301 0.47782886 4294901760
0.017406242 -0.0095995255 0.47783265 4294901760
0.017446101 -0.010097921 0.4778364 4294901760
0.017485959 -0.010596316 0.47784016 4294901760
0.017525818 -0.011094712 0.47784391 4294901760
0.017565677 -0.011593103 0.4778477 4294901760
0.017605536 -0.012091499 0.47785145 4294901760
0.017645394 -0.012589894 0.47785521 4294901760
0.017685253 -0.01308829 0.47785896 4294901760
0.017725112 -0.013586685 0.47786275 4294901760
0.017764971 -0.014085077 0.4778665 4294901760
0.017804829 -0.014583472 0.47787026 4294901760
0.01381895 0.035255983 0.47749406 4278255360
0.014317053 0.035295684 0.47747624 4278255360
0.014815155 0.035335384 0.47745842 4278255360
0.015313258 0.035375085 0.4774406 4278255360
0.015811361 0.035414789 0.47742277 4278255360
0.016309464 0.035454489 0.47740495 4278255360
0.016807567 0.03549419 0.47738713 4278255360
0.01730567 0.03553389 0.47736931 4278255360
0.017803773 0.035573591 0.47735149 4278255360
0.018301874 0.035613291 0.47733366 4278255360
0.018799977 0.035652991 0.47731584 4278255360
0.01929808 0.035692696 0.47729802 4278255360
0.019796183 0.035732396 0.4772802 4278255360
0.020294286 0.035772096 0.47726238 4278255360
0.020792389 0.035811797 0.47724456 4278255360
0.021290492 0.035851497 0.47722673 4278255360
0.021788593 0.035891198 0.47720891 4278255360
0.022286698 0.035930898 0.47719109 4278255360
0.022784799 0.035970602 0.47717327 4278255360
0.023282902 0.036010303 0.47715545 4278255360
0.023781005 0.036050003 0.47713763 4278255360
0.024279108 0.036089703 0.4771198 4278255360
0.024777211 0.036129404 0.47710198 4278255360
0.025275314 0.036169104 0.47708416 4278255360
0.025773417 0.036208805 0.47706634 4278255360
0.026271518 0.036248505 0.47704852 4278255360
0.026769621 0.036288209 0.47703069 4278255360
0.027267724 0.03632791 0.47701287 4278255360
0.027765827 0.03636761 0.47699505 4278255360
0.02826393 0.036407311 0.47697723 4278255360
0.028762033 0.036447011 0.47695941 4278255360
0.029260136 0.036486711 0.47694159 4278255360
0.029758237 0.036526412 0.47692376 4278255360
0.030256342 0.036566116 0.47690594 4278255360
0.030754443 0.036605816 0.47688812 4278255360
0.031252548 0.036645517 0.4768703 4278255360
0.031750649 0.036685217 0.47685248 4278255360
0.032248754 0.036724918 0.47683465 4278255360
0.032746855 0.036764618 0.47681683 4278255360
0.033244956 0.036804318 0.47679901 4278255360
0.033743061 0.036844023 0.47678119 4278255360
0.034241162 0.036883723 0.47676337 4278255360
0.034739267 0.036923423 0.47674555 4278255360
0.035237368 0.036963124 0.47672772 4278255360
0.035735473 0.037002824 0.4767099 4278255360
0.036233574 0.037042525 0.47669208 4278255360
0.036731679 0.037082225 0.47667426 4278255360
0.03722978 0.037121929 0.47665644 4278255360
0.037727881 0.03716163 0.47663862 4278255360
0.038225986 0.03720133 0.47662079 4278255360
0.038724087 0.03724103 0.47660297 4278255360
0.039222192 0.037280731 0.47658518 4278255360
0.039720293 0.037320431 0.47656736 4278255360
0.040218394 0.037360132 0.47654954 4278255360
0.040716499 0.037399836 0.47653171 4278255360
0.041214604 0.037439536 0.47651389 4278255360
0.041712705 0.037479237 0.47649607 4278255360
0.042210806 0.037518937 0.47647825 4278255360
0.042708911 0.037558638 0.47646043 4278255360
0.043207012 0.037598338 0.47644261 4278255360
0.043705117 0.037638038 0.47642478 4278255360
0.044203218 0.037677743 0.47640696 4278255360
0.044701323 0.037717443 0.47638914 4278255360
0.045199424 0.037757143 0.47637132 4278255360
0.045697525 0.037796844 0.4763535 4278255360
0.046195626 0.037836544 0.47633567 4278255360
0.046693731 0.037876245 0.47631785 4278255360
0.047191836 0.037915945 0.47630003 4278255360
0.047689937 0.037955649 0.47628221 4278255360
0.048188038 0.03799535 0.47626439 4278255360
0.048686143 0.03803505 0.47624657 4278255360
0.049184244 0.03807475 0.47622874 4278255360
0.049682349 0.038114451 0.47621092 4278255360
0.05018045 0.038154151 0.4761931 4278255360
0.050678555 0.038193852 0.47617528 4278255360
0.051176656 0.038233556 0.47615746 4278255360
0.051674757 0.038273256 0.47613963 4278255360
0.052172862 0.038312957 0.47612181 4278255360
0.052670963 0.038352657 0.47610399 4278255360
0.053169068 0.038392358 0.47608617 4278255360
0.053667169 0.038432058 0.47606835 4278255360
0.054165274 0.038471758 0.47605053 4278255360
0.054663375 0.038511463 0.4760327 4278255360
0.055161476 0.038551163 0.47601488 4278255360
0.055659581 0.038590863 0.47599706 4278255360
0.056157686 0.038630564 0.47597924 4278255360
0.056655787 0.038670264 0.47596142 4278255360
0.057153888 0.038709965 0.4759436 4278255360
0.057651993 0.038749665 0.47592577 4278255360
0.058150094 0.038789365 0.47590795 4278255360
0.058648195 0.03882907 0.47589013 4278255360
0.0591463 0.03886877 0.47587231 4278255360
0.059644405 0.03890847 0.47585449 4278255360
0.060142506 0.038948171 0.47583666 4278255360
0.060640607 0.038987871 0.47581884 4278255360
0.061138712 0.039027572 0.47580102 4278255360
0.061636813 0.039067272 0.4757832 4278255360
0.062134918 0.039106976 0.47576538 4278255360
0.062633023 0.039146677 0.47574756 4278255360
0.063131124 0.039186377 0.47572973 4278255360
0.063629225 0.039226077 0.47571191 4278255360
0.01381895 0.035255983 0.47749406 4278190335
0.013815251 0.035259463 0.47799402 4278190335
0.013811552 0.035262939 0.47849402 4278190335
0.013807853 0.035266418 0.47899398 4278190335
0.013804154 0.035269894 0.47949395 4278190335
0.013800453 0.035273373 0.47999394 4278190335
0.013796754 0.035276849 0.4804939 4278190335
0.013793055 0.035280328 0.4809939 4278190335
0.013789356 0.035283808 0.48149386 4278190335
0.013785657 0.035287283 0.48199382 4278190335
0.013781957 0.035290763 0.48249382 4278190335
0.013778258 0.035294238 0.48299378 4278190335
0.013774559 0.035297718 0.48349375 4278190335
0.01377086 0.035301197 0.48399374 4278190335
0.01376716 0.035304673 0.4844937 4278190335
0.01376346 0.035308152 0.48499367 4278190335
0.013759761 0.035311628 0.48549366 4278190335
0.013756062 0.035315108 0.48599362 4278190335
0.013752363 0.035318583 0.48649359 4278190335
0.013748663 0.035322063 0.48699358 4278190335
0.013744964 0.035325542 0.48749354 4278190335
0.013741265 0.035329018 0.48799354 4278190335
0.013737566 0.035332497 0.4884935 4278190335
0.013733866 0.035335973 0.48899347 4278190335
0.013730166 0.035339452 0.48949346 4278190335
0.013726467 0.035342932 0.48999342 4278190335
0.013722768 0.035346407 0.49049339 4278190335
0.013719069 0.035349887 0.49099338 4278190335
0.01371537 0.035353363 0.49149334 4278190335
0.01371167 0.035356842 0.49199331 4278190335
0.013707971 0.035360318 0.4924933 4278190335
0.013704272 0.035363797 0.49299327 4278190335
0.013700572 0.035367277 0.49349326 4278190335
0.013696873 0.035370752 0.49399322 4278190335
0.013693173 0.035374232 0.49449319 4278190335
0.013689474 0.035377707 0.49499318 4278190335
0.013685775 0.035381187 0.49549314 4278190335
0.013682076 0.035384662 0.49599311 4278190335
0.013678377 0.035388142 0.4964931 4278190335
0.013674677 0.035391621 0.49699306 4278190335
0.013670978 0.035395097 0.49749303 4278190335
0.013667278 0.035398576 0.49799302 4278190335
0.013663579 0.035402052 0.49849299 4278190335
0.01365988 0.035405532 0.49899298 4278190335
0.01365618 0.035409011 0.49949294 4278190335
0.013652481 0.035412487 0.49999291 4278190335
0.013648782 0.035415966 0.50049287 4278190335
0.013645083 0.035419442 0.50099283 4278190335
0.013641383 0.035422921 0.50149286 4278190335
0.013637684 0.035426397 0.50199282 4278190335
0.013633985 0.035429876 0.50249279 4278190335
0.013630285 0.035433356 0.50299275 4278190335
0.013626586 0.035436831 0.50349271 4278190335
0.013622887 0.035440311 0.50399274 4278190335
0.013619187 0.035443787 0.5044927 4278190335
0.013615488 0.035447266 0.50499266 4278190335
0.013611789 0.035450742 0.50549263 4278190335
0.01360809 0.035454221 0.50599259 4278190335
0.01360439 0.0354577 0.50649256 4278190335
0.013600691 0.035461176 0.50699258 4278190335
0.013596991 0.035464656 0.50749254 4278190335
0.013593292 0.035468131 0.50799251 4278190335
0.013589593 0.035471611 0.50849247 4278190335
0.013585893 0.03547509 0.50899243 4278190335
0.013582194 0.035478566 0.5094924 4278190335
0.013578495 0.035482045 0.50999242 4278190335
0.013574796 0.035485521 0.51049238 4278190335
0.013571097 0.035489 0.51099235 4278190335
0.013567397 0.035492476 0.51149231 4278190335
0.013563697 0.035495955 0.51199228 4278190335
0.013559998 0.035499435 0.5124923 4278190335
0.013556299 0.035502911 0.51299226 4278190335
0.0135526 0.03550639 0.51349223 4278190335
0.0135489 0.035509866 0.51399219 4278190335
0.013545201 0.035513345 0.51449215 4278190335
0.013541502 0.035516821 0.51499212 4278190335
0.013537803 0.0355203 0.51549214 4278190335
0.013534104 0.03552378 0.51599211 4278190335
0.013530403 0.035527255 0.51649207 4278190335
0.013526704 0.035530735 0.51699203 4278190335
0.013523005 0.035534211 0.517492 4278190335
0.013519306 0.03553769 0.51799202 4278190335
0.013515607 0.035541169 0.51849198 4278190335
0.013511907 0.035544645 0.51899195 4278190335
0.013508208 0.035548124 0.51949191 4278190335
0.013504509 0.0355516 0.51999187 4278190335
0.01350081 0.03555508 0.52049184 4278190335
0.01349711 0.035558555 0.52099186 4278190335
0.01349341 0.035562035 0.52149183 4278190335
0.013489711 0.035565514 0.52199179 4278190335
0.013486012 0.03556899 0.52249175 4278190335
0.013482313 0.035572469 0.52299172 4278190335
0.013478613 0.035575945 0.52349174 4278190335
0.013474914 0.035579424 0.5239917 4278190335
0.013471215 0.035582904 0.52449167 4278190335
0.013467516 0.035586379 0.52499163 4278190335
0.013463816 0.035589859 0.5254916 4278190335
0.013460116 0.035593335 0.52599156 4278190335
0.013456417 0.035596814 0.52649158 4278190335
0.013452718 0.03560029 0.52699155 4278190335
0.013449019 0.035603769 0.52749151 4278190335
0.01381895 0.035255983 0.47749406 4294967295
0.013841147 0.035235114 0.47449422 4294967295
0.013863342 0.035214249 0.47149438 4294967295
0.013885538 0.03519338 0.46849453 4294967295
0.013907734 0.035172515 0.46549469 4294967295
0.01392993 0.035151646 0.46249482 4294967295
0.013952126 0.03513078 0.45949498 4294967295
0.013974322 0.035109911 0.45649514 4294967295
0.013996517 0.035089046 0.45349529 4294967295
0.014018713 0.035068177 0.45049545 4294967295
0.01404091 0.035047311 0.44749561 4294967295
0.014063105 0.035026442 0.44449577 4294967295
0.014085301 0.035005577 0.44149593 4294967295
0.014107496 0.034984708 0.43849605 4294967295
0.014129693 0.034963842 0.43549621 4294967295
0.014151889 0.034942973 0.43249637 4294967295
0.014174084 0.034922108 0.42949653 4294967295
0.01419628 0.034901239 0.42649668 4294967295
0.014218477 0.034880374 0.42349684 4294967295
0.014240672 0.034859505 0.420497 4294967295
0.014262868 0.034838639 0.41749716 4294967295
0.014285064 0.03481777 0.41449732 4294967295
0.01430726 0.034796905 0.41149744 4294967295
0.014329456 0.034776036 0.4084976 4294967295
0.014351652 0.03475517 0.40549776 4294967295
0.014373847 0.034734301 0.40249792 4294967295
0.014396043 0.034713436 0.39949808 4294967295
0.01441824 0.034692567 0.39649823 4294967295
0.014440435 0.034671701 0.39349839 4294967295
0.014462631 0.034650832 0.39049852 4294967295
0.014484826 0.034629967 0.38749868 4294967295
0.014507023 0.034609098 0.38449883 4294967295
0.014529219 0.034588233 0.38149899 4294967295
0.014551414 0.034567364 0.37849915 4294967295
0.01457361 0.034546498 0.37549931 4294967295
0.014595807 0.034525629 0.37249947 4294967295
0.014618002 0.034504764 0.36949962 4294967295
0.014640198 0.034483895 0.36649978 4294967295
0.014662394 0.034463029 0.36349994 4294967295
0.01468459 0.03444216 0.3605001 4294967295
0.014706786 0.034421295 0.35750023 4294967295
0.014728982 0.034400426 0.35450038 4294967295
0.014751177 0.034379561 0.35150054 4294967295
0.014773373 0.034358691 0.3485007 4294967295
0.01479557 0.034337826 0.34550083 4294967295
0.014817765 0.034316957 0.34250098 4294967295
0.014839961 0.034296092 0.33950114 4294967295
0.014862157 0.034275223 0.3365013 4294967295
0.014884353 0.034254357 0.33350146 4294967295
0.014906549 0.034233488 0.33050162 4294967295
0.014928745 0.034212619 0.32750177 4294967295
0.01495094 0.034191754 0.32450193 4294967295
0.014973137 0.034170888 0.32150209 4294967295
0.014995332 0.034150019 0.31850225 4294967295
0.015017528 0.03412915 0.31550241 4294967295
0.015039724 0.034108285 0.31250256 4294967295
0.01506192 0.034087416 0.30950272 4294967295
0.015084116 0.03406655 0.30650285 4294967295
0.015106312 0.034045681 0.30350301 4294967295
0.015128507 0.034024816 0.30050316 4294967295
0.015150703 0.034003947 0.29750329 4294967295
0.0151729 0.033983082 0.29450345 4294967295
0.015195095 0.033962213 0.29150361 4294967295
0.015217291 0.033941347 0.28850377 4294967295
0.015239487 0.033920478 0.28550392 4294967295
0.015261683 0.033899613 0.28250408 4294967295
0.015283879 0.033878744 0.27950424 4294967295
0.015306075 0.033857878 0.2765044 4294967295
0.01532827 0.033837009 0.27350456 4294967295
0.015350467 0.033816144 0.27050471 4294967295
0.015372662 0.033795275 0.26750487 4294967295
0.015394858 0.033774409 0.26450503 4294967295
0.015417054 0.03375354 0.26150516 4294967295
0.01543925 0.033732675 0.25850531 4294967295
0.015461446 0.033711806 0.25550547 4294967295
0.015483642 0.033690941 0.25250563 4294967295
