# .PCD v0.7 - Point Cloud Data file format
VERSION 0.7
FIELDS x y z rgb
SIZE 4 4 4 4
TYPE F F F U
COUNT 1 1 1 1
WIDTH 507
HEIGHT 1
VIEWPOINT 0 0 0 1 0 0 0
POINTS 507
DATA ascii
0.062690757 0.023222141 0.34400001 4280104994
0.063808069 0.023222141 0.34400001 4278993949
0.062508516 0.024269078 0.34300002 4279974692
0.063622586 0.024269078 0.34300002 4278665498
0.064736649 0.024269078 0.34300002 4278731804
0.062508516 0.025383521 0.34300002 4279647264
0.063622586 0.025383521 0.34300002 4278796570
0.064736649 0.025383521 0.34300002 4278797597
0.061394457 0.026497962 0.34300002 4279712033
0.062508516 0.026497962 0.34300002 4279582496
0.063622586 0.026497962 0.34300002 4278928156
0.064736649 0.026497962 0.34300002 4278862877
0.065850712 0.026497962 0.34300002 4279059742
0.062508516 0.027612403 0.34300002 4279582750
0.063622586 0.027612403 0.34300002 4279256349
0.064736649 0.027612403 0.34300002 4278862875
0.065850712 0.027612403 0.34300002 4278862875
0.062508516 0.028726846 0.34300002 4279584031
0.063622586 0.028726846 0.34300002 4278928154
0.064736649 0.028726846 0.34300002 4278862875
0.065850712 0.028726846 0.34300002 4278862875
0.066964775 0.028726846 0.34300002 4278994461
0.062508516 0.029841287 0.34300002 4279386654
0.063622586 0.029841287 0.34300002 4279059740
0.064736649 0.029841287 0.34300002 4278994461
0.065850712 0.029841287 0.34300002 4279126047
0.066964775 0.029841287 0.34300002 4278928668
0.061394457 0.030955732 0.34300002 4279320348
0.062508516 0.030955732 0.34300002 4279386654
0.063622586 0.030955732 0.34300002 4278862359
0.064736649 0.030955732 0.34300002 4278994459
0.066964775 0.030955732 0.34300002 4279126047
0.068078846 0.030955732 0.34300002 4278928154
0.069192901 0.030955732 0.34300002 4279321629
0.070306972 0.030955732 0.34300002 4279385371
0.071629256 0.031045981 0.34400001 4279120918
0.072746575 0.031045981 0.34400001 4279777313
0.061573446 0.032163672 0.34400001 4279582750
0.062508516 0.032070175 0.34300002 4279451164
0.064736649 0.032070175 0.34300002 4279257631
0.065850712 0.032070175 0.34300002 4278929179
0.066964775 0.032070175 0.34300002 4283534689
0.069192901 0.032070175 0.34300002 4279124761
0.070511945 0.032163672 0.34400001 4279058457
0.071629256 0.032163672 0.34400001 4279124250
0.072746575 0.032163672 0.34400001 4279452447
0.073863879 0.032163672 0.34400001 4279386654
0.074981198 0.032163672 0.34400001 4279516703
0.076098509 0.032163672 0.34400001 4279516957
0.060456131 0.033281364 0.34400001 4279648029
0.065850712 0.033184614 0.34300002 4279257633
0.066964775 0.033184614 0.34300002 4278731802
0.068078846 0.033184614 0.34300002 4283796586
0.070511945 0.033281364 0.34400001 4279125531
0.071629256 0.033281364 0.34400001 4278928152
0.072746575 0.033281364 0.34400001 4278599189
0.073863879 0.033281364 0.34400001 4278928154
0.074981198 0.033281364 0.34400001 4278795798
0.076098509 0.033281364 0.34400001 4278927384
0.077440284 0.033378113 0.34500003 4278993177
0.068277322 0.034399055 0.34400001 4279126049
0.069394633 0.034399055 0.34400001 4278863390
0.070511945 0.034399055 0.34400001 4278733085
0.071629256 0.034399055 0.34400001 4278995744
0.072746575 0.034399055 0.34400001 4278798365
0.074078605 0.034499053 0.34500003 4278797595
0.075199164 0.034499053 0.34500003 4278929181
0.076319732 0.034499053 0.34500003 4278731802
0.077440284 0.034499053 0.34500003 4278666009
0.078333132 0.034399055 0.34400001 4278666009
0.079450443 0.034399055 0.34400001 4278533910
0.082397439 0.034699045 0.347 4278795798
0.083524495 0.034699045 0.347 4278795800
0.084651552 0.034699045 0.347 4278729494
0.085778609 0.034699045 0.347 4278861078
0.086905658 0.034699045 0.347 4279124250
0.088032715 0.034699045 0.347 4279123482
0.089159779 0.034699045 0.347 4278991383
0.090026647 0.034599047 0.34600002 4279057176
0.090887018 0.034499053 0.34500003 4279187224
0.092274264 0.034599047 0.34600002 4279450398
0.096155353 0.033599075 0.33600003 4280830266
0.071629256 0.035516743 0.34400001 4278994461
0.072958045 0.035619993 0.34500003 4278863388
0.074078605 0.035619993 0.34500003 4278797595
0.075199164 0.035619993 0.34500003 4278797595
0.076319732 0.035619993 0.34500003 4278731802
0.077440284 0.035619993 0.34500003 4278797593
0.078560852 0.035619993 0.34500003 4278863386
0.079681411 0.035619993 0.34500003 4278731800
0.081036173 0.035723239 0.34600002 4278666007
0.082159981 0.035723239 0.34600002 4278862359
0.083524495 0.035826482 0.347 4278862361
0.084651552 0.035826482 0.347 4278796568
0.085778609 0.035826482 0.347 4278796568
0.086905658 0.035826482 0.347 4278664982
0.088032715 0.035826482 0.347 4278796568
0.088902831 0.035723239 0.34600002 4278795798
0.089766458 0.035619993 0.34500003 4278730005
0.090623572 0.035516743 0.34400001 4278597908
0.092274264 0.035723239 0.34600002 4278663701
0.091238588 0.034897268 0.33800003 4278860310
0.092336401 0.034897268 0.33800003 4278794517
0.093157791 0.034794021 0.33700001 4279056922
0.09425237 0.034794021 0.33700001 4279188510
0.09534695 0.034794021 0.33700001 4279056670
0.096155353 0.034690775 0.33600003 4279121693
0.096957251 0.034587529 0.33500001 4279186972
0.098045327 0.034587529 0.33500001 4278857494
0.098837487 0.034484282 0.33400002 4278923287
0.099922322 0.034484282 0.33400002 4279054873
0.102559 0.034277789 0.33200002 4281421120
0.10363734 0.034277789 0.33200002 4282012482
0.077440284 0.036740933 0.34500003 4279257117
0.078560852 0.036740933 0.34500003 4279125531
0.079681411 0.036740933 0.34500003 4279192351
0.081036173 0.036847427 0.34600002 4278797593
0.082159981 0.036847427 0.34600002 4278797080
0.083283797 0.036847427 0.34600002 4278797080
0.084407598 0.036847427 0.34600002 4278797082
0.085778609 0.036953922 0.347 4278862875
0.086905658 0.036953922 0.347 4278862875
0.087779023 0.036847427 0.34600002 4278731289
0.088902831 0.036847427 0.34600002 4278993947
0.089246072 0.036527943 0.34300002 4278796568
0.090360135 0.036527943 0.34300002 4278795798
0.090674132 0.036208451 0.34 4278927384
0.091508523 0.03610196 0.33900002 4278795798
0.092336401 0.035995465 0.33800003 4278730005
0.093434229 0.035995465 0.33800003 4278664212
0.09425237 0.035888966 0.33700001 4278532115
0.09534695 0.035888966 0.33700001 4278663701
0.096155353 0.035782471 0.33600003 4278663701
0.097246684 0.035782471 0.33600003 4278860310
0.098045327 0.035675976 0.33500001 4279057176
0.09913341 0.035675976 0.33500001 4279187992
0.099922322 0.035569482 0.33400002 4279187992
0.10100716 0.035569482 0.33400002 4279121945
0.10178632 0.035462983 0.333 4279187740
0.10286791 0.035462983 0.333 4279187226
0.10363734 0.035356492 0.33200002 4279450398
0.10471567 0.035356492 0.33200002 4278988564
0.10687234 0.035356492 0.33200002 4279577621
0.085778609 0.038081359 0.347 4279322912
0.086655214 0.037971616 0.34600002 4278994461
0.087779023 0.037971616 0.34600002 4278731289
0.087361164 0.037313148 0.34 4278928154
0.088985875 0.037532635 0.34200001 4278993945
0.089833252 0.037422892 0.34100002 4278928152
0.090674132 0.037313148 0.34 4278928152
0.091508523 0.037203405 0.33900002 4278928152
0.092336401 0.037093662 0.33800003 4278862359
0.093434229 0.037093662 0.33800003 4278862361
0.09425237 0.036983915 0.33700001 4278664982
0.09534695 0.036983915 0.33700001 4278598419
0.096441522 0.036983915 0.33700001 4278927384
0.097246684 0.036874171 0.33600003 4278532628
0.098338 0.036874171 0.33600003 4278664214
0.09913341 0.036764424 0.33500001 4278532115
0.10022149 0.036764424 0.33500001 4278532115
0.10100716 0.036654681 0.33400002 4278662931
0.10209199 0.036654681 0.33400002 4278662931
0.10317682 0.036654681 0.33400002 4278925590
0.10394949 0.036544934 0.333 4278859797
0.10503107 0.036544934 0.333 4278991383
0.10611266 0.036544934 0.333 4279187992
0.10719424 0.036544934 0.333 4279318551
0.10860099 0.036654681 0.33400002 4279581469
0.10968582 0.036654681 0.33400002 4279514906
0.11077066 0.036654681 0.33400002 4279646494
0.11185548 0.036654681 0.33400002 4279119383
0.11402515 0.036654681 0.33400002 4279709975
0.079912372 0.039095804 0.34600002 4279318299
0.092609584 0.03830485 0.33900002 4279059738
0.093434229 0.038191859 0.33800003 4278928154
0.094532058 0.038191859 0.33800003 4278993947
0.095629878 0.038191859 0.33800003 4278993947
0.098338 0.037965868 0.33600003 4278796568
0.099429332 0.037965868 0.33600003 4278928156
0.10022149 0.037852872 0.33500001 4278599191
0.10130957 0.037852872 0.33500001 4278730005
0.10239765 0.037852872 0.33500001 4278992664
0.10348573 0.037852872 0.33500001 4278794515
0.10426166 0.03773988 0.33400002 4278926101
0.10566189 0.037852872 0.33500001 4278794517
0.10674997 0.037852872 0.33500001 4278794517
0.10783806 0.037852872 0.33500001 4279056406
0.10892613 0.037852872 0.33500001 4278924820
0.11001422 0.037852872 0.33500001 4278990359
0.1111023 0.037852872 0.33500001 4279187738
0.11219037 0.037852872 0.33500001 4279121945
0.11327846 0.037852872 0.33500001 4279187738
0.11436654 0.037852872 0.33500001 4279318297
0.11545462 0.037852872 0.33500001 4279384090
0.078788556 0.040219992 0.34600002 4279317527
0.083283797 0.040219992 0.34600002 4279253019
0.086154319 0.039987508 0.34400001 4279382807
0.098923348 0.039290052 0.33800003 4279255836
0.099725246 0.039173808 0.33700001 4278927386
0.10081983 0.039173808 0.33700001 4279058972
0.10191441 0.039173808 0.33700001 4279058972
0.10300899 0.039173808 0.33700001 4279190558
0.10379466 0.039057568 0.33600003 4279058972
0.10457382 0.038941324 0.33500001 4279124765
0.1059773 0.039057568 0.33600003 4279255836
0.10706864 0.039057568 0.33600003 4279058457
0.10815997 0.039057568 0.33600003 4278992664
0.10957644 0.039173808 0.33700001 4279123480
0.11067102 0.039173808 0.33700001 4278991894
0.11143395 0.039057568 0.33600003 4278662929
0.11252528 0.039057568 0.33600003 4278662931
0.1136166 0.039057568 0.33600003 4278860310
0.11470793 0.039057568 0.33600003 4278925590
0.11579926 0.039057568 0.33600003 4278925590
0.11723848 0.039173808 0.33700001 4278794004
0.11833306 0.039173808 0.33700001 4279188762
0.11942764 0.039173808 0.33700001 4279187992
0.1205222 0.039173808 0.33700001 4279450650
0.10692353 0.040507741 0.33900002 4278861078
0.1080246 0.040507741 0.33900002 4279321627
0.10912567 0.040507741 0.33900002 4279321627
0.1099016 0.040388249 0.33800003 4279453215
0.11099943 0.040388249 0.33800003 4279386652
0.11209726 0.040388249 0.33800003 4279321629
0.11319507 0.040388249 0.33800003 4279190556
0.1142929 0.040388249 0.33800003 4278927384
0.11539072 0.040388249 0.33800003 4278794517
0.11648855 0.040388249 0.33800003 4278926103
0.11758637 0.040388249 0.33800003 4278728724
0.1186842 0.040388249 0.33800003 4278926103
0.11978202 0.040388249 0.33800003 4278926103
0.12087984 0.040388249 0.33800003 4278794004
0.12786445 0.040866215 0.34200001 4279187478
0.12897527 0.040866215 0.34200001 4279515930
0.13008608 0.040866215 0.34200001 4279646746
0.1311969 0.040866215 0.34200001 4279777819
0.13341853 0.040866215 0.34200001 4279973914
0.078788556 0.042468373 0.34600002 4279579934
0.083283797 0.042468373 0.34600002 4279250199
0.11165622 0.041731924 0.34 4279650594
0.11276054 0.041731924 0.34 4279321631
0.11386485 0.041731924 0.34 4279519008
0.11496918 0.041731924 0.34 4279190043
0.1160735 0.041731924 0.34 4279255838
0.11717782 0.041731924 0.34 4279453217
0.11828214 0.041731924 0.34 4279255838
0.11903533 0.041609187 0.33900002 4279124252
0.1201364 0.041609187 0.33900002 4279058459
0.12123747 0.041609187 0.33900002 4279189275
0.12675364 0.041977406 0.34200001 4278925590
0.12786445 0.041977406 0.34200001 4278859797
0.12897527 0.041977406 0.34200001 4278924820
0.13008608 0.041977406 0.34200001 4278924820
0.1311969 0.041977406 0.34200001 4279252758
0.13230772 0.041977406 0.34200001 4279384344
0.13341853 0.041977406 0.34200001 4279515930
0.13452935 0.041977406 0.34200001 4279712539
0.13564017 0.041977406 0.34200001 4279712539
0.13675098 0.041977406 0.34200001 4279842842
0.084407598 0.043592565 0.34600002 4279645211
0.08864589 0.043466575 0.34500003 4279710750
0.1164149 0.042962614 0.34100002 4279912485
0.11752246 0.042962614 0.34100002 4279451932
0.11863004 0.042962614 0.34100002 4279780897
0.1197376 0.042962614 0.34100002 4279451932
0.12049079 0.042836621 0.34 4278794517
0.1215951 0.042836621 0.34 4279255068
0.12675364 0.043088604 0.34200001 4279320861
0.12897527 0.043088604 0.34200001 4278991896
0.13008608 0.043088604 0.34200001 4279057172
0.1311969 0.043088604 0.34200001 4279385367
0.13230772 0.043088604 0.34200001 4279122195
0.13341853 0.043088604 0.34200001 4278924816
0.13452935 0.043088604 0.34200001 4278990609
0.13603678 0.043214593 0.34300002 4279055888
0.13715084 0.043214593 0.34300002 4279121681
0.13826491 0.043214593 0.34300002 4279055888
0.13937898 0.043214593 0.34300002 4279384342
0.12675364 0.044199791 0.34200001 4279320861
0.12823834 0.044329032 0.34300002 4279320861
0.12935241 0.044329032 0.34300002 4279320861
0.13046646 0.044329032 0.34300002 4279715104
0.13158052 0.044329032 0.34300002 4279451930
0.13269459 0.044329032 0.34300002 4279582748
0.13380866 0.044329032 0.34300002 4279451932
0.13492273 0.044329032 0.34300002 4279517725
0.13603678 0.044329032 0.34300002 4278991381
0.13715084 0.044329032 0.34300002 4278859793
0.13826491 0.044329032 0.34300002 4279056402
0.13937898 0.044329032 0.34300002 4278924818
0.14090264 0.04445827 0.34400001 4279056404
0.14201996 0.04445827 0.34400001 4279580436
0.13084681 0.045575965 0.34400001 4279649313
0.13269459 0.045443479 0.34300002 4279780129
0.13380866 0.045443479 0.34300002 4279648543
0.13492273 0.045443479 0.34300002 4279452447
0.13603678 0.045443479 0.34300002 4279452447
0.13715084 0.045443479 0.34300002 4279649824
0.13866802 0.045575965 0.34400001 4279386650
0.13978532 0.045575965 0.34400001 4279189271
0.14090264 0.045575965 0.34400001 4279122195
0.14201996 0.045575965 0.34400001 4279515926
0.12972951 0.046693653 0.34400001 4279581471
0.13084681 0.046693653 0.34400001 4279647516
0.097732812 0.037041076 0.34087843 4294967295
0.097732812 0.037041076 0.34087843 4294901760
0.097732812 0.037041076 0.34137842 4294901760
0.097732812 0.037041076 0.34187841 4294901760
0.097732812 0.037041076 0.34237844 4294901760
0.097732812 0.037041076 0.34287843 4294901760
0.097732812 0.037041076 0.34337842 4294901760
0.097732812 0.037041076 0.34387842 4294901760
0.097732812 0.037041076 0.34437844 4294901760
0.097732812 0.037041076 0.34487844 4294901760
0.097732812 0.037041076 0.34537843 4294901760
0.097732812 0.037041076 0.34587842 4294901760
0.097732812 0.037041076 0.34637842 4294901760
0.097732812 0.037041076 0.34687844 4294901760
0.097732812 0.037041076 0.34737843 4294901760
0.097732812 0.037041076 0.34787843 4294901760
0.097732812 0.037041076 0.34837842 4294901760
0.097732812 0.037041076 0.34887844 4294901760
0.097732812 0.037041076 0.34937844 4294901760
0.097732812 0.037041076 0.34987843 4294901760
0.097732812 0.037041076 0.35037842 4294901760
0.097732812 0.037041076 0.35087842 4294901760
0.097732812 0.037041076 0.35137844 4294901760
0.097732812 0.037041076 0.35187843 4294901760
0.097732812 0.037041076 0.35237843 4294901760
0.097732812 0.037041076 0.35287842 4294901760
0.097732812 0.037041076 0.35337842 4294901760
0.097732812 0.037041076 0.35387844 4294901760
0.097732812 0.037041076 0.35437843 4294901760
0.097732812 0.037041076 0.35487843 4294901760
0.097732812 0.037041076 0.35537842 4294901760
0.097732812 0.037041076 0.35587844 4294901760
0.097732812 0.037041076 0.35637844 4294901760
0.097732812 0.037041076 0.35687843 4294901760
0.097732812 0.037041076 0.35737842 4294901760
0.097732812 0.037041076 0.35787845 4294901760
0.097732812 0.037041076 0.35837844 4294901760
0.097732812 0.037041076 0.35887843 4294901760
0.097732812 0.037041076 0.35937843 4294901760
0.097732812 0.037041076 0.35987842 4294901760
0.097732812 0.037041076 0.36037844 4294901760
0.097732812 0.037041076 0.36087844 4294901760
0.097732812 0.037041076 0.36137843 4294901760
0.097732812 0.037041076 0.36187842 4294901760
0.097732812 0.037041076 0.36237842 4294901760
0.097732812 0.037041076 0.36287844 4294901760
0.097732812 0.037041076 0.36337844 4294901760
0.097732812 0.037041076 0.36387843 4294901760
0.097732812 0.037041076 0.36437842 4294901760
0.097732812 0.037041076 0.36487845 4294901760
0.097732812 0.037041076 0.36537844 4294901760
0.097732812 0.037041076 0.36587843 4294901760
0.097732812 0.037041076 0.36637843 4294901760
0.097732812 0.037041076 0.36687842 4294901760
0.097732812 0.037041076 0.36737844 4294901760
0.097732812 0.037041076 0.36787844 4294901760
0.097732812 0.037041076 0.36837843 4294901760
0.097732812 0.037041076 0.36887842 4294901760
0.097732812 0.037041076 0.36937845 4294901760
0.097732812 0.037041076 0.36987844 4294901760
0.097732812 0.037041076 0.37037843 4294901760
0.097732812 0.037041076 0.37087843 4294901760
0.097732812 0.037041076 0.37137842 4294901760
0.097732812 0.037041076 0.37187845 4294901760
0.097732812 0.037041076 0.37237844 4294901760
0.097732812 0.037041076 0.37287843 4294901760
0.097732812 0.037041076 0.37337843 4294901760
0.097732812 0.037041076 0.37387845 4294901760
0.097732812 0.037041076 0.37437844 4294901760
0.097732812 0.037041076 0.37487844 4294901760
0.097732812 0.037041076 0.37537843 4294901760
0.097732812 0.037041076 0.37587842 4294901760
0.097732812 0.037041076 0.37637845 4294901760
0.097732812 0.037041076 0.37687844 4294901760
0.097732812 0.037041076 0.37737843 4294901760
0.097732812 0.037041076 0.37787843 4294901760
0.097732812 0.037041076 0.37837845 4294901760
0.097732812 0.037041076 0.37887844 4294901760
0.097732812 0.037041076 0.37937844 4294901760
0.097732812 0.037041076 0.37987843 4294901760
0.097732812 0.037041076 0.38037843 4294901760
0.097732812 0.037041076 0.38087845 4294901760
0.097732812 0.037041076 0.38137844 4294901760
0.097732812 0.037041076 0.38187844 4294901760
0.097732812 0.037041076 0.38237843 4294901760
0.097732812 0.037041076 0.38287842 4294901760
0.097732812 0.037041076 0.38337845 4294901760
0.097732812 0.037041076 0.38387844 4294901760
0.097732812 0.037041076 0.38437843 4294901760
0.097732812 0.037041076 0.38487843 4294901760
0.097732812 0.037041076 0.38537842 4294901760
0.097732812 0.037041076 0.38587844 4294901760
0.097732812 0.037041076 0.38637844 4294901760
0.097732812 0.037041076 0.38687843 4294901760
0.097732812 0.037041076 0.38737845 4294901760
0.097732812 0.037041076 0.38787845 4294901760
0.097732812 0.037041076 0.38837844 4294901760
0.097732812 0.037041076 0.38887843 4294901760
0.097732812 0.037041076 0.38937843 4294901760
0.097732812 0.037041076 0.38987845 4294901760
0.097732812 0.037041076 0.39037845 4294901760
0.097732812 0.037041076 0.39087844 4294901760
0.097732812 0.037041076 0.34087843 4278255360
0.097825103 0.036589961 0.3410733 4278255360
0.097917393 0.036138847 0.34126818 4278255360
0.098009683 0.035687733 0.34146309 4278255360
0.098101974 0.035236623 0.34165797 4278255360
0.098194264 0.034785509 0.34185284 4278255360
0.098286554 0.034334395 0.34204772 4278255360
0.098378845 0.033883281 0.3422426 4278255360
0.098471135 0.033432167 0.34243748 4278255360
0.098563425 0.032981053 0.34263238 4278255360
0.098655716 0.032529943 0.34282726 4278255360
0.098748006 0.032078829 0.34302214 4278255360
0.098840296 0.031627715 0.34321702 4278255360
0.098932587 0.031176601 0.34341189 4278255360
0.099024877 0.030725487 0.34360677 4278255360
0.099117167 0.030274373 0.34380168 4278255360
0.099209458 0.02982326 0.34399655 4278255360
0.099301748 0.029372146 0.34419143 4278255360
0.099394038 0.028921032 0.34438631 4278255360
0.099486329 0.02846992 0.34458119 4278255360
0.099578619 0.028018806 0.34477606 4278255360
0.099670909 0.027567692 0.34497097 4278255360
0.0997632 0.027116578 0.34516585 4278255360
0.09985549 0.026665466 0.34536073 4278255360
0.09994778 0.026214354 0.3455556 4278255360
0.10004006 0.02576324 0.34575048 4278255360
0.10013235 0.025312126 0.34594536 4278255360
0.10022464 0.024861012 0.34614027 4278255360
0.10031693 0.024409898 0.34633514 4278255360
0.10040922 0.023958785 0.34653002 4278255360
0.10050151 0.02350767 0.3467249 4278255360
0.10059381 0.023056557 0.34691978 4278255360
0.1006861 0.022605445 0.34711465 4278255360
0.10077839 0.022154331 0.34730956 4278255360
0.10087068 0.021703217 0.34750444 4278255360
0.10096297 0.021252105 0.34769931 4278255360
0.10105526 0.020800989 0.34789419 4278255360
0.10114755 0.020349877 0.34808907 4278255360
0.10123984 0.019898765 0.34828395 4278255360
0.10133213 0.019447651 0.34847885 4278255360
0.10142442 0.018996537 0.34867373 4278255360
0.10151671 0.018545423 0.34886861 4278255360
0.101609 0.018094311 0.34906349 4278255360
0.10170129 0.017643197 0.34925836 4278255360
0.10179358 0.017192082 0.34945324 4278255360
0.10188587 0.01674097 0.34964815 4278255360
0.10197816 0.016289856 0.34984303 4278255360
0.10207045 0.015838742 0.3500379 4278255360
0.10216274 0.01538763 0.35023278 4278255360
0.10225503 0.014936514 0.35042766 4278255360
0.10234732 0.014485402 0.35062253 4278255360
0.10243961 0.01403429 0.35081744 4278255360
0.1025319 0.013583176 0.35101232 4278255360
0.10262419 0.013132064 0.3512072 4278255360
0.10271648 0.012680948 0.35140207 4278255360
0.10280877 0.012229834 0.35159695 4278255360
0.10290106 0.011778722 0.35179186 4278255360
0.10299335 0.011327608 0.35198674 4278255360
0.10308564 0.010876495 0.35218161 4278255360
0.10317793 0.010425381 0.35237649 4278255360
0.10327023 0.0099742655 0.35257137 4278255360
0.10336252 0.0095231533 0.35276625 4278255360
0.10345481 0.0090720393 0.35296115 4278255360
0.1035471 0.0086209271 0.35315603 4278255360
0.10363939 0.0081698149 0.35335091 4278255360
0.10373168 0.0077187009 0.35354578 4278255360
0.10382397 0.007267585 0.35374066 4278255360
0.10391626 0.0068164729 0.35393554 4278255360
0.10400855 0.0063653588 0.35413045 4278255360
0.10410084 0.0059142467 0.35432532 4278255360
0.10419313 0.0054631345 0.3545202 4278255360
0.10428542 0.0050120205 0.35471508 4278255360
0.10437771 0.0045609027 0.35490996 4278255360
0.10447 0.0041097924 0.35510483 4278255360
0.10456229 0.0036586784 0.35529974 4278255360
0.10465458 0.0032075644 0.35549462 4278255360
0.10474686 0.0027564541 0.3556895 4278255360
0.10483915 0.00230534 0.35588437 4278255360
0.10493144 0.001854226 0.35607925 4278255360
0.10502373 0.001403112 0.35627413 4278255360
0.10511602 0.00095199794 0.35646904 4278255360
0.10520831 0.00050088391 0.35666391 4278255360
0.10530061 4.9769878e-05 0.35685879 4278255360
0.1053929 -0.00040134043 0.35705367 4278255360
0.10548519 -0.00085245445 0.35724854 4278255360
0.10557748 -0.0013035722 0.35744342 4278255360
0.10566977 -0.0017546825 0.35763833 4278255360
0.10576206 -0.0022057965 0.35783321 4278255360
0.10585435 -0.0026569106 0.35802808 4278255360
0.10594664 -0.0031080209 0.35822296 4278255360
0.10603893 -0.0035591349 0.35841784 4278255360
0.10613122 -0.0040102527 0.35861272 4278255360
0.10622351 -0.004461363 0.35880762 4278255360
0.1063158 -0.004912477 0.3590025 4278255360
0.10640809 -0.005363591 0.35919738 4278255360
0.10650038 -0.005814705 0.35939226 4278255360
0.10659267 -0.0062658153 0.35958713 4278255360
0.10668496 -0.0067169331 0.35978204 4278255360
0.10677725 -0.0071680471 0.35997692 4278255360
0.10686954 -0.0076191574 0.36017179 4278255360
0.10696183 -0.0080702715 0.36036667 4278255360
