# .PCD v0.7 - Point Cloud Data file format
VERSION 0.7
FIELDS x y z rgb
SIZE 4 4 4 4
TYPE F F F U
COUNT 1 1 1 1
WIDTH 692
HEIGHT 1
VIEWPOINT 0 0 0 1 0 0 0
POINTS 692
DATA ascii
0.069596365 0.019926827 0.34500003 4279779623
0.068277322 0.020986758 0.34400001 4279846951
0.069394633 0.020986758 0.34400001 4279386402
0.067160003 0.022104451 0.34400001 4279713568
0.068277322 0.022104451 0.34400001 4279322914
0.069394633 0.022104451 0.34400001 4279322660
0.067160003 0.023222141 0.34400001 4279649059
0.068277322 0.023222141 0.34400001 4278797597
0.069394633 0.023222141 0.34400001 4279389221
0.066964775 0.024269078 0.34300002 4279190558
0.068078846 0.024269078 0.34300002 4278929183
0.069192901 0.024269078 0.34300002 4279389221
0.065850712 0.025383521 0.34300002 4279780129
0.066964775 0.025383521 0.34300002 4279190556
0.068078846 0.025383521 0.34300002 4279126560
0.069192901 0.025383521 0.34300002 4279126047
0.066964775 0.026497962 0.34300002 4279125533
0.068078846 0.026497962 0.34300002 4279060765
0.069192901 0.026497962 0.34300002 4279191838
0.070306972 0.026497962 0.34300002 4279910947
0.066964775 0.027612403 0.34300002 4278928154
0.068078846 0.027612403 0.34300002 4279060765
0.069192901 0.027612403 0.34300002 4279060765
0.070101991 0.0275319 0.34200001 4279716900
0.065850712 0.028726846 0.34300002 4279649313
0.066964775 0.028726846 0.34300002 4279256351
0.068078846 0.028726846 0.34300002 4278929951
0.069192901 0.028726846 0.34300002 4278995742
0.070101991 0.028643092 0.34200001 4279191838
0.071212806 0.028643092 0.34200001 4279255836
0.06492538 0.029928287 0.34400001 4280239399
0.066042691 0.029928287 0.34400001 4279715365
0.066964775 0.029841287 0.34300002 4279518756
0.068078846 0.029841287 0.34300002 4279061539
0.069192901 0.029841287 0.34300002 4279456808
0.070101991 0.029754285 0.34200001 4279323939
0.071212806 0.029754285 0.34200001 4279519521
0.072323628 0.029754285 0.34200001 4279780897
0.073219724 0.029667286 0.34100002 4280107043
0.07432729 0.029667286 0.34100002 4283394644
0.06492538 0.031045981 0.34400001 4279976994
0.066042691 0.031045981 0.34400001 4279517473
0.068078846 0.030955732 0.34300002 4279323939
0.069192901 0.030955732 0.34300002 4279258916
0.070101991 0.030865481 0.34200001 4283930221
0.071212806 0.030865481 0.34200001 4279651109
0.072323628 0.030865481 0.34200001 4279453217
0.073219724 0.030775232 0.34100002 4279519010
0.07432729 0.030775232 0.34100002 4279781412
0.075213641 0.03068498 0.34 4280043301
0.076317959 0.03068498 0.34 4279844895
0.077422284 0.03068498 0.34 4279778078
0.078526601 0.03068498 0.34 4280236832
0.063993558 0.032257173 0.34500003 4280108580
0.065114126 0.032257173 0.34500003 4279648543
0.069192901 0.032070175 0.34300002 4279521318
0.070306972 0.032070175 0.34300002 4279258146
0.071212806 0.031976674 0.34200001 4280836667
0.072323628 0.031976674 0.34200001 4278795800
0.073219724 0.031883176 0.34100002 4278994463
0.07432729 0.031883176 0.34100002 4278862877
0.075434864 0.031883176 0.34100002 4278928670
0.076317959 0.031789675 0.34 4279387937
0.077422284 0.031789675 0.34 4279453730
0.078526601 0.031789675 0.34 4279584033
0.079396717 0.031696178 0.33900002 4279452447
0.080497786 0.031696178 0.33900002 4279386654
0.081598863 0.031696178 0.33900002 4279517727
0.064179048 0.033474859 0.34600002 4279779615
0.070306972 0.033184614 0.34300002 4279455010
0.071421035 0.033184614 0.34300002 4278994459
0.07432729 0.032991119 0.34100002 4279193123
0.075434864 0.032991119 0.34100002 4279061537
0.07654243 0.032991119 0.34100002 4279060767
0.077422284 0.032894369 0.34 4278929181
0.078526601 0.032894369 0.34 4278994461
0.079630919 0.032894369 0.34 4278797082
0.080735244 0.032894369 0.34 4278928668
0.081839561 0.032894369 0.34 4278928154
0.0882053 0.032797623 0.33900002 4279780645
0.089306369 0.032797623 0.33900002 4279911201
0.090407446 0.032797623 0.33900002 4279779102
0.091508523 0.032797623 0.33900002 4279713055
0.092609584 0.032797623 0.33900002 4279975459
0.093434229 0.032700874 0.33800003 4279974692
0.071421035 0.034299057 0.34300002 4280967739
0.073434442 0.034199059 0.34200001 4279389217
0.074545257 0.034199059 0.34200001 4279127328
0.075434864 0.034099061 0.34100002 4278995742
0.07654243 0.034099061 0.34100002 4279061789
0.077649996 0.034099061 0.34100002 4279061789
0.078757569 0.034099061 0.34100002 4278995742
0.079630919 0.033999063 0.34 4278929949
0.080735244 0.033999063 0.34 4278798363
0.081839561 0.033999063 0.34 4278929179
0.082943879 0.033999063 0.34 4278928666
0.084048204 0.033999063 0.34 4278994459
0.085152522 0.033999063 0.34 4279124761
0.086256839 0.033999063 0.34 4279256347
0.087104224 0.033899069 0.33900002 4278927382
0.0882053 0.033899069 0.33900002 4279124761
0.089306369 0.033899069 0.33900002 4278992662
0.090407446 0.033899069 0.33900002 4278861076
0.091508523 0.033899069 0.33900002 4279189273
0.092336401 0.033799071 0.33800003 4279189273
0.093434229 0.033799071 0.33800003 4279320861
0.09425237 0.033699073 0.33700001 4279386141
0.09534695 0.033699073 0.33700001 4279385889
0.096155353 0.033599075 0.33600003 4279385889
0.096957251 0.033499077 0.33500001 4279450912
0.097752653 0.033399083 0.33400002 4279516191
0.098837487 0.033399083 0.33400002 4279252252
0.077649996 0.035207007 0.34100002 4279323939
0.078757569 0.035207007 0.34100002 4279126558
0.079865135 0.035207007 0.34100002 4278731800
0.080972701 0.035207007 0.34100002 4278798363
0.082080275 0.035207007 0.34100002 4278929949
0.083187841 0.035207007 0.34100002 4278732570
0.084295407 0.035207007 0.34100002 4279192351
0.085152522 0.035103757 0.34 4279192092
0.086256839 0.035103757 0.34 4279192092
0.087361164 0.035103757 0.34 4279192092
0.0882053 0.035000514 0.33900002 4278731541
0.089306369 0.035000514 0.33900002 4278797334
0.090407446 0.035000514 0.33900002 4278994199
0.091238588 0.034897268 0.33800003 4278993947
0.092336401 0.034897268 0.33800003 4278927384
0.093434229 0.034897268 0.33800003 4279058970
0.09425237 0.034794021 0.33700001 4278927384
0.09534695 0.034794021 0.33700001 4278993177
0.096155353 0.034690775 0.33600003 4278992664
0.096957251 0.034587529 0.33500001 4279189273
0.097752653 0.034484282 0.33400002 4279123480
0.098837487 0.034484282 0.33400002 4279320348
0.099623151 0.034381032 0.333 4279451164
0.10040233 0.034277789 0.33200002 4279319064
0.101175 0.034174543 0.33100003 4279779615
0.10225009 0.034174543 0.33100003 4279713057
0.10332518 0.034174543 0.33100003 4279647010
0.10440026 0.034174543 0.33100003 4279975207
0.10515669 0.034071296 0.33000001 4279711522
0.10622853 0.034071296 0.33000001 4280434475
0.10730037 0.034071296 0.33000001 4280500268
0.10837222 0.034071296 0.33000001 4282143296
0.10911241 0.03396805 0.32900003 4284313952
0.110181 0.03396805 0.32900003 4285497456
0.084295407 0.036314949 0.34100002 4278731289
0.085402973 0.036314949 0.34100002 4279389219
0.086256839 0.036208451 0.34 4279257631
0.087361164 0.036208451 0.34 4278863386
0.088465489 0.036208451 0.34 4279060765
0.089306369 0.03610196 0.33900002 4278929179
0.090407446 0.03610196 0.33900002 4279060765
0.091238588 0.035995465 0.33800003 4278797082
0.092336401 0.035995465 0.33800003 4278928668
0.093434229 0.035995465 0.33800003 4278994461
0.09425237 0.035888966 0.33700001 4278994461
0.09534695 0.035888966 0.33700001 4279125533
0.096155353 0.035782471 0.33600003 4278862361
0.096957251 0.035675976 0.33500001 4279124763
0.098045327 0.035675976 0.33500001 4279058970
0.098837487 0.035569482 0.33400002 4279124250
0.099623151 0.035462983 0.333 4278861078
0.10070474 0.035462983 0.333 4278794513
0.10148066 0.035356492 0.33200002 4278926099
0.102559 0.035356492 0.33200002 4278926101
0.10363734 0.035356492 0.33200002 4279123482
0.10440026 0.035249997 0.33100003 4279451164
0.10547535 0.035249997 0.33100003 4279582236
0.10655044 0.035249997 0.33100003 4279647516
0.10762553 0.035249997 0.33100003 4279713309
0.10837222 0.035143498 0.33000001 4279976227
0.10944406 0.035143498 0.33000001 4279975457
0.11051589 0.035143498 0.33000001 4279711772
0.11158773 0.035143498 0.33000001 4280368932
0.11300097 0.035249997 0.33100003 4280892966
0.11407606 0.035249997 0.33100003 4280957989
0.082320973 0.037532635 0.34200001 4279452447
0.084542602 0.037532635 0.34200001 4279782182
0.091508523 0.037203405 0.33900002 4279453728
0.092336401 0.037093662 0.33800003 4279388705
0.093434229 0.037093662 0.33800003 4278928156
0.094532058 0.037093662 0.33800003 4278993949
0.09534695 0.036983915 0.33700001 4279059740
0.096441522 0.036983915 0.33700001 4279454498
0.097246684 0.036874171 0.33600003 4279322912
0.098338 0.036874171 0.33600003 4279256349
0.09913341 0.036764424 0.33500001 4279058970
0.099922322 0.036654681 0.33400002 4279058970
0.10100716 0.036654681 0.33400002 4279124250
0.10178632 0.036544934 0.333 4279190043
0.10286791 0.036544934 0.333 4279190043
0.10394949 0.036544934 0.333 4278992664
0.10471567 0.036435191 0.33200002 4279123480
0.10579401 0.036435191 0.33200002 4278991894
0.10687234 0.036435191 0.33200002 4279254553
0.10795068 0.036435191 0.33200002 4278925588
0.10870063 0.036325447 0.33100003 4279057174
0.10944406 0.036215704 0.33000001 4279188760
0.11051589 0.036215704 0.33000001 4279582234
0.11192589 0.036325447 0.33100003 4279582234
0.11334236 0.036435191 0.33200002 4279779100
0.1144207 0.036435191 0.33200002 4279778330
0.11584692 0.036544934 0.333 4280171805
0.11692851 0.036544934 0.333 4280171805
0.11836448 0.036654681 0.33400002 4280237086
0.11944931 0.036654681 0.33400002 4280170526
0.081447616 0.038756825 0.34300002 4280108326
0.082561679 0.038756825 0.34300002 4279053074
0.083675742 0.038756825 0.34300002 4279647775
0.087618113 0.038530838 0.34100002 4279978278
0.096727706 0.038191859 0.33800003 4279782180
0.097536102 0.038078863 0.33700001 4279782178
0.098630674 0.038078863 0.33700001 4279453213
0.099429332 0.037965868 0.33600003 4279519006
0.10052066 0.037965868 0.33600003 4279124248
0.10130957 0.037852872 0.33500001 4279387933
0.10239765 0.037852872 0.33500001 4279453726
0.10348573 0.037852872 0.33500001 4279651107
0.10426166 0.03773988 0.33400002 4279124763
0.10534649 0.03773988 0.33400002 4279190556
0.10643132 0.03773988 0.33400002 4279190043
0.10719424 0.037626885 0.333 4279058457
0.10827583 0.037626885 0.333 4279124250
0.10935742 0.037626885 0.333 4278992664
0.10977571 0.037400901 0.33100003 4278992664
0.1108508 0.037400901 0.33100003 4278926101
0.11192589 0.037400901 0.33100003 4279123480
0.11368375 0.037626885 0.333 4279123480
0.11476534 0.037626885 0.333 4279057174
0.11619481 0.03773988 0.33400002 4279451162
0.11727965 0.03773988 0.33400002 4279319062
0.11836448 0.03773988 0.33400002 4279648027
0.11980694 0.037852872 0.33500001 4279581721
0.1212559 0.037965868 0.33600003 4279712537
0.12271136 0.038078863 0.33700001 4279975198
0.12380594 0.038078863 0.33700001 4280105760
0.12527114 0.038191859 0.33800003 4280105246
0.080567755 0.039987508 0.34400001 4279911461
0.081685066 0.039987508 0.34400001 4279775770
0.082802385 0.039987508 0.34400001 4281486899
0.085903868 0.039871268 0.34300002 4279381525
0.087017938 0.039871268 0.34300002 4279314965
0.087875053 0.03975502 0.34200001 4279314967
0.088985875 0.03975502 0.34200001 4279446553
0.089833252 0.03963878 0.34100002 4279314195
0.090940826 0.03963878 0.34100002 4279446035
0.09177845 0.039522536 0.34 4279118867
0.092882767 0.039522536 0.34 4280435497
0.093987085 0.039522536 0.34 4280764460
0.10488598 0.039057568 0.33600003 4279584801
0.1059773 0.039057568 0.33600003 4279190045
0.10706864 0.039057568 0.33600003 4279058459
0.10783806 0.038941324 0.33500001 4279519523
0.10892613 0.038941324 0.33500001 4279585316
0.11001422 0.038941324 0.33500001 4279322914
0.11010735 0.038592596 0.33200002 4279388707
0.11118568 0.038592596 0.33200002 4279651107
0.11226402 0.038592596 0.33200002 4279321629
0.11436654 0.038941324 0.33500001 4279190043
0.11545462 0.038941324 0.33500001 4279320859
0.1165427 0.038941324 0.33500001 4279386652
0.11763078 0.038941324 0.33500001 4279189273
0.11907326 0.039057568 0.33600003 4279188760
0.12016457 0.039057568 0.33600003 4279187990
0.12161678 0.039173808 0.33700001 4279122197
0.12271136 0.039173808 0.33700001 4279385369
0.12417332 0.039290052 0.33800003 4279187476
0.12527114 0.039290052 0.33800003 4279319062
0.12674284 0.039406296 0.33900002 4279713305
0.12822104 0.039522536 0.34 4279844121
0.12932535 0.039522536 0.34 4279975194
0.13042967 0.039522536 0.34 4279909403
0.13192086 0.03963878 0.34100002 4280171553
0.13413599 0.03963878 0.34100002 4280301342
0.13524356 0.03963878 0.34100002 4280498723
0.074981198 0.0411052 0.34400001 4281553208
0.076098509 0.0411052 0.34400001 4280369702
0.077215821 0.0411052 0.34400001 4280436778
0.078333132 0.0411052 0.34400001 4280108840
0.079450443 0.0411052 0.34400001 4279910949
0.080567755 0.0411052 0.34400001 4280042022
0.081685066 0.0411052 0.34400001 4280763692
0.082802385 0.0411052 0.34400001 4280501290
0.083919697 0.0411052 0.34400001 4279911463
0.085037008 0.0411052 0.34400001 4279516705
0.086154319 0.0411052 0.34400001 4279773465
0.087017938 0.040985707 0.34300002 4280103200
0.088132001 0.040985707 0.34300002 4279840541
0.089246072 0.040985707 0.34300002 4281353780
0.09009669 0.040866215 0.34200001 4280037407
0.091207512 0.040866215 0.34200001 4281879609
0.092048392 0.040746726 0.34100002 4279970844
0.09315595 0.040746726 0.34100002 4280365602
0.094263524 0.040746726 0.34100002 4279971614
0.095371097 0.040746726 0.34100002 4279511063
0.096478663 0.040746726 0.34100002 4279905051
0.097300053 0.04062723 0.34 4279050514
0.098404378 0.04062723 0.34 4279841822
0.099508688 0.04062723 0.34 4280039969
0.11067102 0.040268756 0.33700001 4279584549
0.11276054 0.04062723 0.34 4279584549
0.11386485 0.04062723 0.34 4279584803
0.11463103 0.040507741 0.33900002 4279321631
0.11504932 0.040268756 0.33700001 4279453730
0.1161439 0.040268756 0.33700001 4279585316
0.11723848 0.040268756 0.33700001 4279585316
0.11833306 0.040268756 0.33700001 4279650855
0.11942764 0.040268756 0.33700001 4279321631
0.1205222 0.040268756 0.33700001 4279452445
0.12197766 0.040388249 0.33800003 4279320346
0.12307549 0.040388249 0.33800003 4279320346
0.12454069 0.040507741 0.33900002 4279319576
0.12564176 0.040507741 0.33900002 4279385367
0.12711671 0.04062723 0.34 4279582486
0.12822104 0.04062723 0.34 4279450900
0.12970571 0.040746726 0.34100002 4279319314
0.13081329 0.040746726 0.34100002 4279450646
0.13192086 0.040746726 0.34100002 4279516441
0.13302843 0.040746726 0.34100002 4279516441
0.13413599 0.040746726 0.34100002 4279647516
0.13524356 0.040746726 0.34100002 4279713055
0.13635112 0.040746726 0.34100002 4279975457
0.1378618 0.040866215 0.34200001 4279974944
0.13897261 0.040866215 0.34200001 4280303139
0.078560852 0.042345632 0.34500003 4285236850
0.079681411 0.042345632 0.34500003 4285236335
0.080801971 0.042345632 0.34500003 4284249440
0.081922531 0.042345632 0.34500003 4282473029
0.082802385 0.042222891 0.34400001 4281026350
0.084163651 0.042345632 0.34500003 4279646240
0.085037008 0.042222891 0.34400001 4280238377
0.086154319 0.042222891 0.34400001 4281223475
0.087271631 0.042222891 0.34400001 4281025583
0.088388942 0.042222891 0.34400001 4280498471
0.089246072 0.04210015 0.34300002 4279577369
0.090360135 0.04210015 0.34300002 4279445783
0.091474198 0.04210015 0.34300002 4279182098
0.092588268 0.04210015 0.34300002 4279641881
0.093429133 0.041977406 0.34200001 4280036123
0.094539955 0.041977406 0.34200001 4279707156
0.09565077 0.041977406 0.34200001 4280233502
0.096761592 0.041977406 0.34200001 4281155118
0.097872406 0.041977406 0.34200001 4280695337
0.098983228 0.041977406 0.34200001 4281419060
0.10009404 0.041977406 0.34200001 4279970844
0.10120485 0.041977406 0.34200001 4279907102
0.10533921 0.041854668 0.34100002 4279646494
0.10613462 0.041731924 0.34 4280172838
0.10723893 0.041731924 0.34 4280370215
0.10834325 0.041731924 0.34 4280436008
0.11648855 0.041486446 0.33800003 4280044582
0.11758637 0.041486446 0.33800003 4279912998
0.1186842 0.041486446 0.33800003 4279715619
0.11978202 0.041486446 0.33800003 4279715619
0.12087984 0.041486446 0.33800003 4279452447
0.12233854 0.041609187 0.33900002 4279780897
0.12343962 0.041609187 0.33900002 4279846690
0.12454069 0.041609187 0.33900002 4279846692
0.12601238 0.041731924 0.34 4279715106
0.12711671 0.041731924 0.34 4279846690
0.12859815 0.041854668 0.34100002 4279649309
0.12970571 0.041854668 0.34100002 4279583000
0.13081329 0.041854668 0.34100002 4279517207
0.13192086 0.041854668 0.34100002 4279319574
0.13341853 0.041977406 0.34200001 4279187988
0.13452935 0.041977406 0.34200001 4279385367
0.13564017 0.041977406 0.34200001 4279385369
0.13675098 0.041977406 0.34200001 4279451162
0.1378618 0.041977406 0.34200001 4279582234
0.13937898 0.04210015 0.34300002 4279713307
0.14049304 0.04210015 0.34300002 4279318551
0.14160711 0.04210015 0.34300002 4279975709
0.14313726 0.042222891 0.34400001 4280172575
0.084163651 0.043466575 0.34500003 4284643430
0.085284211 0.043466575 0.34500003 4285301360
0.086404771 0.043466575 0.34500003 4284972134
0.087271631 0.043340582 0.34400001 4284051032
0.088388942 0.043340582 0.34400001 4282736201
0.089506261 0.043340582 0.34400001 4281025583
0.090623572 0.043340582 0.34400001 4280367907
0.091740884 0.043340582 0.34400001 4280170528
0.092588268 0.043214593 0.34300002 4280696872
0.093702324 0.043214593 0.34300002 4280763178
0.094816387 0.043214593 0.34300002 4280894510
0.095930457 0.043214593 0.34300002 4279380758
0.09704452 0.043214593 0.34300002 4278985230
0.09815859 0.043214593 0.34300002 4279577367
0.099272653 0.043214593 0.34300002 4279707672
0.10038671 0.043214593 0.34300002 4279840030
0.10342649 0.043088604 0.34200001 4279712285
0.10453731 0.043088604 0.34200001 4279381785
0.10564812 0.043088604 0.34200001 4279379988
0.10675894 0.043088604 0.34200001 4279577369
0.10786975 0.043088604 0.34200001 4280632104
0.11198463 0.042962614 0.34100002 4280566565
0.11342384 0.043088604 0.34200001 4280434977
0.11419976 0.042962614 0.34100002 4280369952
0.12233854 0.042710632 0.33900002 4279978276
0.12490807 0.042836621 0.34 4280109092
0.12601238 0.042836621 0.34 4279846690
0.12749058 0.042962614 0.34100002 4279649824
0.12859815 0.042962614 0.34100002 4279716387
0.13008608 0.043088604 0.34200001 4279781408
0.1311969 0.043088604 0.34200001 4279781408
0.13230772 0.043088604 0.34200001 4279649826
0.13341853 0.043088604 0.34200001 4278926103
0.13452935 0.043088604 0.34200001 4279649311
0.13564017 0.043088604 0.34200001 4279451932
0.13715084 0.043214593 0.34300002 4279451932
0.13826491 0.043214593 0.34300002 4279254551
0.13937898 0.043214593 0.34300002 4279254553
0.14090264 0.043340582 0.34400001 4279057174
0.14201996 0.043340582 0.34400001 4279056402
0.14313726 0.043340582 0.34400001 4279122195
0.14425458 0.043340582 0.34400001 4279713305
0.14537188 0.043340582 0.34400001 4279909914
0.090623572 0.04445827 0.34400001 4283984987
0.091740884 0.04445827 0.34400001 4283656535
0.092858203 0.04445827 0.34400001 4280366887
0.093975507 0.04445827 0.34400001 4280498989
0.094816387 0.044329032 0.34300002 4280039205
0.095930457 0.044329032 0.34300002 4279973410
0.09704452 0.044329032 0.34300002 4280039717
0.09815859 0.044329032 0.34300002 4280171301
0.099272653 0.044329032 0.34300002 4280172071
0.10067938 0.04445827 0.34400001 4280172071
0.10179669 0.04445827 0.34400001 4279975205
0.10261484 0.044329032 0.34300002 4279514908
0.10372891 0.044329032 0.34300002 4279448602
0.10484298 0.044329032 0.34300002 4280302887
0.10595704 0.044329032 0.34300002 4281156399
0.10707111 0.044329032 0.34300002 4281419571
0.10898057 0.044199791 0.34200001 4280763692
0.11231302 0.044199791 0.34200001 4280105498
0.11938646 0.043941315 0.34 4280238881
0.12123747 0.043812077 0.33900002 4280305446
0.12897527 0.044199791 0.34200001 4280372266
0.13008608 0.044199791 0.34200001 4280438059
0.13158052 0.044329032 0.34300002 4280175657
0.13269459 0.044329032 0.34300002 4279780129
0.13380866 0.044329032 0.34300002 4279780129
0.13492273 0.044329032 0.34300002 4279911713
0.13603678 0.044329032 0.34300002 4280043297
0.13715084 0.044329032 0.34300002 4279649309
0.13866802 0.04445827 0.34400001 4279846688
0.13978532 0.04445827 0.34400001 4279452445
0.14090264 0.04445827 0.34400001 4279715619
0.14201996 0.04445827 0.34400001 4279320859
0.14313726 0.04445827 0.34400001 4279386137
0.14425458 0.04445827 0.34400001 4279451160
0.14537188 0.04445827 0.34400001 4279648025
0.10067938 0.045575965 0.34400001 4280040235
0.10179669 0.045575965 0.34400001 4280171821
0.10291401 0.045575965 0.34400001 4280106541
0.10403132 0.045575965 0.34400001 4280172586
0.10514864 0.045575965 0.34400001 4280172838
0.10626595 0.045575965 0.34400001 4280369704
0.10738327 0.045575965 0.34400001 4280303911
0.10850057 0.045575965 0.34400001 4280435497
0.10961788 0.045575965 0.34400001 4280304424
0.11073519 0.045575965 0.34400001 4280633389
0.11185251 0.045575965 0.34400001 4279975457
0.11828214 0.045046009 0.34 4280763430
0.11938646 0.045046009 0.34 4280039707
0.12897527 0.045310989 0.34200001 4280040991
0.1375507 0.045575965 0.34400001 4280109090
0.13866802 0.045575965 0.34400001 4280043297
0.13978532 0.045575965 0.34400001 4280109092
0.14090264 0.045575965 0.34400001 4280043299
0.14201996 0.045575965 0.34400001 4279911713
0.14313726 0.045575965 0.34400001 4279911713
0.14425458 0.045575965 0.34400001 4279582746
0.14537188 0.045575965 0.34400001 4279582232
0.12454069 0.046014968 0.33900002 4280434465
0.12527114 0.04587923 0.33800003 4280960809
0.1160735 0.047255401 0.34 4284642915
0.11717782 0.047255401 0.34 4284248922
0.11903533 0.047116414 0.33900002 4282604097
0.12417332 0.046977431 0.33800003 4280762147
0.13308145 0.047811348 0.34400001 4280170780
0.11903533 0.048217863 0.33900002 4285299815
0.1201364 0.048217863 0.33900002 4285233768
0.12123747 0.048217863 0.33900002 4285299561
0.12197766 0.048075628 0.33800003 4285497194
0.12307549 0.048075628 0.33800003 4285628780
0.12417332 0.048075628 0.33800003 4285300067
0.12527114 0.048075628 0.33800003 4284576344
0.12636897 0.048075628 0.33800003 4282735937
0.10106631 0.03812588 0.33978087 4294967295
0.10106631 0.03812588 0.33978087 4294901760
0.10106631 0.03812588 0.34028086 4294901760
0.10106631 0.03812588 0.34078085 4294901760
0.10106631 0.03812588 0.34128088 4294901760
0.10106631 0.03812588 0.34178087 4294901760
0.10106631 0.03812588 0.34228086 4294901760
0.10106631 0.03812588 0.34278086 4294901760
0.10106631 0.03812588 0.34328088 4294901760
0.10106631 0.03812588 0.34378088 4294901760
0.10106631 0.03812588 0.34428087 4294901760
0.10106631 0.03812588 0.34478086 4294901760
0.10106631 0.03812588 0.34528086 4294901760
0.10106631 0.03812588 0.34578088 4294901760
0.10106631 0.03812588 0.34628087 4294901760
0.10106631 0.03812588 0.34678087 4294901760
0.10106631 0.03812588 0.34728086 4294901760
0.10106631 0.03812588 0.34778088 4294901760
0.10106631 0.03812588 0.34828088 4294901760
0.10106631 0.03812588 0.34878087 4294901760
0.10106631 0.03812588 0.34928086 4294901760
0.10106631 0.03812588 0.34978086 4294901760
0.10106631 0.03812588 0.35028088 4294901760
0.10106631 0.03812588 0.35078087 4294901760
0.10106631 0.03812588 0.35128087 4294901760
0.10106631 0.03812588 0.35178086 4294901760
0.10106631 0.03812588 0.35228086 4294901760
0.10106631 0.03812588 0.35278088 4294901760
0.10106631 0.03812588 0.35328087 4294901760
0.10106631 0.03812588 0.35378087 4294901760
0.10106631 0.03812588 0.35428086 4294901760
0.10106631 0.03812588 0.35478088 4294901760
0.10106631 0.03812588 0.35528088 4294901760
0.10106631 0.03812588 0.35578087 4294901760
0.10106631 0.03812588 0.35628086 4294901760
0.10106631 0.03812588 0.35678089 4294901760
0.10106631 0.03812588 0.35728088 4294901760
0.10106631 0.03812588 0.35778087 4294901760
0.10106631 0.03812588 0.35828087 4294901760
0.10106631 0.03812588 0.35878086 4294901760
0.10106631 0.03812588 0.35928088 4294901760
0.10106631 0.03812588 0.35978088 4294901760
0.10106631 0.03812588 0.36028087 4294901760
0.10106631 0.03812588 0.36078086 4294901760
0.10106631 0.03812588 0.36128086 4294901760
0.10106631 0.03812588 0.36178088 4294901760
0.10106631 0.03812588 0.36228088 4294901760
0.10106631 0.03812588 0.36278087 4294901760
0.10106631 0.03812588 0.36328086 4294901760
0.10106631 0.03812588 0.36378089 4294901760
0.10106631 0.03812588 0.36428088 4294901760
0.10106631 0.03812588 0.36478087 4294901760
0.10106631 0.03812588 0.36528087 4294901760
0.10106631 0.03812588 0.36578086 4294901760
0.10106631 0.03812588 0.36628088 4294901760
0.10106631 0.03812588 0.36678088 4294901760
0.10106631 0.03812588 0.36728087 4294901760
0.10106631 0.03812588 0.36778086 4294901760
0.10106631 0.03812588 0.36828089 4294901760
0.10106631 0.03812588 0.36878088 4294901760
0.10106631 0.03812588 0.36928087 4294901760
0.10106631 0.03812588 0.36978087 4294901760
0.10106631 0.03812588 0.37028086 4294901760
0.10106631 0.03812588 0.37078089 4294901760
0.10106631 0.03812588 0.37128088 4294901760
0.10106631 0.03812588 0.37178087 4294901760
0.10106631 0.03812588 0.37228087 4294901760
0.10106631 0.03812588 0.37278089 4294901760
0.10106631 0.03812588 0.37328088 4294901760
0.10106631 0.03812588 0.37378088 4294901760
0.10106631 0.03812588 0.37428087 4294901760
0.10106631 0.03812588 0.37478086 4294901760
0.10106631 0.03812588 0.37528089 4294901760
0.10106631 0.03812588 0.37578088 4294901760
0.10106631 0.03812588 0.37628087 4294901760
0.10106631 0.03812588 0.37678087 4294901760
0.10106631 0.03812588 0.37728089 4294901760
0.10106631 0.03812588 0.37778088 4294901760
0.10106631 0.03812588 0.37828088 4294901760
0.10106631 0.03812588 0.37878087 4294901760
0.10106631 0.03812588 0.37928087 4294901760
0.10106631 0.03812588 0.37978089 4294901760
0.10106631 0.03812588 0.38028088 4294901760
0.10106631 0.03812588 0.38078088 4294901760
0.10106631 0.03812588 0.38128087 4294901760
0.10106631 0.03812588 0.38178086 4294901760
0.10106631 0.03812588 0.38228089 4294901760
0.10106631 0.03812588 0.38278088 4294901760
0.10106631 0.03812588 0.38328087 4294901760
0.10106631 0.03812588 0.38378087 4294901760
0.10106631 0.03812588 0.38428086 4294901760
0.10106631 0.03812588 0.38478088 4294901760
0.10106631 0.03812588 0.38528088 4294901760
0.10106631 0.03812588 0.38578087 4294901760
0.10106631 0.03812588 0.38628089 4294901760
0.10106631 0.03812588 0.38678089 4294901760
0.10106631 0.03812588 0.38728088 4294901760
0.10106631 0.03812588 0.38778087 4294901760
0.10106631 0.03812588 0.38828087 4294901760
0.10106631 0.03812588 0.38878089 4294901760
0.10106631 0.03812588 0.38928089 4294901760
0.10106631 0.03812588 0.38978088 4294901760
0.10106631 0.03812588 0.33978087 4278255360
0.10121214 0.037839375 0.34016383 4278255360
0.10135796 0.037552871 0.34054676 4278255360
0.10150378 0.037266366 0.34092972 4278255360
0.1016496 0.036979862 0.34131268 4278255360
0.10179543 0.036693357 0.34169561 4278255360
0.10194126 0.036406852 0.34207857 4278255360
0.10208708 0.036120348 0.34246153 4278255360
0.1022329 0.035833843 0.34284446 4278255360
0.10237873 0.035547338 0.34322742 4278255360
0.10252455 0.035260834 0.34361038 4278255360
0.10267037 0.034974329 0.34399331 4278255360
0.10281619 0.034687825 0.34437627 4278255360
0.10296202 0.034401324 0.34475923 4278255360
0.10310785 0.034114815 0.34514216 4278255360
0.10325367 0.033828311 0.34552512 4278255360
0.10339949 0.03354181 0.34590808 4278255360
0.10354532 0.033255305 0.34629101 4278255360
0.10369114 0.032968801 0.34667397 4278255360
0.10383696 0.032682296 0.34705693 4278255360
0.10398278 0.032395791 0.34743986 4278255360
0.10412861 0.032109287 0.34782282 4278255360
0.10427444 0.031822782 0.34820578 4278255360
0.10442026 0.031536277 0.34858871 4278255360
0.10456608 0.031249773 0.34897166 4278255360
0.10471191 0.030963268 0.34935462 4278255360
0.10485773 0.030676764 0.34973755 4278255360
0.10500355 0.030390259 0.35012051 4278255360
0.10514937 0.030103754 0.35050347 4278255360
0.1052952 0.02981725 0.3508864 4278255360
0.10544103 0.029530745 0.35126936 4278255360
0.10558685 0.02924424 0.35165232 4278255360
0.10573267 0.028957736 0.35203525 4278255360
0.10587849 0.028671231 0.35241821 4278255360
0.10602432 0.028384726 0.35280117 4278255360
0.10617014 0.028098224 0.3531841 4278255360
0.10631596 0.027811717 0.35356706 4278255360
0.10646179 0.027525214 0.35395002 4278255360
0.10660762 0.02723871 0.35433295 4278255360
0.10675344 0.026952207 0.35471591 4278255360
0.10689926 0.026665701 0.35509887 4278255360
0.10704508 0.026379198 0.3554818 4278255360
0.10719091 0.026092693 0.35586476 4278255360
0.10733673 0.025806189 0.35624772 4278255360
0.10748255 0.025519684 0.35663068 4278255360
0.10762838 0.025233179 0.35701361 4278255360
0.10777421 0.024946675 0.35739657 4278255360
0.10792003 0.02466017 0.3577795 4278255360
0.10806585 0.024373665 0.35816246 4278255360
0.10821167 0.024087161 0.35854542 4278255360
0.1083575 0.023800656 0.35892838 4278255360
0.10850332 0.023514152 0.35931131 4278255360
0.10864914 0.023227647 0.35969427 4278255360
0.10879496 0.022941142 0.3600772 4278255360
0.1089408 0.022654638 0.36046016 4278255360
0.10908662 0.022368133 0.36084312 4278255360
0.10923244 0.022081628 0.36122608 4278255360
0.10937826 0.021795126 0.36160901 4278255360
0.10952409 0.021508621 0.36199197 4278255360
0.10966991 0.021222116 0.3623749 4278255360
0.10981573 0.02093561 0.36275786 4278255360
0.10996155 0.020649107 0.36314082 4278255360
0.11010738 0.020362603 0.36352378 4278255360
0.1102532 0.020076098 0.36390671 4278255360
0.11039903 0.019789593 0.36428967 4278255360
0.11054485 0.019503091 0.3646726 4278255360
0.11069068 0.019216584 0.36505556 4278255360
0.1108365 0.018930079 0.36543852 4278255360
0.11098232 0.018643575 0.36582148 4278255360
0.11112814 0.018357072 0.36620441 4278255360
0.11127397 0.018070567 0.36658737 4278255360
0.1114198 0.017784063 0.36697033 4278255360
0.11156562 0.017497556 0.36735326 4278255360
0.11171144 0.017211054 0.36773622 4278255360
0.11185727 0.016924549 0.36811918 4278255360
0.11200309 0.016638044 0.36850211 4278255360
0.11214891 0.01635154 0.36888507 4278255360
0.11229473 0.016065035 0.36926803 4278255360
0.11244056 0.015778532 0.36965096 4278255360
0.11258638 0.015492026 0.37003392 4278255360
0.11273221 0.015205521 0.37041688 4278255360
0.11287803 0.014919017 0.37079981 4278255360
0.11302385 0.014632514 0.37118277 4278255360
0.11316968 0.014346009 0.37156573 4278255360
0.1133155 0.014059504 0.37194866 4278255360
0.11346132 0.013772998 0.37233162 4278255360
0.11360715 0.013486495 0.37271458 4278255360
0.11375298 0.013199991 0.37309751 4278255360
0.1138988 0.012913486 0.37348047 4278255360
0.11404462 0.012626981 0.37386343 4278255360
0.11419044 0.012340479 0.37424636 4278255360
0.11433627 0.012053972 0.37462932 4278255360
0.11448209 0.011767467 0.37501228 4278255360
0.11462791 0.011480963 0.37539521 4278255360
0.11477374 0.01119446 0.37577817 4278255360
0.11491956 0.010907955 0.37616113 4278255360
0.11506538 0.010621451 0.37654406 4278255360
0.11521121 0.010334944 0.37692702 4278255360
0.11535703 0.010048442 0.37730998 4278255360
0.11550286 0.009761937 0.37769291 4278255360
0.11564868 0.0094754323 0.37807587 4278255360
