# .PCD v0.7 - Point Cloud Data file format
VERSION 0.7
FIELDS x y z rgb
SIZE 4 4 4 4
TYPE F F F U
COUNT 1 1 1 1
WIDTH 1065
HEIGHT 1
VIEWPOINT 0 0 0 1 0 0 0
POINTS 1065
DATA ascii
0.068475805 0.021047767 0.34500003 4279716389
0.069596365 0.021047767 0.34500003 4284384623
0.066234678 0.022168709 0.34500003 4280108326
0.067355245 0.022168709 0.34500003 4279519523
0.068475805 0.022168709 0.34500003 4279520039
0.069596365 0.022168709 0.34500003 4283200863
0.066042691 0.023222141 0.34400001 4279256351
0.067160003 0.023222141 0.34400001 4278798365
0.068277322 0.023222141 0.34400001 4279323941
0.069394633 0.023222141 0.34400001 4280373813
0.066042691 0.024339832 0.34400001 4279124765
0.067160003 0.024339832 0.34400001 4278863388
0.068277322 0.024339832 0.34400001 4279258146
0.069394633 0.024339832 0.34400001 4279058718
0.066042691 0.025457524 0.34400001 4279256349
0.067160003 0.025457524 0.34400001 4278929181
0.068277322 0.025457524 0.34400001 4279192353
0.069394633 0.025457524 0.34400001 4279124511
0.066042691 0.026575215 0.34400001 4279125533
0.067160003 0.026575215 0.34400001 4278928668
0.068277322 0.026575215 0.34400001 4278863388
0.069192901 0.026497962 0.34300002 4279389221
0.06492538 0.027692905 0.34400001 4280108580
0.066042691 0.027692905 0.34400001 4279256349
0.066964775 0.027612403 0.34300002 4279191840
0.068078846 0.027612403 0.34300002 4278863388
0.069192901 0.027612403 0.34300002 4279191840
0.070306972 0.027612403 0.34300002 4281094969
0.063808069 0.028810596 0.34400001 4280634670
0.06492538 0.028810596 0.34400001 4279649311
0.066042691 0.028810596 0.34400001 4279387933
0.066964775 0.028726846 0.34300002 4279191838
0.068078846 0.028726846 0.34300002 4278995742
0.069192901 0.028726846 0.34300002 4279060765
0.070306972 0.028726846 0.34300002 4279651107
0.071212806 0.028643092 0.34200001 4283002966
0.063808069 0.029928287 0.34400001 4280239912
0.06492538 0.029928287 0.34400001 4279451934
0.066042691 0.029928287 0.34400001 4279322910
0.066964775 0.029841287 0.34300002 4278863386
0.068078846 0.029841287 0.34300002 4279653672
0.069192901 0.029841287 0.34300002 4278995742
0.070101991 0.029754285 0.34200001 4278928668
0.071212806 0.029754285 0.34200001 4279520291
0.072323628 0.029754285 0.34200001 4279843871
0.073219724 0.029667286 0.34100002 4284052574
0.07432729 0.029667286 0.34100002 4286025081
0.062872998 0.031136231 0.34500003 4280896300
0.063993558 0.031136231 0.34500003 4279845922
0.06492538 0.031045981 0.34400001 4279517727
0.066042691 0.031045981 0.34400001 4279651107
0.067160003 0.031045981 0.34400001 4279257633
0.068078846 0.030955732 0.34300002 4279061535
0.069192901 0.030955732 0.34300002 4282416978
0.070101991 0.030865481 0.34200001 4279717670
0.071212806 0.030865481 0.34200001 4279126047
0.072323628 0.030865481 0.34200001 4279257121
0.073219724 0.030775232 0.34100002 4279584803
0.07432729 0.030775232 0.34100002 4279450910
0.075434864 0.030775232 0.34100002 4279581982
0.076317959 0.03068498 0.34 4279843360
0.077422284 0.03068498 0.34 4280697385
0.078526601 0.03068498 0.34 4281946685
0.060373798 0.032724667 0.35000002 4284773733
0.061334852 0.032631166 0.34900001 4284839524
0.062289417 0.032537669 0.34800002 4281618226
0.06305524 0.032350671 0.34600002 4280436260
0.063993558 0.032257173 0.34500003 4279648543
0.065114126 0.032257173 0.34500003 4280043301
0.066042691 0.032163672 0.34400001 4280374580
0.067160003 0.032163672 0.34400001 4279849518
0.068078846 0.032070175 0.34300002 4279389730
0.069192901 0.032070175 0.34300002 4279127330
0.070306972 0.032070175 0.34300002 4281560901
0.071212806 0.031976674 0.34200001 4279783977
0.072323628 0.031976674 0.34200001 4278928668
0.073219724 0.031883176 0.34100002 4278797595
0.07432729 0.031883176 0.34100002 4278994461
0.075434864 0.031883176 0.34100002 4279125533
0.07654243 0.031883176 0.34100002 4279453728
0.077422284 0.031789675 0.34 4279519010
0.078526601 0.031789675 0.34 4279517727
0.079630919 0.031789675 0.34 4279715106
0.080735244 0.031789675 0.34 4279779613
0.081839561 0.031789675 0.34 4279976479
0.082943879 0.031789675 0.34 4279712539
0.060373798 0.033861853 0.35000002 4284906087
0.061334852 0.033765104 0.34900001 4284971880
0.062289417 0.033668354 0.34800002 4282539589
0.064179048 0.033474859 0.34600002 4280241450
0.065114126 0.033378113 0.34500003 4280702260
0.066234678 0.033378113 0.34500003 4280506166
0.067160003 0.033281364 0.34400001 4280506166
0.068277322 0.033281364 0.34400001 4280178223
0.069192901 0.033184614 0.34300002 4279521318
0.070306972 0.033184614 0.34300002 4278402835
0.071212806 0.033087865 0.34200001 4281955911
0.072323628 0.033087865 0.34200001 4279982639
0.073434442 0.033087865 0.34200001 4279062050
0.07432729 0.032991119 0.34100002 4278864671
0.075434864 0.032991119 0.34100002 4278929949
0.07654243 0.032991119 0.34100002 4278862873
0.077649996 0.032991119 0.34100002 4278862873
0.078526601 0.032894369 0.34 4279126045
0.079630919 0.032894369 0.34 4278928666
0.080735244 0.032894369 0.34 4279190554
0.081839561 0.032894369 0.34 4279190554
0.082943879 0.032894369 0.34 4279386652
0.084295407 0.032991119 0.34100002 4279386652
0.085402973 0.032991119 0.34100002 4279386652
0.086510539 0.032991119 0.34100002 4279452447
0.087361164 0.032894369 0.34 4279517727
0.060373798 0.034999039 0.35000002 4284971880
0.061334852 0.034899037 0.34900001 4284906087
0.062289417 0.034799043 0.34800002 4284381026
0.063237473 0.034699045 0.347 4280501542
0.064179048 0.034599047 0.34600002 4281030966
0.065302856 0.034599047 0.34600002 4280768307
0.066234678 0.034499053 0.34500003 4280637491
0.067355245 0.034499053 0.34500003 4280834870
0.068277322 0.034399055 0.34400001 4280901176
0.069394633 0.034399055 0.34400001 4280375602
0.070306972 0.034299057 0.34300002 4280770874
0.071421035 0.034299057 0.34300002 4280310836
0.072323628 0.034199059 0.34200001 4278666779
0.073434442 0.034199059 0.34200001 4278930462
0.074545257 0.034199059 0.34200001 4279062048
0.075434864 0.034099061 0.34100002 4278930462
0.07654243 0.034099061 0.34100002 4278996509
0.077649996 0.034099061 0.34100002 4278601751
0.078757569 0.034099061 0.34100002 4278667292
0.079865135 0.034099061 0.34100002 4278864671
0.080972701 0.034099061 0.34100002 4278929951
0.082080275 0.034099061 0.34100002 4279060765
0.083187841 0.034099061 0.34100002 4278862873
0.084295407 0.034099061 0.34100002 4278862873
0.085402973 0.034099061 0.34100002 4278731287
0.086510539 0.034099061 0.34100002 4278665494
0.087361164 0.033999063 0.34 4278599189
0.088465489 0.033999063 0.34 4278796568
0.089306369 0.033899069 0.33900002 4278993177
0.090407446 0.033899069 0.33900002 4279124250
0.091238588 0.033799071 0.33800003 4278992666
0.092881359 0.033599075 0.33600003 4279385887
0.09397269 0.033599075 0.33600003 4279450910
0.095064022 0.033599075 0.33600003 4279582498
0.095869169 0.033499077 0.33500001 4279187486
0.096957251 0.033499077 0.33500001 4279713316
0.098045327 0.033499077 0.33500001 4279186459
0.098837487 0.033399083 0.33400002 4279778598
0.099922322 0.033399083 0.33400002 4280238379
0.10100716 0.033399083 0.33400002 4280763958
0.10209199 0.033399083 0.33400002 4280895546
0.10426166 0.033399083 0.33400002 4280828983
0.10534649 0.033399083 0.33400002 4281025082
0.060373798 0.036136225 0.35000002 4285037675
0.061334852 0.036032975 0.34900001 4284971880
0.062289417 0.035929732 0.34800002 4284775784
0.063237473 0.035826482 0.347 4281684794
0.064179048 0.035723239 0.34600002 4281030712
0.065302856 0.035723239 0.34600002 4280965432
0.066234678 0.035619993 0.34500003 4280900409
0.067355245 0.035619993 0.34500003 4280966202
0.068277322 0.035516743 0.34400001 4281031995
0.069394633 0.035516743 0.34400001 4280769336
0.070306972 0.0354135 0.34300002 4280506934
0.071421035 0.0354135 0.34300002 4280244276
0.072323628 0.03531025 0.34200001 4279981871
0.073434442 0.03531025 0.34200001 4279981871
0.074545257 0.03531025 0.34200001 4279521318
0.075656079 0.03531025 0.34200001 4279521318
0.07654243 0.035207007 0.34100002 4279126560
0.077649996 0.035207007 0.34100002 4279192351
0.078757569 0.035207007 0.34100002 4278929951
0.079865135 0.035207007 0.34100002 4278733085
0.080972701 0.035207007 0.34100002 4278601497
0.082080275 0.035207007 0.34100002 4278996255
0.083187841 0.035207007 0.34100002 4279193121
0.084295407 0.035207007 0.34100002 4279060765
0.085402973 0.035207007 0.34100002 4278797080
0.086510539 0.035207007 0.34100002 4278928666
0.087361164 0.035103757 0.34 4278928666
0.088465489 0.035103757 0.34 4278862873
0.089306369 0.035000514 0.33900002 4278731287
0.09014076 0.034897268 0.33800003 4278796566
0.091238588 0.034897268 0.33800003 4278927382
0.092881359 0.034690775 0.33600003 4278795798
0.09397269 0.034690775 0.33600003 4278927386
0.095064022 0.034690775 0.33600003 4278795287
0.096155353 0.034690775 0.33600003 4279123228
0.096957251 0.034587529 0.33500001 4279123228
0.098045327 0.034587529 0.33500001 4279254814
0.098837487 0.034484282 0.33400002 4279254301
0.099922322 0.034484282 0.33400002 4279319578
0.10100716 0.034484282 0.33400002 4279319064
0.10209199 0.034484282 0.33400002 4279581982
0.10317682 0.034484282 0.33400002 4279713057
0.10426166 0.034484282 0.33400002 4279384092
0.10534649 0.034484282 0.33400002 4279778080
0.10643132 0.034484282 0.33400002 4280172325
0.10751615 0.034484282 0.33400002 4282143294
0.06211042 0.036953922 0.347 4285169261
0.063237473 0.036953922 0.347 4284446049
0.064179048 0.036847427 0.34600002 4281490747
0.065302856 0.036847427 0.34600002 4280966456
0.066426665 0.036847427 0.34600002 4280900409
0.067355245 0.036740933 0.34500003 4280966202
0.068475805 0.036740933 0.34500003 4280703030
0.069394633 0.036634434 0.34400001 4280966202
0.070511945 0.036634434 0.34400001 4280769336
0.071421035 0.036527943 0.34300002 4280571957
0.072535105 0.036527943 0.34300002 4280374832
0.073434442 0.036421444 0.34200001 4280244016
0.074545257 0.036421444 0.34200001 4280046637
0.075656079 0.036421444 0.34200001 4280046637
0.076766886 0.036421444 0.34200001 4279849258
0.077877708 0.036421444 0.34200001 4279915051
0.078988522 0.036421444 0.34200001 4280046635
0.080099337 0.036421444 0.34200001 4279915563
0.081210159 0.036421444 0.34200001 4279652902
0.082320973 0.036421444 0.34200001 4279652902
0.083431788 0.036421444 0.34200001 4279323937
0.084295407 0.036314949 0.34100002 4279126558
0.085402973 0.036314949 0.34100002 4278929179
0.086510539 0.036314949 0.34100002 4279060765
0.087361164 0.036208451 0.34 4278797593
0.088465489 0.036208451 0.34 4278731800
0.089306369 0.03610196 0.33900002 4278929179
0.09014076 0.035995465 0.33800003 4279126299
0.091238588 0.035995465 0.33800003 4278994713
0.092063211 0.035888966 0.33700001 4278797334
0.092881359 0.035782471 0.33600003 4278731287
0.09397269 0.035782471 0.33600003 4278797082
0.095064022 0.035782471 0.33600003 4278796570
0.096155353 0.035782471 0.33600003 4278862363
0.096957251 0.035675976 0.33500001 4278795800
0.098045327 0.035675976 0.33500001 4278927384
0.09913341 0.035675976 0.33500001 4278992664
0.099922322 0.035569482 0.33400002 4278795285
0.10100716 0.035569482 0.33400002 4278992664
0.10209199 0.035569482 0.33400002 4278663701
0.10317682 0.035569482 0.33400002 4279123482
0.10426166 0.035569482 0.33400002 4278860310
0.10534649 0.035569482 0.33400002 4279187992
0.10643132 0.035569482 0.33400002 4279582236
0.10751615 0.035569482 0.33400002 4279713055
0.10860099 0.035569482 0.33400002 4279843871
0.11118568 0.035356492 0.33200002 4280038940
0.11226402 0.035356492 0.33200002 4281156905
0.11334236 0.035356492 0.33200002 4281222698
0.1144207 0.035356492 0.33200002 4283064650
0.11549903 0.035356492 0.33200002 4285432431
0.11657737 0.035356492 0.33200002 4285432431
0.06211042 0.038081359 0.347 4285235052
0.063237473 0.038081359 0.347 4285169259
0.06436453 0.038081359 0.347 4282934345
0.065302856 0.037971616 0.34600002 4281489720
0.066426665 0.037971616 0.34600002 4281032249
0.067550473 0.037971616 0.34600002 4280966969
0.068475805 0.037861872 0.34500003 4280769336
0.069596365 0.037861872 0.34500003 4280637750
0.070511945 0.037752125 0.34400001 4280571957
0.071421035 0.037642382 0.34300002 4280440371
0.072535105 0.037642382 0.34300002 4280440625
0.073649161 0.037642382 0.34300002 4280440625
0.074545257 0.037532635 0.34200001 4280374832
0.075656079 0.037532635 0.34200001 4280177453
0.076766886 0.037532635 0.34200001 4280638004
0.077877708 0.037532635 0.34200001 4279980074
0.078988522 0.037532635 0.34200001 4280045867
0.080099337 0.037532635 0.34200001 4280111660
0.081210159 0.037532635 0.34200001 4279256351
0.082320973 0.037532635 0.34200001 4279190558
0.083431788 0.037532635 0.34200001 4279980074
0.084542602 0.037532635 0.34200001 4280046637
0.085653417 0.037532635 0.34200001 4279783977
0.086510539 0.037422892 0.34100002 4279849768
0.087618113 0.037422892 0.34100002 4279980840
0.088465489 0.037313148 0.34 4279652389
0.089306369 0.037203405 0.33900002 4279718182
0.090407446 0.037203405 0.33900002 4278797080
0.091238588 0.037093662 0.33800003 4278994459
0.092063211 0.036983915 0.33700001 4278928666
0.093157791 0.036983915 0.33700001 4278994459
0.09425237 0.036983915 0.33700001 4278994461
0.095064022 0.036874171 0.33600003 4279191840
0.096155353 0.036874171 0.33600003 4279257119
0.097246684 0.036874171 0.33600003 4279257119
0.098338 0.036874171 0.33600003 4279059740
0.09913341 0.036764424 0.33500001 4278928156
0.10022149 0.036764424 0.33500001 4278664984
0.10130957 0.036764424 0.33500001 4278927384
0.10209199 0.036654681 0.33400002 4278993177
0.10317682 0.036654681 0.33400002 4278862361
0.10426166 0.036654681 0.33400002 4278993177
0.10534649 0.036654681 0.33400002 4278729492
0.10643132 0.036654681 0.33400002 4278926101
0.10751615 0.036654681 0.33400002 4278926103
0.10860099 0.036654681 0.33400002 4279188762
0.10968582 0.036654681 0.33400002 4279385371
0.110439 0.036544934 0.333 4279450650
0.11152058 0.036544934 0.333 4279582236
0.11260217 0.036544934 0.333 4279648027
0.11368375 0.036544934 0.333 4279713820
0.1144207 0.036435191 0.33200002 4279647516
0.11584692 0.036544934 0.333 4279515930
0.11692851 0.036544934 0.333 4279909405
0.1180101 0.036544934 0.333 4280038422
0.11909167 0.036544934 0.333 4280959011
0.12017325 0.036544934 0.333 4281880115
0.065491594 0.039208796 0.347 4283921242
0.066426665 0.039095804 0.34600002 4281424186
0.067550473 0.039095804 0.34600002 4281294651
0.068475805 0.038982812 0.34500003 4280835383
0.069596365 0.038982812 0.34500003 4280638004
0.070511945 0.038869817 0.34400001 4280572211
0.071629256 0.038869817 0.34400001 4280505905
0.072535105 0.038756825 0.34300002 4280636721
0.073649161 0.038756825 0.34300002 4280571698
0.074763231 0.038756825 0.34300002 4280374319
0.075877294 0.038756825 0.34300002 4280176940
0.076991357 0.038756825 0.34300002 4280176940
0.07810542 0.038756825 0.34300002 4279979561
0.07921949 0.038756825 0.34300002 4280111145
0.080333553 0.038756825 0.34300002 4279782180
0.081447616 0.038756825 0.34300002 4278924566
0.082561679 0.038756825 0.34300002 4279778850
0.083675742 0.038756825 0.34300002 4280306991
0.084542602 0.03864383 0.34200001 4280241709
0.085653417 0.03864383 0.34200001 4280440112
0.086764239 0.03864383 0.34200001 4280242731
0.087618113 0.038530838 0.34100002 4279979559
0.088465489 0.038417842 0.34 4280111145
0.089569807 0.038417842 0.34 4280111656
0.090407446 0.03830485 0.33900002 4280440621
0.091238588 0.038191859 0.33800003 4280046633
0.092336401 0.038191859 0.33800003 4279849254
0.093157791 0.038078863 0.33700001 4279783463
0.09425237 0.038078863 0.33700001 4279980842
0.09534695 0.038078863 0.33700001 4279520291
0.096441522 0.038078863 0.33700001 4279322912
0.097536102 0.038078863 0.33700001 4279915049
0.098338 0.037965868 0.33600003 4278994461
0.099429332 0.037965868 0.33600003 4278797595
0.10052066 0.037965868 0.33600003 4278797595
0.10130957 0.037852872 0.33500001 4279258146
0.10239765 0.037852872 0.33500001 4278929181
0.10348573 0.037852872 0.33500001 4278994461
0.10457382 0.037852872 0.33500001 4278731289
0.10566189 0.037852872 0.33500001 4278862361
0.10674997 0.037852872 0.33500001 4279059740
0.10783806 0.037852872 0.33500001 4278993177
0.10892613 0.037852872 0.33500001 4279124250
0.10968582 0.03773988 0.33400002 4278926101
0.11077066 0.03773988 0.33400002 4278991894
0.11185548 0.03773988 0.33400002 4279058457
0.11260217 0.037626885 0.333 4278861078
0.11368375 0.037626885 0.333 4279189273
0.11476534 0.037626885 0.333 4279123480
0.11584692 0.037626885 0.333 4279189273
0.11692851 0.037626885 0.333 4279320859
0.1180101 0.037626885 0.333 4279516439
0.11944931 0.03773988 0.33400002 4279581973
0.12053414 0.03773988 0.33400002 4279909914
0.12161898 0.03773988 0.33400002 4279778328
0.12307119 0.037852872 0.33500001 4280040219
0.12415926 0.037852872 0.33500001 4280236571
0.066618644 0.040336236 0.347 4285302128
0.067550473 0.040219992 0.34600002 4283592537
0.068674281 0.040219992 0.34600002 4282015042
0.069596365 0.040103752 0.34500003 4281292600
0.070511945 0.039987508 0.34400001 4280833587
0.071629256 0.039987508 0.34400001 4280899380
0.072535105 0.039871268 0.34300002 4280702001
0.073649161 0.039871268 0.34300002 4280570928
0.074763231 0.039871268 0.34300002 4280045354
0.075877294 0.039871268 0.34300002 4279979561
0.076991357 0.039871268 0.34300002 4279913768
0.078333132 0.039987508 0.34400001 4280111145
0.079450443 0.039987508 0.34400001 4279782182
0.080567755 0.039987508 0.34400001 4279581984
0.081685066 0.039987508 0.34400001 4279317275
0.082561679 0.039871268 0.34300002 4280700211
0.083675742 0.039871268 0.34300002 4280372784
0.084789813 0.039871268 0.34300002 4279845670
0.085903868 0.039871268 0.34300002 4279052820
0.086764239 0.03975502 0.34200001 4279249687
0.087875053 0.03975502 0.34200001 4279118615
0.088725686 0.03963878 0.34100002 4278789650
0.089569807 0.039522536 0.34 4279512857
0.090674132 0.039522536 0.34 4279645211
0.091508523 0.039406296 0.33900002 4279976740
0.092609584 0.039406296 0.33900002 4280964403
0.093434229 0.039290052 0.33800003 4280241450
0.094532058 0.039290052 0.33800003 4280241961
0.095629878 0.039290052 0.33800003 4280373547
0.096727706 0.039290052 0.33800003 4280176938
0.097825535 0.039290052 0.33800003 4280045865
0.098923348 0.039290052 0.33800003 4280177451
0.099725246 0.039173808 0.33700001 4280177451
0.10081983 0.039173808 0.33700001 4280045865
0.10191441 0.039173808 0.33700001 4279454498
0.10270333 0.039057568 0.33600003 4279059740
0.10379466 0.039057568 0.33600003 4279257121
0.10488598 0.039057568 0.33600003 4278796570
0.1059773 0.039057568 0.33600003 4279322914
0.10706864 0.039057568 0.33600003 4279059742
0.10815997 0.039057568 0.33600003 4279454498
0.10925129 0.039057568 0.33600003 4279125533
0.11001422 0.038941324 0.33500001 4279387937
0.1111023 0.038941324 0.33500001 4279848486
0.11219037 0.038941324 0.33500001 4278993175
0.11294031 0.03882508 0.33400002 4279124761
0.11402515 0.03882508 0.33400002 4279190554
0.11510998 0.03882508 0.33400002 4279190554
0.11619481 0.03882508 0.33400002 4278992664
0.11727965 0.03882508 0.33400002 4278861078
0.11836448 0.03882508 0.33400002 4279123732
0.11944931 0.03882508 0.33400002 4279123732
0.12053414 0.03882508 0.33400002 4279189271
0.1219831 0.038941324 0.33500001 4279057172
0.12343857 0.039057568 0.33600003 4279122199
0.12490051 0.039173808 0.33700001 4279582236
0.12636897 0.039290052 0.33800003 4279647516
0.12784392 0.039406296 0.33900002 4279713309
0.12932535 0.039522536 0.34 4280238370
0.13081329 0.03963878 0.34100002 4280303393
0.13192086 0.03963878 0.34100002 4280302625
0.13341853 0.03975502 0.34200001 4280104994
0.13452935 0.03975502 0.34200001 4281024554
0.074763231 0.040985707 0.34300002 4279581730
0.075877294 0.040985707 0.34300002 4279516451
0.077215821 0.0411052 0.34400001 4279715367
0.078333132 0.0411052 0.34400001 4279715367
0.079450443 0.0411052 0.34400001 4279779623
0.080567755 0.0411052 0.34400001 4279777313
0.081685066 0.0411052 0.34400001 4280304424
0.082802385 0.0411052 0.34400001 4280043049
0.083919697 0.0411052 0.34400001 4279516451
0.084789813 0.040985707 0.34300002 4279053592
0.085903868 0.040985707 0.34300002 4279313684
0.087017938 0.040985707 0.34300002 4280497958
0.087875053 0.040866215 0.34200001 4280630057
0.088985875 0.040866215 0.34200001 4279972127
0.089833252 0.040746726 0.34100002 4280893227
0.090940826 0.040746726 0.34100002 4279840539
0.09177845 0.04062723 0.34 4279774235
0.092882767 0.04062723 0.34 4279248404
0.093987085 0.04062723 0.34 4279445781
0.09481173 0.040507741 0.33900002 4279116816
0.095912807 0.040507741 0.33900002 4278855181
0.097013876 0.040507741 0.33900002 4279382809
0.098114952 0.040507741 0.33900002 4279976229
0.099216014 0.040507741 0.33900002 4280963637
0.10031709 0.040507741 0.33900002 4280373034
0.10141817 0.040507741 0.33900002 4280570413
0.10221682 0.040388249 0.33800003 4280307754
0.10331465 0.040388249 0.33800003 4280241961
0.10441248 0.040388249 0.33800003 4280045352
0.10551031 0.040388249 0.33800003 4280176938
0.10660812 0.040388249 0.33800003 4280110375
0.10738729 0.040268756 0.33700001 4279912996
0.10848186 0.040268756 0.33700001 4280045865
0.10957644 0.040268756 0.33700001 4280045865
0.11067102 0.040268756 0.33700001 4279387935
0.11143395 0.040149264 0.33600003 4279256349
0.11252528 0.040149264 0.33600003 4279453728
0.11327846 0.040029772 0.33500001 4279256349
0.11436654 0.040029772 0.33500001 4279980070
0.11545462 0.040029772 0.33500001 4279387933
0.1165427 0.040029772 0.33500001 4279651105
0.11763078 0.040029772 0.33500001 4279190554
0.11871886 0.040029772 0.33500001 4279058968
0.11980694 0.040029772 0.33500001 4278927636
0.12089502 0.040029772 0.33500001 4278861076
0.12234724 0.040149264 0.33600003 4278861076
0.12380594 0.040268756 0.33700001 4279058455
0.12527114 0.040388249 0.33800003 4278991892
0.12674284 0.040507741 0.33900002 4279123480
0.12822104 0.04062723 0.34 4278991894
0.12970571 0.040746726 0.34100002 4279188760
0.1311969 0.040866215 0.34200001 4279319064
0.13230772 0.040866215 0.34200001 4279648029
0.13341853 0.040866215 0.34200001 4279713822
0.13452935 0.040866215 0.34200001 4279779615
0.13564017 0.040866215 0.34200001 4279713309
0.13675098 0.040866215 0.34200001 4280172323
0.1378618 0.040866215 0.34200001 4280172323
0.13897261 0.040866215 0.34200001 4280105246
0.077215821 0.042222891 0.34400001 4285039983
0.078333132 0.042222891 0.34400001 4284513639
0.079450443 0.042222891 0.34400001 4283263574
0.080567755 0.042222891 0.34400001 4281552958
0.081685066 0.042222891 0.34400001 4280631852
0.082802385 0.042222891 0.34400001 4279843873
0.083919697 0.042222891 0.34400001 4280107815
0.085037008 0.042222891 0.34400001 4280699952
0.086154319 0.042222891 0.34400001 4280763440
0.087017938 0.04210015 0.34300002 4279710752
0.088132001 0.04210015 0.34300002 4278986002
0.089246072 0.04210015 0.34300002 4279380760
0.09009669 0.041977406 0.34200001 4279051025
0.091207512 0.041977406 0.34200001 4279511063
0.092048392 0.041854668 0.34100002 4279905821
0.09315595 0.041854668 0.34100002 4279642651
0.094263524 0.041854668 0.34100002 4279116305
0.095371097 0.041854668 0.34100002 4279972127
0.096478663 0.041854668 0.34100002 4279907104
0.097586237 0.041854668 0.34100002 4280762413
0.098693803 0.041854668 0.34100002 4279775520
0.099801362 0.041854668 0.34100002 4279380508
0.10090894 0.041854668 0.34100002 4281225272
0.10171733 0.041731924 0.34 4280634670
0.10282166 0.041731924 0.34 4280240166
0.10392597 0.041731924 0.34 4279055892
0.1050303 0.041731924 0.34 4280108326
0.10582246 0.041609187 0.33900002 4280371752
0.10692353 0.041609187 0.33900002 4281095473
0.1080246 0.041609187 0.33900002 4280898094
0.10912567 0.041609187 0.33900002 4280701227
0.1099016 0.041486446 0.33800003 4280832813
0.11099943 0.041486446 0.33800003 4280767790
0.11209726 0.041486446 0.33800003 4280241959
0.11286017 0.041363701 0.33700001 4280176166
0.11395475 0.041363701 0.33700001 4280307752
0.11470793 0.041240964 0.33600003 4279716900
0.11579926 0.041240964 0.33600003 4279651107
0.11689059 0.041240964 0.33600003 4279519521
0.11763078 0.041118219 0.33500001 4279387937
0.11871886 0.041118219 0.33500001 4279453728
0.12016457 0.041240964 0.33600003 4279519519
0.1212559 0.041240964 0.33600003 4279782178
0.12271136 0.041363701 0.33700001 4279650592
0.12417332 0.041486446 0.33800003 4279124763
0.12564176 0.041609187 0.33900002 4279058970
0.12711671 0.041731924 0.34 4278993177
0.12859815 0.041854668 0.34100002 4278993177
0.13008608 0.041977406 0.34200001 4279255066
0.13158052 0.04210015 0.34300002 4279254553
0.13269459 0.04210015 0.34300002 4279057174
0.13380866 0.04210015 0.34300002 4279451932
0.13492273 0.04210015 0.34300002 4278991381
0.13603678 0.04210015 0.34300002 4279057174
0.13675098 0.041977406 0.34200001 4279123480
0.1378618 0.041977406 0.34200001 4279255066
0.13897261 0.041977406 0.34200001 4279516957
0.14008343 0.041977406 0.34200001 4279582236
0.14119425 0.041977406 0.34200001 4279778848
0.14230508 0.041977406 0.34200001 4279909664
0.082802385 0.043340582 0.34400001 4284840809
0.083919697 0.043340582 0.34400001 4284315487
0.085037008 0.043340582 0.34400001 4284776551
0.086154319 0.043340582 0.34400001 4282869588
0.087271631 0.043340582 0.34400001 4281158966
0.088132001 0.043214593 0.34300002 4279908129
0.089246072 0.043214593 0.34300002 4279908899
0.090360135 0.043214593 0.34300002 4280434727
0.091207512 0.043088604 0.34200001 4280105762
0.092318326 0.043088604 0.34200001 4280566313
0.093429133 0.043088604 0.34200001 4279381785
0.094539955 0.043088604 0.34200001 4279512857
0.09565077 0.043088604 0.34200001 4279380760
0.096761592 0.043088604 0.34200001 4278722832
0.097872406 0.043088604 0.34200001 4279380762
0.098983228 0.043088604 0.34200001 4279249176
0.10009404 0.043088604 0.34200001 4280566061
0.10120485 0.043088604 0.34200001 4280568879
0.10231567 0.043088604 0.34200001 4280568879
0.10312407 0.042962614 0.34100002 4279514906
0.10423165 0.042962614 0.34100002 4279711774
0.10533921 0.042962614 0.34100002 4279908899
0.10644679 0.042962614 0.34100002 4280303657
0.10755435 0.042962614 0.34100002 4280963122
0.10866191 0.042962614 0.34100002 4281357880
0.10944758 0.042836621 0.34 4280567594
0.11055189 0.042836621 0.34 4280107043
0.11165622 0.042836621 0.34 4279713309
0.1124289 0.042710632 0.33900002 4279648289
0.11319507 0.042584646 0.33800003 4280832817
0.1142929 0.042584646 0.33800003 4280832813
0.11504932 0.042458653 0.33700001 4280438825
0.1161439 0.042458653 0.33700001 4280570411
0.11689059 0.042332664 0.33600003 4280701997
0.11798193 0.042332664 0.33600003 4280505131
0.11907326 0.042332664 0.33600003 4280110627
0.12016457 0.042332664 0.33600003 4280505385
0.12161678 0.042458653 0.33700001 4279912994
0.12271136 0.042458653 0.33700001 4279716385
0.12454069 0.042710632 0.33900002 4279585312
0.12638302 0.042962614 0.34100002 4279585312
0.12786445 0.043088604 0.34200001 4279585312
0.12897527 0.043088604 0.34200001 4279453726
0.13046646 0.043214593 0.34300002 4279585312
0.13196413 0.043340582 0.34400001 4279453215
0.13308145 0.043340582 0.34400001 4279519521
0.13419876 0.043340582 0.34400001 4279190556
0.13531607 0.043340582 0.34400001 4279058970
0.13603678 0.043214593 0.34300002 4279058459
0.13715084 0.043214593 0.34300002 4278992664
0.13826491 0.043214593 0.34300002 4278861078
0.13897261 0.043088604 0.34200001 4278992664
0.14008343 0.043088604 0.34200001 4278926099
0.14119425 0.043088604 0.34200001 4278860308
0.14230508 0.043088604 0.34200001 4279188760
0.086154319 0.04445827 0.34400001 4284642917
0.087271631 0.04445827 0.34400001 4284313952
0.088388942 0.04445827 0.34400001 4284116573
0.089246072 0.044329032 0.34300002 4283853401
0.090360135 0.044329032 0.34300002 4284117084
0.091474198 0.044329032 0.34300002 4280828204
0.092588268 0.044329032 0.34300002 4279909414
0.093429133 0.044199791 0.34200001 4279778598
0.094539955 0.044199791 0.34200001 4279647010
0.095930457 0.044329032 0.34300002 4280107563
0.09704452 0.044329032 0.34300002 4279975977
0.09815859 0.044329032 0.34300002 4279712805
0.099272653 0.044329032 0.34300002 4280107561
0.10038671 0.044329032 0.34300002 4279581730
0.10150078 0.044329032 0.34300002 4278595349
0.10261484 0.044329032 0.34300002 4279319072
0.10342649 0.044199791 0.34200001 4279644959
0.10453731 0.044199791 0.34200001 4280170789
0.10595704 0.044329032 0.34300002 4280367653
0.10675894 0.044199791 0.34200001 4281486388
0.10786975 0.044199791 0.34200001 4280172325
0.10898057 0.044199791 0.34200001 4280830255
0.11009139 0.044199791 0.34200001 4281751355
0.11087705 0.044070557 0.34100002 4279777565
0.11198463 0.044070557 0.34100002 4280764460
0.11276054 0.043941315 0.34 4280830766
0.11352996 0.043812077 0.33900002 4281159731
0.11463103 0.043812077 0.33900002 4281554489
0.11539072 0.04368284 0.33800003 4281028397
0.1161439 0.043553598 0.33700001 4280765995
0.11723848 0.043553598 0.33700001 4279779100
0.11798193 0.04342436 0.33600003 4280569129
0.11907326 0.04342436 0.33600003 4280832301
0.12016457 0.04342436 0.33600003 4280569131
0.12161678 0.043553598 0.33700001 4280898096
0.12307549 0.04368284 0.33800003 4280701229
0.12454069 0.043812077 0.33900002 4280241959
0.12675364 0.044199791 0.34200001 4280307752
0.12823834 0.044329032 0.34300002 4280701997
0.12972951 0.04445827 0.34400001 4279978274
0.13084681 0.04445827 0.34400001 4279847201
0.13196413 0.04445827 0.34400001 4279781410
0.13308145 0.04445827 0.34400001 4279190043
0.13419876 0.04445827 0.34400001 4279256349
0.13531607 0.04445827 0.34400001 4279716900
0.13643339 0.04445827 0.34400001 4279716387
0.1375507 0.04445827 0.34400001 4280045352
0.13826491 0.044329032 0.34300002 4279256349
0.13937898 0.044329032 0.34300002 4279190556
0.14049304 0.044329032 0.34300002 4279255836
0.14160711 0.044329032 0.34300002 4279320859
0.14272118 0.044329032 0.34300002 4279189271
0.14383525 0.044329032 0.34300002 4279057172
0.095930457 0.045443479 0.34300002 4279709475
0.097327448 0.045575965 0.34400001 4279513640
0.09844476 0.045575965 0.34400001 4279513640
0.099562079 0.045575965 0.34400001 4279777065
0.10067938 0.045575965 0.34400001 4279843369
0.10179669 0.045575965 0.34400001 4279910699
0.10291401 0.045575965 0.34400001 4280042285
0.10403132 0.045575965 0.34400001 4280106793
0.10514864 0.045575965 0.34400001 4279975205
0.10595704 0.045443479 0.34300002 4280107043
0.10707111 0.045443479 0.34300002 4280172836
0.10818516 0.045443479 0.34300002 4280172323
0.10929923 0.045443479 0.34300002 4280303909
0.11009139 0.045310989 0.34200001 4280895276
0.1112022 0.045310989 0.34200001 4281487413
0.11198463 0.045178503 0.34100002 4281422390
0.1130922 0.045178503 0.34100002 4279909151
0.11386485 0.045046009 0.34 4280830768
0.11463103 0.044913523 0.33900002 4279909666
0.11539072 0.044781037 0.33800003 4281225011
0.11648855 0.044781037 0.33800003 4280303909
0.11723848 0.044648547 0.33700001 4280764973
0.11798193 0.044516061 0.33600003 4281159985
0.11907326 0.044516061 0.33600003 4281094962
0.12016457 0.044516061 0.33600003 4281029169
0.12161678 0.044648547 0.33700001 4281358134
0.12271136 0.044648547 0.33700001 4281160755
0.12454069 0.044913523 0.33900002 4279581723
0.12712426 0.045443479 0.34300002 4280436262
0.12861221 0.045575965 0.34400001 4280896298
0.12972951 0.045575965 0.34400001 4280830505
0.1312272 0.045708455 0.34500003 4281423923
0.13234776 0.045708455 0.34500003 4281358130
0.13346832 0.045708455 0.34500003 4281490483
0.13458888 0.045708455 0.34500003 4281358643
0.13570945 0.045708455 0.34500003 4280701997
0.13643339 0.045575965 0.34400001 4279846688
0.1375507 0.045575965 0.34400001 4279847203
0.13866802 0.045575965 0.34400001 4279584801
0.13978532 0.045575965 0.34400001 4279453215
0.14090264 0.045575965 0.34400001 4279715617
0.14160711 0.045443479 0.34300002 4279584801
0.14272118 0.045443479 0.34300002 4279190043
0.14383525 0.045443479 0.34300002 4279189273
0.11723848 0.045743492 0.33700001 4281355827
0.11763078 0.045472018 0.33500001 4281224241
0.11871886 0.045472018 0.33500001 4281093425
0.11980694 0.045472018 0.33500001 4280764460
0.1212559 0.045607757 0.33600003 4281093938
0.12271136 0.045743492 0.33700001 4280172836
0.12454069 0.046014968 0.33900002 4281355827
0.12749489 0.046693653 0.34400001 4280895530
0.12898608 0.046829391 0.34500003 4281224495
0.13010664 0.046829391 0.34500003 4281356851
0.1312272 0.046829391 0.34500003 4281488950
0.13234776 0.046829391 0.34500003 4281159985
0.13346832 0.046829391 0.34500003 4281421872
0.13458888 0.046829391 0.34500003 4280040221
0.13570945 0.046829391 0.34500003 4281357360
0.13683 0.046829391 0.34500003 4281357360
0.13795055 0.046829391 0.34500003 4281029680
0.13866802 0.046693653 0.34400001 4280898608
0.13978532 0.046693653 0.34400001 4280898608
0.14090264 0.046693653 0.34400001 4280569643
0.14201996 0.046693653 0.34400001 4280438057
0.14313726 0.046693653 0.34400001 4280306471
0.14383525 0.046557918 0.34300002 4280240678
0.11763078 0.046560466 0.33500001 4282144316
0.11836448 0.046421483 0.33400002 4281552179
0.11944931 0.046421483 0.33400002 4281749558
0.1212559 0.046699457 0.33600003 4280828456
0.12271136 0.04683844 0.33700001 4281355313
0.12454069 0.047116414 0.33900002 4281552692
0.12786552 0.047950335 0.34500003 4281355567
0.12898608 0.047950335 0.34500003 4281618739
0.13010664 0.047950335 0.34500003 4281487667
0.1312272 0.047950335 0.34500003 4281160755
0.13234776 0.047950335 0.34500003 4280896559
0.13346832 0.047950335 0.34500003 4280302625
0.13458888 0.047950335 0.34500003 4281947964
0.13570945 0.047950335 0.34500003 4281226546
0.13683 0.047950335 0.34500003 4281358130
0.13795055 0.047950335 0.34500003 4281226544
0.13907112 0.047950335 0.34500003 4281423925
0.14019169 0.047950335 0.34500003 4281489718
0.14090264 0.047811348 0.34400001 4281621304
0.14201996 0.047811348 0.34400001 4281884478
0.14313726 0.047811348 0.34400001 4281950271
0.1180101 0.047364447 0.333 4285629294
0.11909167 0.047364447 0.333 4285629294
0.1212559 0.047791157 0.33600003 4285037155
0.12271136 0.047933392 0.33700001 4284445272
0.12454069 0.048217863 0.33900002 4283130182
0.12786552 0.049071278 0.34500003 4282867010
0.12898608 0.049071278 0.34500003 4282274873
0.13010664 0.049071278 0.34500003 4281353771
0.1312272 0.049071278 0.34500003 4281617972
0.13234776 0.049071278 0.34500003 4282210109
0.13346832 0.049071278 0.34500003 4281815864
0.13458888 0.049071278 0.34500003 4281948218
0.13570945 0.049071278 0.34500003 4281488948
0.13683 0.049071278 0.34500003 4281488948
0.13795055 0.049071278 0.34500003 4281554743
0.13907112 0.049071278 0.34500003 4281554743
0.14019169 0.049071278 0.34500003 4281883195
0.14131224 0.049071278 0.34500003 4282408769
0.14243281 0.049071278 0.34500003 4282670914
0.13346832 0.050192215 0.34500003 4285498478
0.13419876 0.050046727 0.34400001 4284116823
0.13531607 0.050046727 0.34400001 4283657555
0.13643339 0.050046727 0.34400001 4282802759
0.13795055 0.050192215 0.34500003 4283196236
0.13907112 0.050192215 0.34500003 4283590992
0.13419876 0.051164422 0.34400001 4285694319
0.13531607 0.051164422 0.34400001 4285825905
0.13643339 0.051164422 0.34400001 4285694319
0.1375507 0.051164422 0.34400001 4285891698
0.098725557 0.038825199 0.34074625 4294967295
0.098725557 0.038825199 0.34074625 4294901760
0.098791443 0.038395647 0.34049898 4294901760
0.098857321 0.037966091 0.34025171 4294901760
0.098923206 0.037536539 0.34000444 4294901760
0.098989084 0.037106987 0.33975717 4294901760
0.09905497 0.036677431 0.3395099 4294901760
0.099120848 0.036247879 0.33926263 4294901760
0.099186733 0.035818327 0.33901533 4294901760
0.099252619 0.035388775 0.33876806 4294901760
0.099318497 0.034959219 0.3385208 4294901760
0.099384382 0.034529667 0.33827353 4294901760
0.09945026 0.034100115 0.33802626 4294901760
0.099516146 0.03367056 0.33777899 4294901760
0.099582024 0.033241007 0.33753172 4294901760
0.099647909 0.032811455 0.33728445 4294901760
0.099713795 0.0323819 0.33703718 4294901760
0.099779673 0.031952348 0.33678991 4294901760
0.099845558 0.031522796 0.33654264 4294901760
0.099911436 0.031093242 0.33629537 4294901760
0.099977322 0.030663688 0.33604807 4294901760
0.1000432 0.030234136 0.3358008 4294901760
0.10010909 0.029804582 0.33555353 4294901760
0.10017497 0.029375028 0.33530626 4294901760
0.10024085 0.028945476 0.33505899 4294901760
0.10030673 0.028515922 0.33481172 4294901760
0.10037261 0.028086368 0.33456445 4294901760
0.1004385 0.027656816 0.33431718 4294901760
0.10050438 0.027227262 0.33406991 4294901760
0.10057026 0.026797708 0.33382264 4294901760
0.10063615 0.026368156 0.33357537 4294901760
0.10070202 0.025938602 0.3333281 4294901760
0.10076791 0.025509048 0.33308083 4294901760
0.10083379 0.025079496 0.33283353 4294901760
0.10089967 0.024649942 0.33258626 4294901760
0.10096555 0.02422039 0.33233899 4294901760
0.10103144 0.023790836 0.33209172 4294901760
0.10109732 0.023361284 0.33184445 4294901760
0.1011632 0.02293173 0.33159718 4294901760
0.10122909 0.022502178 0.33134991 4294901760
0.10129496 0.022072624 0.33110264 4294901760
0.10136085 0.021643071 0.33085537 4294901760
0.10142673 0.021213518 0.3306081 4294901760
0.10149261 0.020783965 0.33036083 4294901760
0.1015585 0.020354411 0.33011356 4294901760
0.10162438 0.019924859 0.32986626 4294901760
0.10169026 0.019495305 0.32961899 4294901760
0.10175614 0.019065751 0.32937172 4294901760
0.10182203 0.018636199 0.32912445 4294901760
0.1018879 0.018206645 0.32887718 4294901760
0.10195379 0.017777091 0.32862991 4294901760
0.10201967 0.017347539 0.32838264 4294901760
0.10208555 0.016917987 0.32813537 4294901760
0.10215144 0.016488433 0.3278881 4294901760
0.10221732 0.016058881 0.32764083 4294901760
0.1022832 0.015629325 0.32739356 4294901760
0.10234908 0.015199773 0.32714629 4294901760
0.10241497 0.014770219 0.32689902 4294901760
0.10248084 0.014340667 0.32665172 4294901760
0.10254673 0.013911113 0.32640445 4294901760
0.10261261 0.013481561 0.32615718 4294901760
0.10267849 0.013052005 0.32590991 4294901760
0.10274438 0.012622453 0.32566264 4294901760
0.10281026 0.012192899 0.32541537 4294901760
0.10287614 0.011763347 0.3251681 4294901760
0.10294202 0.011333795 0.32492083 4294901760
0.10300791 0.010904241 0.32467356 4294901760
0.10307379 0.010474686 0.32442629 4294901760
0.10313967 0.010045134 0.32417902 4294901760
0.10320555 0.0096155815 0.32393175 4294901760
0.10327143 0.0091860276 0.32368445 4294901760
0.10333732 0.0087564755 0.32343718 4294901760
0.1034032 0.0083269216 0.32318991 4294901760
0.10346908 0.0078973677 0.32294264 4294901760
0.10353497 0.0074678138 0.32269537 4294901760
0.10360084 0.0070382617 0.3224481 4294901760
0.10366673 0.0066087097 0.32220083 4294901760
0.10373261 0.0061791576 0.32195356 4294901760
0.10379849 0.0057496019 0.3217063 4294901760
0.10386437 0.0053200498 0.32145903 4294901760
0.10393026 0.004890494 0.32121176 4294901760
0.10399614 0.004460942 0.32096449 4294901760
0.10406202 0.00403139 0.32071722 4294901760
0.10412791 0.0036018379 0.32046992 4294901760
0.10419378 0.0031722821 0.32022265 4294901760
0.10425967 0.0027427301 0.31997538 4294901760
0.10432555 0.0023131743 0.31972811 4294901760
0.10439143 0.0018836223 0.31948084 4294901760
0.10445732 0.0014540702 0.31923357 4294901760
0.1045232 0.0010245182 0.3189863 4294901760
0.10458908 0.00059496611 0.31873903 4294901760
0.10465496 0.00016541034 0.31849176 4294901760
0.10472085 -0.00026414543 0.31824449 4294901760
0.10478672 -0.00069369748 0.31799722 4294901760
0.10485261 -0.0011232495 0.31774995 4294901760
0.10491849 -0.0015528016 0.31750268 4294901760
0.10498437 -0.0019823536 0.31725538 4294901760
0.10505026 -0.0024119094 0.31700811 4294901760
0.10511614 -0.0028414614 0.31676084 4294901760
0.10518202 -0.0032710172 0.31651357 4294901760
0.1052479 -0.0037005693 0.3162663 4294901760
0.10531379 -0.0041301213 0.31601903 4294901760
0.098725557 0.038825199 0.34074625 4278255360
0.099216938 0.03891445 0.34072214 4278255360
0.099708311 0.0390037 0.340698 4278255360
0.10019969 0.039092951 0.34067389 4278255360
0.10069107 0.039182205 0.34064975 4278255360
0.10118245 0.039271455 0.34062564 4278255360
0.10167383 0.039360706 0.3406015 4278255360
0.1021652 0.039449956 0.34057739 4278255360
0.10265658 0.039539207 0.34055325 4278255360
0.10314796 0.039628457 0.34052914 4278255360
0.10363933 0.039717712 0.34050503 4278255360
0.10413072 0.039806962 0.34048089 4278255360
0.1046221 0.039896213 0.34045678 4278255360
0.10511347 0.039985463 0.34043264 4278255360
0.10560485 0.040074714 0.34040853 4278255360
0.10609623 0.040163964 0.34038439 4278255360
0.1065876 0.040253218 0.34036028 4278255360
0.10707898 0.040342469 0.34033617 4278255360
0.10757037 0.040431719 0.34031203 4278255360
0.10806174 0.04052097 0.34028792 4278255360
0.10855312 0.04061022 0.34026378 4278255360
0.10904449 0.040699471 0.34023967 4278255360
0.10953587 0.040788725 0.34021553 4278255360
0.11002725 0.040877976 0.34019142 4278255360
0.11051863 0.040967226 0.34016728 4278255360
0.11101001 0.041056477 0.34014317 4278255360
0.11150139 0.041145727 0.34011906 4278255360
0.11199276 0.041234978 0.34009492 4278255360
0.11248414 0.041324228 0.34007081 4278255360
0.11297552 0.041413482 0.34004667 4278255360
0.1134669 0.041502733 0.34002256 4278255360
0.11395828 0.041591983 0.33999842 4278255360
0.11444965 0.041681234 0.33997431 4278255360
0.11494103 0.041770484 0.33995017 4278255360
0.11543241 0.041859735 0.33992606 4278255360
0.11592378 0.041948989 0.33990195 4278255360
0.11641517 0.04203824 0.33987781 4278255360
0.11690655 0.04212749 0.3398537 4278255360
0.11739792 0.042216741 0.33982956 4278255360
0.1178893 0.042305991 0.33980545 4278255360
0.11838068 0.042395242 0.33978131 4278255360
0.11887205 0.042484496 0.3397572 4278255360
0.11936343 0.042573746 0.33973309 4278255360
0.11985481 0.042662997 0.33970895 4278255360
0.12034619 0.042752247 0.33968484 4278255360
0.12083757 0.042841498 0.3396607 4278255360
0.12132895 0.042930748 0.33963659 4278255360
0.12182032 0.043020003 0.33961245 4278255360
0.1223117 0.043109253 0.33958834 4278255360
0.12280308 0.043198504 0.3395642 4278255360
0.12329446 0.043287754 0.33954009 4278255360
0.12378584 0.043377005 0.33951598 4278255360
0.12427721 0.043466255 0.33949184 4278255360
0.12476859 0.043555506 0.33946773 4278255360
0.12525997 0.04364476 0.33944359 4278255360
0.12575135 0.04373401 0.33941948 4278255360
0.12624273 0.043823261 0.33939534 4278255360
0.12673411 0.043912511 0.33937123 4278255360
0.12722549 0.044001762 0.33934709 4278255360
0.12771685 0.044091012 0.33932298 4278255360
0.12820823 0.044180267 0.33929887 4278255360
0.12869962 0.044269517 0.33927473 4278255360
0.129191 0.044358768 0.33925062 4278255360
0.12968238 0.044448018 0.33922648 4278255360
0.13017374 0.044537269 0.33920237 4278255360
0.13066512 0.044626519 0.33917823 4278255360
0.1311565 0.044715773 0.33915412 4278255360
0.13164788 0.044805024 0.33913001 4278255360
0.13213927 0.044894274 0.33910587 4278255360
0.13263065 0.044983525 0.33908176 4278255360
0.13312201 0.045072775 0.33905762 4278255360
0.13361339 0.045162026 0.33903351 4278255360
0.13410477 0.04525128 0.33900937 4278255360
0.13459615 0.045340531 0.33898526 4278255360
0.13508753 0.045429781 0.33896112 4278255360
0.1355789 0.045519032 0.33893701 4278255360
0.13607028 0.045608282 0.3389129 4278255360
0.13656166 0.045697533 0.33888876 4278255360
0.13705304 0.045786783 0.33886465 4278255360
0.13754442 0.045876037 0.33884051 4278255360
0.1380358 0.045965288 0.3388164 4278255360
0.13852718 0.046054538 0.33879226 4278255360
0.13901855 0.046143789 0.33876815 4278255360
0.13950993 0.046233039 0.33874401 4278255360
0.14000131 0.04632229 0.3387199 4278255360
0.14049269 0.046411544 0.33869579 4278255360
0.14098406 0.046500795 0.33867165 4278255360
0.14147544 0.046590045 0.33864754 4278255360
0.14196682 0.046679296 0.3386234 4278255360
0.1424582 0.046768546 0.33859929 4278255360
0.14294958 0.046857797 0.33857515 4278255360
0.14344096 0.046947047 0.33855104 4278255360
0.14393234 0.047036301 0.33852693 4278255360
0.14442371 0.047125552 0.33850279 4278255360
0.14491509 0.047214802 0.33847868 4278255360
0.14540647 0.047304053 0.33845454 4278255360
0.14589785 0.047393303 0.33843043 4278255360
0.14638923 0.047482558 0.33840629 4278255360
0.1468806 0.047571808 0.33838218 4278255360
0.14737198 0.047661059 0.33835804 4278255360
0.14786336 0.047750309 0.33833393 4278255360
0.098725557 0.038825199 0.34074625 4278190335
0.098840125 0.038595706 0.34117544 4278190335
0.098954685 0.03836621 0.34160465 4278190335
0.099069253 0.038136717 0.34203383 4278190335
0.09918382 0.037907224 0.34246302 4278190335
0.09929838 0.037677728 0.34289223 4278190335
0.099412948 0.037448235 0.34332141 4278190335
0.099527515 0.037218738 0.3437506 4278190335
0.099642076 0.036989246 0.34417981 4278190335
0.099756643 0.036759753 0.34460899 4278190335
0.099871211 0.036530256 0.34503818 4278190335
0.099985771 0.036300763 0.34546739 4278190335
0.10010034 0.036071271 0.34589657 4278190335
0.10021491 0.035841774 0.34632578 4278190335
0.10032947 0.035612281 0.34675497 4278190335
0.10044403 0.035382785 0.34718415 4278190335
0.1005586 0.035153292 0.34761336 4278190335
0.10067316 0.034923799 0.34804255 4278190335
0.10078773 0.034694303 0.34847173 4278190335
0.1009023 0.03446481 0.34890094 4278190335
0.10101686 0.034235317 0.34933013 4278190335
0.10113142 0.034005821 0.34975931 4278190335
0.10124599 0.033776328 0.35018852 4278190335
0.10136055 0.033546835 0.35061771 4278190335
0.10147512 0.033317339 0.35104689 4278190335
0.10158968 0.033087846 0.3514761 4278190335
0.10170425 0.032858353 0.35190529 4278190335
0.10181881 0.032628857 0.35233447 4278190335
0.10193338 0.032399364 0.35276368 4278190335
0.10204794 0.032169871 0.35319287 4278190335
0.10216251 0.031940375 0.35362208 4278190335
0.10227707 0.031710882 0.35405126 4278190335
0.10239164 0.031481385 0.35448045 4278190335
0.10250621 0.031251892 0.35490966 4278190335
0.10262077 0.031022398 0.35533884 4278190335
0.10273533 0.030792903 0.35576802 4278190335
0.1028499 0.03056341 0.35619724 4278190335
0.10296446 0.030333916 0.35662642 4278190335
0.10307903 0.030104421 0.3570556 4278190335
0.1031936 0.029874928 0.35748482 4278190335
0.10330816 0.029645432 0.357914 4278190335
0.10342272 0.029415939 0.35834318 4278190335
0.10353729 0.029186446 0.3587724 4278190335
0.10365185 0.02895695 0.35920158 4278190335
0.10376642 0.028727457 0.35963076 4278190335
0.10388099 0.028497964 0.36005998 4278190335
0.10399555 0.028268468 0.36048916 4278190335
0.10411011 0.028038975 0.36091834 4278190335
0.10422468 0.02780948 0.36134756 4278190335
0.10433924 0.027579986 0.36177674 4278190335
0.10445381 0.027350493 0.36220592 4278190335
0.10456838 0.027120998 0.36263514 4278190335
0.10468294 0.026891503 0.36306432 4278190335
0.1047975 0.026662011 0.3634935 4278190335
0.10491207 0.026432514 0.36392272 4278190335
0.10502663 0.026203021 0.3643519 4278190335
0.1051412 0.025973527 0.36478111 4278190335
0.10525577 0.025744032 0.36521029 4278190335
0.10537033 0.025514539 0.36563948 4278190335
0.1054849 0.025285047 0.36606869 4278190335
0.10559946 0.02505555 0.36649787 4278190335
0.10571402 0.024826057 0.36692706 4278190335
0.10582859 0.024596561 0.36735627 4278190335
0.10594316 0.024367068 0.36778545 4278190335
0.10605772 0.024137575 0.36821464 4278190335
0.10617229 0.023908081 0.36864385 4278190335
0.10628685 0.023678586 0.36907303 4278190335
0.10640141 0.023449091 0.36950225 4278190335
0.10651598 0.023219597 0.36993143 4278190335
0.10663055 0.022990104 0.37036061 4278190335
0.10674511 0.022760609 0.37078983 4278190335
0.10685968 0.022531115 0.37121901 4278190335
0.10697424 0.02230162 0.37164819 4278190335
0.1070888 0.022072125 0.37207741 4278190335
0.10720337 0.021842632 0.37250659 4278190335
0.10731794 0.021613138 0.37293577 4278190335
0.1074325 0.021383645 0.37336498 4278190335
0.10754707 0.02115415 0.37379417 4278190335
0.10766163 0.020924656 0.37422335 4278190335
0.10777619 0.020695161 0.37465256 4278190335
0.10789076 0.020465666 0.37508175 4278190335
0.10800533 0.020236174 0.37551093 4278190335
0.10811989 0.020006679 0.37594014 4278190335
0.10823446 0.019777186 0.37636933 4278190335
0.10834902 0.019547692 0.37679851 4278190335
0.10846359 0.019318197 0.37722772 4278190335
0.10857815 0.019088702 0.37765691 4278190335
0.10869271 0.018859208 0.37808609 4278190335
