# .PCD v0.7 - Point Cloud Data file format
VERSION 0.7
FIELDS x y z rgb
SIZE 4 4 4 4
TYPE F F F U
COUNT 1 1 1 1
WIDTH 616
HEIGHT 1
VIEWPOINT 0 0 0 1 0 0 0
POINTS 616
DATA ascii
-0.034285817 0.039828673 0.59000003 4279773985
-0.020942321 0.041887153 0.59200001 4279059740
-0.019019505 0.041887153 0.59200001 4278929181
-0.017096687 0.041887153 0.59200001 4279126560
-0.024662344 0.043588612 0.58900005 4279774750
-0.020836197 0.043588612 0.58900005 4278928154
-0.018890994 0.043514602 0.588 4278797595
-0.016952291 0.043440599 0.58700001 4278863388
-0.014994451 0.043292593 0.58500004 4278666009
-0.0090558939 0.042182527 0.57000005 4278731804
-0.0071792542 0.042034514 0.56800002 4278731804
-0.0053156065 0.041886508 0.56600004 4278929183
-0.0034649502 0.041738499 0.56400001 4278599964
-0.0016330772 0.041738499 0.56400001 4279125795
-0.020730069 0.04527057 0.58600003 4278862363
-0.018794613 0.045193318 0.58500004 4279060769
-0.016865652 0.045116063 0.58400005 4278666011
-0.014891924 0.044884302 0.58100003 4278731804
-0.012937685 0.04465254 0.57800001 4278731802
-0.010945526 0.044189021 0.57200003 4278731802
-0.0090400064 0.04395726 0.56900001 4278797597
-0.0071666148 0.043802753 0.56700003 4278468119
-0.0053062146 0.043648243 0.565 4278662679
-0.0034649502 0.043570992 0.56400001 4279190304
-0.0016301817 0.043493737 0.56300002 4278862623
0.00019773837 0.043339234 0.56100005 4278862877
0.0020198673 0.043339234 0.56100005 4278731291
0.0038419964 0.043339234 0.56100005 4278797084
-0.032150045 0.047174543 0.58600003 4280167973
-0.020659318 0.04701354 0.58400005 4278862877
-0.018730355 0.046933033 0.583 4278929183
-0.016779013 0.046772029 0.58100003 4278731804
-0.014840662 0.046611026 0.57900006 4278797597
-0.012892918 0.046369519 0.57600003 4278797595
-0.010926391 0.045967005 0.57100004 4278797595
-0.0090400064 0.045805998 0.56900001 4278862877
-0.0071539758 0.045564491 0.56600004 4278993949
-0.0053062146 0.045483984 0.565 4278924566
-0.0034649502 0.045403484 0.56400001 4279320861
-0.0016301817 0.045322981 0.56300002 4279058972
0.00019773837 0.045161977 0.56100005 4279190045
0.0020198673 0.045161977 0.56100005 4279124252
0.0038351475 0.045081474 0.56 4278992666
0.0056439321 0.04500097 0.55900002 4278862361
0.0074595655 0.04500097 0.55900002 4279059740
0.0092254207 0.044759467 0.55600005 4278665496
-0.020623941 0.048827261 0.583 4278797084
-0.018666102 0.048659757 0.58100003 4278862877
-0.016721256 0.048492257 0.57900006 4278928670
-0.014789398 0.048324749 0.57700002 4278862877
-0.01284815 0.048073493 0.574 4278797084
-0.010907256 0.047738492 0.57000005 4278862877
-0.009024119 0.047570985 0.56800002 4278993949
-0.0071539758 0.047403485 0.56600004 4278664214
-0.0053062146 0.047319729 0.565 4278264841
-0.0034588068 0.047152225 0.56300002 4279254555
-0.0016272862 0.047068477 0.56200004 4278196997
0.00019773837 0.046984725 0.56100005 4278460171
0.0020198673 0.046984725 0.56100005 4278525453
0.0038351475 0.046900969 0.56 4278656267
0.0056439321 0.046817217 0.55900002 4278394378
0.0074462211 0.046733469 0.55800003 4278195969
0.0092420131 0.046649717 0.55700004 4278198021
0.011051151 0.046649717 0.55700004 4278725392
0.012860288 0.046649717 0.55700004 4278992666
0.014643088 0.046565969 0.55600005 4279124765
0.016448978 0.046565969 0.55600005 4279387937
0.018222034 0.046482213 0.55500001 4278795798
0.019988593 0.046398461 0.55400002 4278927382
0.021748658 0.046314709 0.55300003 4278664980
0.023502227 0.046230961 0.55200005 4278731287
0.025295125 0.046230961 0.55200005 4278533908
0.027038947 0.046147205 0.551 4278665494
-0.024452986 0.050808489 0.58400005 4279448350
-0.022517527 0.050721485 0.583 4279451682
-0.020588567 0.050634485 0.58200002 4278928670
-0.018633975 0.050460488 0.58000004 4278797084
-0.016692374 0.050286483 0.57800001 4278797082
-0.014763767 0.050112482 0.57600003 4278862877
-0.012825768 0.049851477 0.57300001 4278862877
-0.010907256 0.04959048 0.57000005 4278994463
-0.009024119 0.049416475 0.56800002 4278862877
-0.0071539758 0.049242474 0.56600004 4279256351
-0.0052968231 0.04906847 0.56400001 4279516189
-0.0034588068 0.048981469 0.56300002 4279715106
-0.0016272862 0.048894472 0.56200004 4278657037
0.00019773837 0.048807472 0.56100005 4279050514
0.0020162668 0.048720468 0.56 4279049490
0.0038351475 0.048720468 0.56 4278983951
0.0056439321 0.048633467 0.55900002 4278524170
0.0074462211 0.048546467 0.55800003 4278655756
0.0092420131 0.048459467 0.55700004 4278786572
0.011051151 0.048459467 0.55700004 4278589711
0.012860288 0.048459467 0.55700004 4278196481
0.014643088 0.048372466 0.55600005 4279977254
0.016448978 0.048372466 0.55600005 4278925590
0.018222034 0.048285462 0.55500001 4278199815
0.019988593 0.048198462 0.55400002 4278197504
0.021787986 0.048198462 0.55400002 4278196736
0.023544803 0.048111461 0.55300003 4278199301
0.025295125 0.048024464 0.55200005 4278925590
0.027088022 0.048024464 0.55200005 4278860310
0.028828595 0.047937457 0.551 4278991896
0.030618245 0.047937457 0.551 4278927384
0.032407895 0.047937457 0.551 4278532626
0.034197543 0.047937457 0.551 4278468117
0.035987191 0.047937457 0.551 4278533908
0.037776843 0.047937457 0.551 4278731541
0.039638299 0.048024464 0.55200005 4278600468
0.041431196 0.048024464 0.55200005 4278863388
0.043224096 0.048024464 0.55200005 4278863388
0.045016989 0.048024464 0.55200005 4278798365
0.046809889 0.048024464 0.55200005 4278929953
0.048602786 0.048024464 0.55200005 4279258664
0.050395682 0.048024464 0.55200005 4279719215
-0.024452986 0.05270597 0.58400005 4279448350
-0.022517527 0.052615717 0.583 4279452195
-0.020588567 0.052525468 0.58200002 4278862877
-0.018633975 0.05234497 0.58000004 4278862877
-0.016692374 0.052164465 0.57800001 4278862877
-0.014763767 0.051983967 0.57600003 4278862877
-0.012825768 0.051713217 0.57300001 4278862877
-0.010907256 0.05144247 0.57000005 4278994463
-0.0090082316 0.05117172 0.56700003 4278797084
-0.0071539758 0.051081471 0.56600004 4279256867
-0.0052968231 0.050900966 0.56400001 4279977254
-0.0034588068 0.050810717 0.56300002 4279780645
-0.0016272862 0.050720468 0.56200004 4278525453
0.00019773837 0.050630223 0.56100005 4279116820
0.0020162668 0.050539967 0.56 4278195461
0.0038351475 0.050539967 0.56 4279248406
0.0056439321 0.050449718 0.55900002 4280301094
0.0074595655 0.050449718 0.55900002 4278853648
0.0092586055 0.050359469 0.55800003 4278919439
0.011070991 0.050359469 0.55800003 4280037922
0.012860288 0.05026922 0.55700004 4278790418
0.014669425 0.05026922 0.55700004 4279320348
0.016448978 0.050178971 0.55600005 4278530832
0.018254867 0.050178971 0.55600005 4278990359
0.020024672 0.050088719 0.55500001 4279056924
0.021787986 0.04999847 0.55400002 4279385887
0.023544803 0.049908221 0.55300003 4279320094
0.025340948 0.049908221 0.55300003 4279780645
0.027088022 0.049817972 0.55200005 4279385887
0.028880918 0.049817972 0.55200005 4279320094
0.030618245 0.049727716 0.551 4278595601
0.032407895 0.049727716 0.551 4278199815
0.034197543 0.049727716 0.551 4278196224
0.035987191 0.049727716 0.551 4278197504
0.037776843 0.049727716 0.551 4278199046
0.039638299 0.049817972 0.55200005 4279056154
0.041431196 0.049817972 0.55200005 4279254816
0.043224096 0.049817972 0.55200005 4278860826
0.045016989 0.049817972 0.55200005 4278665496
0.046809889 0.049817972 0.55200005 4278666009
0.048602786 0.049817972 0.55200005 4278797595
0.050395682 0.049817972 0.55200005 4278666009
0.052188579 0.049817972 0.55200005 4278863390
-0.024452986 0.054603446 0.58400005 4279842590
-0.022556152 0.054603446 0.58400005 4279386400
-0.020588567 0.054416444 0.58200002 4278665244
-0.018666102 0.054322947 0.58100003 4278797084
-0.016721256 0.054135952 0.57900006 4278862877
-0.014763767 0.053855453 0.57600003 4278928670
-0.012825768 0.053574953 0.57300001 4278928670
-0.010907256 0.053294457 0.57000005 4278928670
-0.0090082316 0.053013958 0.56700003 4278994463
-0.0071413354 0.05282696 0.565 4278202384
-0.0052968231 0.052733462 0.56400001 4278398224
-0.0034588068 0.052639961 0.56300002 4279912231
-0.0016272862 0.052546464 0.56200004 4278853646
0.00019773837 0.052452967 0.56100005 4278853135
0.0020162668 0.052359466 0.56 4278458377
0.0038282992 0.052265964 0.55900002 4278655756
0.0056439321 0.052265964 0.55900002 4279050514
0.0074462211 0.052172467 0.55800003 4278656269
0.0092586055 0.052172467 0.55800003 4280697131
0.011070991 0.052172467 0.55800003 4279578139
0.012860288 0.05207897 0.55700004 4279712287
0.014669425 0.05207897 0.55700004 4279056406
0.016448978 0.051985472 0.55600005 4278460169
0.018254867 0.051985472 0.55600005 4278722832
0.020024672 0.051891968 0.55500001 4278857748
0.021787986 0.05179847 0.55400002 4279516705
0.02358738 0.05179847 0.55400002 4278464017
0.025340948 0.051704973 0.55300003 4278200329
0.027137095 0.051704973 0.55300003 4278200325
0.028880918 0.051611476 0.55200005 4279123480
0.030673815 0.051611476 0.55200005 4278992664
0.032466713 0.051611476 0.55200005 4278861078
0.034197543 0.051517971 0.551 4278991894
0.036052506 0.051611476 0.55200005 4278991894
0.037845407 0.051611476 0.55200005 4278794517
0.039638299 0.051611476 0.55200005 4279254301
0.041431196 0.051611476 0.55200005 4279780647
0.043224096 0.051611476 0.55200005 4279188510
0.045016989 0.051611476 0.55200005 4278203150
0.046809889 0.051611476 0.55200005 4278468117
0.048602786 0.051611476 0.55200005 4278468630
0.050395682 0.051611476 0.55200005 4278666009
0.052188579 0.051611476 0.55200005 4278666009
-0.022594776 0.056597669 0.58500004 4279386141
-0.020623941 0.05640417 0.583 4278862877
-0.018698229 0.05630742 0.58200002 4278796830
-0.016750135 0.056113929 0.58000004 4278797084
-0.014789398 0.05582368 0.57700002 4278862877
-0.01284815 0.055533435 0.574 4278797084
-0.010907256 0.055146448 0.57000005 4278797084
-0.009024119 0.054952946 0.56800002 4278862361
-0.0071539758 0.054759454 0.56600004 4278268943
-0.0052968231 0.054565955 0.56400001 4278530326
-0.0034588068 0.054469205 0.56300002 4279189021
-0.0016272862 0.05437246 0.56200004 4278856724
0.00019773837 0.054275714 0.56100005 4278195971
0.0020162668 0.054178961 0.56 4278524170
0.0038282992 0.054082215 0.55900002 4278852111
0.0056439321 0.054082215 0.55900002 4278852111
0.0074462211 0.053985465 0.55800003 4278786318
0.0092586055 0.053985465 0.55800003 4278721295
0.011051151 0.05388872 0.55700004 4278655502
0.012860288 0.05388872 0.55700004 4279581217
0.014669425 0.05388872 0.55700004 4279450910
0.016448978 0.053791974 0.55600005 4278657035
0.018254867 0.053791974 0.55600005 4278195716
0.020024672 0.053695221 0.55500001 4278988564
0.021827314 0.053695221 0.55500001 4279187226
0.02358738 0.053598475 0.55400002 4278200588
0.025386773 0.053598475 0.55400002 4279056152
0.027137095 0.053501725 0.55300003 4279385117
0.028933238 0.053501725 0.55300003 4278858773
0.030673815 0.053404979 0.55200005 4278397708
0.032466713 0.053404979 0.55200005 4278529808
0.03425961 0.053404979 0.55200005 4278200586
0.036052506 0.053404979 0.55200005 4278199301
0.037845407 0.053404979 0.55200005 4278727957
0.039638299 0.053404979 0.55200005 4278596371
0.041431196 0.053404979 0.55200005 4278992666
0.043302398 0.053501725 0.55300003 4279255838
0.045098543 0.053501725 0.55300003 4278464785
0.046894688 0.053501725 0.55300003 4278730007
0.048690833 0.053501725 0.55300003 4278664982
0.050486978 0.053501725 0.55300003 4278796568
0.052283123 0.053501725 0.55300003 4278796568
0.054079268 0.053501725 0.55300003 4278928156
-0.020694694 0.058498394 0.58500004 4279058972
-0.018762486 0.058398396 0.58400005 4279059742
-0.016807893 0.0581984 0.58200002 4278862363
-0.014840662 0.05789841 0.57900006 4278796830
-0.012892918 0.057598416 0.57600003 4278731037
-0.010926391 0.05709843 0.57100004 4278796830
-0.009024119 0.056798436 0.56800002 4278731037
-0.0071539758 0.056598444 0.56600004 4278993695
-0.0052968231 0.056398448 0.56400001 4279519271
-0.0034526633 0.056198455 0.56200004 4279190306
-0.0016243907 0.056098457 0.56100005 4279124511
0.00019738587 0.055998456 0.56 4279124511
0.0020162668 0.055998456 0.56 4279189021
0.0038282992 0.055898461 0.55900002 4279517473
0.0056338357 0.055798467 0.55800003 4279977256
0.0074462211 0.055798467 0.55800003 4280305967
0.0092420131 0.055698469 0.55700004 4279777313
0.011051151 0.055698469 0.55700004 4278526476
0.012860288 0.055698469 0.55700004 4279910695
0.014669425 0.055698469 0.55700004 4278196736
0.016448978 0.055598475 0.55600005 4278197768
0.018254867 0.055598475 0.55600005 4279448602
0.020024672 0.055498473 0.55500001 4279713057
0.021827314 0.055498473 0.55500001 4279976742
0.02358738 0.055398475 0.55400002 4279648291
0.025386773 0.055398475 0.55400002 4279121945
0.027186166 0.055398475 0.55400002 4278990613
0.028933238 0.055298481 0.55300003 4280240680
0.030729383 0.055298481 0.55300003 4279055638
0.032466713 0.055198483 0.55200005 4278200072
0.03425961 0.055198483 0.55200005 4278198789
0.036052506 0.055198483 0.55200005 4279055640
0.037845407 0.055198483 0.55200005 4278726162
0.039710108 0.055298481 0.55300003 4278923541
0.041506253 0.055298481 0.55300003 4279188508
0.043302398 0.055298481 0.55300003 4279451680
0.045098543 0.055298481 0.55300003 4279386654
0.046894688 0.055298481 0.55300003 4278927386
0.04877888 0.055398475 0.55400002 4278928154
0.05057827 0.055398475 0.55400002 4278796568
0.052377667 0.055398475 0.55400002 4278993947
-0.016894532 0.060399115 0.58500004 4279186974
-0.014917555 0.060089376 0.58200002 4279318558
-0.010945526 0.059056912 0.57200003 4279715113
-0.0090400064 0.058747172 0.56900001 4279518506
-0.0071539758 0.058437437 0.56600004 4279650090
-0.0052968231 0.05823094 0.56400001 4279256099
-0.0034526633 0.058024451 0.56200004 4279190306
-0.0016243907 0.057921205 0.56100005 4278927904
0.00019738587 0.057817955 0.56 4278862111
0.0020126663 0.057714708 0.55900002 4278927902
0.0038214508 0.057611465 0.55800003 4278927132
0.0056338357 0.057611465 0.55800003 4278992925
0.0074328766 0.057508219 0.55700004 4278992925
0.0092420131 0.057508219 0.55700004 4279124511
0.011051151 0.057508219 0.55700004 4279123998
0.012860288 0.057508219 0.55700004 4279254814
0.014643088 0.057404973 0.55600005 4279189021
0.016448978 0.057404973 0.55600005 4279123228
0.018254867 0.057404973 0.55600005 4279254816
0.020024672 0.057301722 0.55500001 4279516705
0.021827314 0.057301722 0.55500001 4279319326
0.023629956 0.057301722 0.55500001 4278727189
0.025386773 0.057198476 0.55400002 4278200074
0.027186166 0.057198476 0.55400002 4278197504
0.028985558 0.057198476 0.55400002 4278196224
0.030729383 0.057095233 0.55300003 4278199046
0.032525528 0.057095233 0.55300003 4278726675
0.034321673 0.057095233 0.55300003 4279450396
0.036117818 0.057095233 0.55300003 4280240426
0.037913963 0.057095233 0.55300003 4279385117
0.039710108 0.057095233 0.55300003 4279648289
0.041506253 0.057095233 0.55300003 4279188508
0.043302398 0.057095233 0.55300003 4278464785
0.045098543 0.057095233 0.55300003 4279321377
0.046894688 0.057095233 0.55300003 4278796570
0.04877888 0.057198476 0.55400002 4278928156
0.05057827 0.057198476 0.55400002 4278862361
0.052377667 0.057198476 0.55400002 4279059742
-0.0090400064 0.060595911 0.56900001 4284580204
-0.0071666148 0.060382921 0.56700003 4282606925
-0.0052968231 0.060063433 0.56400001 4279976490
-0.0034526633 0.059850447 0.56200004 4279318560
-0.0016243907 0.059743952 0.56100005 4279516451
0.00019738587 0.05963745 0.56 4279780393
0.0020126663 0.059530959 0.55900002 4279780906
0.0038214508 0.059424464 0.55800003 4279715113
0.0056338357 0.059424464 0.55800003 4279716650
0.0074328766 0.059317969 0.55700004 4278992927
0.0092420131 0.059317969 0.55700004 4279058720
0.011051151 0.059317969 0.55700004 4279190304
0.012837199 0.059211474 0.55600005 4278927132
0.014643088 0.059211474 0.55600005 4279058718
0.016448978 0.059211474 0.55600005 4279190304
0.018254867 0.059211474 0.55600005 4279058718
0.020024672 0.059104975 0.55500001 4279058718
0.021827314 0.059104975 0.55500001 4279124511
0.023629956 0.059104975 0.55500001 4278992925
0.025386773 0.05899848 0.55400002 4278927132
0.027186166 0.05899848 0.55400002 4279190045
0.028985558 0.05899848 0.55400002 4279189275
0.030784952 0.05899848 0.55400002 4278859797
0.032525528 0.058891986 0.55300003 4279977508
0.034321673 0.058891986 0.55300003 4279582496
0.036117818 0.058891986 0.55300003 4279187738
0.037913963 0.058891986 0.55300003 4278200329
0.039710108 0.058891986 0.55300003 4278198018
0.041506253 0.058891986 0.55300003 4278196736
0.043302398 0.058891986 0.55300003 4278199820
0.045098543 0.058891986 0.55300003 4279255838
0.046894688 0.058891986 0.55300003 4278993179
0.04877888 0.05899848 0.55400002 4278927384
0.05057827 0.05899848 0.55400002 4278928154
0.0038214508 0.061237462 0.55800003 4284449131
0.0056237392 0.061127719 0.55700004 4282805078
0.0074328766 0.061127719 0.55700004 4280830264
0.0092420131 0.061127719 0.55700004 4279647525
0.01103131 0.061017975 0.55600005 4279187488
0.012837199 0.061017975 0.55600005 4279319592
0.014643088 0.061017975 0.55600005 4279977776
0.016448978 0.061017975 0.55600005 4279584299
0.018254867 0.061017975 0.55600005 4279584299
0.020024672 0.060908224 0.55500001 4279584297
0.021827314 0.060908224 0.55500001 4279321379
0.023629956 0.060908224 0.55500001 4279190304
0.025432596 0.060908224 0.55500001 4279058718
0.027186166 0.060798481 0.55400002 4278927386
0.028985558 0.060798481 0.55400002 4279058972
0.030784952 0.060798481 0.55400002 4278993179
0.032584343 0.060798481 0.55400002 4278334736
0.034383737 0.060798481 0.55400002 4279189275
0.036117818 0.060688738 0.55300003 4278992666
0.037913963 0.060688738 0.55300003 4279124252
0.039710108 0.060688738 0.55300003 4279124252
0.041506253 0.060688738 0.55300003 4279124252
0.043302398 0.060688738 0.55300003 4279255068
0.045098543 0.060688738 0.55300003 4279255838
0.046979491 0.060798481 0.55400002 4279124252
0.04877888 0.060798481 0.55400002 4279124765
0.05057827 0.060798481 0.55400002 4279124765
0.020024672 0.062711477 0.55500001 4282277964
0.021827314 0.062711477 0.55500001 4280698932
0.023629956 0.062711477 0.55500001 4279450660
0.025432596 0.062711477 0.55500001 4278793500
0.027235238 0.062711477 0.55500001 4278794013
0.028985558 0.062598482 0.55400002 4278859806
0.030784952 0.062598482 0.55400002 4279320609
0.032584343 0.062598482 0.55400002 4279385889
0.034383737 0.062598482 0.55400002 4279517475
0.03618313 0.062598482 0.55400002 4279452195
0.037913963 0.062485494 0.55300003 4279518758
0.039710108 0.062485494 0.55300003 4279518504
0.041506253 0.062485494 0.55300003 4279650090
0.043302398 0.062485494 0.55300003 4279452711
0.045098543 0.062485494 0.55300003 4279452711
0.046979491 0.062598482 0.55400002 4279518504
0.04877888 0.062598482 0.55400002 4279584810
0.05057827 0.062598482 0.55400002 4279387431
0.023629956 0.064514726 0.55500001 4284382057
0.025432596 0.064514726 0.55500001 4284053608
0.027235238 0.064514726 0.55500001 4283988069
0.029037878 0.064514726 0.55500001 4283593311
0.037913963 0.064282246 0.55300003 4284844407
0.039710108 0.064282246 0.55300003 4284975993
0.041506253 0.064282246 0.55300003 4284647028
0.043302398 0.064282246 0.55300003 4284186477
0.045098543 0.064282246 0.55300003 4283462754
0.046979491 0.06439849 0.55400002 4282870617
0.04877888 0.06439849 0.55400002 4282410066
0.014571534 0.053474914 0.56038189 4294967295
0.014571534 0.053474914 0.56038189 4294901760
0.014571534 0.053474914 0.56088191 4294901760
0.014571534 0.053474914 0.56138188 4294901760
0.014571534 0.053474914 0.5618819 4294901760
0.014571534 0.053474914 0.56238186 4294901760
0.014571534 0.053474914 0.56288189 4294901760
0.014571534 0.053474914 0.56338191 4294901760
0.014571534 0.053474914 0.56388187 4294901760
0.014571534 0.053474914 0.5643819 4294901760
0.014571534 0.053474914 0.56488186 4294901760
0.014571534 0.053474914 0.56538188 4294901760
0.014571534 0.053474914 0.56588191 4294901760
0.014571534 0.053474914 0.56638187 4294901760
0.014571534 0.053474914 0.5668819 4294901760
0.014571534 0.053474914 0.56738192 4294901760
0.014571534 0.053474914 0.56788188 4294901760
0.014571534 0.053474914 0.56838191 4294901760
0.014571534 0.053474914 0.56888187 4294901760
0.014571534 0.053474914 0.56938189 4294901760
0.014571534 0.053474914 0.56988192 4294901760
0.014571534 0.053474914 0.57038188 4294901760
0.014571534 0.053474914 0.5708819 4294901760
0.014571534 0.053474914 0.57138187 4294901760
0.014571534 0.053474914 0.57188189 4294901760
0.014571534 0.053474914 0.57238191 4294901760
0.014571534 0.053474914 0.57288188 4294901760
0.014571534 0.053474914 0.5733819 4294901760
0.014571534 0.053474914 0.57388186 4294901760
0.014571534 0.053474914 0.57438189 4294901760
0.014571534 0.053474914 0.57488191 4294901760
0.014571534 0.053474914 0.57538188 4294901760
0.014571534 0.053474914 0.5758819 4294901760
0.014571534 0.053474914 0.57638192 4294901760
0.014571534 0.053474914 0.57688189 4294901760
0.014571534 0.053474914 0.57738191 4294901760
0.014571534 0.053474914 0.57788187 4294901760
0.014571534 0.053474914 0.5783819 4294901760
0.014571534 0.053474914 0.57888192 4294901760
0.014571534 0.053474914 0.57938188 4294901760
0.014571534 0.053474914 0.57988191 4294901760
0.014571534 0.053474914 0.58038187 4294901760
0.014571534 0.053474914 0.58088189 4294901760
0.014571534 0.053474914 0.58138192 4294901760
0.014571534 0.053474914 0.58188188 4294901760
0.014571534 0.053474914 0.5823819 4294901760
0.014571534 0.053474914 0.58288187 4294901760
0.014571534 0.053474914 0.58338189 4294901760
0.014571534 0.053474914 0.58388191 4294901760
0.014571534 0.053474914 0.58438188 4294901760
0.014571534 0.053474914 0.5848819 4294901760
0.014571534 0.053474914 0.58538187 4294901760
0.014571534 0.053474914 0.58588189 4294901760
0.014571534 0.053474914 0.58638191 4294901760
0.014571534 0.053474914 0.58688188 4294901760
0.014571534 0.053474914 0.5873819 4294901760
0.014571534 0.053474914 0.58788192 4294901760
0.014571534 0.053474914 0.58838189 4294901760
0.014571534 0.053474914 0.58888191 4294901760
0.014571534 0.053474914 0.58938187 4294901760
0.014571534 0.053474914 0.5898819 4294901760
0.014571534 0.053474914 0.59038192 4294901760
0.014571534 0.053474914 0.59088188 4294901760
0.014571534 0.053474914 0.59138191 4294901760
0.014571534 0.053474914 0.59188187 4294901760
0.014571534 0.053474914 0.59238189 4294901760
0.014571534 0.053474914 0.59288192 4294901760
0.014571534 0.053474914 0.59338188 4294901760
0.014571534 0.053474914 0.59388191 4294901760
0.014571534 0.053474914 0.59438193 4294901760
0.014571534 0.053474914 0.59488189 4294901760
0.014571534 0.053474914 0.59538192 4294901760
0.014571534 0.053474914 0.59588188 4294901760
0.014571534 0.053474914 0.5963819 4294901760
0.014571534 0.053474914 0.59688193 4294901760
0.014571534 0.053474914 0.59738189 4294901760
0.014571534 0.053474914 0.59788191 4294901760
0.014571534 0.053474914 0.59838188 4294901760
0.014571534 0.053474914 0.5988819 4294901760
0.014571534 0.053474914 0.59938192 4294901760
0.014571534 0.053474914 0.59988189 4294901760
0.014571534 0.053474914 0.60038191 4294901760
0.014571534 0.053474914 0.60088187 4294901760
0.014571534 0.053474914 0.6013819 4294901760
0.014571534 0.053474914 0.60188192 4294901760
0.014571534 0.053474914 0.60238189 4294901760
0.014571534 0.053474914 0.60288191 4294901760
0.014571534 0.053474914 0.60338187 4294901760
0.014571534 0.053474914 0.6038819 4294901760
0.014571534 0.053474914 0.60438192 4294901760
0.014571534 0.053474914 0.60488188 4294901760
0.014571534 0.053474914 0.60538191 4294901760
0.014571534 0.053474914 0.60588193 4294901760
0.014571534 0.053474914 0.60638189 4294901760
0.014571534 0.053474914 0.60688192 4294901760
0.014571534 0.053474914 0.60738188 4294901760
0.014571534 0.053474914 0.6078819 4294901760
0.014571534 0.053474914 0.60838193 4294901760
0.014571534 0.053474914 0.60888189 4294901760
0.014571534 0.053474914 0.60938191 4294901760
0.014571534 0.053474914 0.60988188 4294901760
0.014571534 0.053474914 0.6103819 4294901760
0.014571534 0.053474914 0.56038189 4278255360
0.014702311 0.053474776 0.56086451 4278255360
0.014833089 0.053474639 0.56134707 4278255360
0.014963866 0.053474501 0.56182969 4278255360
0.015094643 0.053474363 0.56231225 4278255360
0.015225422 0.053474225 0.56279486 4278255360
0.015356199 0.053474087 0.56327748 4278255360
0.015486976 0.053473949 0.56376004 4278255360
0.015617754 0.053473812 0.56424266 4278255360
0.015748531 0.053473674 0.56472522 4278255360
0.015879309 0.053473536 0.56520784 4278255360
0.016010087 0.053473398 0.5656904 4278255360
0.016140863 0.05347326 0.56617302 4278255360
0.016271641 0.053473122 0.56665564 4278255360
0.01640242 0.053472985 0.5671382 4278255360
0.016533196 0.053472847 0.56762081 4278255360
0.016663974 0.053472709 0.56810337 4278255360
0.016794752 0.053472567 0.56858599 4278255360
0.016925529 0.05347243 0.56906861 4278255360
0.017056307 0.053472292 0.56955117 4278255360
0.017187085 0.053472154 0.57003379 4278255360
0.017317861 0.053472016 0.57051635 4278255360
0.017448639 0.053471878 0.57099897 4278255360
0.017579418 0.05347174 0.57148159 4278255360
0.017710194 0.053471602 0.57196414 4278255360
0.017840972 0.053471465 0.57244676 4278255360
0.01797175 0.053471327 0.57292932 4278255360
0.018102527 0.053471189 0.57341194 4278255360
0.018233305 0.053471051 0.57389456 4278255360
0.018364083 0.053470913 0.57437712 4278255360
0.018494859 0.053470775 0.57485974 4278255360
0.018625638 0.053470638 0.5753423 4278255360
0.018756416 0.0534705 0.57582492 4278255360
0.018887192 0.053470362 0.57630748 4278255360
0.01901797 0.053470224 0.57679009 4278255360
0.019148748 0.053470086 0.57727271 4278255360
0.019279525 0.053469948 0.57775527 4278255360
0.019410303 0.053469811 0.57823789 4278255360
0.019541081 0.053469673 0.57872045 4278255360
0.019671857 0.053469535 0.57920307 4278255360
0.019802636 0.053469397 0.57968569 4278255360
0.019933414 0.053469259 0.58016825 4278255360
0.02006419 0.053469121 0.58065087 4278255360
0.020194968 0.053468984 0.58113343 4278255360
0.020325746 0.053468846 0.58161604 4278255360
0.020456523 0.053468708 0.58209866 4278255360
0.020587301 0.05346857 0.58258122 4278255360
0.020718079 0.053468432 0.58306384 4278255360
0.020848855 0.053468294 0.5835464 4278255360
0.020979634 0.053468157 0.58402902 4278255360
0.021110412 0.053468019 0.58451164 4278255360
0.021241188 0.053467877 0.5849942 4278255360
0.021371966 0.053467739 0.58547682 4278255360
0.021502744 0.053467602 0.58595937 4278255360
0.021633521 0.053467464 0.58644199 4278255360
0.021764299 0.053467326 0.58692455 4278255360
0.021895077 0.053467188 0.58740717 4278255360
0.022025853 0.05346705 0.58788979 4278255360
0.022156632 0.053466912 0.58837235 4278255360
0.02228741 0.053466775 0.58885497 4278255360
0.022418186 0.053466637 0.58933753 4278255360
0.022548964 0.053466499 0.58982015 4278255360
0.022679742 0.053466361 0.59030277 4278255360
0.022810519 0.053466223 0.59078532 4278255360
0.022941297 0.053466085 0.59126794 4278255360
0.023072075 0.053465948 0.5917505 4278255360
0.023202851 0.05346581 0.59223312 4278255360
0.02333363 0.053465672 0.59271574 4278255360
0.023464408 0.053465534 0.5931983 4278255360
0.023595184 0.053465396 0.59368092 4278255360
0.023725962 0.053465258 0.59416348 4278255360
0.02385674 0.05346512 0.5946461 4278255360
0.023987517 0.053464983 0.59512866 4278255360
0.024118295 0.053464845 0.59561127 4278255360
0.024249073 0.053464707 0.59609389 4278255360
0.024379849 0.053464569 0.59657645 4278255360
0.024510628 0.053464431 0.59705907 4278255360
0.024641406 0.053464293 0.59754163 4278255360
0.024772182 0.053464156 0.59802425 4278255360
0.02490296 0.053464018 0.59850687 4278255360
0.025033738 0.05346388 0.59898943 4278255360
0.025164515 0.053463742 0.59947205 4278255360
0.025295293 0.053463604 0.59995461 4278255360
0.025426071 0.053463466 0.60043722 4278255360
0.025556847 0.053463325 0.60091984 4278255360
0.025687626 0.053463187 0.6014024 4278255360
0.025818404 0.053463049 0.60188502 4278255360
0.02594918 0.053462911 0.60236758 4278255360
0.026079958 0.053462774 0.6028502 4278255360
0.026210736 0.053462636 0.60333276 4278255360
0.026341513 0.053462498 0.60381538 4278255360
0.026472291 0.05346236 0.604298 4278255360
0.026603069 0.053462222 0.60478055 4278255360
0.026733845 0.053462084 0.60526317 4278255360
0.026864624 0.053461947 0.60574573 4278255360
0.026995402 0.053461809 0.60622835 4278255360
0.027126178 0.053461671 0.60671097 4278255360
0.027256956 0.053461533 0.60719353 4278255360
0.027387735 0.053461395 0.60767615 4278255360
0.027518511 0.053461257 0.60815871 4278255360
0.027649289 0.05346112 0.60864133 4278255360
