# .PCD v0.7 - Point Cloud Data file format
VERSION 0.7
FIELDS x y z rgb
SIZE 4 4 4 4
TYPE F F F U
COUNT 1 1 1 1
WIDTH 1008
HEIGHT 1
VIEWPOINT 0 0 0 1 0 0 0
POINTS 1008
DATA ascii
0.065471902 -0.015179685 0.45700002 4286161034
-0.010508931 -0.012286405 0.41000003 4283261775
-0.0091772508 -0.012286405 0.41000003 4283328340
-0.0078647053 -0.012316371 0.41100001 4281749310
-0.0011900616 -0.012316371 0.41100001 4281156921
0.00014486714 -0.012316371 0.41100001 4281222714
0.0014761954 -0.012286405 0.41000003 4282012995
0.027232043 -0.013874647 0.46300003 4286817427
0.028735869 -0.013874647 0.46300003 4286751634
0.056689657 -0.013724813 0.45800003 4280770622
0.05817724 -0.013724813 0.45800003 4280376116
0.059664827 -0.013724813 0.45800003 4280573495
0.061018892 -0.013694846 0.45700002 4280442422
0.062503226 -0.013694846 0.45700002 4279850285
0.063987561 -0.013694846 0.45700002 4279390765
0.06561517 -0.013724813 0.45800003 4280443453
0.067102753 -0.013724813 0.45800003 4280442688
0.068590336 -0.013724813 0.45800003 4280638786
-0.0051948479 -0.010980991 0.41100001 4281221431
-0.0011900616 -0.010980991 0.41100001 4281418038
0.00014451466 -0.010954273 0.41000003 4281681980
0.0014725948 -0.010927555 0.40900001 4281223225
0.0092353951 -0.010687095 0.40000001 4284451446
0.022671496 -0.012343595 0.46200001 4286422923
0.024172071 -0.012343595 0.46200001 4286751886
0.025728218 -0.012370314 0.46300003 4286751886
0.027232043 -0.012370314 0.46300003 4286620302
0.028735869 -0.012370314 0.46300003 4286817681
0.030305004 -0.01239703 0.46400002 4286751888
0.031812079 -0.01239703 0.46400002 4287015830
0.033319149 -0.01239703 0.46400002 4287279515
0.034826223 -0.01239703 0.46400002 4286687892
0.036333296 -0.01239703 0.46400002 4285043837
0.037758816 -0.012370314 0.46300003 4283662184
0.039262641 -0.012370314 0.46300003 4282346322
0.040766466 -0.012370314 0.46300003 4280902208
0.042178992 -0.012343595 0.46200001 4280771135
0.043679569 -0.012343595 0.46200001 4280114488
0.045180146 -0.012343595 0.46200001 4279852600
0.046680726 -0.012343595 0.46200001 4279721266
0.048181299 -0.012343595 0.46200001 4280116024
0.049681876 -0.012343595 0.46200001 4279195181
0.05107167 -0.012316878 0.46100003 4279458353
0.052568998 -0.012316878 0.46100003 4279524146
0.053949047 -0.012290159 0.46000001 4279458607
0.055322599 -0.012263442 0.45900002 4279458605
0.056689657 -0.012236725 0.45800003 4279524398
0.05817724 -0.012236725 0.45800003 4279524398
0.059664827 -0.012236725 0.45800003 4279261226
0.061018892 -0.012210007 0.45700002 4279261224
0.062503226 -0.012210007 0.45700002 4279195431
0.063987561 -0.012210007 0.45700002 4278735652
0.06561517 -0.012236725 0.45800003 4279130410
0.067102753 -0.012236725 0.45800003 4279459377
0.068740092 -0.012263442 0.45900002 4279655986
-0.011725094 -0.0095282663 0.40600002 4281353015
-0.0051948479 -0.0096456092 0.41100001 4281287224
0.0053778263 -0.0094578601 0.40300003 4281486138
0.0066867708 -0.0094578601 0.40300003 4281092405
0.0079758754 -0.0094343908 0.40200001 4280107815
0.0092584835 -0.0094109224 0.40100002 4280640317
0.010587269 -0.0094343908 0.40200001 4280510528
0.011892965 -0.0094343908 0.40200001 4281099846
0.013231495 -0.0094578601 0.40300003 4284058736
0.021170918 -0.01084251 0.46200001 4286292618
0.022671496 -0.01084251 0.46200001 4286490511
0.024172071 -0.01084251 0.46200001 4286687890
0.025728218 -0.010865978 0.46300003 4286819476
0.027232043 -0.010865978 0.46300003 4285700993
0.028735869 -0.010865978 0.46300003 4283859559
0.030305004 -0.010889446 0.46400002 4281887052
0.031812079 -0.010889446 0.46400002 4281495628
0.033319149 -0.010889446 0.46400002 4279982902
0.034826223 -0.010889446 0.46400002 4279522349
0.036254991 -0.010865978 0.46300003 4280181049
0.037758816 -0.010865978 0.46300003 4279392047
0.039262641 -0.010865978 0.46300003 4279524400
0.040678415 -0.01084251 0.46200001 4279327789
0.042178992 -0.01084251 0.46200001 4279262509
0.043679569 -0.01084251 0.46200001 4279328300
0.045180146 -0.01084251 0.46200001 4279131175
0.046680726 -0.01084251 0.46200001 4279197738
0.048181299 -0.01084251 0.46200001 4278539808
0.049681876 -0.01084251 0.46200001 4278933796
0.05107167 -0.010819041 0.46100003 4278604577
0.052454963 -0.010795572 0.46000001 4278933542
0.053831767 -0.010772103 0.45900002 4278539556
0.055202074 -0.010748635 0.45800003 4278671140
0.056689657 -0.010748635 0.45800003 4278868519
0.058050212 -0.010725167 0.45700002 4278473761
0.059534553 -0.010725167 0.45700002 4278473761
0.061018892 -0.010725167 0.45700002 4278802210
0.062503226 -0.010725167 0.45700002 4278473245
0.063987561 -0.010725167 0.45700002 4278539038
0.06561517 -0.010748635 0.45800003 4278209819
0.067102753 -0.010748635 0.45800003 4278670372
0.068740092 -0.010772103 0.45900002 4278933033
0.070230931 -0.010772103 0.45900002 4279191853
-0.0038693107 -0.0083304485 0.41200003 4283985502
0.0066867708 -0.0081484718 0.40300003 4281617204
0.0079957154 -0.0081484718 0.40300003 4280631844
0.0093046604 -0.0081484718 0.40300003 4278798367
0.010613605 -0.0081484718 0.40300003 4278866470
0.011952134 -0.0081686918 0.40400001 4279130925
0.013264327 -0.0081686918 0.40400001 4279525683
0.021170918 -0.0093414243 0.46200001 4280508733
0.022671496 -0.0093414243 0.46200001 4280575039
0.024172071 -0.0093414243 0.46200001 4280772418
0.025728218 -0.0093616443 0.46300003 4280114486
0.027232043 -0.0093616443 0.46300003 4279982900
0.028735869 -0.0093616443 0.46300003 4279721266
0.030305004 -0.0093818633 0.46400002 4279655986
0.031812079 -0.0093818633 0.46400002 4279394097
0.033319149 -0.0093818633 0.46400002 4279197488
0.034751166 -0.0093616443 0.46300003 4279723828
0.036254991 -0.0093616443 0.46300003 4279460910
0.037758816 -0.0093616443 0.46300003 4278737187
0.039177842 -0.0093414243 0.46200001 4278737187
0.040678415 -0.0093414243 0.46200001 4278474015
0.042178992 -0.0093414243 0.46200001 4278474015
0.043585028 -0.0093212053 0.46100003 4278671392
0.045082353 -0.0093212053 0.46100003 4278671392
0.046579685 -0.0093212053 0.46100003 4278539036
0.048077013 -0.0093212053 0.46100003 4278539036
0.049574342 -0.0093212053 0.46100003 4278539038
0.050960883 -0.0093009854 0.46000001 4278538525
0.052340932 -0.0092807664 0.45900002 4278472732
0.053714488 -0.0092605464 0.45800003 4278209560
0.055081543 -0.0092403265 0.45700002 4278670111
0.056565877 -0.0092403265 0.45700002 4278669341
0.058050212 -0.0092403265 0.45700002 4278406169
0.059534553 -0.0092403265 0.45700002 4278603548
0.060885374 -0.0092201075 0.45600003 4278669341
0.062503226 -0.0092403265 0.45700002 4278998306
0.063987561 -0.0092403265 0.45700002 4279260965
0.065471902 -0.0092403265 0.45700002 4278866207
0.067102753 -0.0092605464 0.45800003 4279194918
0.068740092 -0.0092807664 0.45900002 4279786543
0.070230931 -0.0092807664 0.45900002 4279452715
-0.010355142 -0.0068560536 0.40400001 4280827954
-0.0090877162 -0.0068899947 0.40600002 4280827954
-0.0077881627 -0.0069069648 0.40700001 4281617470
-0.0064980011 -0.0069409059 0.40900001 4281550907
-0.0051948479 -0.0069748466 0.41100001 4281155636
-0.0038693107 -0.0069918176 0.41200003 4283591260
0.0093508381 -0.0068730246 0.40500003 4278860826
0.010666278 -0.0068730246 0.40500003 4278929953
0.012011304 -0.0068899947 0.40600002 4278603296
0.013329992 -0.0068899947 0.40600002 4278538273
0.014756921 -0.0069409059 0.40900001 4278933029
0.022671496 -0.0078403391 0.46200001 4279591476
0.024172071 -0.0078403391 0.46200001 4279723062
0.025728218 -0.0078573097 0.46300003 4279328302
0.027232043 -0.0078573097 0.46300003 4279000105
0.028735869 -0.0078573097 0.46300003 4278934314
0.030305004 -0.0078742793 0.46400002 4279000107
0.031812079 -0.0078742793 0.46400002 4279460656
0.033319149 -0.0078742793 0.46400002 4278868773
0.034751166 -0.0078573097 0.46300003 4278474013
0.036254991 -0.0078573097 0.46300003 4278868771
0.037758816 -0.0078573097 0.46300003 4278209813
0.039177842 -0.0078403391 0.46200001 4278276634
0.040678415 -0.0078403391 0.46200001 4278408222
0.042087696 -0.0078233685 0.46100003 4278604831
0.043585028 -0.0078233685 0.46100003 4278539036
0.045082353 -0.0078233685 0.46100003 4278670109
0.046579685 -0.0078233685 0.46100003 4278735132
0.048077013 -0.0078233685 0.46100003 4278800925
0.049466804 -0.007806398 0.46000001 4279064097
0.050850101 -0.0077894274 0.45900002 4278866718
0.052226901 -0.0077724573 0.45800003 4278734619
0.053479929 -0.0077385162 0.45600003 4279129379
0.054961015 -0.0077385162 0.45600003 4278800414
0.056442104 -0.0077385162 0.45600003 4278997279
0.05792319 -0.0077385162 0.45600003 4279258144
0.05940428 -0.0077385162 0.45600003 4278468628
0.060885374 -0.0077385162 0.45600003 4278199552
0.062366456 -0.0077385162 0.45600003 4278199554
0.063847549 -0.0077385162 0.45600003 4278268689
0.065471902 -0.0077554868 0.45700002 4279586600
0.067102753 -0.0077724573 0.45800003 4279654187
0.068590336 -0.0077724573 0.45800003 4279851568
0.070230931 -0.0077894274 0.45900002 4279650094
-0.01032951 -0.0055296957 0.40300003 4281222712
-0.0090653328 -0.0055571385 0.40500003 4281420091
-0.0077881627 -0.0055845808 0.40700001 4281157432
-0.0064980011 -0.0056120232 0.40900001 4281617983
-0.0038787022 -0.0056669088 0.41300002 4283064400
0.0093739256 -0.0055708596 0.40600002 4279121945
0.01071895 -0.0055845808 0.40700001 4279058718
0.012040887 -0.0055845808 0.40700001 4278468632
0.013395658 -0.005598302 0.40800002 4278733085
0.014793002 -0.0056257448 0.41000003 4278669857
0.01620334 -0.0056531876 0.41200003 4278735650
0.017584093 -0.0056669088 0.41300002 4279131695
0.018925518 -0.0056669088 0.41300002 4278803242
0.022671496 -0.0063392539 0.46200001 4279132207
0.024172071 -0.0063392539 0.46200001 4279198000
0.025728218 -0.0063529755 0.46300003 4278606115
0.027232043 -0.0063529755 0.46300003 4278474015
0.028735869 -0.0063529755 0.46300003 4278474015
0.030305004 -0.0063666967 0.46400002 4278342429
0.031812079 -0.0063666967 0.46400002 4278474015
0.033319149 -0.0063666967 0.46400002 4278802210
0.034826223 -0.0063666967 0.46400002 4278735904
0.036333296 -0.0063666967 0.46400002 4278604318
0.037840366 -0.0063666967 0.46400002 4278539038
0.039347444 -0.0063666967 0.46400002 4278670624
0.040854514 -0.0063666967 0.46400002 4278735904
0.039531395 -0.0059413356 0.43300003 4278735904
0.041032325 -0.0059550568 0.43400002 4278735134
0.042539749 -0.0059687784 0.43500003 4278866205
0.04405367 -0.0059824996 0.43600002 4279063584
0.045574088 -0.0059962207 0.43700001 4279194656
0.047100998 -0.0060099419 0.43800002 4279390754
0.050739318 -0.0062843687 0.45800003 4279126812
0.052112866 -0.006270647 0.45700002 4278202374
0.053128082 -0.0062157619 0.45300001 4278199808
0.054719958 -0.0062294835 0.45400003 4278200066
0.056194548 -0.0062294835 0.45400003 4279058459
0.057796162 -0.0062432047 0.45500001 4279782182
0.059274007 -0.0062432047 0.45500001 4279914281
0.060751848 -0.0062432047 0.45500001 4279783725
0.062366456 -0.0062569259 0.45600003 4279586346
0.063847549 -0.0062569259 0.45600003 4279256097
0.065471902 -0.006270647 0.45700002 4279717932
0.066956237 -0.006270647 0.45700002 4279522603
0.068590336 -0.0062843687 0.45800003 4279654189
-0.012851017 -0.0041888906 0.40000001 4281812798
-0.0064980011 -0.0042831404 0.40900001 4281025587
-0.0051948479 -0.0043040849 0.41100001 4281420345
-0.0038787022 -0.0043250294 0.41300002 4283327570
0.010771624 -0.0042831404 0.40900001 4279123998
0.012100057 -0.0042831404 0.40900001 4278928670
0.013461323 -0.0042936131 0.41000003 4278929953
0.014829082 -0.0043040849 0.41100001 4278800162
0.01620334 -0.0043145572 0.41200003 4278931746
0.017584093 -0.0043250294 0.41300002 4278669857
0.018971344 -0.0043355017 0.41400003 4278801956
0.020365089 -0.004345974 0.41500002 4278604577
0.021765329 -0.0043564462 0.41600001 4278670370
0.023172066 -0.0043669185 0.41700003 4278342175
0.024526484 -0.0043669185 0.41700003 4278735904
0.025942964 -0.0043773907 0.41800001 4278670111
0.027365942 -0.004387863 0.41900003 4278670111
0.028795416 -0.0043983352 0.42000002 4278204425
0.030231385 -0.0044088075 0.42100003 4278668574
0.031748902 -0.0044297515 0.42300001 4278734880
0.033279419 -0.0044506961 0.42500001 4278669087
0.034822926 -0.0044716406 0.42700002 4278866207
0.036294624 -0.0044821128 0.42800003 4278668828
0.037860863 -0.0045030573 0.43000001 4278865693
0.039440095 -0.0045240019 0.43200001 4279522599
0.041032325 -0.0045449464 0.43400002 4279058970
0.042539749 -0.0045554186 0.43500003 4279585314
0.04405367 -0.0045658909 0.43600002 4278199040
0.045678377 -0.0045868354 0.43800002 4278861080
0.047208536 -0.0045973072 0.43900001 4279584803
0.048966765 -0.0046287244 0.44200003 4280307754
0.050744478 -0.0046601407 0.44500002 4279848484
0.052776244 -0.004712502 0.45000002 4279520289
0.054478899 -0.0047334465 0.45200002 4279323937
0.056070771 -0.0047439183 0.45300001 4279389730
0.05766914 -0.004754391 0.45400003 4279258146
0.059143737 -0.004754391 0.45400003 4279258146
0.060751848 -0.0047648628 0.45500001 4279192355
0.062229685 -0.0047648628 0.45500001 4279587883
0.063847549 -0.0047753355 0.45600003 4278202380
0.065328635 -0.0047753355 0.45600003 4279586859
0.066956237 -0.0047858073 0.45700002 4279391787
0.068440571 -0.0047858073 0.45700002 4279785775
-0.0064980011 -0.0029542579 0.40900001 4281156401
-0.0051948479 -0.0029687041 0.41100001 4280762415
0.0094662802 -0.002961481 0.41000003 4279451164
0.010797961 -0.002961481 0.41000003 4279386654
0.012129641 -0.002961481 0.41000003 4278928154
0.013494154 -0.0029687041 0.41100001 4278993947
0.014865164 -0.0029759274 0.41200003 4279061535
0.016242668 -0.0029831503 0.41300002 4279062048
0.017626671 -0.0029903736 0.41400003 4278865953
0.018971344 -0.0029903736 0.41400003 4278866466
0.020365089 -0.0029975967 0.41500002 4278669857
0.021765329 -0.0030048196 0.41600001 4278735650
0.023172066 -0.003012043 0.41700003 4278669857
0.024526484 -0.003012043 0.41700003 4278670111
0.025942964 -0.0030192661 0.41800001 4278604318
0.027365942 -0.0030264892 0.41900003 4278933283
0.028795416 -0.0030337123 0.42000002 4278204432
0.030231385 -0.0030409356 0.42100003 4279193123
0.031748902 -0.0030553816 0.42300001 4278666011
0.033279419 -0.0030698278 0.42500001 4278201354
0.034822926 -0.0030842742 0.42700002 4278199303
0.036294624 -0.0030914973 0.42800003 4278199047
0.037860863 -0.0031059433 0.43000001 4278526476
0.039440095 -0.0031203898 0.43200001 4278853646
0.040937781 -0.0031276129 0.43300003 4278787855
0.042539749 -0.0031420593 0.43500003 4280832049
0.04405367 -0.0031492822 0.43600002 4279586084
0.045678377 -0.0031637286 0.43800002 4279322912
0.047208536 -0.0031709515 0.43900001 4279717670
0.048966765 -0.0031926211 0.44200003 4278202119
0.050630447 -0.0032070675 0.44400004 4278533394
0.052658964 -0.003243183 0.44900003 4278203403
0.054358374 -0.0032576292 0.45100003 4278797084
0.055946995 -0.0032648523 0.45200002 4278203919
0.057542115 -0.0032720752 0.45300001 4278533144
0.059143737 -0.0032792985 0.45400003 4278992925
0.060751848 -0.0032865216 0.45500001 4278993695
0.062229685 -0.0032865216 0.45500001 4279586346
0.063847549 -0.0032937448 0.45600003 4278204947
0.065328635 -0.0032937448 0.45600003 4279522090
0.066956237 -0.0033009679 0.45700002 4279522603
0.068440571 -0.0033009679 0.45700002 4279127078
-0.0064980011 -0.0016253751 0.40900001 4281879343
0.0094893686 -0.0016333233 0.41100001 4279386139
0.010824297 -0.0016333233 0.41100001 4279386650
0.012159226 -0.0016333233 0.41100001 4279058968
0.013526988 -0.0016372973 0.41200003 4278993945
0.014865164 -0.0016372973 0.41200003 4278995742
0.016242668 -0.0016412713 0.41300002 4278930716
0.017626671 -0.0016452454 0.41400003 4278931486
0.019017167 -0.0016492193 0.41500002 4278734621
0.020365089 -0.0016492193 0.41500002 4278735134
0.021765329 -0.0016531934 0.41600001 4278735134
0.023172066 -0.0016571674 0.41700003 4278669087
0.024526484 -0.0016571674 0.41700003 4278866466
0.025942964 -0.0016611414 0.41800001 4278866466
0.027365942 -0.0016651155 0.41900003 4278603294
0.028795416 -0.0016690894 0.42000002 4278204693
0.030231385 -0.0016730635 0.42100003 4279454246
0.031748902 -0.0016810115 0.42300001 4278461966
0.033279419 -0.0016889595 0.42500001 4278722832
0.034822926 -0.0016969076 0.42700002 4278853394
0.036294624 -0.0017008816 0.42800003 4278853394
0.037860863 -0.0017088297 0.43000001 4278657039
0.039440095 -0.0017167777 0.43200001 4279248406
0.040937781 -0.0017207518 0.43300003 4278328585
0.042539749 -0.0017286999 0.43500003 4280306991
0.04405367 -0.0017326738 0.43600002 4278199554
0.045678377 -0.0017406219 0.43800002 4278199045
0.047208536 -0.0017445958 0.43900001 4278401812
0.048966765 -0.001756518 0.44200003 4278993949
0.050630447 -0.0017644661 0.44400004 4278599191
0.052541681 -0.0017803621 0.44800001 4278336019
0.054237843 -0.0017883101 0.45000002 4278202126
0.055946995 -0.0017962581 0.45200002 4278201615
0.057542115 -0.0018002321 0.45300001 4278200842
0.059143737 -0.0018042063 0.45400003 4279781928
0.060751848 -0.0018081802 0.45500001 4279388707
0.062229685 -0.0018081802 0.45500001 4280573495
0.063847549 -0.0018121543 0.45600003 4278535195
0.065328635 -0.0018121543 0.45600003 4279456810
0.066956237 -0.0018161283 0.45700002 4279785775
0.068440571 -0.0018161283 0.45700002 4281427784
-0.0038787022 -0.00029939206 0.41300002 4281615669
-0.0025495645 -0.0003008419 0.41500002 4281418290
0.0014977981 -0.00030156682 0.41600001 4281747253
0.0095124571 -0.00029866715 0.41200003 4279386652
0.010850633 -0.00029866715 0.41200003 4279058970
0.012188811 -0.00029866715 0.41200003 4279125531
0.01355982 -0.00029939206 0.41300002 4278994459
0.014901243 -0.00029939206 0.41300002 4279062048
0.016281998 -0.00030011698 0.41400003 4278996255
0.017626671 -0.00030011698 0.41400003 4278602781
0.019017167 -0.0003008419 0.41500002 4278866207
0.020414161 -0.00030156682 0.41600001 4278998306
0.021765329 -0.00030156682 0.41600001 4278603548
0.023172066 -0.00030229174 0.41700003 4278866720
0.024526484 -0.00030229174 0.41700003 4278735134
0.025942964 -0.00030301666 0.41800001 4278932000
0.027365942 -0.00030374157 0.41900003 4279260197
0.028795416 -0.00030446649 0.42000002 4278992160
0.030231385 -0.00030519141 0.42100003 4279914029
0.031748902 -0.00030664125 0.42300001 4278987029
0.033279419 -0.00030809108 0.42500001 4279643932
0.034822926 -0.00030954092 0.42700002 4279973926
0.036294624 -0.00031026587 0.42800003 4279974696
0.037860863 -0.00031171567 0.43000001 4278658064
0.039440095 -0.00031316554 0.43200001 4279973922
0.040937781 -0.00031389046 0.43300003 4278196224
0.042441957 -0.00031461538 0.43400002 4280175918
0.04405367 -0.00031606521 0.43600002 4278527246
0.045678377 -0.00031751505 0.43800002 4278592269
0.047208536 -0.00031823997 0.43900001 4279190304
0.048966765 -0.00032041475 0.44200003 4278927902
0.050630447 -0.00032186459 0.44400004 4278204179
0.052424401 -0.00032403934 0.44700003 4279586346
0.054237843 -0.0003262141 0.45000002 4279257896
0.055946995 -0.00032766393 0.45200002 4279389482
0.057542115 -0.00032838885 0.45300001 4279586348
0.059143737 -0.0003291138 0.45400003 4278862111
0.060751848 -0.00032983869 0.45500001 4278200842
0.062366456 -0.00033056363 0.45600003 4278202640
0.063847549 -0.00033056363 0.45600003 4279653674
0.065328635 -0.00033056363 0.45600003 4279653674
0.066956237 -0.00033128855 0.45700002 4279717166
0.068440571 -0.00033128855 0.45700002 4286161548
-0.0038787022 0.0010424872 0.41300002 4281747255
-0.0025495645 0.0010475356 0.41500002 4281878327
-0.0012045392 0.0010500597 0.41600001 4283655250
0.00014662951 0.0010500597 0.41600001 4284115801
0.0014977981 0.0010500597 0.41600001 4283129676
0.0028421185 0.0010475356 0.41500002 4283195469
0.0055112713 0.0010424872 0.41300002 4281945402
0.0068526953 0.0010424872 0.41300002 4284447332
0.0081941206 0.0010424872 0.41300002 4279778850
0.0095355455 0.0010424872 0.41300002 4279386654
0.010876969 0.0010424872 0.41300002 4278927384
0.012218395 0.0010424872 0.41300002 4279125531
0.01355982 0.0010424872 0.41300002 4279126045
0.014901243 0.0010424872 0.41300002 4279127582
0.016281998 0.0010450114 0.41400003 4278930716
0.017626671 0.0010450114 0.41400003 4278931486
0.019017167 0.0010475356 0.41500002 4278866207
0.020414161 0.0010500597 0.41600001 4278800927
0.021765329 0.0010500597 0.41600001 4278735134
0.023172066 0.0010525839 0.41700003 4278866720
0.024585299 0.0010551082 0.41800001 4278998306
0.025942964 0.0010551082 0.41800001 4278866207
0.027365942 0.0010576323 0.41900003 4279193636
0.028795416 0.0010601565 0.42000002 4279979820
0.030303193 0.0010652049 0.42200002 4278860828
0.031748902 0.001067729 0.42300001 4280040487
0.033279419 0.0010727773 0.42500001 4278856211
0.034822926 0.0010778258 0.42700002 4279448863
0.036294624 0.00108035 0.42800003 4279843623
0.037860863 0.0010853983 0.43000001 4279185691
0.039440095 0.0010904466 0.43200001 4280567342
0.040937781 0.0010929708 0.43300003 4279253019
0.042441957 0.0010954951 0.43400002 4280044330
0.04405367 0.0011005434 0.43600002 4278199307
0.045678377 0.0011055918 0.43800002 4280173354
0.047208536 0.0011081159 0.43900001 4279979820
0.048966765 0.0011156885 0.44200003 4279388453
0.050630447 0.0011207369 0.44400004 4278598167
0.052424401 0.0011283094 0.44700003 4278199299
0.054237843 0.0011358819 0.45000002 4278199560
0.055946995 0.0011409303 0.45200002 4278202386
0.057542115 0.0011434545 0.45300001 4280440371
0.059143737 0.0011459787 0.45400003 4280637750
0.060751848 0.0011485028 0.45500001 4279717418
0.062366456 0.001151027 0.45600003 4279783725
0.063847549 0.001151027 0.45600003 4279192101
0.065328635 0.001151027 0.45600003 4278928164
0.066956237 0.0011535512 0.45700002 4285568897
-0.0065138885 0.0023670467 0.41000003 4282208574
-0.0025495645 0.002395913 0.41500002 4281549362
-0.0012045392 0.0024016863 0.41600001 4284115801
0.00014662951 0.0024016863 0.41600001 4283786836
0.0014977981 0.0024016863 0.41600001 4283721043
0.0028421185 0.002395913 0.41500002 4283326285
0.0041900389 0.002395913 0.41500002 4283721813
0.0055246158 0.0023901397 0.41400003 4283787606
0.0068692882 0.0023901397 0.41400003 4283198033
0.0081941206 0.0023843665 0.41300002 4279779363
0.0095355455 0.0023843665 0.41300002 4279453217
0.010876969 0.0023843665 0.41300002 4278993947
0.012218395 0.0023843665 0.41300002 4278993947
0.013592653 0.0023901397 0.41400003 4279126558
0.014937324 0.0023901397 0.41400003 4279193888
0.016281998 0.0023901397 0.41400003 4279062302
0.017669247 0.002395913 0.41500002 4278932000
0.019017167 0.002395913 0.41500002 4278866207
0.020414161 0.0024016863 0.41600001 4278998306
0.021765329 0.0024016863 0.41600001 4278406169
0.023172066 0.0024074595 0.41700003 4278670111
0.024585299 0.0024132328 0.41800001 4278800927
0.025942964 0.0024132328 0.41800001 4278799646
0.027365942 0.0024190061 0.41900003 4278204178
0.028795416 0.0024247793 0.42000002 4279980074
0.030303193 0.0024363259 0.42200002 4278267919
0.031748902 0.0024420992 0.42300001 4278921236
0.033279419 0.0024536457 0.42500001 4278592273
0.034741372 0.0024594192 0.42600003 4278592273
0.036294624 0.0024709657 0.42800003 4278657552
0.037860863 0.0024825123 0.43000001 4278657039
0.0393488 0.0024882855 0.43100002 4278722578
0.040937781 0.0024998321 0.43300003 4280108074
0.042441957 0.0025056053 0.43400002 4278859545
0.04405367 0.0025171519 0.43600002 4278199559
0.045574088 0.0025229251 0.43700001 4278198018
0.047208536 0.0025344717 0.43900001 4278991131
0.048966765 0.0025517917 0.44200003 4280044330
0.050630447 0.0025633383 0.44400004 4279914797
0.052424401 0.0025806581 0.44700003 4279454246
0.054237843 0.0025979779 0.45000002 4279454760
0.055946995 0.0026095244 0.45200002 4279323687
0.057542115 0.0026152977 0.45300001 4279521066
0.059143737 0.0026210712 0.45400003 4279389480
0.060751848 0.0026268442 0.45500001 4279322408
-0.0038880939 0.003735268 0.41400003 4281615157
-0.0012045392 0.0037533126 0.41600001 4283984985
0.00014662951 0.0037533126 0.41600001 4283984985
0.0014977981 0.0037533126 0.41600001 4284248157
0.0028489667 0.0037533126 0.41600001 4283853399
0.0041900389 0.0037442902 0.41500002 4283590227
0.0055379602 0.0037442902 0.41500002 4284050778
0.0068692882 0.003735268 0.41400003 4280105760
0.0082139615 0.003735268 0.41400003 4279845668
0.0095586339 0.003735268 0.41400003 4279190304
0.010903306 0.003735268 0.41400003 4279059742
0.01224798 0.003735268 0.41400003 4278797595
0.013592653 0.003735268 0.41400003 4279193121
0.014937324 0.003735268 0.41400003 4279127841
0.016321326 0.0037442902 0.41500002 4278865693
0.017669247 0.0037442902 0.41500002 4278735134
0.019017167 0.0037442902 0.41500002 4278603548
0.020414161 0.0037533126 0.41600001 4278866720
0.021817649 0.0037623351 0.41700003 4278800673
0.023172066 0.0037623351 0.41700003 4278867236
0.024585299 0.0037713575 0.41800001 4278800927
0.02600503 0.0037803799 0.41900003 4279194406
0.027365942 0.0037803799 0.41900003 4278201096
0.028795416 0.0037894021 0.42000002 4279387683
0.030303193 0.0038074469 0.42200002 4278197760
0.031748902 0.0038164693 0.42300001 4278918928
0.033279419 0.0038345142 0.42500001 4278984721
0.034741372 0.0038435366 0.42600003 4278918674
0.036294624 0.0038615814 0.42800003 4278590222
0.037860863 0.003879626 0.43000001 4278920724
0.0393488 0.0038886485 0.43100002 4279711524
0.040937781 0.0039066933 0.43300003 4280241709
0.042441957 0.0039157155 0.43400002 4280045100
0.04405367 0.0039337603 0.43600002 4279651109
0.045574088 0.0039427825 0.43700001 4279454498
0.047208536 0.0039608274 0.43900001 4279257633
0.048966765 0.0039878949 0.44200003 4279586598
0.050630447 0.0040059397 0.44400004 4279323426
0.052307121 0.0040239841 0.44600001 4279323426
0.054237843 0.0040600738 0.45000002 4279587113
0.055946995 0.0040781186 0.45200002 4279125795
0.057542115 0.0040871408 0.45300001 4280438325
-0.0052327667 0.0050803963 0.41400003 4283920990
-0.0012045392 0.005104939 0.41600001 4283393102
0.00014698198 0.005117211 0.41700003 4283853653
0.0014977981 0.005104939 0.41600001 4283853399
0.0028489667 0.005104939 0.41600001 4283721813
0.0042001354 0.005104939 0.41600001 4283853653
0.0055379602 0.0050926679 0.41500002 4283985752
0.0068858806 0.0050926679 0.41500002 4279383322
0.0082338015 0.0050926679 0.41500002 4279845668
0.0095586339 0.0050803963 0.41400003 4279255838
0.010903306 0.0050803963 0.41400003 4278928156
0.01224798 0.0050803963 0.41400003 4279060767
0.013592653 0.0050803963 0.41400003 4279325222
0.014973405 0.0050926679 0.41500002 4278931746
0.016321326 0.0050926679 0.41500002 4278735134
0.017669247 0.0050926679 0.41500002 4278800927
0.019062992 0.005104939 0.41600001 4278735134
0.020414161 0.005104939 0.41600001 4278866720
0.021817649 0.005117211 0.41700003 4278800927
0.023172066 0.005117211 0.41700003 4278735134
0.024585299 0.0051294821 0.41800001 4278932000
0.02600503 0.0051417537 0.41900003 4279588394
0.027365942 0.0051417537 0.41900003 4278532374
0.028795416 0.0051540253 0.42000002 4279781928
0.030303193 0.0051785684 0.42200002 4278531093
0.031748902 0.0051908395 0.42300001 4279779111
0.033201117 0.0052031111 0.42400002 4280108076
0.034741372 0.0052276542 0.42600003 4279781676
0.036294624 0.0052521974 0.42800003 4279979055
0.037772816 0.0052644685 0.42900002 4279388969
0.0393488 0.0052890116 0.43100002 4279126308
0.040937781 0.0053135548 0.43300003 4279323941
0.042441957 0.0053258259 0.43400002 4279323941
0.043952633 0.0053380979 0.43500003 4279258916
0.045574088 0.0053626406 0.43700001 4279127330
0.047208536 0.0053871833 0.43900001 4278666779
0.048855979 0.0054117264 0.44100001 4279258148
0.050630447 0.0054485411 0.44400004 4280176688
0.052307121 0.0054730838 0.44600001 4281754696
0.054237843 0.0055221696 0.45000002 4285503102
-0.0025618516 0.0064720865 0.41700003 4287738270
0.0015013987 0.0064720865 0.41700003 4283392848
0.0028489667 0.0064565656 0.41600001 4283656020
0.0042001354 0.0064565656 0.41600001 4283787860
0.0055513047 0.0064565656 0.41600001 4284248924
0.0068858806 0.0064410456 0.41500002 4279976742
0.0082338015 0.0064410456 0.41500002 4279517727
0.0095817223 0.0064410456 0.41500002 4279190556
0.010929643 0.0064410456 0.41500002 4279256349
0.012277564 0.0064410456 0.41500002 4278863388
0.013625485 0.0064410456 0.41500002 4278929951
0.014973405 0.0064410456 0.41500002 4278931234
0.016321326 0.0064410456 0.41500002 4278865955
0.017669247 0.0064410456 0.41500002 4278800927
0.019062992 0.0064565656 0.41600001 4278866720
0.020414161 0.0064565656 0.41600001 4278866720
0.021817649 0.0064720865 0.41700003 4278800927
0.023172066 0.0064720865 0.41700003 4278735134
0.024585299 0.006487607 0.41800001 4278866720
0.02600503 0.006503128 0.41900003 4278205714
0.027365942 0.006503128 0.41900003 4278202634
0.028795416 0.006518648 0.42000002 4279258918
0.030231385 0.006534169 0.42100003 4279193638
0.031748902 0.0065652099 0.42300001 4279193638
0.033201117 0.0065807309 0.42400002 4279325224
0.034741372 0.0066117719 0.42600003 4279257894
0.036209822 0.0066272924 0.42700002 4279127078
0.037772816 0.0066583334 0.42900002 4279258918
0.039257504 0.0066738538 0.43000001 4279193123
0.040937781 0.0067204162 0.43300003 4279390500
0.042441957 0.0067359363 0.43400002 4279193123
0.043952633 0.0067514572 0.43500003 4279981617
0.045469798 0.0067669777 0.43600002 4280045361
0.0028558155 0.0078269625 0.41700003 4281091378
0.0042001354 0.0078081922 0.41600001 4282933580
0.0055513047 0.0078081922 0.41600001 4280039969
0.0069024726 0.0078081922 0.41600001 4280042535
0.0082338015 0.0077894228 0.41500002 4279517473
0.0095817223 0.0077894228 0.41500002 4279453217
0.010929643 0.0077894228 0.41500002 4279124765
0.012277564 0.0077894228 0.41500002 4279126562
0.013625485 0.0077894228 0.41500002 4279193125
0.014973405 0.0077894228 0.41500002 4278997029
0.016321326 0.0077894228 0.41500002 4278734371
0.017711822 0.0078081922 0.41600001 4278931750
0.019062992 0.0078081922 0.41600001 4278931750
0.020463234 0.0078269625 0.41700003 4278800675
0.021817649 0.0078269625 0.41700003 4278734882
0.023227634 0.0078457315 0.41800001 4278866468
0.024585299 0.0078457315 0.41800001 4278669089
0.02600503 0.0078645013 0.41900003 4278997029
0.027365942 0.0078645013 0.41900003 4279061539
0.028795416 0.0078832712 0.42000002 4279193636
0.030231385 0.0079020411 0.42100003 4279325220
0.031673849 0.007920811 0.42200002 4279127841
0.033122811 0.0079395799 0.42300001 4279325222
0.034741372 0.0079958895 0.42600003 4279390504
0.036209822 0.0080146594 0.42700002 4279718445
0.037772816 0.0080521982 0.42900002 4279650344
0.039257504 0.0080709681 0.43000001 4280241711
0.0028558155 0.0091818376 0.41700003 4287672988
0.0042102323 0.0091818376 0.41700003 4282672209
0.0055513047 0.0091598183 0.41600001 4279382818
0.0069024726 0.0091598183 0.41600001 4279647777
0.0082536414 0.0091598183 0.41600001 4279648289
0.0096048107 0.0091598183 0.41600001 4279189791
0.010929643 0.0091378 0.41500002 4279453730
0.012277564 0.0091378 0.41500002 4279126049
0.013625485 0.0091378 0.41500002 4279127332
0.015009484 0.0091598183 0.41600001 4279260201
0.016360654 0.0091598183 0.41600001 4278931750
0.017711822 0.0091598183 0.41600001 4279063336
0.019062992 0.0091598183 0.41600001 4279129642
0.020463234 0.0091818376 0.41700003 4278998056
0.021817649 0.0091818376 0.41700003 4278867240
0.023227634 0.0092038559 0.41800001 4278866468
0.024585299 0.0092038559 0.41800001 4279129127
0.02600503 0.0092258751 0.41900003 4279588396
0.027365942 0.0092258751 0.41900003 4280048434
0.028795416 0.0092478935 0.42000002 4279981871
0.030231385 0.0092699127 0.42100003 4279652652
0.031673849 0.0092919311 0.42200002 4279716398
0.033122811 0.0093139503 0.42300001 4281885771
0.0055513047 0.010511445 0.41600001 4287476381
0.0069024726 0.010511445 0.41600001 4286094728
0.0082536414 0.010511445 0.41600001 4280304944
0.0096048107 0.010511445 0.41600001 4279318558
0.010955979 0.010511445 0.41600001 4279780647
0.012307148 0.010511445 0.41600001 4279388707
0.013658317 0.010511445 0.41600001 4279652906
0.015009484 0.010511445 0.41600001 4279851568
0.016360654 0.010511445 0.41600001 4279588396
0.017711822 0.010511445 0.41600001 4279654189
0.019062992 0.010511445 0.41600001 4279456810
0.020463234 0.010536713 0.41700003 4279785775
0.021817649 0.010536713 0.41700003 4279588396
0.023227634 0.01056198 0.41800001 4279454760
0.024585299 0.01056198 0.41800001 4280637239
0.02600503 0.010587249 0.41900003 4282017357
0.0096048107 0.011863071 0.41600001 4287409816
0.010955979 0.011863071 0.41600001 4286225540
0.012307148 0.011863071 0.41600001 4281424452
0.013658317 0.011863071 0.41600001 4280240946
0.015009484 0.011863071 0.41600001 4279780906
0.016360654 0.011863071 0.41600001 4279451941
0.017711822 0.011863071 0.41600001 4280307252
0.019062992 0.011863071 0.41600001 4281885773
0.031177217 -0.0018377515 0.43312076 4294967295
0.031177217 -0.0018377515 0.43312076 4294901760
0.03123389 -0.0013415653 0.43314499 4294901760
0.031290565 -0.0008453792 0.43316925 4294901760
0.031347238 -0.00034919311 0.43319348 4294901760
0.03140391 0.00014699309 0.4332177 4294901760
0.031460583 0.00064317917 0.43324193 4294901760
0.031517256 0.0011393653 0.43326619 4294901760
0.031573929 0.0016355513 0.43329042 4294901760
0.031630605 0.0021317378 0.43331465 4294901760
0.031687278 0.0026279241 0.43333891 4294901760
0.031743951 0.0031241099 0.43336314 4294901760
0.031800624 0.0036202963 0.43338737 4294901760
0.031857297 0.0041164821 0.4334116 4294901760
0.03191397 0.004612668 0.43343586 4294901760
0.031970643 0.0051088543 0.43346009 4294901760
0.032027315 0.005605041 0.43348432 4294901760
0.032083988 0.0061012269 0.43350855 4294901760
0.032140665 0.0065974132 0.4335328 4294901760
0.032197338 0.0070935995 0.43355703 4294901760
0.03225401 0.0075897849 0.43358126 4294901760
0.032310683 0.0080859708 0.43360552 4294901760
0.032367356 0.0085821562 0.43362975 4294901760
0.032424029 0.0090783434 0.43365398 4294901760
0.032480702 0.0095745297 0.43367821 4294901760
0.032537378 0.010070715 0.43370247 4294901760
0.032594051 0.010566901 0.4337267 4294901760
0.032650724 0.011063087 0.43375093 4294901760
0.032707397 0.011559274 0.43377519 4294901760
0.03276407 0.012055459 0.43379942 4294901760
0.032820743 0.012551646 0.43382365 4294901760
0.032877415 0.013047833 0.43384787 4294901760
0.032934088 0.013544018 0.43387213 4294901760
0.032990761 0.014040205 0.43389636 4294901760
0.033047438 0.014536391 0.43392059 4294901760
0.033104111 0.015032577 0.43394485 4294901760
0.033160783 0.015528762 0.43396908 4294901760
0.033217456 0.016024951 0.43399331 4294901760
0.033274129 0.016521135 0.43401754 4294901760
0.033330802 0.017017322 0.4340418 4294901760
0.033387475 0.017513508 0.43406603 4294901760
0.033444151 0.018009694 0.43409026 4294901760
0.033500824 0.018505881 0.43411449 4294901760
0.033557497 0.019002065 0.43413875 4294901760
0.03361417 0.019498253 0.43416297 4294901760
0.033670843 0.01999444 0.4341872 4294901760
0.033727515 0.020490624 0.43421146 4294901760
0.033784188 0.020986812 0.43423569 4294901760
0.033840861 0.021482997 0.43425992 4294901760
0.033897534 0.021979183 0.43428415 4294901760
0.033954211 0.022475369 0.43430841 4294901760
0.034010883 0.022971556 0.43433264 4294901760
0.034067556 0.023467742 0.43435687 4294901760
0.034124229 0.023963926 0.43438113 4294901760
0.034180902 0.024460113 0.43440536 4294901760
0.034237575 0.024956301 0.43442959 4294901760
0.034294248 0.025452487 0.43445382 4294901760
0.034350924 0.025948672 0.43447807 4294901760
0.034407597 0.026444858 0.4345023 4294901760
0.03446427 0.026941044 0.43452653 4294901760
0.034520943 0.027437229 0.43455079 4294901760
0.034577616 0.027933419 0.43457502 4294901760
0.034634288 0.028429603 0.43459925 4294901760
0.034690961 0.02892579 0.43462348 4294901760
0.034747634 0.029421976 0.43464774 4294901760
0.034804307 0.029918162 0.43467197 4294901760
0.034860983 0.030414345 0.4346962 4294901760
0.034917656 0.030910535 0.43472043 4294901760
0.034974329 0.031406719 0.43474469 4294901760
0.035031002 0.031902906 0.43476892 4294901760
0.035087675 0.032399092 0.43479314 4294901760
0.035144348 0.032895274 0.4348174 4294901760
0.035201021 0.033391461 0.43484163 4294901760
0.035257697 0.033887651 0.43486586 4294901760
0.03531437 0.034383837 0.43489009 4294901760
0.035371043 0.03488002 0.43491435 4294901760
0.035427716 0.035376206 0.43493858 4294901760
0.035484388 0.035872392 0.43496281 4294901760
0.035541061 0.036368579 0.43498707 4294901760
0.035597734 0.036864765 0.4350113 4294901760
0.035654407 0.037360951 0.43503553 4294901760
0.03571108 0.037857138 0.43505976 4294901760
0.035767756 0.038353324 0.43508402 4294901760
0.035824429 0.03884951 0.43510824 4294901760
0.035881102 0.039345697 0.43513247 4294901760
0.035937775 0.039841879 0.43515673 4294901760
0.035994448 0.040338069 0.43518096 4294901760
0.036051121 0.040834256 0.43520519 4294901760
0.036107793 0.041330442 0.43522942 4294901760
0.03616447 0.041826628 0.43525368 4294901760
0.036221143 0.042322811 0.43527791 4294901760
0.036277816 0.042818997 0.43530214 4294901760
0.036334489 0.043315187 0.43532637 4294901760
0.036391161 0.043811373 0.43535063 4294901760
0.036447834 0.044307556 0.43537486 4294901760
0.036504507 0.044803742 0.43539909 4294901760
0.03656118 0.045299929 0.43542334 4294901760
0.036617853 0.045796115 0.43544757 4294901760
0.036674529 0.046292305 0.4354718 4294901760
0.036731202 0.046788488 0.43549603 4294901760
0.036787875 0.047284674 0.43552029 4294901760
0.036844548 0.04778086 0.43554452 4294901760
0.031177217 -0.0018377515 0.43312076 4278255360
0.031532221 -0.0018952672 0.43346813 4278255360
0.031887218 -0.0019527829 0.43381551 4278255360
0.032242224 -0.0020102987 0.43416286 4278255360
0.032597221 -0.0020678143 0.43451023 4278255360
0.032952227 -0.00212533 0.43485761 4278255360
0.033307225 -0.0021828457 0.43520498 4278255360
0.03366223 -0.0022403614 0.43555236 4278255360
0.034017228 -0.0022978771 0.4358997 4278255360
0.034372233 -0.002355393 0.43624708 4278255360
0.034727231 -0.0024129087 0.43659446 4278255360
0.035082236 -0.0024704244 0.43694183 4278255360
0.035437234 -0.0025279401 0.43728921 4278255360
0.035792239 -0.0025854558 0.43763655 4278255360
0.036147237 -0.0026429715 0.43798393 4278255360
0.036502242 -0.0027004872 0.43833131 4278255360
0.03685724 -0.0027580028 0.43867868 4278255360
0.037212245 -0.0028155185 0.43902606 4278255360
0.037567247 -0.0028730342 0.4393734 4278255360
0.037922248 -0.0029305499 0.43972078 4278255360
0.038277246 -0.0029880656 0.44006816 4278255360
0.038632251 -0.0030455813 0.44041553 4278255360
0.038987249 -0.003103097 0.44076291 4278255360
0.039342254 -0.0031606129 0.44111025 4278255360
0.039697252 -0.0032181286 0.44145763 4278255360
0.040052257 -0.0032756443 0.44180501 4278255360
0.040407255 -0.00333316 0.44215238 4278255360
0.040762261 -0.0033906759 0.44249976 4278255360
0.041117258 -0.0034481916 0.4428471 4278255360
0.041472264 -0.003505707 0.44319448 4278255360
0.041827261 -0.0035632229 0.44354185 4278255360
0.042182267 -0.0036207386 0.44388923 4278255360
0.042537265 -0.0036782543 0.44423661 4278255360
0.04289227 -0.00373577 0.44458395 4278255360
0.043247268 -0.0037932857 0.44493133 4278255360
0.043602273 -0.0038508014 0.4452787 4278255360
0.043957274 -0.0039083171 0.44562608 4278255360
0.044312276 -0.0039658328 0.44597346 4278255360
0.044667274 -0.0040233484 0.4463208 4278255360
0.045022275 -0.0040808641 0.44666818 4278255360
0.045377277 -0.0041383798 0.44701555 4278255360
0.045732282 -0.0041958955 0.44736293 4278255360
0.04608728 -0.0042534112 0.44771031 4278255360
0.046442285 -0.0043109269 0.44805765 4278255360
0.046797283 -0.0043684426 0.44840503 4278255360
0.047152288 -0.0044259583 0.4487524 4278255360
0.047507286 -0.0044834744 0.44909978 4278255360
0.047862291 -0.0045409901 0.44944715 4278255360
0.048217289 -0.0045985058 0.4497945 4278255360
0.048572294 -0.0046560215 0.45014188 4278255360
0.048927292 -0.0047135372 0.45048925 4278255360
0.049282297 -0.0047710529 0.45083663 4278255360
0.049637295 -0.0048285685 0.451184 4278255360
0.049992297 -0.0048860842 0.45153135 4278255360
0.050347298 -0.0049435999 0.45187873 4278255360
0.050702304 -0.0050011156 0.4522261 4278255360
0.051057301 -0.0050586313 0.45257348 4278255360
0.051412307 -0.005116147 0.45292085 4278255360
0.051767305 -0.0051736627 0.4532682 4278255360
0.05212231 -0.0052311784 0.45361558 4278255360
0.052477308 -0.0052886945 0.45396295 4278255360
0.052832313 -0.0053462097 0.45431033 4278255360
0.053187311 -0.0054037254 0.4546577 4278255360
0.053542316 -0.0054612411 0.45500505 4278255360
0.053897314 -0.0055187568 0.45535243 4278255360
0.054252319 -0.0055762725 0.4556998 4278255360
0.054607317 -0.0056337886 0.45604718 4278255360
0.054962322 -0.0056913043 0.45639455 4278255360
0.05531732 -0.0057488196 0.4567419 4278255360
0.055672325 -0.0058063352 0.45708928 4278255360
0.056027323 -0.0058638509 0.45743665 4278255360
0.056382328 -0.0059213666 0.45778403 4278255360
0.05673733 -0.0059788828 0.4581314 4278255360
0.057092331 -0.0060363985 0.45847875 4278255360
0.057447329 -0.0060939142 0.45882612 4278255360
0.057802334 -0.0061514298 0.4591735 4278255360
0.058157332 -0.0062089455 0.45952088 4278255360
0.058512338 -0.0062664612 0.45986825 4278255360
0.058867335 -0.0063239769 0.4602156 4278255360
0.059222341 -0.0063814926 0.46056297 4278255360
0.059577338 -0.0064390083 0.46091035 4278255360
0.059932344 -0.006496524 0.46125773 4278255360
0.060287341 -0.0065540397 0.4616051 4278255360
0.060642347 -0.0066115553 0.46195245 4278255360
0.060997345 -0.006669071 0.46229982 4278255360
0.06135235 -0.0067265872 0.4626472 4278255360
0.061707348 -0.0067841024 0.46299458 4278255360
0.062062353 -0.0068416181 0.46334195 4278255360
0.062417351 -0.0068991338 0.4636893 4278255360
0.062772356 -0.0069566495 0.46403667 4278255360
0.063127354 -0.0070141652 0.46438405 4278255360
0.063482359 -0.0070716813 0.46473143 4278255360
0.063837357 -0.007129197 0.4650788 4278255360
0.064192362 -0.0071867127 0.46542615 4278255360
0.06454736 -0.0072442284 0.46577352 4278255360
0.064902365 -0.0073017441 0.4661209 4278255360
0.065257363 -0.0073592598 0.46646827 4278255360
0.065612368 -0.0074167755 0.46681565 4278255360
0.065967366 -0.0074742911 0.467163 4278255360
0.066322371 -0.0075318068 0.46751037 4278255360
0.066677369 -0.0075893225 0.46785775 4278255360
0.031177217 -0.0018377515 0.43312076 4278190335
0.031535078 -0.0018616079 0.43277237 4278190335
0.031892937 -0.0018854644 0.43242401 4278190335
0.032250796 -0.0019093208 0.43207562 4278190335
0.032608654 -0.0019331774 0.43172723 4278190335
0.032966513 -0.0019570338 0.43137887 4278190335
0.033324376 -0.0019808903 0.43103048 4278190335
0.033682235 -0.0020047468 0.43068212 4278190335
0.034040093 -0.0020286031 0.43033373 4278190335
0.034397952 -0.0020524596 0.42998534 4278190335
0.034755811 -0.0020763162 0.42963699 4278190335
0.03511367 -0.0021001725 0.4292886 4278190335
0.035471532 -0.002124029 0.42894021 4278190335
0.035829391 -0.0021478855 0.42859185 4278190335
0.03618725 -0.002171742 0.42824346 4278190335
0.036545109 -0.0021955983 0.42789507 4278190335
0.036902968 -0.0022194549 0.42754671 4278190335
0.03726083 -0.0022433114 0.42719832 4278190335
0.037618689 -0.0022671679 0.42684993 4278190335
0.037976548 -0.0022910242 0.42650157 4278190335
0.038334407 -0.0023148807 0.42615318 4278190335
0.038692266 -0.0023387372 0.42580482 4278190335
0.039050125 -0.0023625935 0.42545643 4278190335
0.039407987 -0.0023864501 0.42510805 4278190335
0.039765846 -0.0024103066 0.42475969 4278190335
0.040123705 -0.0024341629 0.4244113 4278190335
0.040481564 -0.0024580194 0.42406291 4278190335
0.040839426 -0.0024818759 0.42371455 4278190335
0.041197285 -0.0025057325 0.42336616 4278190335
0.041555144 -0.0025295888 0.42301777 4278190335
0.041913003 -0.0025534453 0.42266941 4278190335
0.042270862 -0.0025773018 0.42232102 4278190335
0.04262872 -0.0026011583 0.42197266 4278190335
0.042986579 -0.0026250146 0.42162427 4278190335
0.043344442 -0.0026488712 0.42127588 4278190335
0.043702301 -0.0026727277 0.42092752 4278190335
0.044060159 -0.002696584 0.42057914 4278190335
0.044418018 -0.0027204405 0.42023075 4278190335
0.044775877 -0.002744297 0.41988239 4278190335
0.04513374 -0.0027681533 0.419534 4278190335
0.045491599 -0.0027920099 0.41918561 4278190335
0.045849457 -0.0028158664 0.41883725 4278190335
0.046207316 -0.0028397227 0.41848886 4278190335
0.046565175 -0.0028635794 0.41814047 4278190335
0.046923034 -0.0028874357 0.41779211 4278190335
0.047280893 -0.0029112922 0.41744372 4278190335
0.047638755 -0.0029351488 0.41709536 4278190335
0.047996614 -0.0029590051 0.41674697 4278190335
0.048354473 -0.0029828616 0.41639858 4278190335
0.048712336 -0.0030067181 0.41605023 4278190335
0.049070194 -0.0030305744 0.41570184 4278190335
0.049428053 -0.0030544309 0.41535345 4278190335
0.049785912 -0.0030782875 0.41500509 4278190335
0.050143771 -0.0031021438 0.4146567 4278190335
0.05050163 -0.0031260005 0.41430831 4278190335
0.050859489 -0.0031498568 0.41395995 4278190335
0.051217347 -0.0031737133 0.41361156 4278190335
0.051575206 -0.0031975699 0.4132632 4278190335
0.051933069 -0.0032214262 0.41291481 4278190335
0.052290928 -0.0032452825 0.41256642 4278190335
0.05264879 -0.0032691392 0.41221806 4278190335
0.053006649 -0.0032929955 0.41186967 4278190335
0.053364508 -0.003316852 0.41152129 4278190335
0.053722367 -0.0033407086 0.41117293 4278190335
0.054080226 -0.0033645649 0.41082454 4278190335
0.054438084 -0.0033884214 0.41047615 4278190335
0.054795943 -0.0034122779 0.41012779 4278190335
0.055153802 -0.0034361344 0.4097794 4278190335
0.055511665 -0.003459991 0.40943104 4278190335
0.055869523 -0.0034838472 0.40908265 4278190335
0.056227382 -0.0035077038 0.40873426 4278190335
0.056585241 -0.0035315603 0.4083859 4278190335
0.056943104 -0.0035554166 0.40803751 4278190335
0.057300963 -0.0035792734 0.40768912 4278190335
0.057658821 -0.0036031296 0.40734076 4278190335
0.05801668 -0.0036269859 0.40699238 4278190335
0.058374539 -0.0036508425 0.40664399 4278190335
0.058732398 -0.003674699 0.40629563 4278190335
0.059090257 -0.0036985553 0.40594724 4278190335
0.059448119 -0.003722412 0.40559885 4278190335
0.059805978 -0.0037462683 0.40525049 4278190335
0.060163837 -0.0037701249 0.4049021 4278190335
0.060521696 -0.0037939814 0.40455371 4278190335
0.060879558 -0.0038178377 0.40420535 4278190335
0.061237417 -0.003841694 0.40385696 4278190335
0.061595276 -0.0038655507 0.4035086 4278190335
0.061953135 -0.003889407 0.40316021 4278190335
0.062310994 -0.0039132638 0.40281183 4278190335
0.062668853 -0.0039371201 0.40246347 4278190335
0.063026711 -0.0039609764 0.40211508 4278190335
0.06338457 -0.0039848331 0.40176669 4278190335
0.063742436 -0.0040086894 0.40141833 4278190335
0.064100295 -0.0040325457 0.40106994 4278190335
0.064458154 -0.0040564025 0.40072155 4278190335
0.064816013 -0.0040802588 0.40037319 4278190335
0.065173872 -0.0041041151 0.4000248 4278190335
0.065531731 -0.0041279718 0.39967644 4278190335
0.065889589 -0.0041518281 0.39932805 4278190335
0.066247448 -0.0041756849 0.39897966 4278190335
0.066605307 -0.0041995412 0.3986313 4278190335
0.066963166 -0.0042233975 0.39828292 4278190335
0.031177217 -0.0018377515 0.43312076 4294967295
0.02903006 -0.0016946127 0.43521103 4294967295
0.026882904 -0.001551474 0.43730131 4294967295
0.024735747 -0.0014083353 0.43939155 4294967295
0.02258859 -0.0012651965 0.44148183 4294967295
0.020441432 -0.0011220577 0.4435721 4294967295
0.018294275 -0.00097891898 0.44566238 4294967295
0.016147118 -0.00083578029 0.44775265 4294967295
0.013999963 -0.00069264148 0.44984293 4294967295
0.011852805 -0.00054950267 0.45193321 4294967295
0.0097056478 -0.00040636398 0.45402345 4294967295
0.0075584911 -0.00026322529 0.45611373 4294967295
0.0054113343 -0.0001200866 0.458204 4294967295
0.0032641795 2.3052213e-05 0.46029428 4294967295
0.0011170208 0.0001661909 0.46238455 4294967295
-0.0010301378 0.00030932983 0.4644748 4294967295
-0.0031772908 0.00045246852 0.46656507 4294967295
-0.0053244513 0.00059560721 0.46865535 4294967295
-0.007471608 0.00073874614 0.47074562 4294967295
-0.0096187647 0.0008818846 0.4728359 4294967295
-0.011765921 0.0010250235 0.47492617 4294967295
-0.013913075 0.0011681622 0.47701642 4294967295
-0.016060235 0.0013113009 0.47910669 4294967295
-0.018207392 0.0014544398 0.48119697 4294967295
-0.020354548 0.0015975783 0.48328725 4294967295
