# .PCD v0.7 - Point Cloud Data file format
VERSION 0.7
FIELDS x y z rgb
SIZE 4 4 4 4
TYPE F F F U
COUNT 1 1 1 1
WIDTH 1031
HEIGHT 1
VIEWPOINT 0 0 0 1 0 0 0
POINTS 1031
DATA ascii
0.10795671 -0.021600427 0.38600001 4279127332
0.10949338 -0.021656388 0.38700002 4278535706
0.11103653 -0.021712348 0.38800001 4278865441
0.11287561 -0.021824267 0.39000002 4278931234
0.11502033 -0.021992145 0.39300001 4279062818
0.11688864 -0.022104066 0.39500001 4278602267
0.11847078 -0.022160025 0.39600003 4278602267
0.12036183 -0.022271946 0.39800003 4278601497
0.12226585 -0.022383863 0.40000001 4278930462
0.12387397 -0.022439824 0.40100002 4279061535
0.12517643 -0.022439824 0.40100002 4279193121
0.12679426 -0.022495782 0.40200001 4279390500
0.12841862 -0.022551743 0.40300003 4279587109
0.12972757 -0.022551743 0.40300003 4279718184
0.13136166 -0.022607703 0.40400001 4279783977
0.13267386 -0.022607703 0.40400001 4280177453
0.13398606 -0.022607703 0.40400001 4280965432
0.074827179 -0.019871878 0.377 4285302907
0.076051667 -0.019871878 0.377 4285895044
0.077071197 -0.019819168 0.37600002 4286026630
0.078084223 -0.019766459 0.37500003 4285895044
0.079302229 -0.019766459 0.37500003 4285960837
0.080734938 -0.019819168 0.37600002 4285960837
0.08217416 -0.019871878 0.377 4285960837
0.083619878 -0.01992459 0.37800002 4285895044
0.085072078 -0.019977299 0.37900001 4285631872
0.088919833 -0.020293564 0.38500002 4285631872
0.090170309 -0.020293564 0.38500002 4285895044
0.091420792 -0.020293564 0.38500002 4285764739
0.092671275 -0.020293564 0.38500002 4283067480
0.093921751 -0.020293564 0.38500002 4280700211
0.095172234 -0.020293564 0.38500002 4280306991
0.09642271 -0.020293564 0.38500002 4279914027
0.097673193 -0.020293564 0.38500002 4279914797
0.099180616 -0.020346273 0.38600001 4279455014
0.10043435 -0.020346273 0.38600001 4279323426
0.10168808 -0.020346273 0.38600001 4279389219
0.10294181 -0.020346273 0.38600001 4279192353
0.10419554 -0.020346273 0.38600001 4279127330
0.10544926 -0.020346273 0.38600001 4279193636
0.10670298 -0.020346273 0.38600001 4279260197
0.1082364 -0.020398986 0.38700002 4278931232
0.1097763 -0.020451695 0.38800001 4278865439
0.11132272 -0.020504406 0.38900003 4278733853
0.11316504 -0.020609828 0.39100003 4278733853
0.11531302 -0.020767959 0.39400002 4279127841
0.11688864 -0.020820668 0.39500001 4279127841
0.11847078 -0.020873381 0.39600003 4279325220
0.12036183 -0.020978801 0.39800003 4279193121
0.12196019 -0.021031512 0.39900002 4279389732
0.12356506 -0.021084221 0.40000001 4279980842
0.12517643 -0.021136932 0.40100002 4278663699
0.12647887 -0.021136932 0.40100002 4278399759
0.12809996 -0.021189643 0.40200001 4279848488
0.12940566 -0.021189643 0.40200001 4279717672
0.13103652 -0.021242354 0.40300003 4279849258
0.13267386 -0.021295063 0.40400001 4280570928
0.13398606 -0.021295063 0.40400001 4281095223
0.070300169 -0.01874589 0.37900001 4285764228
0.071531162 -0.01874589 0.37900001 4285632642
0.072762154 -0.01874589 0.37900001 4285697665
0.073797919 -0.018696429 0.37800002 4285631872
0.074827179 -0.018646967 0.377 4285895044
0.076051667 -0.018646967 0.377 4285895042
0.077071197 -0.018597506 0.37600002 4285960835
0.078292444 -0.018597506 0.37600002 4285763456
0.079513699 -0.018597506 0.37600002 4285763456
0.080949657 -0.018646967 0.377 4285763456
0.082392126 -0.018696429 0.37800002 4285763456
0.083841085 -0.01874589 0.37900001 4286026628
0.085296549 -0.018795352 0.38000003 4286093191
0.087213926 -0.018943736 0.38300002 4284580465
0.088688865 -0.018993197 0.384 4281489731
0.090170309 -0.01904266 0.38500002 4280042799
0.091420792 -0.01904266 0.38500002 4280241457
0.092671275 -0.01904266 0.38500002 4279716650
0.093921751 -0.01904266 0.38500002 4279521320
0.095172234 -0.01904266 0.38500002 4279389734
0.09642271 -0.01904266 0.38500002 4278995744
0.097926885 -0.01909212 0.38600001 4278996255
0.099180616 -0.01909212 0.38600001 4279127841
0.10043435 -0.01909212 0.38600001 4279127841
0.10168808 -0.01909212 0.38600001 4279325220
0.10294181 -0.01909212 0.38600001 4279194404
0.10446548 -0.019141583 0.38700002 4278931232
0.10572244 -0.019141583 0.38700002 4278931232
0.10725585 -0.019191043 0.38800001 4278931232
0.10851608 -0.019191043 0.38800001 4278996255
0.11034217 -0.019289967 0.39000002 4279062048
0.11189507 -0.019339429 0.39100003 4279127328
0.11345446 -0.01938889 0.39200002 4279061535
0.11531302 -0.019487813 0.39400002 4279390500
0.11718457 -0.019586736 0.39600003 4279389730
0.11876994 -0.019636197 0.39700001 4279126045
0.12036183 -0.01968566 0.39800003 4278400529
0.12196019 -0.01973512 0.39900002 4278465039
0.12356506 -0.019784581 0.40000001 4280569645
0.12486426 -0.019784581 0.40000001 4280898610
0.12647887 -0.019834043 0.40100002 4280700717
0.12778132 -0.019834043 0.40100002 4280241963
0.12940566 -0.019883504 0.40200001 4279980074
0.13071136 -0.019883504 0.40200001 4280374832
0.13234547 -0.019932967 0.40300003 4281161530
0.059654702 -0.017283419 0.37400001 4285239680
0.060869459 -0.017283419 0.37400001 4285501569
0.062084213 -0.017283419 0.37400001 4285764228
0.063298963 -0.017283419 0.37400001 4285763975
0.069069177 -0.01751448 0.37900001 4285632642
0.070300169 -0.01751448 0.37900001 4285632642
0.071531162 -0.01751448 0.37900001 4285764228
0.072762154 -0.01751448 0.37900001 4285763458
0.073797919 -0.017468268 0.37800002 4285697665
0.075025663 -0.017468268 0.37800002 4285763458
0.076051667 -0.017422056 0.377 4285697663
0.07727617 -0.017422056 0.377 4285895042
0.078500666 -0.017422056 0.377 4285697663
0.079936638 -0.017468268 0.37800002 4285896325
0.081164382 -0.017468268 0.37800002 4285962118
0.082610093 -0.01751448 0.37900001 4283791719
0.084062308 -0.017560694 0.38000003 4280831799
0.085521005 -0.017606905 0.38100001 4280175405
0.087213926 -0.017699331 0.38300002 4280242481
0.088688865 -0.017745541 0.384 4280045615
0.090170309 -0.017791755 0.38500002 4279585832
0.091420792 -0.017791755 0.38500002 4279192355
0.092671275 -0.017791755 0.38500002 4279061539
0.093921751 -0.017791755 0.38500002 4278996257
0.095419429 -0.017837968 0.38600001 4278997027
0.096673153 -0.017837968 0.38600001 4278931232
0.097926885 -0.017837968 0.38600001 4279194404
0.099180616 -0.017837968 0.38600001 4279260197
0.10069454 -0.01788418 0.38700002 4279194404
0.10195152 -0.01788418 0.38700002 4278931234
0.1032085 -0.01788418 0.38700002 4278997027
0.10473541 -0.017930392 0.38800001 4279193634
0.10599563 -0.017930392 0.38800001 4279325220
0.10753229 -0.017976604 0.38900003 4279587879
0.10907544 -0.018022817 0.39000002 4279521316
0.1106251 -0.018069031 0.39100003 4279717668
0.11218124 -0.018115241 0.39200002 4279716898
0.11403331 -0.018207667 0.39400002 4279519521
0.11560568 -0.018253878 0.39500001 4278202891
0.11718457 -0.018300092 0.39600003 4279320861
0.11876994 -0.018346304 0.39700001 4280109862
0.12036183 -0.018392516 0.39800003 4280438057
0.12196019 -0.018438729 0.39900002 4280175655
0.12325615 -0.018438729 0.39900002 4279978276
0.12486426 -0.018484941 0.40000001 4278594828
0.12616345 -0.018484941 0.40000001 4280241196
0.12778132 -0.018531153 0.40100002 4280175916
0.12940566 -0.018577365 0.40200001 4280504881
0.13071136 -0.018577365 0.40200001 4280635954
0.059654702 -0.016068256 0.37400001 4279255595
0.060869459 -0.016068256 0.37400001 4284911229
0.062084213 -0.016068256 0.37400001 4285566849
0.063298963 -0.016068256 0.37400001 4285764228
0.064686216 -0.016111219 0.37500003 4285632642
0.068886936 -0.016240109 0.37800002 4285632642
0.07011468 -0.016240109 0.37800002 4285566849
0.071342431 -0.016240109 0.37800002 4285632642
0.072570167 -0.016240109 0.37800002 4285632642
0.073797919 -0.016240109 0.37800002 4285764228
0.075025663 -0.016240109 0.37800002 4285566847
0.076253399 -0.016240109 0.37800002 4285764226
0.077481151 -0.016240109 0.37800002 4285370235
0.078708895 -0.016240109 0.37800002 4282541906
0.080148108 -0.016283071 0.37900001 4279714602
0.081379101 -0.016283071 0.37900001 4279913264
0.082828067 -0.016326034 0.38000003 4279849006
0.084283523 -0.016368998 0.38100001 4279585834
0.085745476 -0.016411962 0.38200003 4279257635
0.087213926 -0.016454924 0.38300002 4279258146
0.088688865 -0.016497888 0.384 4279127330
0.090170309 -0.016540851 0.38500002 4278996257
0.091420792 -0.016540851 0.38500002 4278997027
0.092671275 -0.016540851 0.38500002 4279325994
0.094165698 -0.016583813 0.38600001 4279325994
0.095419429 -0.016583813 0.38600001 4279457580
0.096673153 -0.016583813 0.38600001 4278997025
0.097926885 -0.016583813 0.38600001 4278930716
0.099437565 -0.016626777 0.38700002 4279062302
0.10069454 -0.016626777 0.38700002 4278996509
0.10221496 -0.016669741 0.38800001 4279127841
0.10347518 -0.016669741 0.38800001 4279325222
0.10473541 -0.016669741 0.38800001 4279192353
0.10626882 -0.016712705 0.38900003 4279389219
0.10780872 -0.016755667 0.39000002 4280178221
0.10935513 -0.01679863 0.39100003 4279189273
0.11090802 -0.016841594 0.39200002 4278267660
0.11246742 -0.016884556 0.39300001 4279911715
0.11432273 -0.016970484 0.39500001 4280438829
0.11589836 -0.017013447 0.39600003 4280307241
0.11748049 -0.017056409 0.39700001 4279649313
0.11906912 -0.017099373 0.39800003 4279780899
0.12036183 -0.017099373 0.39800003 4279715106
0.12196019 -0.017142337 0.39900002 4279846692
0.12325615 -0.017142337 0.39900002 4280701231
0.12486426 -0.017185299 0.40000001 4280634670
0.12616345 -0.017185299 0.40000001 4280175403
0.12778132 -0.017228262 0.40100002 4280504881
0.12908377 -0.017228262 0.40100002 4280241198
0.13071136 -0.017271226 0.40200001 4283397724
0.059654702 -0.014853091 0.37400001 4279717418
0.060869459 -0.014853091 0.37400001 4279387431
0.062250216 -0.014892806 0.37500003 4284516471
0.06346821 -0.014892806 0.37500003 4285699718
0.064686216 -0.014892806 0.37500003 4285632642
0.066079959 -0.01493252 0.37600002 4285501056
0.067301206 -0.01493252 0.37600002 4285501056
0.068886936 -0.015011949 0.37800002 4285764228
0.07011468 -0.015011949 0.37800002 4285501056
0.071342431 -0.015011949 0.37800002 4285566849
0.072570167 -0.015011949 0.37800002 4286224777
0.073797919 -0.015011949 0.37800002 4284974710
0.075025663 -0.015011949 0.37800002 4281883976
0.076253399 -0.015011949 0.37800002 4280700729
0.077481151 -0.015011949 0.37800002 4279912492
0.078917116 -0.015051662 0.37900001 4279716396
0.080148108 -0.015051662 0.37900001 4279257383
0.081593826 -0.015091376 0.38000003 4279192101
0.083046034 -0.01513109 0.38100001 4279126562
0.084504746 -0.015170805 0.38200003 4278863388
0.08596994 -0.015210519 0.38300002 4279127330
0.087441631 -0.015250232 0.384 4279258916
0.088688865 -0.015250232 0.384 4279391015
0.090170309 -0.015289947 0.38500002 4279785773
0.091420792 -0.015289947 0.38500002 4278931234
0.092911974 -0.015329661 0.38600001 4278799648
0.094165698 -0.015329661 0.38600001 4278865441
0.095419429 -0.015329661 0.38600001 4279062820
0.096923605 -0.015369375 0.38700002 4279127843
0.098180585 -0.015369375 0.38700002 4279258916
0.099437565 -0.015369375 0.38700002 4279389730
0.10095473 -0.01540909 0.38800001 4279323937
0.10221496 -0.01540909 0.38800001 4279652389
0.10374188 -0.015448804 0.38900003 4279455012
0.10500535 -0.015448804 0.38900003 4278465550
0.106542 -0.015488517 0.39000002 4278991383
0.10808516 -0.015528233 0.39100003 4279846692
0.1096348 -0.015567946 0.39200002 4279978278
0.11119094 -0.01560766 0.39300001 4280044584
0.11275359 -0.015647374 0.39400002 4279847205
0.11432273 -0.015687088 0.39500001 4278860308
0.11589836 -0.015726803 0.39600003 4279649311
0.11748049 -0.015766516 0.39700001 4280108580
0.11906912 -0.015806232 0.39800003 4280240166
0.12066424 -0.015845945 0.39900002 4280240166
0.12196019 -0.015845945 0.39900002 4280240166
0.12325615 -0.015845945 0.39900002 4278727187
0.12486426 -0.015885659 0.40000001 4280569391
0.12616345 -0.015885659 0.40000001 4280569131
0.12778132 -0.015925374 0.40100002 4281621052
0.057531219 -0.013710856 0.37600002 4278989845
0.05875247 -0.013710856 0.37600002 4278860826
0.059814211 -0.013674391 0.37500003 4278664730
0.061032213 -0.013674391 0.37500003 4278664984
0.062250216 -0.013674391 0.37500003 4279716648
0.06346821 -0.013674391 0.37500003 4281556806
0.064686216 -0.013674391 0.37500003 4285963403
0.066079959 -0.013710856 0.37600002 4285634436
0.067301206 -0.013710856 0.37600002 4285435774
0.068704695 -0.013747321 0.377 4286291083
0.07011468 -0.013783786 0.37800002 4284185707
0.071342431 -0.013783786 0.37800002 4280699961
0.072570167 -0.013783786 0.37800002 4279911211
0.073797919 -0.013783786 0.37800002 4280305969
0.075025663 -0.013783786 0.37800002 4279256869
0.076253399 -0.013783786 0.37800002 4279126308
0.077481151 -0.013783786 0.37800002 4279192355
0.078917116 -0.013820251 0.37900001 4278863390
0.080359586 -0.013856716 0.38000003 4278732574
0.081593826 -0.013856716 0.38000003 4278996257
0.083046034 -0.013893181 0.38100001 4278930464
0.084504746 -0.013929646 0.38200003 4279127843
0.08596994 -0.013966111 0.38300002 4279325222
0.087441631 -0.014002576 0.384 4278733085
0.088919833 -0.014039041 0.38500002 4279127841
0.090170309 -0.014039041 0.38500002 4278996255
0.091420792 -0.014039041 0.38500002 4279193121
0.092911974 -0.014075506 0.38600001 4279323937
0.094165698 -0.014075506 0.38600001 4279390502
0.095666632 -0.014111971 0.38700002 4279390502
0.096923605 -0.014111971 0.38700002 4279258146
0.098180585 -0.014111971 0.38700002 4279455014
0.099694505 -0.014148436 0.38800001 4279190558
0.10095473 -0.014148436 0.38800001 4278201865
0.10247841 -0.014184902 0.38900003 4279254553
0.10374188 -0.014184902 0.38900003 4280503850
0.10527529 -0.014221366 0.39000002 4280109092
0.10681519 -0.014257832 0.39100003 4279385369
0.10836159 -0.014294297 0.39200002 4279517727
0.1096348 -0.014294297 0.39200002 4279713568
0.11119094 -0.014330762 0.39300001 4278726673
0.11303977 -0.014403692 0.39500001 4278989845
0.11461216 -0.014440157 0.39600003 4280239912
0.11619103 -0.014476622 0.39700001 4280832049
0.11777641 -0.014513087 0.39800003 4280305192
0.11906912 -0.014513087 0.39800003 4279581469
0.12066424 -0.014549552 0.39900002 4281028915
0.12196019 -0.014549552 0.39900002 4280568364
0.12356506 -0.014586017 0.40000001 4280699952
0.12486426 -0.014586017 0.40000001 4283528027
0.057531219 -0.012489194 0.37600002 4279317268
0.05875247 -0.012489194 0.37600002 4278859543
0.059814211 -0.012455978 0.37500003 4278401558
0.061032213 -0.012455978 0.37500003 4278928156
0.062250216 -0.012455978 0.37500003 4278993949
0.06346821 -0.012455978 0.37500003 4279256867
0.064858705 -0.012489194 0.37600002 4279781930
0.066079959 -0.012489194 0.37600002 4279518504
0.067480199 -0.01252241 0.377 4279780906
0.068704695 -0.01252241 0.377 4279649574
0.06992919 -0.01252241 0.377 4279649574
0.071342431 -0.012555626 0.37800002 4279518758
0.072570167 -0.012555626 0.37800002 4279190306
0.073797919 -0.012555626 0.37800002 4278993695
0.075025663 -0.012555626 0.37800002 4278862877
0.076253399 -0.012555626 0.37800002 4278797595
0.077686124 -0.012588842 0.37900001 4279126558
0.078917116 -0.012588842 0.37900001 4279389730
0.080359586 -0.012622058 0.38000003 4279061535
0.081808545 -0.012655273 0.38100001 4278798363
0.083264008 -0.01268849 0.38200003 4278798365
0.084725954 -0.012721705 0.38300002 4278995744
0.08596994 -0.012721705 0.38300002 4279127330
0.087441631 -0.012754921 0.384 4279127330
0.088919833 -0.012788137 0.38500002 4279127330
0.090170309 -0.012788137 0.38500002 4279323939
0.091658242 -0.012821353 0.38600001 4279257633
0.092911974 -0.012821353 0.38600001 4279586084
0.09440966 -0.01285457 0.38700002 4279716900
0.095666632 -0.01285457 0.38700002 4278729492
0.097174056 -0.012887785 0.38800001 4278597654
0.098434277 -0.012887785 0.38800001 4280045102
0.099694505 -0.012887785 0.38800001 4280372784
0.10121493 -0.012921002 0.38900003 4280240428
0.10274184 -0.012954217 0.39000002 4279977506
0.10400856 -0.012954217 0.39000002 4280371750
0.10554523 -0.012987434 0.39100003 4279712539
0.10681519 -0.012987434 0.39100003 4280438059
0.10836159 -0.01302065 0.39200002 4279254555
0.10991448 -0.013053864 0.39300001 4280636208
0.11147388 -0.013087081 0.39400002 4280766770
0.11303977 -0.013120296 0.39500001 4279187740
0.11461216 -0.013153513 0.39600003 4278858261
0.11619103 -0.013186729 0.39700001 4280897844
0.11777641 -0.013219945 0.39800003 4280305194
0.11906912 -0.013219945 0.39800003 4280764973
0.057531219 -0.011267532 0.37600002 4279579156
0.05875247 -0.011267532 0.37600002 4278988816
0.059973713 -0.011267532 0.37600002 4278794263
0.061032213 -0.011237565 0.37500003 4278927386
0.062416214 -0.011267532 0.37600002 4278994463
0.063637458 -0.011267532 0.37600002 4279849772
0.064858705 -0.011267532 0.37600002 4278598167
0.066079959 -0.011267532 0.37600002 4279059488
0.067480199 -0.011297498 0.377 4278927902
0.068704695 -0.011297498 0.377 4278928156
0.06992919 -0.011297498 0.377 4278731289
0.071342431 -0.011327466 0.37800002 4278863388
0.072570167 -0.011327466 0.37800002 4278863388
0.073797919 -0.011327466 0.37800002 4279126560
0.075025663 -0.011327466 0.37800002 4279192353
0.076455131 -0.011357432 0.37900001 4278929181
0.077686124 -0.011357432 0.37900001 4279060765
0.079125345 -0.011387399 0.38000003 4278928666
0.080359586 -0.011387399 0.38000003 4279191838
0.081808545 -0.011417366 0.38100001 4279257631
0.083264008 -0.011447333 0.38200003 4279389217
0.084725954 -0.0114773 0.38300002 4279126045
0.086194396 -0.011507266 0.384 4279586598
0.087441631 -0.011507266 0.384 4279389219
0.088919833 -0.011537233 0.38500002 4279717670
0.090404518 -0.0115672 0.38600001 4279782182
0.091658242 -0.0115672 0.38600001 4278199046
0.093152687 -0.011597168 0.38700002 4278527246
0.09440966 -0.011597168 0.38700002 4279118099
0.097174056 -0.011627134 0.38800001 4279913516
0.098687984 -0.011657101 0.38900003 4279188258
0.099951454 -0.011657101 0.38900003 4278856213
0.10274184 -0.011687067 0.39000002 4280503084
0.10427526 -0.011717035 0.39100003 4279648029
0.10554523 -0.011717035 0.39100003 4280240166
0.10708836 -0.011747002 0.39200002 4280437545
0.10836159 -0.011747002 0.39200002 4278661394
0.10991448 -0.011776968 0.39300001 4279254049
0.11147388 -0.011806935 0.39400002 4281161530
0.11303977 -0.011836901 0.39500001 4280832565
0.11461216 -0.011866868 0.39600003 4280567342
0.11619103 -0.011896836 0.39700001 4282079552
0.11906912 -0.011926803 0.39800003 4286750089
0.056459725 -0.010072587 0.377 4279970317
0.057684224 -0.010072587 0.377 4279579156
0.05875247 -0.010045869 0.37600002 4279382807
0.059973713 -0.010045869 0.37600002 4278989845
0.061194964 -0.010045869 0.37600002 4278793750
0.062416214 -0.010045869 0.37600002 4278599191
0.063637458 -0.010045869 0.37600002 4278204433
0.064858705 -0.010045869 0.37600002 4279389732
0.066255704 -0.010072587 0.377 4280309809
0.067480199 -0.010072587 0.377 4279257119
0.068704695 -0.010072587 0.377 4278862875
0.07011468 -0.010099305 0.37800002 4279192353
0.071342431 -0.010099305 0.37800002 4279258146
0.072570167 -0.010099305 0.37800002 4278929181
0.073797919 -0.010099305 0.37800002 4278666009
0.075224139 -0.010126023 0.37900001 4279060767
0.076455131 -0.010126023 0.37900001 4278928668
0.077686124 -0.010126023 0.37900001 4279322912
0.079125345 -0.01015274 0.38000003 4279388705
0.080571055 -0.010179458 0.38100001 4279519519
0.082023263 -0.010206176 0.38200003 4279519519
0.083264008 -0.010206176 0.38200003 4279453726
0.084725954 -0.010232894 0.38300002 4279651107
0.086194396 -0.010259612 0.384 4278859027
0.08766935 -0.010286329 0.38500002 4278198529
0.088919833 -0.010286329 0.38500002 4278920720
0.090404518 -0.010313047 0.38600001 4278986002
0.091895707 -0.010339765 0.38700002 4279379992
0.093152687 -0.010339765 0.38700002 4280301094
0.094653606 -0.010366483 0.38800001 4278788623
0.095913835 -0.010366483 0.38800001 4280567596
0.097424507 -0.0103932 0.38900003 4278856726
0.098687984 -0.0103932 0.38900003 4279118103
0.10147512 -0.010419918 0.39000002 4281028147
0.10300529 -0.010446636 0.39100003 4280764973
0.10427526 -0.010446636 0.39100003 4278660367
0.10554523 -0.010446636 0.39100003 4279581984
0.10708836 -0.010473354 0.39200002 4280832051
0.10863802 -0.010500071 0.39300001 4280963637
0.10991448 -0.010500071 0.39300001 4280304940
0.11147388 -0.010526789 0.39400002 4281751105
0.11275359 -0.010526789 0.39400002 4285434745
0.056609489 -0.0088711446 0.37800002 4279773967
0.057684224 -0.0088476753 0.377 4279250451
0.058908723 -0.0088476753 0.377 4279317014
0.059973713 -0.0088242069 0.37600002 4279318551
0.061194964 -0.0088242069 0.37600002 4278727441
0.062416214 -0.0088242069 0.37600002 4278664214
0.063806705 -0.0088476753 0.377 4278993179
0.065031201 -0.0088476753 0.377 4278664984
0.066255704 -0.0088476753 0.377 4278336019
0.067659192 -0.0088711446 0.37800002 4278796568
0.068886936 -0.0088711446 0.37800002 4278796568
0.07011468 -0.0088711446 0.37800002 4278337044
0.071342431 -0.0088711446 0.37800002 4278863388
0.072762154 -0.0088946121 0.37900001 4278862875
0.073993146 -0.0088946121 0.37900001 4278994461
0.075224139 -0.0088946121 0.37900001 4279322912
0.076455131 -0.0088946121 0.37900001 4279453728
0.077891104 -0.0089180814 0.38000003 4279123228
0.079125345 -0.0089180814 0.38000003 4279254814
0.080571055 -0.0089415498 0.38100001 4279321631
0.082023263 -0.0089650191 0.38200003 4278861080
0.083481967 -0.0089884875 0.38300002 4278395914
0.084947169 -0.0090119559 0.384 4278920720
0.086194396 -0.0090119559 0.384 4278853133
0.08766935 -0.0090354243 0.38500002 4279576856
0.090404518 -0.0090588927 0.38600001 4279249172
0.094653606 -0.0091058305 0.38800001 4280105762
0.095913835 -0.0091058305 0.38800001 4280634157
0.097424507 -0.0091292998 0.38900003 4279908899
0.098687984 -0.0091292998 0.38900003 4279973922
0.10020839 -0.0091527672 0.39000002 4278791185
0.10147512 -0.0091527672 0.39000002 4280568366
0.10300529 -0.0091762366 0.39100003 4280634670
0.10427526 -0.0091762366 0.39100003 4280700463
0.10581516 -0.009199705 0.39200002 4281094710
0.10736155 -0.0092231734 0.39300001 4281225272
0.10863802 -0.0092231734 0.39300001 4284843126
0.10991448 -0.0092231734 0.39300001 4286487179
0.056759246 -0.0076632029 0.37900001 4279906323
0.057837237 -0.0076429839 0.37800002 4279447830
0.058908723 -0.007622764 0.377 4279711772
0.060133215 -0.007622764 0.377 4278858000
0.061357714 -0.007622764 0.377 4278727441
0.06258221 -0.007622764 0.377 4278860056
0.063806705 -0.007622764 0.377 4278860826
0.065203704 -0.0076429839 0.37800002 4279190045
0.066431448 -0.0076429839 0.37800002 4279584803
0.067659192 -0.0076429839 0.37800002 4279453215
0.069069177 -0.0076632029 0.37900001 4279190556
0.070300169 -0.0076632029 0.37900001 4279256349
0.071531162 -0.0076632029 0.37900001 4279387937
0.072762154 -0.0076632029 0.37900001 4279387937
0.074188381 -0.0076834229 0.38000003 4279387937
0.075422622 -0.0076834229 0.38000003 4279453730
0.076656863 -0.0076834229 0.38000003 4279453217
0.078096077 -0.0077036424 0.38100001 4279252504
0.079333566 -0.0077036424 0.38100001 4279977256
0.080782533 -0.0077238623 0.38200003 4279780899
0.082023263 -0.0077238623 0.38200003 4278790670
0.083481967 -0.0077440813 0.38300002 4279116818
0.084947169 -0.0077643008 0.384 4279840541
0.086418867 -0.0077845207 0.38500002 4280037407
0.08766935 -0.0077845207 0.38500002 4279511063
0.089150794 -0.0078047398 0.38600001 4279116818
0.090638727 -0.0078249592 0.38700002 4279445783
0.091895707 -0.0078249592 0.38700002 4278986004
0.093393385 -0.0078451792 0.38800001 4279117588
0.096161038 -0.0078653991 0.38900003 4279384090
0.097424507 -0.0078653991 0.38900003 4280963124
0.098941676 -0.0078856181 0.39000002 4280634159
0.10020839 -0.0078856181 0.39000002 4280503600
0.10173532 -0.0079058381 0.39100003 4280437807
0.10300529 -0.0079058381 0.39100003 4281093940
0.10454194 -0.0079260571 0.39200002 4284514409
0.055674773 -0.0064487639 0.38000003 4280102420
0.056759246 -0.0064317929 0.37900001 4279644436
0.057990242 -0.0064317929 0.37900001 4279251221
0.059064981 -0.0064148228 0.37800002 4279449113
0.060292721 -0.0064148228 0.37800002 4278791953
0.061520468 -0.0064148228 0.37800002 4279056152
0.062748216 -0.0064148228 0.37800002 4279255068
0.063975953 -0.0064148228 0.37800002 4279123482
0.0653762 -0.0064317929 0.37900001 4279781158
0.066607192 -0.0064317929 0.37900001 4279518756
0.067838185 -0.0064317929 0.37900001 4279452445
0.069251418 -0.0064487639 0.38000003 4279320859
0.070485659 -0.0064487639 0.38000003 4279519008
0.0717199 -0.0064487639 0.38000003 4279255838
0.072954141 -0.0064487639 0.38000003 4279453217
0.074188381 -0.0064487639 0.38000003 4279584803
0.075621098 -0.006465734 0.38100001 4279519010
0.076858588 -0.006465734 0.38100001 4279846951
0.078096077 -0.006465734 0.38100001 4278856976
0.079541795 -0.0064827045 0.38200003 4280042020
0.080782533 -0.0064827045 0.38200003 4278987279
0.082237981 -0.0064996746 0.38300002 4280038942
0.083699934 -0.0065166452 0.384 4280235297
0.084947169 -0.0065166452 0.384 4279577367
0.086418867 -0.0065336158 0.38500002 4279511061
0.087897062 -0.0065505859 0.38600001 4279313684
0.089150794 -0.0065505859 0.38600001 4279313684
0.090638727 -0.0065675569 0.38700002 4278985234
0.093393385 -0.006584527 0.38800001 4280568366
0.094653606 -0.006584527 0.38800001 4280372784
0.096161038 -0.0066014975 0.38900003 4280570163
0.097424507 -0.0066014975 0.38900003 4280569393
0.098941676 -0.0066184676 0.39000002 4280634420
0.10020839 -0.0066184676 0.39000002 4284251239
0.055821285 -0.0052278261 0.38100001 4279775252
0.05690901 -0.0052141049 0.38000003 4279382037
0.058143254 -0.0052141049 0.38000003 4279449113
0.059221238 -0.0052003837 0.37900001 4279185941
0.060452227 -0.0052003837 0.37900001 4278858259
0.061683219 -0.0052003837 0.37900001 4279450910
0.062914215 -0.0052003837 0.37900001 4279255068
0.064314455 -0.0052141049 0.38000003 4279320861
0.065548696 -0.0052141049 0.38000003 4280110123
0.066782936 -0.0052141049 0.38000003 4279583779
0.068017177 -0.0052141049 0.38000003 4279320607
0.069433659 -0.0052278261 0.38100001 4279320861
0.070671149 -0.0052278261 0.38100001 4279386652
0.071908638 -0.0052278261 0.38100001 4279519008
0.07314612 -0.0052278261 0.38100001 4279584031
0.074383609 -0.0052278261 0.38100001 4279584031
0.075621098 -0.0052278261 0.38100001 4279321631
0.077060319 -0.0052415477 0.38200003 4279056152
0.078301057 -0.0052415477 0.38200003 4280239399
0.079541795 -0.0052415477 0.38200003 4279976994
0.080994003 -0.0052552689 0.38300002 4278854668
0.082237981 -0.0052552689 0.38300002 4279248402
0.083699934 -0.0052689901 0.384 4279444500
0.085168391 -0.0052827117 0.38500002 4278918926
0.086418867 -0.0052827117 0.38500002 4279578139
0.089150794 -0.0052964329 0.38600001 4280502832
0.090638727 -0.0053101545 0.38700002 4280569393
0.091895707 -0.0053101545 0.38700002 4280898358
0.093393385 -0.0053238757 0.38800001 4279845670
0.054727063 -0.0040003904 0.38200003 4280102680
0.0559678 -0.0040003904 0.38200003 4279513625
0.05705877 -0.0039899182 0.38100001 4279513625
0.058296259 -0.0039899182 0.38100001 4279383322
0.059533749 -0.0039899182 0.38100001 4278923541
0.060611732 -0.0039794459 0.38000003 4279055638
0.061845973 -0.0039794459 0.38000003 4279320094
0.063246213 -0.0039899182 0.38100001 4279254555
0.064483702 -0.0039899182 0.38100001 4279649313
0.065721191 -0.0039899182 0.38100001 4279846951
0.066958681 -0.0039899182 0.38100001 4279583779
0.06819617 -0.0039899182 0.38100001 4279321377
0.069615901 -0.0040003904 0.38200003 4279255584
0.070856638 -0.0040003904 0.38200003 4279452963
0.072097376 -0.0040003904 0.38200003 4279453217
0.073338106 -0.0040003904 0.38200003 4279649824
0.074578844 -0.0040003904 0.38200003 4279584031
0.075819589 -0.0040003904 0.38200003 4279780899
0.077060319 -0.0040003904 0.38200003 4278593806
0.07850603 -0.0040108627 0.38300002 4279911461
0.079750016 -0.0040108627 0.38300002 4279121945
0.080994003 -0.0040108627 0.38300002 4278527246
0.086418867 -0.0040318072 0.38500002 4280569393
0.053626336 -0.0027664567 0.38300002 4280498471
0.054870322 -0.0027664567 0.38300002 4279512859
0.0559678 -0.0027592336 0.38200003 4279119637
0.057208531 -0.0027592336 0.38200003 4279251223
0.058449272 -0.0027592336 0.38200003 4279251736
0.05969001 -0.0027592336 0.38200003 4278923541
0.06093074 -0.0027592336 0.38200003 4279056922
0.062171482 -0.0027592336 0.38200003 4279320094
0.063412219 -0.0027592336 0.38200003 4279386654
0.06465295 -0.0027592336 0.38200003 4279715619
0.065893687 -0.0027592336 0.38200003 4279847205
0.067134425 -0.0027592336 0.38200003 4279584033
0.068554156 -0.0027664567 0.38300002 4279452447
0.069798134 -0.0027664567 0.38300002 4279584033
0.07104212 -0.0027664567 0.38300002 4279453217
0.072286114 -0.0027664567 0.38300002 4279519010
0.073530093 -0.0027664567 0.38300002 4279649826
0.074774079 -0.0027664567 0.38300002 4279715106
0.076018065 -0.0027664567 0.38300002 4280042533
0.077262044 -0.0027664567 0.38300002 4279843873
0.07850603 -0.0027664567 0.38300002 4280108842
0.079750016 -0.0027664567 0.38300002 4279977256
0.054870322 -0.0015220506 0.38300002 4279842336
0.056114309 -0.0015220506 0.38300002 4279448602
0.057358291 -0.0015220506 0.38300002 4279317529
0.058602277 -0.0015220506 0.38300002 4279318299
0.059846263 -0.0015220506 0.38300002 4279055127
0.061090246 -0.0015220506 0.38300002 4279121945
0.062334232 -0.0015220506 0.38300002 4279189021
0.063578218 -0.0015220506 0.38300002 4279386400
0.064822197 -0.0015220506 0.38300002 4279781158
0.066066183 -0.0015220506 0.38300002 4279584033
0.067485914 -0.0015260245 0.384 4279715619
0.068733148 -0.0015260245 0.384 4279649826
0.069980375 -0.0015260245 0.384 4279649826
0.07122761 -0.0015260245 0.384 4279584033
0.072474845 -0.0015260245 0.384 4279584803
0.073722072 -0.0015260245 0.384 4279519010
0.074969307 -0.0015260245 0.384 4279584803
0.076018065 -0.0015220506 0.38300002 4279319578
0.077262044 -0.0015220506 0.38300002 4280042787
0.078711003 -0.0015260245 0.384 4279976740
0.079958238 -0.0015260245 0.384 4280042533
0.081205472 -0.0015260245 0.384 4281555520
0.0824527 -0.0015260245 0.384 4285107831
0.05626082 -0.00027836935 0.384 4280039717
0.057657812 -0.0002790943 0.38500002 4279383322
0.058755282 -0.00027836935 0.384 4279055127
0.060002517 -0.00027836935 0.384 4279581471
0.061249748 -0.00027836935 0.384 4279254303
0.062496983 -0.00027836935 0.384 4279189021
0.063744217 -0.00027836935 0.384 4279846951
0.064991444 -0.00027836935 0.384 4279649572
0.066411175 -0.0002790943 0.38500002 4279649572
0.067661658 -0.0002790943 0.38500002 4279583779
0.068912141 -0.0002790943 0.38500002 4279584033
0.070162617 -0.0002790943 0.38500002 4279715619
0.0714131 -0.0002790943 0.38500002 4279847205
0.072474845 -0.00027836935 0.384 4279649826
0.073722072 -0.00027836935 0.384 4279781158
0.074969307 -0.00027836935 0.384 4279912231
0.057807572 0.00097433425 0.38600001 4281751107
0.0590613 0.00097433425 0.38600001 4279514395
0.060315032 0.00097433425 0.38600001 4279581471
0.061409254 0.00097181014 0.38500002 4279385887
0.062659733 0.00097181014 0.38500002 4279123228
0.064076215 0.00097433425 0.38600001 4280241709
0.065329939 0.00097433425 0.38600001 4279715365
0.066583671 0.00097433425 0.38600001 4279715365
0.067837402 0.00097433425 0.38600001 4279715365
0.069091134 0.00097433425 0.38600001 4279781158
0.0714131 0.00097181014 0.38500002 4279977254
0.060471293 0.002234261 0.38700002 4279843108
0.061728265 0.002234261 0.38700002 4279515678
0.062985241 0.002234261 0.38700002 4279976742
0.064242221 0.002234261 0.38700002 4280108842
0.065499194 0.002234261 0.38700002 4280108842
0.066756174 0.002234261 0.38700002 4279977256
0.068013154 0.002234261 0.38700002 4280108588
0.069270127 0.002234261 0.38700002 4281685827
0.070527099 0.002234261 0.38700002 4284975477
0.08926104 -0.012969381 0.38591048 4294967295
0.08926104 -0.012969381 0.38591048 4294901760
0.089202829 -0.013444729 0.38576677 4294901760
0.089144617 -0.013920078 0.38562304 4294901760
0.089086406 -0.014395427 0.38547933 4294901760
0.089028187 -0.014870775 0.38533559 4294901760
0.088969976 -0.015346124 0.38519189 4294901760
0.088911764 -0.015821472 0.38504818 4294901760
0.088853553 -0.016296821 0.38490444 4294901760
0.088795342 -0.01677217 0.38476074 4294901760
0.08873713 -0.017247517 0.384617 4294901760
0.088678919 -0.017722866 0.38447329 4294901760
0.0886207 -0.018198214 0.38432956 4294901760
0.088562489 -0.018673562 0.38418585 4294901760
0.088504277 -0.01914891 0.38404214 4294901760
0.088446066 -0.019624259 0.38389841 4294901760
0.088387854 -0.020099608 0.3837547 4294901760
0.088329643 -0.020574957 0.38361096 4294901760
0.088271432 -0.021050304 0.38346726 4294901760
0.088213213 -0.021525655 0.38332355 4294901760
0.088155001 -0.022001002 0.38317981 4294901760
0.08809679 -0.022476351 0.38303611 4294901760
0.088038579 -0.0229517 0.38289237 4294901760
0.087980367 -0.023427047 0.38274866 4294901760
0.087922156 -0.023902396 0.38260496 4294901760
0.087863944 -0.024377745 0.38246122 4294901760
0.087805733 -0.024853092 0.38231751 4294901760
0.087747514 -0.025328441 0.38217378 4294901760
0.087689303 -0.025803789 0.38203007 4294901760
0.087631091 -0.026279138 0.38188636 4294901760
0.08757288 -0.026754487 0.38174263 4294901760
0.087514669 -0.027229834 0.38159892 4294901760
0.087456457 -0.027705183 0.38145518 4294901760
0.087398246 -0.028180532 0.38131148 4294901760
0.087340027 -0.028655879 0.38116774 4294901760
0.087281816 -0.02913123 0.38102403 4294901760
0.087223604 -0.029606577 0.38088033 4294901760
0.087165393 -0.030081928 0.38073659 4294901760
0.087107182 -0.030557275 0.38059288 4294901760
0.08704897 -0.031032622 0.38044915 4294901760
0.086990759 -0.031507969 0.38030544 4294901760
0.08693254 -0.03198332 0.38016173 4294901760
0.086874329 -0.032458667 0.380018 4294901760
0.086816117 -0.032934017 0.37987429 4294901760
0.086757906 -0.033409365 0.37973055 4294901760
0.086699694 -0.033884712 0.37958685 4294901760
0.086641483 -0.034360062 0.37944314 4294901760
0.086583272 -0.034835409 0.3792994 4294901760
0.086525053 -0.03531076 0.3791557 4294901760
0.086466841 -0.035786107 0.37901196 4294901760
0.08640863 -0.036261454 0.37886825 4294901760
0.086350419 -0.036736805 0.37872452 4294901760
0.086292207 -0.037212152 0.37858081 4294901760
0.086233996 -0.037687499 0.3784371 4294901760
0.086175784 -0.03816285 0.37829337 4294901760
0.086117566 -0.038638201 0.37814966 4294901760
0.086059354 -0.039113548 0.37800592 4294901760
0.086001143 -0.039588895 0.37786222 4294901760
0.085942931 -0.040064242 0.37771851 4294901760
0.08588472 -0.040539593 0.37757477 4294901760
0.085826509 -0.04101494 0.37743106 4294901760
0.085768297 -0.04149029 0.37728733 4294901760
0.085710078 -0.041965637 0.37714362 4294901760
0.085651867 -0.042440984 0.37699991 4294901760
0.085593656 -0.042916335 0.37685618 4294901760
0.085535444 -0.043391682 0.37671247 4294901760
0.085477233 -0.043867029 0.37656873 4294901760
0.085419022 -0.04434238 0.37642503 4294901760
0.08536081 -0.044817731 0.37628132 4294901760
0.085302591 -0.045293078 0.37613758 4294901760
0.08524438 -0.045768425 0.37599388 4294901760
0.085186169 -0.046243772 0.37585014 4294901760
0.085127957 -0.046719123 0.37570643 4294901760
0.085069746 -0.047194473 0.3755627 4294901760
0.085011534 -0.04766982 0.37541899 4294901760
0.084953323 -0.048145168 0.37527528 4294901760
0.084895104 -0.048620515 0.37513155 4294901760
0.084836893 -0.049095865 0.37498784 4294901760
0.084778681 -0.049571212 0.3748441 4294901760
0.08472047 -0.050046559 0.3747004 4294901760
0.084662259 -0.05052191 0.37455669 4294901760
0.084604047 -0.050997261 0.37441295 4294901760
0.084545836 -0.051472608 0.37426925 4294901760
0.084487617 -0.051947955 0.37412551 4294901760
0.084429406 -0.052423302 0.3739818 4294901760
0.084371194 -0.052898653 0.3738381 4294901760
0.084312983 -0.053374004 0.37369436 4294901760
0.084254771 -0.053849351 0.37355065 4294901760
0.08419656 -0.054324698 0.37340692 4294901760
0.084138349 -0.054800045 0.37326321 4294901760
0.084080137 -0.055275396 0.3731195 4294901760
0.084021918 -0.055750743 0.37297577 4294901760
0.083963707 -0.056226093 0.37283206 4294901760
0.083905496 -0.05670144 0.37268832 4294901760
0.083847284 -0.057176787 0.37254462 4294901760
0.083789073 -0.057652138 0.37240088 4294901760
0.083730862 -0.058127485 0.37225717 4294901760
0.08367265 -0.058602832 0.37211347 4294901760
0.083614431 -0.059078183 0.37196973 4294901760
0.08355622 -0.05955353 0.37182602 4294901760
0.083498009 -0.060028881 0.37168229 4294901760
0.083439797 -0.060504228 0.37153858 4294901760
0.08926104 -0.012969381 0.38591048 4278255360
0.089724965 -0.013073056 0.38606548 4278255360
0.090188898 -0.013176731 0.38622046 4278255360
0.090652823 -0.013280407 0.38637546 4278255360
0.091116749 -0.013384081 0.38653046 4278255360
0.091580674 -0.013487756 0.38668543 4278255360
0.092044607 -0.013591431 0.38684043 4278255360
0.092508532 -0.013695106 0.38699543 4278255360
0.092972457 -0.013798781 0.38715044 4278255360
0.09343639 -0.013902456 0.38730541 4278255360
0.093900315 -0.014006131 0.38746041 4278255360
0.094364241 -0.014109806 0.38761541 4278255360
0.094828174 -0.014213481 0.38777038 4278255360
0.095292099 -0.014317156 0.38792539 4278255360
0.095756024 -0.014420831 0.38808039 4278255360
0.096219957 -0.014524506 0.38823536 4278255360
0.096683882 -0.014628181 0.38839036 4278255360
0.097147807 -0.014731856 0.38854536 4278255360
0.09761174 -0.014835531 0.38870034 4278255360
0.098075666 -0.014939206 0.38885534 4278255360
0.098539591 -0.015042881 0.38901034 4278255360
0.099003516 -0.015146555 0.38916531 4278255360
0.099467449 -0.015250231 0.38932031 4278255360
0.099931374 -0.015353906 0.38947532 4278255360
0.1003953 -0.015457581 0.38963032 4278255360
0.10085922 -0.015561256 0.38978529 4278255360
0.10132316 -0.015664931 0.38994029 4278255360
0.10178708 -0.015768606 0.39009529 4278255360
0.10225101 -0.015872281 0.39025027 4278255360
0.10271494 -0.015975956 0.39040527 4278255360
0.10317887 -0.016079631 0.39056027 4278255360
0.10364279 -0.016183306 0.39071524 4278255360
0.10410672 -0.01628698 0.39087024 4278255360
0.10457065 -0.016390655 0.39102525 4278255360
0.10503457 -0.01649433 0.39118022 4278255360
0.10549851 -0.016598005 0.39133522 4278255360
0.10596243 -0.016701682 0.39149022 4278255360
0.10642636 -0.016805356 0.39164522 4278255360
0.10689028 -0.016909031 0.39180019 4278255360
0.10735421 -0.017012706 0.3919552 4278255360
0.10781814 -0.017116381 0.3921102 4278255360
0.10828207 -0.017220056 0.39226517 4278255360
0.10874599 -0.017323731 0.39242017 4278255360
0.10920992 -0.017427405 0.39257517 4278255360
0.10967385 -0.01753108 0.39273015 4278255360
0.11013778 -0.017634755 0.39288515 4278255360
0.11060171 -0.017738432 0.39304015 4278255360
0.11106563 -0.017842107 0.39319512 4278255360
0.11152956 -0.017945781 0.39335012 4278255360
0.11199349 -0.018049456 0.39350513 4278255360
0.11245742 -0.018153131 0.39366013 4278255360
0.11292134 -0.018256806 0.3938151 4278255360
0.11338528 -0.018360481 0.3939701 4278255360
0.1138492 -0.018464155 0.3941251 4278255360
0.11431313 -0.01856783 0.39428008 4278255360
0.11477706 -0.018671505 0.39443508 4278255360
0.11524098 -0.01877518 0.39459008 4278255360
0.11570491 -0.018878855 0.39474505 4278255360
0.11616883 -0.01898253 0.39490005 4278255360
0.11663276 -0.019086204 0.39505506 4278255360
0.11709669 -0.019189881 0.39521003 4278255360
0.11756063 -0.019293556 0.39536503 4278255360
0.11802455 -0.019397231 0.39552003 4278255360
0.11848848 -0.019500906 0.395675 4278255360
0.1189524 -0.01960458 0.39583001 4278255360
0.11941633 -0.019708255 0.39598501 4278255360
0.11988026 -0.01981193 0.39614001 4278255360
0.12034418 -0.019915605 0.39629498 4278255360
0.12080811 -0.02001928 0.39644998 4278255360
0.12127204 -0.020122955 0.39660498 4278255360
0.12173597 -0.020226631 0.39675996 4278255360
0.12219989 -0.020330306 0.39691496 4278255360
0.12266383 -0.020433981 0.39706996 4278255360
0.12312775 -0.020537656 0.39722493 4278255360
0.12359168 -0.020641331 0.39737993 4278255360
0.12405561 -0.020745005 0.39753494 4278255360
0.12451953 -0.02084868 0.39768991 4278255360
0.12498346 -0.020952355 0.39784491 4278255360
0.12544739 -0.02105603 0.39799991 4278255360
0.12591133 -0.021159705 0.39815491 4278255360
0.12637524 -0.02126338 0.39830989 4278255360
0.12683918 -0.021367054 0.39846489 4278255360
0.12730309 -0.021470729 0.39861989 4278255360
0.12776703 -0.021574404 0.39877486 4278255360
0.12823096 -0.021678079 0.39892986 4278255360
0.12869488 -0.021781756 0.39908487 4278255360
0.12915881 -0.02188543 0.39923984 4278255360
0.12962273 -0.021989105 0.39939484 4278255360
0.13008666 -0.02209278 0.39954984 4278255360
0.13055059 -0.022196455 0.39970481 4278255360
0.13101453 -0.02230013 0.39985982 4278255360
0.13147844 -0.022403806 0.40001482 4278255360
0.13194238 -0.022507481 0.40016979 4278255360
0.13240629 -0.022611156 0.40032479 4278255360
0.13287023 -0.022714831 0.40047979 4278255360
0.13333416 -0.022818506 0.4006348 4278255360
0.13379808 -0.022922181 0.40078977 4278255360
0.13426201 -0.023025855 0.40094477 4278255360
0.13472594 -0.02312953 0.40109977 4278255360
0.13518986 -0.023233205 0.40125474 4278255360
0.13565379 -0.02333688 0.40140975 4278255360
0.08926104 -0.012969381 0.38591048 4278190335
0.089095704 -0.013087277 0.38636738 4278190335
0.088930376 -0.013205174 0.38682431 4278190335
0.08876504 -0.01332307 0.38728121 4278190335
0.088599704 -0.013440968 0.38773811 4278190335
0.088434368 -0.013558864 0.38819504 4278190335
0.08826904 -0.013676761 0.38865194 4278190335
0.088103704 -0.013794657 0.38910884 4278190335
0.087938368 -0.013912554 0.38956574 4278190335
0.08777304 -0.01403045 0.39002267 4278190335
0.087607704 -0.014148347 0.39047956 4278190335
0.087442368 -0.014266243 0.39093646 4278190335
0.087277032 -0.014384139 0.39139339 4278190335
0.087111704 -0.014502036 0.39185029 4278190335
0.086946368 -0.014619933 0.39230719 4278190335
0.086781032 -0.01473783 0.39276412 4278190335
0.086615697 -0.014855726 0.39322102 4278190335
0.086450368 -0.014973623 0.39367792 4278190335
0.086285032 -0.015091519 0.39413482 4278190335
0.086119696 -0.015209416 0.39459175 4278190335
0.085954368 -0.015327312 0.39504865 4278190335
0.085789032 -0.015445208 0.39550555 4278190335
0.085623696 -0.015563105 0.39596248 4278190335
0.085458361 -0.015681002 0.39641938 4278190335
0.085293032 -0.015798898 0.39687628 4278190335
0.085127696 -0.015916795 0.3973332 4278190335
0.084962361 -0.016034691 0.3977901 4278190335
0.084797032 -0.016152589 0.398247 4278190335
0.084631696 -0.016270485 0.3987039 4278190335
0.084466361 -0.016388381 0.39916083 4278190335
0.084301025 -0.016506277 0.39961773 4278190335
0.084135696 -0.016624175 0.40007463 4278190335
0.08397036 -0.016742071 0.40053156 4278190335
0.083805025 -0.016859967 0.40098846 4278190335
0.083639696 -0.016977863 0.40144536 4278190335
0.08347436 -0.01709576 0.40190226 4278190335
0.083309025 -0.017213657 0.40235919 4278190335
0.083143689 -0.017331554 0.40281609 4278190335
0.08297836 -0.01744945 0.40327299 4278190335
0.082813025 -0.017567346 0.40372992 4278190335
0.082647689 -0.017685242 0.40418682 4278190335
0.082482353 -0.01780314 0.40464371 4278190335
0.082317024 -0.017921036 0.40510064 4278190335
0.082151689 -0.018038932 0.40555754 4278190335
0.081986353 -0.01815683 0.40601444 4278190335
0.081821024 -0.018274724 0.40647137 4278190335
0.081655689 -0.018392622 0.40692827 4278190335
0.081490353 -0.018510519 0.40738517 4278190335
0.081325024 -0.018628415 0.40784207 4278190335
0.081159689 -0.018746313 0.408299 4278190335
0.080994353 -0.018864209 0.4087559 4278190335
0.080829017 -0.018982105 0.4092128 4278190335
0.080663688 -0.019100001 0.40966973 4278190335
0.080498353 -0.019217897 0.41012663 4278190335
0.080333017 -0.019335795 0.41058353 4278190335
0.080167681 -0.019453691 0.41104043 4278190335
0.080002353 -0.019571587 0.41149735 4278190335
0.079837017 -0.019689484 0.41195425 4278190335
0.079671681 -0.01980738 0.41241115 4278190335
0.079506353 -0.019925278 0.41286808 4278190335
0.079341017 -0.020043174 0.41332498 4278190335
0.079175681 -0.02016107 0.41378188 4278190335
0.079010345 -0.020278968 0.41423881 4278190335
0.078845017 -0.020396864 0.41469571 4278190335
0.078679681 -0.02051476 0.41515261 4278190335
0.078514345 -0.020632656 0.41560951 4278190335
0.078349009 -0.020750552 0.41606644 4278190335
0.078183681 -0.02086845 0.41652334 4278190335
0.078018345 -0.020986347 0.41698024 4278190335
0.077853009 -0.021104243 0.41743717 4278190335
0.077687681 -0.021222139 0.41789407 4278190335
0.077522345 -0.021340035 0.41835096 4278190335
0.077357009 -0.021457933 0.41880789 4278190335
0.077191673 -0.021575829 0.41926479 4278190335
0.077026345 -0.021693725 0.41972169 4278190335
0.076861009 -0.021811623 0.42017859 4278190335
0.076695673 -0.021929517 0.42063552 4278190335
0.076530345 -0.022047415 0.42109242 4278190335
0.076365009 -0.022165312 0.42154932 4278190335
0.076199673 -0.022283208 0.42200625 4278190335
0.076034337 -0.022401106 0.42246315 4278190335
0.075869009 -0.022519 0.42292005 4278190335
0.075703673 -0.022636898 0.42337698 4278190335
0.075538337 -0.022754794 0.42383388 4278190335
0.075373009 -0.02287269 0.42429078 4278190335
0.075207673 -0.022990588 0.42474771 4278190335
0.075042337 -0.023108484 0.4252046 4278190335
0.074877001 -0.02322638 0.4256615 4278190335
0.074711673 -0.023344278 0.4261184 4278190335
0.074546337 -0.023462173 0.42657533 4278190335
0.074381001 -0.023580071 0.42703223 4278190335
0.074215665 -0.023697967 0.42748913 4278190335
0.074050337 -0.023815863 0.42794606 4278190335
0.073885001 -0.023933761 0.42840296 4278190335
0.073719665 -0.024051655 0.42885986 4278190335
0.073554337 -0.024169553 0.42931676 4278190335
0.073389001 -0.024287449 0.42977369 4278190335
0.073223665 -0.024405345 0.43023059 4278190335
0.073058337 -0.024523243 0.43068749 4278190335
0.072893001 -0.024641139 0.43114442 4278190335
0.072727665 -0.024759036 0.43160132 4278190335
0.08926104 -0.012969381 0.38591048 4294967295
0.09025304 -0.012262002 0.38316903 4294967295
0.091245048 -0.011554622 0.38042757 4294967295
0.092237048 -0.010847243 0.37768614 4294967295
0.093229048 -0.010139864 0.37494469 4294967295
0.094221056 -0.0094324844 0.37220323 4294967295
0.095213056 -0.0087251049 0.36946177 4294967295
0.096205056 -0.0080177262 0.36672032 4294967295
0.097197063 -0.0073103462 0.36397889 4294967295
0.098189063 -0.0066029667 0.36123744 4294967295
0.099181063 -0.0058955876 0.35849598 4294967295
0.10017307 -0.0051882081 0.35575452 4294967295
0.10116507 -0.0044808295 0.3530131 4294967295
0.10215707 -0.0037734499 0.35027164 4294967295
0.10314908 -0.0030660704 0.34753019 4294967295
0.10414108 -0.0023586908 0.34478873 4294967295
0.10513309 -0.0016513113 0.34204727 4294967295
0.10612509 -0.00094393175 0.33930582 4294967295
0.10711709 -0.00023655221 0.33656439 4294967295
0.10810909 0.0004708264 0.33382294 4294967295
0.10910109 0.0011782059 0.33108148 4294967295
0.11009309 0.0018855846 0.32834005 4294967295
0.1110851 0.002592965 0.3255986 4294967295
0.1120771 0.0033003436 0.32285714 4294967295
0.1130691 0.0040077223 0.32011569 4294967295
0.1140611 0.0047151027 0.31737423 4294967295
0.11505311 0.0054224813 0.31463277 4294967295
0.11604511 0.0061298618 0.31189132 4294967295
0.11703712 0.0068372404 0.30914989 4294967295
0.11802912 0.007544619 0.30640844 4294967295
0.11902112 0.0082519995 0.30366698 4294967295
0.12001312 0.0089593781 0.30092555 4294967295
0.12100513 0.0096667586 0.2981841 4294967295
0.12199713 0.010374139 0.29544264 4294967295
0.12298913 0.011081518 0.29270118 4294967295
0.12398113 0.011788896 0.28995973 4294967295
0.12497313 0.012496277 0.28721827 4294967295
0.12596513 0.013203655 0.28447685 4294967295
0.12695715 0.013911034 0.28173539 4294967295
0.12794915 0.014618413 0.27899393 4294967295
0.12894115 0.015325793 0.27625248 4294967295
0.12993315 0.016033173 0.27351105 4294967295
0.13092515 0.016740549 0.2707696 4294967295
0.13191715 0.01744793 0.26802814 4294967295
0.13290915 0.01815531 0.26528668 4294967295
0.13390115 0.018862687 0.26254523 4294967295
0.13489316 0.019570068 0.25980377 4294967295
0.13588516 0.020277448 0.25706235 4294967295
0.13687716 0.020984825 0.25432089 4294967295
0.13786918 0.021692205 0.25157943 4294967295
0.13886118 0.022399586 0.24883799 4294967295
0.13985318 0.023106966 0.24609655 4294967295
0.14084518 0.023814343 0.2433551 4294967295
