# .PCD v0.7 - Point Cloud Data file format
VERSION 0.7
FIELDS x y z rgb
SIZE 4 4 4 4
TYPE F F F U
COUNT 1 1 1 1
WIDTH 1018
HEIGHT 1
VIEWPOINT 0 0 0 1 0 0 0
POINTS 1018
DATA ascii
-0.039833225 0.0061616744 0.39700001 4287740576
-0.052594975 0.0074327989 0.39600003 4282867789
-0.05130877 0.0074327989 0.39600003 4283657307
-0.050022561 0.0074327989 0.39600003 4283195219
-0.048736352 0.0074327989 0.39600003 4282471496
-0.04745014 0.0074327989 0.39600003 4282208837
-0.046280507 0.0074515683 0.39700001 4282340423
-0.04499105 0.0074515683 0.39700001 4282603082
-0.043701593 0.0074515683 0.39700001 4282208837
-0.042412139 0.0074515683 0.39700001 4282210374
-0.041122679 0.0074515683 0.39700001 4281224761
-0.039833225 0.0074515683 0.39700001 4279780393
-0.038543768 0.0074515683 0.39700001 4281163581
-0.037254311 0.0074515683 0.39700001 4280707395
-0.035964854 0.0074515683 0.39700001 4281234001
-0.053881187 0.0087194433 0.39600003 4282407240
-0.052594975 0.0087194433 0.39600003 4282934095
-0.05130877 0.0087194433 0.39600003 4283130961
-0.050022561 0.0087194433 0.39600003 4281484853
-0.048736352 0.0087194433 0.39600003 4281549876
-0.04745014 0.0087194433 0.39600003 4281813050
-0.046397086 0.0087634809 0.39800003 4281945406
-0.04499105 0.0087414617 0.39700001 4281813048
-0.043701593 0.0087414617 0.39700001 4282603332
-0.042412139 0.0087414617 0.39700001 4281287472
-0.041122679 0.0087414617 0.39700001 4281945656
-0.039833225 0.0087414617 0.39700001 4281749558
-0.038543768 0.0087414617 0.39700001 4280239653
-0.037254311 0.0087414617 0.39700001 4279525170
-0.036055449 0.0087634809 0.39800003 4279329588
-0.034850083 0.0087854993 0.39900002 4279724346
-0.033554133 0.0087854993 0.39900002 4280184383
-0.032339025 0.0088075176 0.40000001 4281497677
-0.031117426 0.0088295368 0.40100002 4280444475
-0.029814979 0.0088295368 0.40100002 4280904004
-0.028583631 0.0088515552 0.40200001 4282219864
-0.027277935 0.0088515552 0.40200001 4283797100
-0.02597224 0.0088515552 0.40200001 4284585848
-0.023477068 0.0088955928 0.40400001 4286558355
-0.022164876 0.0088955928 0.40400001 4286425999
-0.020852683 0.0088955928 0.40400001 4286952345
-0.019540491 0.0088955928 0.40400001 4286951832
-0.053881187 0.010006087 0.39600003 4283590740
-0.052594975 0.010006087 0.39600003 4281552694
-0.05130877 0.010006087 0.39600003 4282670921
-0.050022561 0.010006087 0.39600003 4281156401
-0.048736352 0.010006087 0.39600003 4281879611
-0.048288908 0.010182963 0.40300003 4281682232
-0.046513662 0.010081891 0.39900002 4281484853
-0.045104381 0.010056623 0.39800003 4281419058
-0.043811675 0.010056623 0.39800003 4282734402
-0.042412139 0.010031355 0.39700001 4281944372
-0.041122679 0.010031355 0.39700001 4281615921
-0.039833225 0.010031355 0.39700001 4281682484
-0.038543768 0.010031355 0.39700001 4280631590
-0.037348151 0.010056623 0.39800003 4279587113
-0.036055449 0.010056623 0.39800003 4279129127
-0.034850083 0.010081891 0.39900002 4278867751
-0.033638228 0.010107159 0.40000001 4279592242
-0.032339025 0.010107159 0.40000001 4278211102
-0.031117426 0.010132426 0.40100002 4279923006
-0.02988933 0.010157694 0.40200001 4283868537
-0.028583631 0.010157694 0.40200001 4280579914
-0.027345791 0.010182963 0.40300003 4280119617
-0.026036849 0.010182963 0.40300003 4280119104
-0.024789261 0.01020823 0.40400001 4280315969
-0.023477068 0.01020823 0.40400001 4280447555
-0.022164876 0.01020823 0.40400001 4280709957
-0.020852683 0.01020823 0.40400001 4280512578
-0.019540491 0.01020823 0.40400001 4280117307
-0.018228298 0.01020823 0.40400001 4279919928
-0.016916106 0.01020823 0.40400001 4280050490
-0.053881187 0.011292732 0.39600003 4282337586
-0.053657498 0.011520868 0.40400001 4285433450
-0.052345309 0.011520868 0.40400001 4282012993
-0.050906796 0.011492351 0.40300003 4281090608
-0.049597852 0.011492351 0.40300003 4281222194
-0.04816908 0.011463834 0.40200001 4281419573
-0.046630234 0.0114068 0.40000001 4281287474
-0.045217704 0.011378283 0.39900002 4281419058
-0.043811675 0.011349767 0.39800003 4282076472
-0.042412139 0.011321248 0.39700001 4281746991
-0.041122679 0.011321248 0.39700001 4281549101
-0.039833225 0.011321248 0.39700001 4280694819
-0.038640857 0.011349767 0.39800003 4280104735
-0.037348151 0.011349767 0.39800003 4280111660
-0.036146037 0.011378283 0.39900002 4279258146
-0.034937426 0.0114068 0.40000001 4279194406
-0.033638228 0.0114068 0.40000001 4279260711
-0.032419875 0.011435317 0.40100002 4278868519
-0.031117426 0.011435317 0.40100002 4278935341
-0.02988933 0.011463834 0.40200001 4279265589
-0.028583631 0.011463834 0.40200001 4279134773
-0.027345791 0.011492351 0.40300003 4279924287
-0.026036849 0.011492351 0.40300003 4279068978
-0.024789261 0.011520868 0.40400001 4279462966
-0.023477068 0.011520868 0.40400001 4279396660
-0.022219742 0.011549385 0.40500003 4279462707
-0.020852683 0.011520868 0.40400001 4279462453
-0.019540491 0.011520868 0.40400001 4279396914
-0.018228298 0.011520868 0.40400001 4279462707
-0.016957978 0.011549385 0.40500003 4279527730
-0.015642537 0.011549385 0.40500003 4279593523
-0.053881187 0.012579377 0.39600003 4282927908
-0.053657498 0.012833506 0.40400001 4283128635
-0.052345309 0.012833506 0.40400001 4282143546
-0.050906796 0.012801739 0.40300003 4280828204
-0.049597852 0.012801739 0.40300003 4280696620
-0.04816908 0.012769973 0.40200001 4280827436
-0.046630234 0.012706441 0.40000001 4280827436
-0.045217704 0.012674675 0.39900002 4281024300
-0.043811675 0.01264291 0.39800003 4282141749
-0.042518973 0.01264291 0.39800003 4281351202
-0.041122679 0.012611143 0.39700001 4280694044
-0.039833225 0.012611143 0.39700001 4281089575
-0.038640857 0.01264291 0.39800003 4279644695
-0.037348151 0.01264291 0.39800003 4279847203
-0.036146037 0.012674675 0.39900002 4279322912
-0.034937426 0.012706441 0.40000001 4279193123
-0.033722326 0.012738207 0.40100002 4279325220
-0.032419875 0.012738207 0.40100002 4279195431
-0.031195026 0.012769973 0.40200001 4279329070
-0.02988933 0.012769973 0.40200001 4278870316
-0.028654736 0.012801739 0.40300003 4278870829
-0.027345791 0.012801739 0.40300003 4279463220
-0.026101455 0.012833506 0.40400001 4279200048
-0.024789261 0.012833506 0.40400001 4279068462
-0.023535181 0.012865272 0.40500003 4279396914
-0.022219742 0.012865272 0.40500003 4279396912
-0.020852683 0.012833506 0.40400001 4279396912
-0.019540491 0.012833506 0.40400001 4279857465
-0.018273417 0.012865272 0.40500003 4279265326
-0.016957978 0.012865272 0.40500003 4279527982
-0.015642537 0.012865272 0.40500003 4279001638
-0.014397847 0.012928803 0.40700001 4279397166
-0.013108037 0.01296057 0.40800002 4279265326
-0.011782853 0.01296057 0.40800002 4279462707
-0.053657498 0.014146143 0.40400001 4282272293
-0.052345309 0.014146143 0.40400001 4282339632
-0.050906796 0.014111128 0.40300003 4280959274
-0.049597852 0.014111128 0.40300003 4280827434
-0.04816908 0.014076112 0.40200001 4280826923
-0.046746813 0.014041097 0.40100002 4280958509
-0.045217704 0.013971067 0.39900002 4281024300
-0.043811675 0.013936052 0.39800003 4281879091
-0.042412139 0.013901036 0.39700001 4281747243
-0.041122679 0.013901036 0.39700001 4281483558
-0.039833225 0.013901036 0.39700001 4281286692
-0.038640857 0.013936052 0.39800003 4280565538
-0.037441991 0.013971067 0.39900002 4279848488
-0.036146037 0.013971067 0.39900002 4279389734
-0.034937426 0.014006081 0.40000001 4279193123
-0.033722326 0.014041097 0.40100002 4279325220
-0.032500722 0.014076112 0.40200001 4279261224
-0.031195026 0.014076112 0.40200001 4279130921
-0.029963681 0.014111128 0.40300003 4279066666
-0.028654736 0.014111128 0.40300003 4279001638
-0.027413648 0.014146143 0.40400001 4279528498
-0.026101455 0.014146143 0.40400001 4278739495
-0.024850622 0.014181159 0.40500003 4279132970
-0.023593292 0.014216173 0.40600002 4279067177
-0.022329466 0.014251187 0.40700001 4279000105
-0.021213992 0.014391249 0.41100001 4278472991
-0.019927431 0.014426265 0.41200003 4279461424
-0.018589254 0.014426265 0.41200003 4279264043
-0.017251078 0.014426265 0.41200003 4279461676
-0.015912902 0.014426265 0.41200003 4279264810
-0.014574725 0.014426265 0.41200003 4279396142
-0.013108037 0.014286203 0.40800002 4279132970
-0.011782853 0.014286203 0.40800002 4279132457
-0.010919035 0.014916478 0.42600003 4279264043
-0.053657498 0.015458779 0.40400001 4282665509
-0.052215744 0.015420516 0.40300003 4282141220
-0.050906796 0.015420516 0.40300003 4280630055
-0.04947478 0.015382251 0.40200001 4280630827
-0.04816908 0.015382251 0.40200001 4280498471
-0.046746813 0.015343987 0.40100002 4280695850
-0.045217704 0.015267458 0.39900002 4281155116
-0.043811675 0.015229194 0.39800003 4281352749
-0.042412139 0.015190929 0.39700001 4281286440
-0.041122679 0.015190929 0.39700001 4281220647
-0.039833225 0.015190929 0.39700001 4281418540
-0.038640857 0.015229194 0.39800003 4280632358
-0.037441991 0.015267458 0.39900002 4279322914
-0.036146037 0.015267458 0.39900002 4279323941
-0.034937426 0.015305722 0.40000001 4279127330
-0.033722326 0.015343987 0.40100002 4279391013
-0.032500722 0.015382251 0.40200001 4279327271
-0.031195026 0.015382251 0.40200001 4278868003
-0.029963681 0.015420516 0.40300003 4279198504
-0.028654736 0.015420516 0.40300003 4279790641
-0.027413648 0.015458779 0.40400001 4279199017
-0.026166065 0.015497045 0.40500003 4278935845
-0.024911981 0.015535308 0.40600002 4279132970
-0.023651402 0.015573572 0.40700001 4279132972
-0.022384331 0.015611837 0.40800002 4278208538
-0.021213992 0.01572663 0.41100001 4279063334
-0.019927431 0.015764894 0.41200003 4279131173
-0.018859971 0.01599448 0.41800001 4279394345
-0.017627923 0.016109273 0.42100003 4279263781
-0.01633776 0.016185801 0.42300001 4278869539
-0.015034606 0.01626233 0.42500001 4279198763
-0.013686333 0.016300594 0.42600003 4279198763
-0.012302685 0.016300594 0.42600003 4278672419
-0.01099593 0.016415387 0.42900002 4278738212
-0.0096249208 0.016453652 0.43000001 4278606628
-0.0082282797 0.016453652 0.43000001 4279066666
-0.053657498 0.016771417 0.40400001 4282995246
-0.052215744 0.016729904 0.40300003 4282667053
-0.050780475 0.01668839 0.40200001 4280892968
-0.049351711 0.016646877 0.40100002 4280893227
-0.04804926 0.016646877 0.40100002 4280959022
-0.046630234 0.016605362 0.40000001 4280893229
-0.045217704 0.01656385 0.39900002 4281353778
-0.043811675 0.016522337 0.39800003 4281155116
-0.042412139 0.016480822 0.39700001 4281812273
-0.041122679 0.016480822 0.39700001 4281022757
-0.039833225 0.016480822 0.39700001 4280498210
-0.038640857 0.016522337 0.39800003 4280370469
-0.037441991 0.01656385 0.39900002 4279322914
-0.036236629 0.016605362 0.40000001 4279192355
-0.035024773 0.016646877 0.40100002 4279456293
-0.033722326 0.016646877 0.40100002 4279391013
-0.032500722 0.01668839 0.40200001 4279261478
-0.031272627 0.016729904 0.40300003 4278933796
-0.029963681 0.016729904 0.40300003 4279067177
-0.028725838 0.016771417 0.40400001 4279659314
-0.027413648 0.016771417 0.40400001 4279132970
-0.026166065 0.01681293 0.40500003 4279067179
-0.024911981 0.016854443 0.40600002 4279067177
-0.023709515 0.01693747 0.40800002 4278869285
-0.022439193 0.016978983 0.40900001 4278867490
-0.021265609 0.017103525 0.41200003 4279459627
-0.020024167 0.017186552 0.41400003 4278201601
-0.018859971 0.017352603 0.41800001 4278200840
-0.017627923 0.017477145 0.42100003 4278199815
-0.01633776 0.017560171 0.42300001 4278201356
-0.015034606 0.017643198 0.42500001 4278202377
-0.013686333 0.017684711 0.42600003 4278929951
-0.012331564 0.017726226 0.42700002 4278404120
-0.01099593 0.017809251 0.42900002 4278995744
-0.0096249208 0.017850764 0.43000001 4279456808
-0.0081708739 0.017726226 0.42700002 4280246324
-0.052215744 0.018039292 0.40300003 4283852106
-0.050527837 0.017905002 0.40000001 4281680946
-0.049228635 0.017905002 0.40000001 4281483567
-0.047929432 0.017905002 0.40000001 4282207804
-0.046630234 0.017905002 0.40000001 4281878839
-0.045217704 0.017860241 0.39900002 4281944632
-0.043811675 0.01781548 0.39800003 4281615153
-0.042412139 0.017770715 0.39700001 4281286442
-0.041122679 0.017770715 0.39700001 4281418028
-0.039833225 0.017770715 0.39700001 4280696102
-0.038640857 0.01781548 0.39800003 4279648289
-0.037441991 0.017860241 0.39900002 4279257635
-0.036236629 0.017905002 0.40000001 4279389734
-0.035024773 0.017949766 0.40100002 4279193634
-0.033806417 0.017994529 0.40200001 4279195172
-0.032500722 0.017994529 0.40200001 4279131175
-0.031272627 0.018039292 0.40300003 4279000873
-0.029963681 0.018039292 0.40300003 4278870570
-0.028725838 0.018084053 0.40400001 4279462707
-0.027481504 0.018128816 0.40500003 4279396144
-0.026230671 0.018173579 0.40600002 4279132970
-0.024973338 0.01821834 0.40700001 4279000871
-0.023767626 0.018307867 0.40900001 4279000871
-0.022494059 0.01835263 0.41000003 4278200576
-0.021317223 0.018486917 0.41300002 4280640567
-0.020072535 0.018576441 0.41500002 4278726162
-0.018905092 0.018755492 0.41900003 4278987027
-0.017627923 0.018845016 0.42100003 4279183896
-0.01633776 0.01893454 0.42300001 4279249176
-0.015034606 0.019024067 0.42500001 4278593552
-0.013718461 0.019113591 0.42700002 4280901176
-0.012360444 0.019158354 0.42800003 4280180018
-0.011021561 0.019247878 0.43000001 4280114225
-0.0096473051 0.019292641 0.43100002 4280048180
-0.0028075927 0.020456467 0.45700002 4279718963
-0.0013261514 0.02050123 0.45800003 4278734371
-0.051532447 0.018628506 0.38800001 4282471228
-0.050920065 0.018868564 0.39300001 4282076470
-0.050275199 0.019108623 0.39800003 4282010165
-0.049105566 0.019156635 0.39900002 4281286702
-0.047809612 0.019156635 0.39900002 4282077503
-0.046513662 0.019156635 0.39900002 4282209089
-0.045104381 0.019108623 0.39800003 4282536769
-0.043811675 0.019108623 0.39800003 4281483567
-0.042518973 0.019108623 0.39800003 4281286188
-0.041226264 0.019108623 0.39800003 4281154602
-0.039933562 0.019108623 0.39800003 4280171039
-0.038737942 0.019156635 0.39900002 4279912231
-0.037441991 0.019156635 0.39900002 4279323939
-0.036236629 0.019204644 0.40000001 4279127330
-0.035024773 0.019252658 0.40100002 4278997027
-0.033806417 0.019300669 0.40200001 4279195431
-0.032581568 0.019348681 0.40300003 4279065382
-0.031272627 0.019348681 0.40300003 4279131945
-0.030038033 0.019396693 0.40400001 4279066666
-0.028725838 0.019396693 0.40400001 4279132972
-0.027481504 0.019444704 0.40500003 4279132970
-0.026230671 0.019492716 0.40600002 4279067177
-0.0250347 0.019588739 0.40800002 4279131943
-0.023767626 0.01963675 0.40900001 4279263529
-0.022548921 0.019732773 0.41100001 4278204429
-0.021368841 0.01987681 0.41400003 4279127332
-0.0201209 0.019972831 0.41600001 4279251734
-0.018905092 0.020116867 0.41900003 4280303911
-0.017669793 0.020260902 0.42200002 4280764721
-0.016376384 0.020356925 0.42400002 4279909412
-0.015069982 0.020452948 0.42600003 4278198792
-0.013750589 0.020548971 0.42800003 4280638772
-0.012418202 0.020644994 0.43000001 4278204688
-0.011072825 0.020741018 0.43200001 4279062052
-0.0097144553 0.020837041 0.43400002 4279326508
-0.0084196357 0.02112511 0.44000003 4279063849
-0.0042355806 0.021653239 0.45100003 4279328302
-0.0028014493 0.021893296 0.45600003 4279656756
-0.0013232558 0.021941308 0.45700002 4280116537
0.00016178592 0.022037331 0.45900002 4279458607
0.0016526188 0.022037331 0.45900002 4280769338
-0.051798079 0.019991679 0.39000002 4282209859
-0.050920065 0.020145461 0.39300001 4282143294
-0.050148878 0.020350505 0.39700001 4281945656
-0.048982497 0.020401767 0.39800003 4282143035
-0.047689788 0.020401767 0.39800003 4282143294
-0.046513662 0.020453027 0.39900002 4282340673
-0.045217704 0.020453027 0.39900002 4281615667
-0.043811675 0.020401767 0.39800003 4281417776
-0.042518973 0.020401767 0.39800003 4281549878
-0.041226264 0.020401767 0.39800003 4281024304
-0.040033896 0.020453027 0.39900002 4280107043
-0.038737942 0.020453027 0.39900002 4279847205
-0.037535828 0.020504287 0.40000001 4279126299
-0.036327224 0.020555547 0.40100002 4279653156
-0.035112113 0.020606807 0.40200001 4279194404
-0.033806417 0.020606807 0.40200001 4279260711
-0.032581568 0.020658068 0.40300003 4279328300
-0.031350225 0.020709328 0.40400001 4279263277
-0.030038033 0.020709328 0.40400001 4279329324
-0.028796943 0.02076059 0.40500003 4279593010
-0.027549358 0.02081185 0.40600002 4279198763
-0.026295278 0.02086311 0.40700001 4279001384
-0.0250347 0.020914372 0.40800002 4279264043
-0.023825739 0.021016894 0.41000003 4279724596
-0.022603786 0.021119416 0.41200003 4280048947
-0.021420455 0.021273198 0.41500002 4278203408
-0.020169269 0.021375719 0.41700003 4280241198
-0.018950211 0.021529501 0.42000002 4280700979
-0.017669793 0.021632021 0.42200002 4279187486
-0.016415007 0.021785803 0.42500001 4279845418
-0.015105357 0.021888325 0.42700002 4278268691
-0.013782715 0.021990847 0.42900002 4278598167
-0.012447082 0.022093369 0.43100002 4278201099
-0.011098457 0.022195891 0.43300003 4280310584
-0.0097592231 0.022349672 0.43600002 4279127078
-0.0084387707 0.022605976 0.44100001 4278205716
-0.0056625106 0.0229648 0.44800001 4278536224
-0.0042355806 0.023118583 0.45100003 4278206999
-0.0027953056 0.023323625 0.45500001 4280510528
-0.0013232558 0.023426147 0.45700002 4279524146
0.00016143346 0.023477409 0.45800003 4279984697
0.0016526188 0.023528669 0.45900002 4282347603
-0.055028003 0.02104079 0.38600001 4282471750
-0.054052901 0.021149809 0.38800001 4282274371
-0.051049635 0.021476869 0.39400002 4282077501
-0.050022561 0.021585887 0.39600003 4282207804
-0.048859421 0.021640398 0.39700001 4282207804
-0.047689788 0.021694908 0.39800003 4282340673
-0.046397086 0.021694908 0.39800003 4282998603
-0.045217704 0.021749416 0.39900002 4282602564
-0.043921754 0.021749416 0.39900002 4281615155
-0.042625804 0.021749416 0.39900002 4281220397
-0.04132985 0.021749416 0.39900002 4281352495
-0.040134232 0.021803927 0.40000001 4279647262
-0.03883503 0.021803927 0.40000001 4279847203
-0.037629671 0.021858437 0.40100002 4279388703
-0.036327224 0.021858437 0.40100002 4279389217
-0.035112113 0.021912945 0.40200001 4279062048
-0.033890516 0.021967458 0.40300003 4279392551
-0.032581568 0.021967458 0.40300003 4278999589
-0.031350225 0.022021966 0.40400001 4279395117
-0.030112386 0.022076476 0.40500003 4279789875
-0.028796943 0.022076476 0.40500003 4279396142
-0.027549358 0.022130987 0.40600002 4279067179
-0.026359886 0.022240005 0.40800002 4279067179
-0.025096059 0.022294514 0.40900001 4278738214
-0.023883849 0.022403535 0.41100001 4279656752
-0.022658648 0.022512555 0.41300002 4280508215
-0.021420455 0.022621574 0.41500002 4278200067
-0.020217637 0.022785103 0.41800001 4278661142
-0.018950211 0.022894124 0.42000002 4278726421
-0.017711665 0.023057653 0.42300001 4278660117
-0.016415007 0.023166671 0.42500001 4281358909
-0.015140734 0.023330202 0.42800003 4280966717
-0.013814842 0.023439221 0.43000001 4278201102
-0.012475962 0.02354824 0.43200001 4279451941
-0.011124087 0.02365726 0.43400002 4279915313
-0.0097816056 0.02382079 0.43700001 4279456297
-0.0084387707 0.024038829 0.44100001 4279587883
-0.0070699523 0.024256868 0.44500002 4278928931
-0.0056751501 0.024474908 0.44900003 4279323689
-0.004244972 0.024638437 0.45200002 4278929447
-0.0027953056 0.024801966 0.45500001 4279391535
-0.0013232558 0.024910986 0.45700002 4279195951
0.00016143346 0.024965497 0.45800003 4279459123
0.0016526188 0.025020007 0.45900002 4287411101
-0.052063711 0.022641497 0.39200002 4282471748
-0.051049635 0.022757014 0.39400002 4282339392
-0.050022561 0.022872532 0.39600003 4282602050
-0.048859421 0.022930291 0.39700001 4283063115
-0.047689788 0.022988051 0.39800003 4282603332
-0.046397086 0.022988051 0.39800003 4281879609
-0.045217704 0.023045808 0.39900002 4281878841
-0.043921754 0.023045808 0.39900002 4281549876
-0.042625804 0.023045808 0.39900002 4281549876
-0.041433431 0.023103567 0.40000001 4280892198
-0.040134232 0.023103567 0.40000001 4280173860
-0.03883503 0.023103567 0.40000001 4280044582
-0.037629671 0.023161327 0.40100002 4279454496
-0.036417812 0.023219084 0.40200001 4279652389
-0.035112113 0.023219084 0.40200001 4279588392
-0.033890516 0.023276845 0.40300003 4279195172
-0.032581568 0.023276845 0.40300003 4279196455
-0.031350225 0.023334604 0.40400001 4279592494
-0.030112386 0.023392363 0.40500003 4279461422
-0.028868046 0.023450121 0.40600002 4279067177
-0.027617212 0.02350788 0.40700001 4279067949
-0.026359886 0.023565639 0.40800002 4279001386
-0.025157418 0.023681156 0.41000003 4279527217
-0.023883849 0.023738915 0.41100001 4278203397
-0.022658648 0.023854433 0.41300002 4280244791
-0.021420455 0.023969952 0.41500002 4278201102
-0.020217637 0.024143228 0.41800001 4279249176
-0.018950211 0.024258746 0.42000002 4279314199
-0.017711665 0.024432022 0.42300001 4279248406
-0.016453631 0.0246053 0.42600003 4278854418
-0.015140734 0.024720818 0.42800003 4280374578
-0.013814842 0.024836333 0.43000001 4278203406
-0.012475962 0.024951853 0.43200001 4280507448
-0.011149719 0.025125131 0.43500003 4279851568
-0.0097816056 0.025240647 0.43700001 4279852336
-0.0084196357 0.025413925 0.44000003 4279786543
-0.0070858398 0.025760477 0.44600001 4279786543
-0.0056751501 0.025933756 0.44900003 4279918131
-0.004244972 0.026107032 0.45200002 4279983924
-0.0027953056 0.026280308 0.45500001 4278469915
-0.0013232558 0.026395826 0.45700002 4279459377
0.00016143346 0.026453586 0.45800003 4279130412
0.0016490183 0.026453586 0.45800003 4287477926
-0.052196525 0.023976151 0.39300001 4283063633
-0.051049635 0.02403716 0.39400002 4282932047
-0.047569964 0.024220183 0.39700001 4282799943
-0.046397086 0.024281193 0.39800003 4283063113
-0.045217704 0.0243422 0.39900002 4282141497
-0.043921754 0.0243422 0.39900002 4281944118
-0.042625804 0.0243422 0.39900002 4281024302
-0.041433431 0.024403207 0.40000001 4280631338
-0.040134232 0.024403207 0.40000001 4280109864
-0.038932119 0.024464216 0.40100002 4279716389
-0.037629671 0.024464216 0.40100002 4279717668
-0.036417812 0.024525223 0.40200001 4279783975
-0.035112113 0.024525223 0.40200001 4279522851
-0.033890516 0.024586232 0.40300003 4279523621
-0.032581568 0.024586232 0.40300003 4278671394
-0.031350225 0.02464724 0.40400001 4278343456
-0.030112386 0.024708249 0.40500003 4279264304
-0.028868046 0.024769256 0.40600002 4279067179
-0.027617212 0.024830263 0.40700001 4279593523
-0.026359886 0.024891272 0.40800002 4279067179
-0.025157418 0.025013288 0.41000003 4279000873
-0.023941962 0.025135305 0.41200003 4280182326
-0.022658648 0.025196312 0.41300002 4280443705
-0.021420455 0.025318328 0.41500002 4278203405
-0.020217637 0.025501352 0.41800001 4278922004
-0.018950211 0.025623368 0.42000002 4278658064
-0.017711665 0.025806392 0.42300001 4278461457
-0.016415007 0.025928408 0.42500001 4278198797
-0.015140734 0.026111433 0.42800003 4278335767
-0.013814842 0.026233448 0.43000001 4278200069
-0.012475962 0.026355464 0.43200001 4278199815
-0.011124087 0.02647748 0.43400002 4278199559
-0.0097816056 0.026660504 0.43700001 4278201101
-0.0084004998 0.02678252 0.43900001 4278200070
-0.0071017272 0.027270585 0.44700003 4278202381
-0.0056877895 0.027453609 0.45000002 4278201353
-0.0042543635 0.027636632 0.45300001 4278200329
-0.0028014493 0.027819658 0.45600003 4279324970
-0.0013232558 0.027880665 0.45700002 4279656756
0.00016143346 0.027941674 0.45800003 4279062570
0.0016490183 0.027941674 0.45800003 4287016605
-0.057833575 0.024931764 0.38800001 4289116841
-0.052196525 0.02525305 0.39300001 4288790704
-0.051049635 0.025317308 0.39400002 4288790704
-0.047569964 0.025510078 0.39700001 4282800713
-0.046397086 0.025574338 0.39800003 4283393102
-0.045104381 0.025574338 0.39800003 4283852367
-0.043921754 0.025638593 0.39900002 4283391818
-0.042625804 0.025638593 0.39900002 4282012478
-0.041433431 0.025702849 0.40000001 4280568112
-0.040134232 0.025702849 0.40000001 4279781928
-0.038932119 0.025767108 0.40100002 4279848488
-0.037629671 0.025767108 0.40100002 4280047149
-0.036417812 0.025831364 0.40200001 4279455010
-0.035112113 0.025831364 0.40200001 4279588644
-0.033890516 0.025895622 0.40300003 4279655209
-0.032581568 0.025895622 0.40300003 4279394093
-0.031350225 0.025959879 0.40400001 4279329070
-0.030112386 0.026024137 0.40500003 4279396144
-0.028868046 0.026088392 0.40600002 4278936363
-0.027617212 0.02615265 0.40700001 4278804523
-0.026359886 0.026216907 0.40800002 4279001386
-0.025157418 0.026345422 0.41000003 4279000359
-0.023941962 0.026473936 0.41200003 4278536474
-0.022658648 0.026538193 0.41300002 4279655471
-0.021420455 0.026666706 0.41500002 4279523885
-0.020217637 0.026859477 0.41800001 4279589680
-0.018950211 0.026987992 0.42000002 4279326508
-0.017711665 0.027180763 0.42300001 4279326508
-0.016415007 0.027309278 0.42500001 4279326508
-0.015105357 0.027437793 0.42700002 4279589680
-0.013782715 0.027566306 0.42900002 4279589680
-0.012447082 0.027694821 0.43100002 4279392301
-0.011098457 0.027823336 0.43300003 4279852850
-0.0097368397 0.02795185 0.43500003 4279654957
-0.008362229 0.028080363 0.43700001 4279983152
-0.0071176146 0.028787192 0.44800001 4279983924
-0.0057130689 0.02904422 0.45200002 4279983924
-0.0042637549 0.029172735 0.45400003 4279721266
-0.0028014493 0.02930125 0.45600003 4279327021
-0.0013232558 0.029365506 0.45700002 4279655219
0.00016143346 0.029429764 0.45800003 4285506182
-0.057982631 0.026259923 0.38900003 4289248427
-0.04745014 0.026732467 0.39600003 4289119923
-0.045104381 0.026867479 0.39800003 4281026360
-0.043811675 0.026867479 0.39800003 4282079048
-0.042625804 0.026934985 0.39900002 4280502323
-0.04132985 0.026934985 0.39900002 4280372532
-0.040134232 0.027002489 0.40000001 4280045615
-0.03883503 0.027002489 0.40000001 4279848234
-0.037629671 0.027069997 0.40100002 4279652393
-0.036327224 0.027069997 0.40100002 4279783977
-0.035112113 0.027137503 0.40200001 4279456806
-0.033890516 0.027205011 0.40300003 4279852848
-0.032581568 0.027205011 0.40300003 4279525679
-0.031350225 0.027272515 0.40400001 4279329072
-0.030112386 0.027340023 0.40500003 4279132720
-0.028868046 0.027407529 0.40600002 4278936111
-0.027617212 0.027475033 0.40700001 4279330869
-0.026359886 0.027542541 0.40800002 4279001134
-0.025157418 0.027677553 0.41000003 4279263529
-0.023941962 0.027812567 0.41200003 4279524650
-0.022658648 0.027880071 0.41300002 4279656752
-0.021420455 0.028015085 0.41500002 4279196201
-0.020169269 0.028150097 0.41700003 4279328302
-0.018950211 0.028352614 0.42000002 4279329072
-0.017669793 0.028487628 0.42200002 4279197486
-0.016376384 0.02862264 0.42400002 4279197486
-0.015105357 0.028825158 0.42700002 4278802728
-0.013750589 0.028892666 0.42800003 4278934314
-0.012447082 0.029095184 0.43100002 4279131693
-0.011098457 0.029230196 0.43300003 4279000107
-0.0097144553 0.029297702 0.43400002 4279590961
-0.0083239581 0.02936521 0.43500003 4279196203
-0.0057257079 0.030580319 0.45300001 4279590193
-0.0042731464 0.030715333 0.45500001 4279655473
-0.0028075927 0.030850345 0.45700002 4280115256
-0.0013261514 0.030917853 0.45800003 4282084435
0.00016143346 0.030917853 0.45800003 4287739812
-0.040134232 0.028302131 0.40000001 4280898108
-0.03883503 0.028302131 0.40000001 4280437555
-0.037629671 0.028372888 0.40100002 4280044848
-0.036327224 0.028372888 0.40100002 4280177717
-0.035112113 0.028443642 0.40200001 4280244791
-0.033806417 0.028443642 0.40200001 4280377147
-0.032581568 0.028514398 0.40300003 4280181051
-0.031350225 0.028585153 0.40400001 4279918904
-0.030038033 0.028585153 0.40400001 4279723062
-0.028796943 0.028655909 0.40500003 4279591476
-0.027617212 0.028797418 0.40700001 4279525683
-0.026359886 0.028868174 0.40800002 4279394097
-0.025157418 0.029009685 0.41000003 4279130923
-0.023883849 0.029080439 0.41100001 4279393582
-0.022658648 0.02922195 0.41300002 4279393584
-0.021420455 0.029363461 0.41500002 4279459377
-0.020169269 0.029504972 0.41700003 4279788342
-0.018905092 0.029646484 0.41900003 4278998826
-0.017669793 0.029858749 0.42200002 4279656754
-0.016376384 0.03000026 0.42400002 4279196203
-0.015069982 0.030141771 0.42600003 4279195951
-0.013750589 0.030283282 0.42800003 4279656502
-0.012418202 0.03042479 0.43000001 4279656504
-0.011072825 0.030566301 0.43200001 4279393332
-0.0096920719 0.030637057 0.43300003 4279720500
-0.0083239581 0.030778568 0.43500003 4279324972
-0.0057257079 0.032052163 0.45300001 4282281814
-0.0028137362 0.032405943 0.45800003 4287608994
-0.033806417 0.029749781 0.40200001 4280701497
-0.032581568 0.029823786 0.40300003 4280374328
-0.031272627 0.029823786 0.40300003 4280638272
-0.030038033 0.029897789 0.40400001 4280704577
-0.028796943 0.029971795 0.40500003 4279586609
-0.027617212 0.030119803 0.40700001 4279390002
-0.026359886 0.030193808 0.40800002 4279127343
-0.025157418 0.030341817 0.41000003 4279653687
-0.023883849 0.03041582 0.41100001 4279587379
-0.022658648 0.030563829 0.41300002 4279652400
-0.021420455 0.030711839 0.41500002 4279783986
-0.020169269 0.030859848 0.41700003 4279323437
-0.018905092 0.031007856 0.41900003 4279586611
-0.017627923 0.031155866 0.42100003 4279257646
-0.016376384 0.031377878 0.42400002 4279520818
-0.015034606 0.031451881 0.42500001 4280045363
-0.013718461 0.03159989 0.42700002 4280834364
-0.030038033 0.031210426 0.40400001 4287542687
-0.025157418 0.031673949 0.41000003 4286622097
-0.022658648 0.031905707 0.41300002 4286622097
-0.020169269 0.032214724 0.41700003 4286556052
-0.063198574 0.032663178 0.39000002 4289117352
-0.029508822 0.0195016 0.41038668 4294967295
-0.029508822 0.0195016 0.41038668 4294901760
-0.029326053 0.019039791 0.41032898 4294901760
-0.029143287 0.01857798 0.41027132 4294901760
-0.028960519 0.018116171 0.41021362 4294901760
-0.02877775 0.017654361 0.41015595 4294901760
-0.028594982 0.017192552 0.41009825 4294901760
-0.028412215 0.016730741 0.41004056 4294901760
-0.028229447 0.016268931 0.40998289 4294901760
-0.028046679 0.015807122 0.40992519 4294901760
-0.027863912 0.015345312 0.40986753 4294901760
-0.027681144 0.014883501 0.40980983 4294901760
-0.027498376 0.014421692 0.40975213 4294901760
-0.027315609 0.013959883 0.40969446 4294901760
-0.027132841 0.013498073 0.40963677 4294901760
-0.026950072 0.013036262 0.4095791 4294901760
-0.026767304 0.012574453 0.4095214 4294901760
-0.026584538 0.012112643 0.4094637 4294901760
-0.026401769 0.011650832 0.40940604 4294901760
-0.026219001 0.011189023 0.40934834 4294901760
-0.026036233 0.010727213 0.40929067 4294901760
-0.025853466 0.010265403 0.40923297 4294901760
-0.025670698 0.0098035941 0.40917528 4294901760
-0.02548793 0.0093417838 0.40911761 4294901760
-0.025305163 0.0088799736 0.40905991 4294901760
-0.025122395 0.0084181642 0.40900224 4294901760
-0.024939626 0.0079563539 0.40894455 4294901760
-0.02475686 0.0074945446 0.40888685 4294901760
-0.024574092 0.0070327334 0.40882918 4294901760
-0.024391323 0.0065709241 0.40877149 4294901760
-0.024208557 0.0061091147 0.40871382 4294901760
-0.024025787 0.0056473045 0.40865612 4294901760
-0.02384302 0.0051854951 0.40859842 4294901760
-0.023660252 0.0047236849 0.40854076 4294901760
-0.023477484 0.0042618746 0.40848306 4294901760
-0.023294717 0.0038000643 0.40842539 4294901760
-0.023111949 0.003338255 0.40836769 4294901760
-0.02292918 0.0028764457 0.40831 4294901760
-0.022746414 0.0024146363 0.40825233 4294901760
-0.022563646 0.0019528251 0.40819463 4294901760
-0.022380877 0.0014910158 0.40813696 4294901760
-0.022198111 0.0010292064 0.40807927 4294901760
-0.022015342 0.0005673971 0.40802157 4294901760
-0.021832574 0.00010558777 0.4079639 4294901760
-0.021649808 -0.00035622343 0.4079062 4294901760
-0.021467039 -0.00081803277 0.40784854 4294901760
-0.021284271 -0.0012798421 0.40779084 4294901760
-0.021101505 -0.0017416533 0.40773314 4294901760
-0.020918734 -0.0022034626 0.40767547 4294901760
-0.020735968 -0.002665272 0.40761778 4294901760
-0.0205532 -0.0031270832 0.40756011 4294901760
-0.020370431 -0.0035888925 0.40750241 4294901760
-0.020187665 -0.0040507019 0.40744472 4294901760
-0.020004898 -0.0045125112 0.40738705 4294901760
-0.019822128 -0.0049743205 0.40732935 4294901760
-0.019639362 -0.0054361336 0.40727168 4294901760
-0.019456593 -0.0058979429 0.40721399 4294901760
-0.019273825 -0.0063597523 0.40715629 4294901760
-0.019091059 -0.0068215616 0.40709862 4294901760
-0.01890829 -0.0072833709 0.40704092 4294901760
-0.018725522 -0.0077451803 0.40698326 4294901760
-0.018542754 -0.0082069915 0.40692556 4294901760
-0.018359985 -0.0086688008 0.40686786 4294901760
-0.018177219 -0.0091306102 0.40681019 4294901760
-0.017994452 -0.0095924214 0.4067525 4294901760
-0.017811682 -0.010054231 0.40669483 4294901760
-0.017628916 -0.01051604 0.40663713 4294901760
-0.017446147 -0.010977851 0.40657943 4294901760
-0.017263379 -0.011439661 0.40652177 4294901760
-0.017080612 -0.011901472 0.40646407 4294901760
-0.016897844 -0.012363281 0.4064064 4294901760
-0.016715076 -0.01282509 0.40634871 4294901760
-0.016532309 -0.0132869 0.40629101 4294901760
-0.016349539 -0.013748709 0.40623334 4294901760
-0.016166773 -0.014210518 0.40617564 4294901760
-0.015984006 -0.014672328 0.40611798 4294901760
-0.015801238 -0.015134137 0.40606028 4294901760
-0.01561847 -0.01559595 0.40600258 4294901760
-0.015435702 -0.01605776 0.40594491 4294901760
-0.015252935 -0.016519569 0.40588722 4294901760
-0.015070166 -0.016981378 0.40582955 4294901760
-0.014887398 -0.017443188 0.40577185 4294901760
-0.014704631 -0.017904997 0.40571415 4294901760
-0.014521863 -0.018366806 0.40565649 4294901760
-0.014339095 -0.018828616 0.40559879 4294901760
-0.014156328 -0.019290425 0.40554112 4294901760
-0.013973559 -0.019752238 0.40548342 4294901760
-0.013790792 -0.020214047 0.40542573 4294901760
-0.013608024 -0.020675857 0.40536806 4294901760
-0.013425257 -0.021137666 0.40531036 4294901760
-0.013242489 -0.021599475 0.4052527 4294901760
-0.01305972 -0.022061285 0.405195 4294901760
-0.012876952 -0.022523098 0.4051373 4294901760
-0.012694186 -0.022984907 0.40507963 4294901760
-0.012511417 -0.023446716 0.40502194 4294901760
-0.012328649 -0.023908526 0.40496427 4294901760
-0.012145882 -0.024370335 0.40490657 4294901760
-0.011963114 -0.024832144 0.40484887 4294901760
-0.011780346 -0.025293957 0.40479121 4294901760
-0.011597577 -0.025755767 0.40473351 4294901760
-0.011414811 -0.026217576 0.40467584 4294901760
-0.011232043 -0.026679385 0.40461814 4294901760
-0.029508822 0.0195016 0.41038668 4278255360
-0.029189251 0.019581078 0.41076294 4278255360
-0.028869681 0.019660555 0.41113916 4278255360
-0.028550113 0.019740032 0.41151541 4278255360
-0.028230542 0.019819509 0.41189164 4278255360
-0.027910972 0.019898986 0.41226789 4278255360
-0.027591402 0.019978464 0.41264415 4278255360
-0.027271831 0.020057943 0.41302037 4278255360
-0.026952263 0.02013742 0.41339663 4278255360
-0.026632693 0.020216897 0.41377285 4278255360
-0.026313122 0.020296374 0.41414911 4278255360
-0.025993552 0.020375852 0.41452536 4278255360
-0.025673982 0.020455329 0.41490158 4278255360
-0.025354411 0.020534806 0.41527784 4278255360
-0.025034841 0.020614283 0.41565406 4278255360
-0.024715271 0.02069376 0.41603032 4278255360
-0.024395702 0.020773238 0.41640657 4278255360
-0.024076132 0.020852715 0.4167828 4278255360
-0.023756562 0.020932192 0.41715905 4278255360
-0.023436993 0.021011669 0.41753528 4278255360
-0.023117423 0.021091146 0.41791153 4278255360
-0.022797853 0.021170624 0.41828778 4278255360
-0.022478282 0.021250103 0.41866401 4278255360
-0.022158712 0.02132958 0.41904026 4278255360
-0.021839142 0.021409057 0.41941649 4278255360
-0.021519572 0.021488534 0.41979274 4278255360
-0.021200003 0.021568011 0.420169 4278255360
-0.020880431 0.021647489 0.42054522 4278255360
-0.020560862 0.021726966 0.42092147 4278255360
-0.020241294 0.021806443 0.4212977 4278255360
-0.019921722 0.02188592 0.42167395 4278255360
-0.019602153 0.021965398 0.42205021 4278255360
-0.019282583 0.022044875 0.42242643 4278255360
-0.018963013 0.022124352 0.42280269 4278255360
-0.018643443 0.022203829 0.42317891 4278255360
-0.018323872 0.022283306 0.42355517 4278255360
-0.018004302 0.022362785 0.42393142 4278255360
-0.017684732 0.022442263 0.42430764 4278255360
-0.017365163 0.02252174 0.4246839 4278255360
-0.017045595 0.022601217 0.42506012 4278255360
-0.016726023 0.022680694 0.42543638 4278255360
-0.016406454 0.022760171 0.42581263 4278255360
-0.016086884 0.022839649 0.42618886 4278255360
-0.015767314 0.022919126 0.42656511 4278255360
-0.015447743 0.022998603 0.42694134 4278255360
-0.015128174 0.02307808 0.42731759 4278255360
-0.014808603 0.023157557 0.42769384 4278255360
-0.014489033 0.023237035 0.42807007 4278255360
-0.014169464 0.023316512 0.42844632 4278255360
-0.013849894 0.023395989 0.42882255 4278255360
-0.013530323 0.023475468 0.4291988 4278255360
-0.013210753 0.023554944 0.42957506 4278255360
-0.012891185 0.023634423 0.42995128 4278255360
-0.012571614 0.023713898 0.43032753 4278255360
-0.012252042 0.023793377 0.43070376 4278255360
-0.011932474 0.023872854 0.43108001 4278255360
-0.011612903 0.023952331 0.43145627 4278255360
-0.011293333 0.024031809 0.43183249 4278255360
-0.010973765 0.024111286 0.43220875 4278255360
-0.010654194 0.024190763 0.43258497 4278255360
-0.010334622 0.02427024 0.43296123 4278255360
-0.010015054 0.024349717 0.43333748 4278255360
-0.0096954834 0.024429195 0.4337137 4278255360
-0.0093759131 0.024508674 0.43408996 4278255360
-0.0090563446 0.024588149 0.43446618 4278255360
-0.0087367743 0.024667628 0.43484244 4278255360
-0.0084172022 0.024747105 0.43521869 4278255360
-0.0080976337 0.024826583 0.43559492 4278255360
-0.0077780634 0.02490606 0.43597117 4278255360
-0.0074584931 0.024985537 0.4363474 4278255360
-0.0071389247 0.025065014 0.43672365 4278255360
-0.0068193544 0.025144491 0.4370999 4278255360
-0.0064997822 0.025223969 0.43747613 4278255360
-0.0061802138 0.025303446 0.43785238 4278255360
-0.0058606435 0.025382923 0.43822861 4278255360
-0.005541075 0.0254624 0.43860486 4278255360
-0.0052215047 0.025541877 0.43898112 4278255360
-0.0049019344 0.025621355 0.43935734 4278255360
-0.004582366 0.025700832 0.43973359 4278255360
-0.0042627938 0.025780309 0.44010982 4278255360
-0.0039432235 0.025859788 0.44048607 4278255360
-0.0036236551 0.025939265 0.44086233 4278255360
-0.0033040848 0.026018742 0.44123855 4278255360
-0.0029845145 0.02609822 0.44161481 4278255360
-0.002664946 0.026177697 0.44199103 4278255360
-0.0023453739 0.026257174 0.44236729 4278255360
-0.0020258036 0.026336651 0.44274354 4278255360
-0.0017062351 0.026416129 0.44311976 4278255360
-0.0013866648 0.026495606 0.44349602 4278255360
-0.0010670945 0.026575083 0.44387224 4278255360
-0.00074752606 0.02665456 0.4442485 4278255360
-0.0004279539 0.026734039 0.44462475 4278255360
-0.0001083836 0.026813515 0.44500098 4278255360
0.00021118484 0.026892994 0.44537723 4278255360
0.00053075515 0.026972469 0.44575346 4278255360
0.00085032545 0.027051948 0.44612971 4278255360
0.0011698939 0.027131425 0.44650596 4278255360
0.0014894661 0.027210902 0.44688219 4278255360
0.0018090345 0.02729038 0.44725844 4278255360
0.0021286048 0.027369857 0.44763467 4278255360
0.0024481751 0.027449334 0.44801092 4278255360
-0.029508822 0.0195016 0.41038668 4278190335
-0.029687583 0.019374719 0.41083607 4278190335
-0.029866347 0.019247839 0.41128546 4278190335
-0.030045109 0.019120958 0.41173482 4278190335
-0.030223873 0.018994076 0.41218421 4278190335
-0.030402634 0.018867197 0.4126336 4278190335
-0.030581396 0.018740315 0.41308299 4278190335
-0.03076016 0.018613433 0.41353238 4278190335
-0.030938921 0.018486554 0.41398174 4278190335
-0.031117685 0.018359672 0.41443112 4278190335
-0.031296447 0.018232791 0.41488051 4278190335
-0.031475209 0.018105911 0.4153299 4278190335
-0.03165397 0.01797903 0.41577929 4278190335
-0.031832736 0.017852148 0.41622865 4278190335
-0.032011498 0.017725268 0.41667804 4278190335
-0.03219026 0.017598387 0.41712743 4278190335
-0.032369021 0.017471505 0.41757682 4278190335
-0.032547787 0.017344624 0.41802621 4278190335
-0.032726549 0.017217744 0.41847557 4278190335
-0.03290531 0.017090863 0.41892496 4278190335
-0.033084072 0.016963981 0.41937435 4278190335
-0.033262834 0.016837101 0.41982374 4278190335
-0.033441599 0.01671022 0.42027313 4278190335
-0.033620361 0.016583338 0.42072248 4278190335
-0.033799123 0.016456459 0.42117187 4278190335
-0.033977885 0.016329577 0.42162126 4278190335
-0.034156647 0.016202696 0.42207065 4278190335
-0.034335412 0.016075816 0.42252004 4278190335
-0.034514174 0.015948934 0.4229694 4278190335
-0.034692936 0.015822053 0.42341879 4278190335
-0.034871697 0.015695173 0.42386818 4278190335
-0.035050459 0.015568292 0.42431757 4278190335
-0.035229225 0.015441411 0.42476696 4278190335
-0.035407986 0.015314531 0.42521632 4278190335
-0.035586748 0.015187649 0.42566571 4278190335
-0.03576551 0.015060768 0.4261151 4278190335
-0.035944276 0.014933887 0.42656448 4278190335
-0.036123037 0.014807006 0.42701387 4278190335
-0.036301799 0.014680126 0.42746323 4278190335
-0.036480561 0.014553245 0.42791262 4278190335
-0.036659323 0.014426364 0.42836201 4278190335
-0.036838088 0.014299482 0.4288114 4278190335
-0.03701685 0.014172602 0.42926079 4278190335
-0.037195612 0.014045721 0.42971015 4278190335
-0.037374374 0.013918839 0.43015954 4278190335
-0.037553139 0.01379196 0.43060893 4278190335
-0.037731901 0.013665078 0.43105832 4278190335
-0.037910663 0.013538197 0.43150771 4278190335
-0.038089424 0.013411317 0.43195707 4278190335
-0.038268186 0.013284435 0.43240646 4278190335
-0.038446948 0.013157554 0.43285584 4278190335
-0.038625713 0.013030674 0.43330523 4278190335
-0.038804475 0.012903793 0.43375462 4278190335
-0.038983237 0.012776912 0.43420398 4278190335
-0.039162003 0.012650031 0.43465337 4278190335
-0.039340764 0.01252315 0.43510276 4278190335
-0.039519526 0.012396269 0.43555215 4278190335
-0.039698288 0.012269388 0.43600154 4278190335
-0.03987705 0.012142507 0.4364509 4278190335
-0.040055811 0.012015626 0.43690029 4278190335
-0.040234577 0.011888744 0.43734968 4278190335
-0.040413339 0.011761865 0.43779907 4278190335
-0.0405921 0.011634983 0.43824846 4278190335
-0.040770862 0.011508103 0.43869781 4278190335
-0.040949624 0.011381222 0.4391472 4278190335
-0.04112839 0.011254341 0.43959659 4278190335
-0.041307151 0.01112746 0.44004598 4278190335
-0.041485913 0.011000578 0.44049537 4278190335
-0.041664675 0.010873698 0.44094473 4278190335
-0.041843437 0.010746817 0.44139412 4278190335
-0.042022202 0.010619937 0.44184351 4278190335
-0.042200964 0.010493055 0.4422929 4278190335
-0.042379726 0.010366173 0.44274229 4278190335
-0.042558491 0.010239293 0.44319165 4278190335
-0.042737253 0.010112412 0.44364104 4278190335
-0.042916015 0.0099855317 0.44409043 4278190335
-0.043094777 0.0098586511 0.44453982 4278190335
-0.043273538 0.0097317696 0.4449892 4278190335
-0.0434523 0.009604889 0.44543856 4278190335
-0.043631066 0.0094780074 0.44588795 4278190335
-0.043809827 0.0093511268 0.44633734 4278190335
-0.043988589 0.0092242463 0.44678673 4278190335
-0.044167351 0.0090973647 0.44723612 4278190335
-0.044346113 0.0089704841 0.44768548 4278190335
-0.044524878 0.0088436035 0.44813487 4278190335
-0.04470364 0.008716722 0.44858426 4278190335
-0.044882402 0.0085898414 0.44903365 4278190335
-0.045061164 0.0084629599 0.44948304 4278190335
-0.045239925 0.0083360793 0.4499324 4278190335
-0.045418687 0.0082091987 0.45038179 4278190335
-0.045597453 0.0080823181 0.45083117 4278190335
-0.045776214 0.0079554366 0.45128056 4278190335
-0.04595498 0.007828556 0.45172995 4278190335
-0.046133742 0.0077016745 0.45217931 4278190335
-0.046312504 0.0075747939 0.4526287 4278190335
-0.046491265 0.0074479133 0.45307809 4278190335
-0.046670027 0.0073210327 0.45352748 4278190335
-0.046848789 0.0071941512 0.45397687 4278190335
-0.047027551 0.0070672696 0.45442623 4278190335
-0.047206316 0.0069403891 0.45487562 4278190335
-0.047385078 0.0068135085 0.45532501 4278190335
-0.029508822 0.0195016 0.41038668 4294967295
-0.028436247 0.020262886 0.40769038 4294967295
-0.027363671 0.021024171 0.40499407 4294967295
-0.026291095 0.021785457 0.40229779 4294967295
-0.02521852 0.022546742 0.39960149 4294967295
-0.024145944 0.023308028 0.39690518 4294967295
-0.02307337 0.024069313 0.39420888 4294967295
-0.022000793 0.024830598 0.3915126 4294967295
-0.020928219 0.025591884 0.3888163 4294967295
-0.019855643 0.026353171 0.38611999 4294967295
-0.018783066 0.027114457 0.38342369 4294967295
-0.017710492 0.027875742 0.38072741 4294967295
-0.016637918 0.028637027 0.3780311 4294967295
-0.015565342 0.029398313 0.3753348 4294967295
-0.014492766 0.030159598 0.37263849 4294967295
-0.013420191 0.030920886 0.36994219 4294967295
-0.012347616 0.031682171 0.36724591 4294967295
-0.01127504 0.032443456 0.36454961 4294967295
-0.010202464 0.033204742 0.3618533 4294967295
-0.0091298893 0.033966027 0.359157 4294967295
-0.008057313 0.034727313 0.35646072 4294967295
-0.0069847386 0.035488598 0.35376441 4294967295
-0.0059121642 0.036249883 0.35106811 4294967295
-0.004839588 0.037011169 0.3483718 4294967295
-0.0037670135 0.037772454 0.34567553 4294967295
-0.0026944373 0.03853374 0.34297922 4294967295
-0.0016218629 0.039295025 0.34028292 4294967295
-0.00054928474 0.040056311 0.33758661 4294967295
0.00052328967 0.040817596 0.33489031 4294967295
0.0015958641 0.041578881 0.33219403 4294967295
0.0026684403 0.042340167 0.32949772 4294967295
0.0037410147 0.043101452 0.32680142 4294967295
0.0048135892 0.043862738 0.32410514 4294967295
0.0058861673 0.044624023 0.32140881 4294967295
0.0069587417 0.045385309 0.31871253 4294967295
0.0080313161 0.046146594 0.31601623 4294967295
0.0091038942 0.046907879 0.31331992 4294967295
0.010176469 0.047669165 0.31062365 4294967295
0.011249043 0.04843045 0.30792734 4294967295
0.012321617 0.049191736 0.30523103 4294967295
0.013394196 0.049953021 0.30253473 4294967295
0.01446677 0.050714307 0.29983842 4294967295
0.015539344 0.051475592 0.29714215 4294967295
0.016611919 0.052236881 0.29444584 4294967295
0.017684493 0.052998167 0.29174954 4294967295
0.018757068 0.053759452 0.28905326 4294967295
0.019829646 0.054520737 0.28635693 4294967295
0.02090222 0.055282023 0.28366065 4294967295
0.021974795 0.056043308 0.28096434 4294967295
0.023047373 0.056804594 0.27826804 4294967295
0.024119947 0.057565879 0.27557176 4294967295
0.025192522 0.058327165 0.27287546 4294967295
0.026265096 0.05908845 0.27017915 4294967295
0.02733767 0.059849735 0.26748288 4294967295
0.028410252 0.060611024 0.26478654 4294967295
0.029482827 0.061372306 0.26209027 4294967295
0.030555401 0.062133592 0.25939396 4294967295
0.031627975 0.062894881 0.25669765 4294967295
0.03270055 0.063656166 0.25400138 4294967295
0.033773124 0.064417452 0.25130507 4294967295
0.034845702 0.065178737 0.24860875 4294967295
0.03591828 0.065940022 0.24591246 4294967295
0.036990851 0.066701308 0.24321616 4294967295
0.038063429 0.067462593 0.24051987 4294967295
0.039136 0.068223879 0.23782358 4294967295
0.040208578 0.068985164 0.23512727 4294967295
0.041281156 0.06974645 0.23243096 4294967295
0.042353727 0.070507735 0.22973467 4294967295
0.043426305 0.07126902 0.22703837 4294967295
0.044498876 0.072030306 0.22434208 4294967295
0.045571454 0.072791591 0.22164577 4294967295
0.046644025 0.073552877 0.21894948 4294967295
0.04771661 0.074314162 0.21625318 4294967295
0.048789181 0.075075448 0.21355687 4294967295
0.049861759 0.075836733 0.21086058 4294967295
0.05093433 0.076598018 0.20816427 4294967295
0.052006908 0.077359304 0.20546798 4294967295
0.053079478 0.078120589 0.20277169 4294967295
0.054152057 0.078881875 0.20007539 4294967295
0.055224635 0.07964316 0.19737908 4294967295
0.056297213 0.080404446 0.19468279 4294967295
0.057369784 0.081165731 0.19198649 4294967295
0.058442362 0.081927016 0.1892902 4294967295
0.059514932 0.082688302 0.18659389 4294967295
0.06058751 0.083449587 0.1838976 4294967295
0.061660089 0.084210873 0.18120129 4294967295
0.062732659 0.084972158 0.17850499 4294967295
0.063805237 0.085733443 0.1758087 4294967295
0.064877808 0.086494729 0.17311241 4294967295
0.065950386 0.087256014 0.1704161 4294967295
0.067022957 0.0880173 0.16771981 4294967295
0.068095542 0.088778585 0.16502349 4294967295
0.069168113 0.089539871 0.1623272 4294967295
0.070240691 0.090301156 0.15963089 4294967295
0.071313262 0.091062441 0.15693462 4294967295
0.07238584 0.091823727 0.15423831 4294967295
