# .PCD v0.7 - Point Cloud Data file format
VERSION 0.7
FIELDS x y z rgb
SIZE 4 4 4 4
TYPE F F F U
COUNT 1 1 1 1
WIDTH 765
HEIGHT 1
VIEWPOINT 0 0 0 1 0 0 0
POINTS 765
DATA ascii
-0.028801478 0.035855476 0.55800003 4283126848
-0.026940726 0.035791218 0.55700004 4284376917
-0.02508647 0.035726964 0.55600005 4285101923
-0.023280583 0.035726964 0.55600005 4285627747
-0.028646631 0.037465956 0.55500001 4291220683
-0.026843989 0.037465956 0.55500001 4288130461
-0.02499623 0.03739845 0.55400002 4284577637
-0.023154967 0.037330944 0.55300003 4284774251
-0.02124295 0.038915429 0.55000001 4281353017
-0.019456549 0.038915429 0.55000001 4280892718
-0.017670147 0.038915429 0.55000001 4281155890
-0.015912626 0.038986184 0.551 4281486134
-0.01414861 0.039056942 0.55200005 4281355827
-0.01240048 0.039198451 0.55400002 4280373036
-0.010639358 0.039339963 0.55600005 4280109864
-0.0088652438 0.039481472 0.55800003 4280303909
-0.0052874316 0.039835248 0.56300002 4279247119
-0.022945609 0.04055443 0.54800004 4280497708
-0.021165704 0.04055443 0.54800004 4280167973
-0.0193858 0.04055443 0.54800004 4280760878
-0.017605893 0.04055443 0.54800004 4281155890
-0.015825989 0.04055443 0.54800004 4282015042
-0.014071715 0.040628433 0.54900002 4279519010
-0.012333329 0.040776439 0.551 4278995742
-0.010581952 0.040924449 0.55300003 4279325220
-0.0088334689 0.041146465 0.55600005 4279390500
-0.0070528593 0.04129447 0.55800003 4279587881
-0.0052780407 0.041590489 0.56200004 4279718697
-0.0034710935 0.041812502 0.565 4280111658
-0.0016417638 0.041960511 0.56700003 4280241709
-0.024680395 0.042257685 0.54700005 4284642919
-0.022903739 0.042257685 0.54700005 4280825901
-0.021088457 0.042180426 0.546 4281944382
-0.019315047 0.042180426 0.546 4281154866
-0.017541638 0.042180426 0.546 4281221429
-0.015768228 0.042180426 0.546 4280174119
-0.014020452 0.042257685 0.54700005 4279190556
-0.01226618 0.042334937 0.54800004 4278798365
-0.01054368 0.042566694 0.551 4278798365
-0.0088016931 0.042798456 0.55400002 4278798365
-0.0070402198 0.043030217 0.55700004 4278995744
-0.0052686492 0.043339234 0.56100005 4279127328
-0.0034649502 0.043570992 0.56400001 4279127328
-0.0016417638 0.043802753 0.56700003 4279193123
0.00020020567 0.043880004 0.56800002 4279391017
-0.026408682 0.043954436 0.546 4281023018
-0.022819994 0.043873936 0.54500002 4279906082
-0.021049833 0.043873936 0.54500002 4280958257
-0.019244296 0.043793432 0.54400003 4279970594
-0.017477384 0.043793432 0.54400003 4280959024
-0.015710471 0.043793432 0.54400003 4280437805
-0.013969189 0.043873936 0.54500002 4279124765
-0.012221412 0.043954436 0.546 4278928668
-0.010486274 0.044115443 0.54800004 4278797595
-0.0087699182 0.044437457 0.55200005 4278731800
-0.0070149405 0.04467896 0.55500001 4278666007
-0.0052686492 0.045161977 0.56100005 4278863386
-0.0034649502 0.045403484 0.56400001 4278731800
-0.0016388684 0.045564491 0.56600004 4279060767
0.00020020567 0.045725495 0.56800002 4278732572
-0.022778124 0.045560945 0.54400003 4280234534
-0.021011209 0.045560945 0.54400003 4280760878
-0.019208921 0.045477193 0.54300004 4279904801
-0.017445255 0.045477193 0.54300004 4280630575
-0.015681591 0.045477193 0.54300004 4279780647
-0.013917926 0.045477193 0.54300004 4279124765
-0.012199028 0.045644693 0.54500002 4279059740
-0.010448002 0.045728445 0.546 4278533910
-0.0087381434 0.046063453 0.55000001 4278862875
-0.0069896616 0.046314709 0.55300003 4278731289
-0.0052686492 0.046984725 0.56100005 4278862359
-0.0034649502 0.047235977 0.56400001 4278862359
-0.024545034 0.047328454 0.54400003 4281155888
-0.022736251 0.047241457 0.54300004 4280891694
-0.020972587 0.047241457 0.54300004 4280167971
-0.019173546 0.047154456 0.54200006 4280364836
-0.017413128 0.047154456 0.54200006 4280696622
-0.015623831 0.047067452 0.54100001 4279715365
-0.013866662 0.047067452 0.54100001 4279059742
-0.012154262 0.047241457 0.54300004 4278928670
-0.010428866 0.047415454 0.54500002 4278928670
-0.0087381434 0.04785046 0.55000001 4278731289
-0.0069896616 0.048111461 0.55300003 4278797082
-0.0031577738 0.044718426 0.514 4278862359
-0.0014883007 0.044718426 0.514 4278200328
0.00018117203 0.044718426 0.514 4278925849
0.0018506448 0.044718426 0.514 4278665498
0.0035132691 0.044631429 0.51300001 4278599189
0.0051794942 0.044631429 0.51300001 4278796568
-0.029955501 0.049276467 0.546 4281350702
-0.024545034 0.04909597 0.54400003 4282076992
-0.022736251 0.049005721 0.54300004 4281220399
-0.019138169 0.048825219 0.54100001 4280036385
-0.017348872 0.04873497 0.54000002 4280893229
-0.015594952 0.04873497 0.54000002 4279452963
-0.013815399 0.048644722 0.53900003 4278993695
-0.012131878 0.048915472 0.54200006 4278928670
-0.010428866 0.049186219 0.54500002 4278862877
-0.0087381434 0.049637467 0.55000001 4278797084
-0.0048272465 0.04638847 0.514 4278468115
-0.0031577738 0.04638847 0.514 4278533396
-0.0014883007 0.04638847 0.514 4278196736
0.00018117203 0.04638847 0.514 4279057176
0.0018470443 0.046298221 0.51300001 4278199303
0.0035132691 0.046298221 0.51300001 4278196997
0.0051693977 0.046207972 0.51200002 4278197254
0.0068190307 0.046117723 0.51100004 4278196997
0.0084621664 0.046027474 0.51000005 4278198534
0.010098807 0.045937221 0.509 4278791955
0.011705863 0.045756724 0.50700003 4278859797
0.013326264 0.045666475 0.50600004 4279320859
0.014940167 0.045576219 0.505 4279124248
0.016580408 0.045576219 0.505 4279124761
0.018184567 0.04548597 0.50400001 4278533910
0.019782232 0.045395721 0.50300002 4278533910
0.021415979 0.045395721 0.50300002 4278533910
0.030163351 0.043861475 0.48600003 4278928931
0.031676564 0.043771222 0.48500001 4278863138
0.033183288 0.043680973 0.48400003 4279323176
0.037586167 0.043319974 0.48000002 4283204709
-0.026360314 0.050956979 0.54500002 4281023532
-0.024545034 0.050863482 0.54400003 4281155120
-0.022736251 0.050769985 0.54300004 4280825639
-0.020895338 0.050582983 0.54100001 4280233504
-0.019102793 0.050489485 0.54000002 4280957741
-0.017316746 0.050395988 0.53900003 4281287987
-0.015537194 0.050302491 0.53800005 4279452965
-0.013764136 0.050208986 0.537 4278927902
-0.012131878 0.050676487 0.54200006 4278862623
-0.010428866 0.050956979 0.54500002 4278731037
-0.0048272465 0.048058506 0.514 4278797082
-0.0031577738 0.048058506 0.514 4278993947
-0.0014883007 0.048058506 0.514 4278198016
0.00018081957 0.047965009 0.51300001 4279517473
0.0018470443 0.047965009 0.51300001 4278195971
0.0035132691 0.047965009 0.51300001 4278655756
0.0051693977 0.047871511 0.51200002 4278720525
0.0068190307 0.047778014 0.51100004 4278720525
0.0084621664 0.047684517 0.51000005 4278720525
0.010098807 0.047591012 0.509 4278720525
0.011728952 0.047497515 0.50800002 4278524170
0.0133526 0.047404017 0.50700003 4278524170
0.014969753 0.04731052 0.50600004 4278196999
0.016580408 0.047217015 0.505 4278199555
0.018184567 0.047123518 0.50400001 4278198784
0.019782232 0.047030021 0.50300002 4278199815
0.021373402 0.046936523 0.50200003 4279254555
0.022958076 0.046843026 0.50100005 4278794515
0.024487179 0.046656024 0.49900001 4279058457
0.026003288 0.046469025 0.49700001 4278664982
0.027506409 0.046282031 0.49500003 4278468117
0.028820088 0.045814533 0.49000001 4278468117
0.030287482 0.045627534 0.48800004 4278666009
0.031807192 0.045534037 0.48700002 4278600216
0.033320412 0.045440536 0.48600003 4278600218
0.034827128 0.045347035 0.48500001 4278337046
0.036252294 0.045160037 0.48300001 4278600218
0.037742779 0.045066539 0.48200002 4278797597
0.039308313 0.045066539 0.48200002 4279061285
0.040789053 0.044973042 0.48100004 4278928418
0.042439386 0.045066539 0.48200002 4279783727
0.044004925 0.045066539 0.48200002 4283862893
0.045665007 0.045160037 0.48300001 4285571973
0.04723379 0.045160037 0.48300001 4282808156
0.049206737 0.045534037 0.48700002 4279911981
-0.033747755 0.05321148 0.55000001 4281287476
-0.028233709 0.052921239 0.54700005 4280496672
-0.024545034 0.052630994 0.54400003 4280431397
-0.022736251 0.052534245 0.54300004 4280365604
-0.020895338 0.052340746 0.54100001 4281089327
-0.01906742 0.052147254 0.53900003 4280957741
-0.01725249 0.051953752 0.537 4280893227
-0.015479434 0.051857006 0.53600001 4279189793
-0.013687242 0.051663514 0.53400004 4278796832
-0.012131878 0.052437499 0.54200006 4278862623
-0.010428866 0.05272774 0.54500002 4278862623
-0.0065093595 0.0498253 0.51500005 4278797080
-0.0048272465 0.049728546 0.514 4278731287
-0.0031577738 0.049728546 0.514 4279520291
-0.0014883007 0.049728546 0.514 4278200072
0.00018081957 0.049631801 0.51300001 4278859797
0.0018470443 0.049631801 0.51300001 4278196742
0.0035064209 0.049535051 0.51200002 4279511578
0.0051693977 0.049535051 0.51200002 4278919441
0.0068056863 0.049341559 0.51000005 4279840030
0.0084621664 0.049341559 0.51000005 4279774237
0.010098807 0.049244806 0.509 4280103202
0.011728952 0.049148057 0.50800002 4279313432
0.0133526 0.049051311 0.50700003 4278918674
0.014969753 0.048954565 0.50600004 4278195207
0.016580408 0.048857812 0.505 4279055125
0.018184567 0.048761066 0.50400001 4279385369
0.019782232 0.048664317 0.50300002 4279451162
0.021415979 0.048664317 0.50300002 4279648543
0.022958076 0.048470825 0.50100005 4279516957
0.02453625 0.048374072 0.5 4278529808
0.02605561 0.048180576 0.49800003 4278398222
0.027561978 0.047987081 0.49600002 4278197248
0.02893772 0.047600087 0.49200001 4278195712
0.030473674 0.047503341 0.49100003 4278199044
0.031937815 0.047309846 0.48900002 4278727187
0.033457533 0.047213096 0.48800004 4279386400
0.034970745 0.047116347 0.48700002 4279650342
0.036402408 0.046922851 0.48500001 4278663960
0.037977692 0.046922851 0.48500001 4278664984
0.039471418 0.046826106 0.48400003 4278731291
0.041043453 0.046826106 0.48400003 4278665498
0.042615484 0.046826106 0.48400003 4278666011
0.044278812 0.046922851 0.48500001 4278863136
0.04594864 0.047019601 0.48600003 4278862623
0.047624961 0.047116347 0.48700002 4278992673
0.04940882 0.047309846 0.48900002 4281427016
0.051309954 0.047600087 0.49200001 4280243510
0.053015511 0.047696836 0.49300003 4279388715
0.054616775 0.047696836 0.49300003 4278992675
-0.01906742 0.053898517 0.53900003 4281353519
-0.017220363 0.053598523 0.53600001 4281156653
-0.015421676 0.053398531 0.53400004 4278992414
-0.013635978 0.053198535 0.53200001 4278862623
-0.0099696144 0.052098569 0.52100003 4278666011
-0.0082297418 0.051798575 0.51800001 4278666009
-0.0065219989 0.051598582 0.51600003 4278731802
-0.0048366385 0.051498584 0.51500005 4278731800
-0.0031577738 0.051398583 0.514 4278202636
-0.0014883007 0.051398583 0.514 4278397708
0.00018081957 0.051298589 0.51300001 4279320348
0.0018470443 0.051298589 0.51300001 4278328074
0.0035064209 0.051198591 0.51200002 4278985232
0.0051593012 0.051098596 0.51100004 4280301092
0.0068056863 0.050998598 0.51000005 4279643932
0.008445573 0.050898597 0.509 4278393097
0.010098807 0.050898597 0.509 4278393097
0.011728952 0.050798602 0.50800002 4278722832
0.0133526 0.050698604 0.50700003 4278854418
0.014969753 0.05059861 0.50600004 4278195717
0.016580408 0.050498608 0.505 4278989593
0.018220648 0.050498608 0.505 4278529808
0.01982156 0.050398611 0.50400001 4278330632
0.021415979 0.050298616 0.50300002 4278529294
0.0230039 0.050198622 0.50200003 4278464785
0.02453625 0.049998622 0.5 4278464015
0.02610793 0.049898628 0.49900001 4278925590
0.027617546 0.049698632 0.49700001 4279057176
0.029055353 0.049398642 0.49400002 4279188762
0.030597804 0.049298644 0.49300003 4279320348
0.032068443 0.049098648 0.49100003 4279188762
0.033594649 0.04899865 0.49000001 4279516703
0.035114363 0.048898656 0.48900002 4279253017
0.036627579 0.048798658 0.48800004 4278200077
0.038134299 0.04869866 0.48700002 4278196736
0.039716076 0.04869866 0.48700002 4278196224
0.041297853 0.04869866 0.48700002 4278198532
0.04287963 0.04869866 0.48700002 4278398992
0.044552702 0.048798658 0.48800004 4278927386
0.046137732 0.048798658 0.48800004 4278862877
0.047820546 0.048898656 0.48900002 4278797084
0.049610902 0.049098648 0.49100003 4278731037
0.051414248 0.049298644 0.49300003 4278862623
0.053123046 0.049398642 0.49400002 4278797343
0.054727562 0.049398642 0.49400002 4278994209
0.05633207 0.049398642 0.49400002 4280107824
-0.01906742 0.055649783 0.53900003 4281416230
-0.017220363 0.055340044 0.53600001 4279971866
-0.015392796 0.055030309 0.53300005 4279452963
-0.0099696144 0.053791348 0.52100003 4278797343
-0.0082456302 0.053584859 0.51900005 4278731804
-0.0065219989 0.05327512 0.51600003 4278600216
-0.0048366385 0.053171873 0.51500005 4278600216
-0.0031577738 0.053068623 0.514 4279716648
-0.0014883007 0.053068623 0.514 4279581982
0.00018081957 0.052965377 0.51300001 4279188762
0.0018470443 0.052965377 0.51300001 4278656267
0.0035064209 0.05286213 0.51200002 4278655756
0.0051593012 0.052758887 0.51100004 4278786572
0.0068056863 0.052655641 0.51000005 4278654986
0.008445573 0.052552391 0.509 4278654732
0.010098807 0.052552391 0.509 4278720525
0.011728952 0.052449144 0.50800002 4278986002
0.0133526 0.052345902 0.50700003 4279578139
0.014969753 0.052242655 0.50600004 4278394378
0.016613243 0.052242655 0.50600004 4279319072
0.018220648 0.052139405 0.505 4278196226
0.01982156 0.052036159 0.50400001 4278853133
0.021415979 0.051932916 0.50300002 4278197511
0.0230039 0.05182967 0.50200003 4279252506
0.024585325 0.051726423 0.50100005 4279582498
0.026160249 0.051623173 0.5 4278529810
0.027673116 0.051416684 0.49800003 4279451164
0.029172987 0.051210191 0.49600002 4278199041
0.030721933 0.051106945 0.49500003 4279123482
0.032199066 0.050900452 0.49300003 4279058459
0.033731773 0.050797205 0.49200001 4278992666
0.03525798 0.050693959 0.49100003 4278992666
0.03677769 0.050590709 0.49000001 4279058459
0.038369212 0.050590709 0.49000001 4279058459
0.039960731 0.050590709 0.49000001 4279320861
0.041552257 0.050590709 0.49000001 4279649826
0.043143775 0.050590709 0.49000001 4279910947
0.044735294 0.050590709 0.49000001 4278660880
0.046421364 0.050693959 0.49100003 4279058459
0.048113924 0.050797205 0.49200001 4278993179
0.049812984 0.050900452 0.49300003 4278928156
0.051518533 0.051003698 0.49400002 4278862363
0.053123046 0.051003698 0.49400002 4278862363
0.054727562 0.051003698 0.49400002 4278664984
0.056446105 0.051106945 0.49500003 4278200849
-0.01725249 0.057188056 0.537 4280759837
-0.015421676 0.056868572 0.53400004 4279386654
-0.0099887494 0.055590626 0.52200001 4278600218
-0.0082456302 0.055271141 0.51900005 4278468632
-0.0065346383 0.055058148 0.51700002 4278468630
-0.0048460299 0.054951653 0.51600003 4278797082
-0.0031639175 0.054845162 0.51500005 4278200583
-0.0014883007 0.054738659 0.514 4278199815
0.00018081957 0.054632165 0.51300001 4278925590
0.0018470443 0.054632165 0.51300001 4279319324
0.0035064209 0.054525673 0.51200002 4279252506
0.0051593012 0.054419179 0.51100004 4278658062
0.0068056863 0.054312684 0.51000005 4278722830
0.0084621664 0.054312684 0.51000005 4278260998
0.010098807 0.054206181 0.509 4278853135
0.011728952 0.05409969 0.50800002 4278655502
0.0133526 0.053993195 0.50700003 4278654732
0.014969753 0.0538867 0.50600004 4278195969
0.016613243 0.0538867 0.50600004 4279450910
0.018220648 0.053780202 0.505 4278593039
0.01982156 0.053673707 0.50400001 4278459656
0.021415979 0.053567212 0.50300002 4279382555
0.0230039 0.053460717 0.50200003 4278199049
0.024585325 0.053354222 0.50100005 4278398224
0.026160249 0.053247724 0.5 4278858775
0.027728682 0.053141229 0.49900001 4278990359
0.029231803 0.052928239 0.49700001 4278464269
0.030783996 0.052821744 0.49600002 4278331915
0.032329693 0.052715249 0.49500003 4278200331
0.033868894 0.052608754 0.49400002 4278266638
0.035401598 0.05250226 0.49300003 4278199815
0.036927804 0.052395761 0.49200001 4278199557
0.038525824 0.052395761 0.49200001 4279188508
0.040123839 0.052395761 0.49200001 4278201609
0.041721858 0.052395761 0.49200001 4279058459
0.043319874 0.052395761 0.49200001 4279255068
0.044917889 0.052395761 0.49200001 4278925336
0.046610452 0.05250226 0.49300003 4279190045
0.048211716 0.05250226 0.49300003 4279124765
0.049914021 0.052608754 0.49400002 4278928156
0.051622823 0.052715249 0.49500003 4278928156
0.053230584 0.052715249 0.49500003 4278599191
0.054838348 0.052715249 0.49500003 4278533144
0.056446105 0.052715249 0.49500003 4278859291
-0.015479434 0.058823079 0.53600001 4280369954
-0.0099887494 0.057286657 0.52200001 4278730005
-0.0082615176 0.057067171 0.52000004 4278730005
-0.0065346383 0.056737933 0.51700002 4278795798
-0.0048460299 0.05662819 0.51600003 4278730005
-0.0031639175 0.056518447 0.51500005 4278730005
-0.0014883007 0.0564087 0.514 4278992664
0.00018081957 0.056298956 0.51300001 4278927384
0.0018470443 0.056298956 0.51300001 4278927386
0.0035064209 0.056189213 0.51200002 4279058972
0.0051593012 0.05607947 0.51100004 4279058459
0.0068056863 0.055969726 0.51000005 4279058205
0.0084621664 0.055969726 0.51000005 4279188508
0.010098807 0.055859976 0.509 4279385117
0.011728952 0.055750232 0.50800002 4279713570
0.0133526 0.055640489 0.50700003 4279317529
0.014969753 0.055530746 0.50600004 4278923541
0.016613243 0.055530746 0.50600004 4278198275
0.018220648 0.055420995 0.505 4278197763
0.01982156 0.055311255 0.50400001 4278198281
0.021415979 0.055201512 0.50300002 4279053590
0.0230039 0.055091769 0.50200003 4279383068
0.024585325 0.054982025 0.50100005 4279581984
0.026160249 0.054872274 0.5 4279385119
0.027728682 0.054762531 0.49900001 4279187740
0.02929062 0.054652788 0.49800003 4279188508
0.030846059 0.054543041 0.49700001 4279188508
0.032395005 0.054433297 0.49600002 4279319324
0.033937454 0.054323554 0.49500003 4278792468
0.035473406 0.054213811 0.49400002 4278198789
0.037002861 0.054104067 0.49300003 4278529296
0.038604129 0.054104067 0.49300003 4278200331
0.040205393 0.054104067 0.49300003 4278660882
0.041806657 0.054104067 0.49300003 4278925336
0.043407921 0.054104067 0.49300003 4279386400
0.04510048 0.054213811 0.49400002 4278924566
0.046704996 0.054213811 0.49400002 4279124252
0.048407301 0.054323554 0.49500003 4278993179
0.050015066 0.054323554 0.49500003 4278862363
0.051622823 0.054323554 0.49500003 4278796570
0.053230584 0.054323554 0.49500003 4278796570
0.054838348 0.054323554 0.49500003 4278599191
0.056446105 0.054323554 0.49500003 4279320096
-0.0099887494 0.058982685 0.52200001 4279053842
-0.0082615176 0.058756702 0.52000004 4279318551
-0.0065472778 0.058530711 0.51800001 4278924820
-0.0048460299 0.058304727 0.51600003 4278860310
-0.0031639175 0.058191735 0.51500005 4278861080
-0.0014883007 0.058078736 0.514 4278992666
0.00018117203 0.058078736 0.514 4278927386
0.0018470443 0.057965744 0.51300001 4278928156
0.0035064209 0.057852753 0.51200002 4278928156
0.0051593012 0.057739761 0.51100004 4278927902
0.0068190307 0.057739761 0.51100004 4278796316
0.0084621664 0.057626769 0.51000005 4278992925
0.010098807 0.05751377 0.509 4279058718
0.011728952 0.057400778 0.50800002 4278927132
0.0133526 0.057287782 0.50700003 4278927132
0.014969753 0.057174791 0.50600004 4278598167
0.016580408 0.057061791 0.505 4278992925
0.018220648 0.057061791 0.505 4279584549
0.01982156 0.0569488 0.50400001 4279320607
0.021415979 0.056835808 0.50300002 4279582496
0.0230039 0.056722816 0.50200003 4279319324
0.024585325 0.056609824 0.50100005 4279121433
0.026160249 0.056496825 0.5 4278200077
0.027728682 0.056383833 0.49900001 4278196480
0.02929062 0.056270842 0.49800003 4278196736
0.030846059 0.056157846 0.49700001 4278200074
0.032395005 0.056044854 0.49600002 4279253019
0.033937454 0.055931862 0.49500003 4279319324
0.035545215 0.055931862 0.49500003 4279516957
0.037077915 0.055818867 0.49400002 4279582750
0.038682431 0.055818867 0.49400002 4279451164
0.040286943 0.055818867 0.49400002 4279319578
0.041891459 0.055818867 0.49400002 4279320348
0.043584019 0.055931862 0.49500003 4280044330
0.04519178 0.055931862 0.49500003 4279319326
0.046799541 0.055931862 0.49500003 4279124511
0.048505094 0.056044854 0.49600002 4279190556
0.050116103 0.056044854 0.49600002 4279059740
0.051727112 0.056044854 0.49600002 4278862361
0.053338118 0.056044854 0.49600002 4278533398
0.054949131 0.056044854 0.49600002 4278796570
0.056560136 0.056044854 0.49600002 4279189023
-0.0082615176 0.060446236 0.52000004 4278983433
-0.0065472778 0.060213745 0.51800001 4278852361
-0.0048554214 0.060097504 0.51700002 4278524679
-0.0031639175 0.059865024 0.51500005 4278920720
-0.0014911965 0.059865024 0.51500005 4278725138
0.00018117203 0.059748773 0.514 4279056672
0.0018470443 0.059632532 0.51300001 4278990879
0.0035064209 0.059516292 0.51200002 4279451430
0.0051593012 0.059400052 0.51100004 4279715115
0.0068190307 0.059400052 0.51100004 4279583529
0.0084621664 0.059283808 0.51000005 4279320609
0.010098807 0.05916756 0.509 4279189023
0.011728952 0.05905132 0.50800002 4279189793
0.0133526 0.05893508 0.50700003 4279058720
0.014969753 0.058818836 0.50600004 4278992925
0.016580408 0.058702588 0.505 4278992925
0.018184567 0.058586348 0.50400001 4278927132
0.019782232 0.058470108 0.50300002 4279058718
0.021373402 0.058353864 0.50200003 4278927132
0.0230039 0.058353864 0.50200003 4278927132
0.024585325 0.058237623 0.50100005 4278992925
0.026160249 0.058121376 0.5 4278795546
0.027728682 0.058005136 0.49900001 4279189021
0.02929062 0.057888892 0.49800003 4278991642
0.030846059 0.057772648 0.49700001 4279385887
0.032395005 0.057656407 0.49600002 4279516703
0.033937454 0.057540167 0.49500003 4279582496
0.035545215 0.057540167 0.49500003 4278858775
0.037152976 0.057540167 0.49500003 4278199303
0.038760737 0.057540167 0.49500003 4278195456
0.040368497 0.057540167 0.49500003 4278197760
0.041976258 0.057540167 0.49500003 4278462988
0.043584019 0.057540167 0.49500003 4278726162
0.045283075 0.057656407 0.49600002 4279648289
0.046894085 0.057656407 0.49600002 4278928156
0.048505094 0.057656407 0.49600002 4278993947
0.050217144 0.057772648 0.49700001 4278993947
0.051831398 0.057772648 0.49700001 4278993177
0.053445652 0.057772648 0.49700001 4278927384
0.054949131 0.057656407 0.49600002 4278664214
0.056560136 0.057656407 0.49600002 4278594835
0.0051593012 0.061060343 0.51100004 4285961605
0.0068190307 0.061060343 0.51100004 4285237112
0.0084621664 0.060940851 0.51000005 4281882952
0.010098807 0.060821354 0.509 4280173106
0.011728952 0.060701862 0.50800002 4279252515
0.0133526 0.060582373 0.50700003 4279582248
0.014969753 0.060462881 0.50600004 4279189541
0.016580408 0.060343385 0.505 4279255332
0.018184567 0.060223896 0.50400001 4279189791
0.019782232 0.060104404 0.50300002 4279123998
0.021373402 0.059984915 0.50200003 4279058718
0.022958076 0.059865423 0.50100005 4278927132
0.02453625 0.059745926 0.5 4278992925
0.02610793 0.059626438 0.49900001 4279058718
0.027673116 0.059506945 0.49800003 4278992925
0.029231803 0.059387453 0.49700001 4279058972
0.030846059 0.059387453 0.49700001 4279124252
0.032395005 0.05926796 0.49600002 4279124252
0.033937454 0.059148472 0.49500003 4279058459
0.035545215 0.059148472 0.49500003 4279058459
0.037152976 0.059148472 0.49500003 4278861080
0.038760737 0.059148472 0.49500003 4279124252
0.040368497 0.059148472 0.49500003 4279189275
0.042061061 0.05926796 0.49600002 4279386141
0.043672066 0.05926796 0.49600002 4279780647
0.045283075 0.05926796 0.49600002 4279189023
0.046988629 0.059387453 0.49700001 4279058972
0.048602883 0.059387453 0.49700001 4279059740
0.050217144 0.059387453 0.49700001 4278928154
0.051831398 0.059387453 0.49700001 4279322912
0.053445652 0.059387453 0.49700001 4278796568
0.055059914 0.059387453 0.49700001 4278663701
0.056560136 0.05926796 0.49600002 4279843108
0.011705863 0.062229667 0.50700003 4285697663
0.013326264 0.06210693 0.50600004 4285172089
0.014969753 0.06210693 0.50600004 4285369722
0.016580408 0.061984181 0.505 4284974964
0.018148487 0.061738703 0.50300002 4282935892
0.019742904 0.061615963 0.50200003 4280764723
0.021330826 0.061493225 0.50100005 4279712805
0.022958076 0.061493225 0.50100005 4279055388
0.02453625 0.061370477 0.5 4279187486
0.02610793 0.061247736 0.49900001 4279384865
0.027673116 0.061124999 0.49800003 4279517221
0.029231803 0.061002254 0.49700001 4279385889
0.030783996 0.060879517 0.49600002 4279451680
0.032395005 0.060879517 0.49600002 4279123228
0.033937454 0.060756776 0.49500003 4279320607
0.035545215 0.060756776 0.49500003 4279386400
0.037152976 0.060756776 0.49500003 4279386400
0.038760737 0.060756776 0.49500003 4279123998
0.040368497 0.060756776 0.49500003 4279255584
0.042061061 0.060879517 0.49600002 4279321377
0.043672066 0.060879517 0.49600002 4279124000
0.045374371 0.061002254 0.49700001 4279189793
0.046988629 0.061002254 0.49700001 4279058718
0.048700679 0.061124999 0.49800003 4278927386
0.050318185 0.061124999 0.49800003 4278927386
0.051935688 0.061124999 0.49800003 4278927386
0.053553194 0.061124999 0.49800003 4278992666
0.055059914 0.061002254 0.49700001 4278793750
0.018148487 0.063373007 0.50300002 4284710508
0.019742904 0.063247018 0.50200003 4284382057
0.021330826 0.063121028 0.50100005 4284513643
0.022912249 0.062995031 0.5 4284513641
0.024487179 0.062869042 0.49900001 4284776297
0.02605561 0.062743053 0.49800003 4284908137
0.027673116 0.062743053 0.49800003 4284842858
0.029231803 0.062617064 0.49700001 4284580456
0.030783996 0.062491074 0.49600002 4284185444
0.032395005 0.062491074 0.49600002 4283461721
0.033937454 0.062365085 0.49500003 4281751103
0.035545215 0.062365085 0.49500003 4280830003
0.037152976 0.062365085 0.49500003 4279581219
0.038760737 0.062365085 0.49500003 4279383840
0.040450048 0.062491074 0.49600002 4279187488
0.042061061 0.062491074 0.49600002 4279056674
0.043760113 0.062617064 0.49700001 4279385385
0.045374371 0.062617064 0.49700001 4279648811
0.047083173 0.062743053 0.49800003 4279715115
0.048700679 0.062743053 0.49800003 4279583527
0.050318185 0.062743053 0.49800003 4279517475
0.051935688 0.062743053 0.49800003 4279385889
0.053553194 0.062743053 0.49800003 4278726675
0.051935688 0.064361103 0.49800003 4284712823
0.053553194 0.064361103 0.49800003 4284185194
0.015813816 0.052152313 0.5115996 4294967295
0.015813816 0.052152313 0.5115996 4294901760
0.015813816 0.052152313 0.51209962 4294901760
0.015813816 0.052152313 0.51259959 4294901760
0.015813816 0.052152313 0.51309961 4294901760
0.015813816 0.052152313 0.51359957 4294901760
0.015813816 0.052152313 0.5140996 4294901760
0.015813816 0.052152313 0.51459962 4294901760
0.015813816 0.052152313 0.51509959 4294901760
0.015813816 0.052152313 0.51559961 4294901760
0.015813816 0.052152313 0.51609957 4294901760
0.015813816 0.052152313 0.5165996 4294901760
0.015813816 0.052152313 0.51709962 4294901760
0.015813816 0.052152313 0.51759958 4294901760
0.015813816 0.052152313 0.51809961 4294901760
0.015813816 0.052152313 0.51859963 4294901760
0.015813816 0.052152313 0.51909959 4294901760
0.015813816 0.052152313 0.51959962 4294901760
0.015813816 0.052152313 0.52009958 4294901760
0.015813816 0.052152313 0.5205996 4294901760
0.015813816 0.052152313 0.52109963 4294901760
0.015813816 0.052152313 0.52159959 4294901760
0.015813816 0.052152313 0.52209961 4294901760
0.015813816 0.052152313 0.52259958 4294901760
0.015813816 0.052152313 0.5230996 4294901760
0.015813816 0.052152313 0.52359962 4294901760
0.015813816 0.052152313 0.52409959 4294901760
0.015813816 0.052152313 0.52459961 4294901760
0.015813816 0.052152313 0.52509958 4294901760
0.015813816 0.052152313 0.5255996 4294901760
0.015813816 0.052152313 0.52609962 4294901760
0.015813816 0.052152313 0.52659959 4294901760
0.015813816 0.052152313 0.52709961 4294901760
0.015813816 0.052152313 0.52759957 4294901760
0.015813816 0.052152313 0.5280996 4294901760
0.015813816 0.052152313 0.52859962 4294901760
0.015813816 0.052152313 0.52909958 4294901760
0.015813816 0.052152313 0.52959961 4294901760
0.015813816 0.052152313 0.53009963 4294901760
0.015813816 0.052152313 0.53059959 4294901760
0.015813816 0.052152313 0.53109962 4294901760
0.015813816 0.052152313 0.53159958 4294901760
0.015813816 0.052152313 0.5320996 4294901760
0.015813816 0.052152313 0.53259963 4294901760
0.015813816 0.052152313 0.53309959 4294901760
0.015813816 0.052152313 0.53359962 4294901760
0.015813816 0.052152313 0.53409958 4294901760
0.015813816 0.052152313 0.5345996 4294901760
0.015813816 0.052152313 0.53509963 4294901760
0.015813816 0.052152313 0.53559959 4294901760
0.015813816 0.052152313 0.53609961 4294901760
0.015813816 0.052152313 0.53659964 4294901760
0.015813816 0.052152313 0.5370996 4294901760
0.015813816 0.052152313 0.53759962 4294901760
0.015813816 0.052152313 0.53809959 4294901760
0.015813816 0.052152313 0.53859961 4294901760
0.015813816 0.052152313 0.53909963 4294901760
0.015813816 0.052152313 0.5395996 4294901760
0.015813816 0.052152313 0.54009962 4294901760
0.015813816 0.052152313 0.54059958 4294901760
0.015813816 0.052152313 0.54109961 4294901760
0.015813816 0.052152313 0.54159963 4294901760
0.015813816 0.052152313 0.5420996 4294901760
0.015813816 0.052152313 0.54259962 4294901760
0.015813816 0.052152313 0.54309958 4294901760
0.015813816 0.052152313 0.54359961 4294901760
0.015813816 0.052152313 0.54409963 4294901760
0.015813816 0.052152313 0.54459959 4294901760
0.015813816 0.052152313 0.54509962 4294901760
0.015813816 0.052152313 0.54559958 4294901760
0.015813816 0.052152313 0.5460996 4294901760
0.015813816 0.052152313 0.54659963 4294901760
0.015813816 0.052152313 0.54709959 4294901760
0.015813816 0.052152313 0.54759961 4294901760
0.015813816 0.052152313 0.54809964 4294901760
0.015813816 0.052152313 0.5485996 4294901760
0.015813816 0.052152313 0.54909962 4294901760
0.015813816 0.052152313 0.54959959 4294901760
0.015813816 0.052152313 0.55009961 4294901760
0.015813816 0.052152313 0.55059963 4294901760
0.015813816 0.052152313 0.5510996 4294901760
0.015813816 0.052152313 0.55159962 4294901760
0.015813816 0.052152313 0.55209959 4294901760
0.015813816 0.052152313 0.55259961 4294901760
0.015813816 0.052152313 0.55309963 4294901760
0.015813816 0.052152313 0.5535996 4294901760
0.015813816 0.052152313 0.55409962 4294901760
0.015813816 0.052152313 0.55459964 4294901760
0.015813816 0.052152313 0.55509961 4294901760
0.015813816 0.052152313 0.55559963 4294901760
0.015813816 0.052152313 0.55609959 4294901760
0.015813816 0.052152313 0.55659962 4294901760
0.015813816 0.052152313 0.55709964 4294901760
0.015813816 0.052152313 0.5575996 4294901760
0.015813816 0.052152313 0.55809963 4294901760
0.015813816 0.052152313 0.55859959 4294901760
0.015813816 0.052152313 0.55909961 4294901760
0.015813816 0.052152313 0.55959964 4294901760
0.015813816 0.052152313 0.5600996 4294901760
0.015813816 0.052152313 0.56059963 4294901760
0.015813816 0.052152313 0.56109959 4294901760
0.015813816 0.052152313 0.56159961 4294901760
0.015813816 0.052152313 0.5115996 4278255360
0.016047303 0.052176572 0.51204109 4278255360
0.016280791 0.052200828 0.51248252 4278255360
0.016514277 0.052225087 0.51292402 4278255360
0.016747765 0.052249342 0.51336551 4278255360
0.016981252 0.052273601 0.51380694 4278255360
0.017214738 0.05229786 0.51424843 4278255360
0.017448226 0.052322116 0.51468986 4278255360
0.017681712 0.052346375 0.51513135 4278255360
0.0179152 0.052370634 0.51557285 4278255360
0.018148687 0.052394889 0.51601428 4278255360
0.018382175 0.052419148 0.51645577 4278255360
0.018615661 0.052443404 0.51689726 4278255360
0.018849147 0.052467663 0.51733869 4278255360
0.019082636 0.052491922 0.51778018 4278255360
0.019316122 0.052516177 0.51822162 4278255360
0.01954961 0.052540436 0.51866311 4278255360
0.019783096 0.052564695 0.5191046 4278255360
0.020016585 0.052588951 0.51954603 4278255360
0.020250071 0.05261321 0.51998752 4278255360
0.020483557 0.052637465 0.52042902 4278255360
0.020717045 0.052661724 0.52087045 4278255360
0.020950532 0.052685983 0.52131194 4278255360
0.02118402 0.052710239 0.52175343 4278255360
0.021417506 0.052734498 0.52219486 4278255360
0.021650992 0.052758753 0.52263635 4278255360
0.02188448 0.052783012 0.52307779 4278255360
0.022117969 0.052807271 0.52351928 4278255360
0.022351455 0.052831527 0.52396077 4278255360
0.022584941 0.052855786 0.5244022 4278255360
0.022818429 0.052880045 0.52484369 4278255360
0.023051916 0.0529043 0.52528518 4278255360
0.023285402 0.052928559 0.52572662 4278255360
0.02351889 0.052952815 0.52616811 4278255360
0.023752376 0.052977074 0.52660954 4278255360
0.023985863 0.053001333 0.52705103 4278255360
0.024219353 0.053025588 0.52749252 4278255360
0.024452839 0.053049847 0.52793396 4278255360
0.024686325 0.053074107 0.52837545 4278255360
0.024919812 0.053098362 0.52881694 4278255360
0.0251533 0.053122621 0.52925837 4278255360
0.025386786 0.053146876 0.52969986 4278255360
0.025620274 0.053171135 0.53014129 4278255360
0.025853761 0.053195395 0.53058279 4278255360
0.026087247 0.05321965 0.53102428 4278255360
0.026320735 0.053243909 0.53146571 4278255360
0.026554223 0.053268168 0.5319072 4278255360
0.026787709 0.053292423 0.53234869 4278255360
0.027021196 0.053316683 0.53279012 4278255360
0.027254682 0.053340938 0.53323162 4278255360
0.02748817 0.053365197 0.53367305 4278255360
0.027721658 0.053389456 0.53411454 4278255360
0.027955145 0.053413711 0.53455603 4278255360
0.028188631 0.053437971 0.53499746 4278255360
0.028422119 0.05346223 0.53543895 4278255360
0.028655605 0.053486485 0.53588045 4278255360
0.028889094 0.053510744 0.53632188 4278255360
0.02912258 0.053534999 0.53676337 4278255360
0.029356066 0.053559259 0.53720486 4278255360
0.029589552 0.053583518 0.53764629 4278255360
0.029823042 0.053607773 0.53808779 4278255360
0.030056529 0.053632032 0.53852922 4278255360
0.030290015 0.053656287 0.53897071 4278255360
0.030523501 0.053680547 0.5394122 4278255360
0.030756988 0.053704806 0.53985363 4278255360
0.030990476 0.053729061 0.54029512 4278255360
0.031223964 0.05375332 0.54073662 4278255360
0.03145745 0.053777579 0.54117805 4278255360
0.03169094 0.053801835 0.54161954 4278255360
0.031924427 0.053826094 0.54206097 4278255360
0.032157913 0.053850349 0.54250246 4278255360
0.032391399 0.053874608 0.54294395 4278255360
0.032624885 0.053898867 0.54338539 4278255360
0.032858372 0.053923123 0.54382688 4278255360
0.033091858 0.053947382 0.54426837 4278255360
0.033325348 0.053971641 0.5447098 4278255360
0.033558834 0.053995896 0.54515129 4278255360
0.033792321 0.054020155 0.54559278 4278255360
0.034025807 0.054044411 0.54603422 4278255360
0.034259297 0.05406867 0.54647571 4278255360
0.034492783 0.054092929 0.54691714 4278255360
0.03472627 0.054117184 0.54735863 4278255360
0.034959756 0.054141443 0.54780012 4278255360
0.035193242 0.054165699 0.54824156 4278255360
0.035426728 0.054189958 0.54868305 4278255360
0.035660218 0.054214217 0.54912454 4278255360
0.035893705 0.054238472 0.54956597 4278255360
0.036127195 0.054262731 0.55000746 4278255360
0.036360681 0.05428699 0.55044889 4278255360
0.036594167 0.054311246 0.55089039 4278255360
0.036827654 0.054335505 0.55133188 4278255360
0.03706114 0.05435976 0.55177331 4278255360
0.037294626 0.054384019 0.5522148 4278255360
0.037528113 0.054408278 0.55265629 4278255360
0.037761599 0.054432534 0.55309772 4278255360
0.037995089 0.054456793 0.55353922 4278255360
0.038228575 0.054481052 0.55398065 4278255360
0.038462065 0.054505307 0.55442214 4278255360
0.038695551 0.054529566 0.55486363 4278255360
0.038929038 0.054553822 0.55530506 4278255360
0.039162524 0.054578081 0.55574656 4278255360
