# .PCD v0.7 - Point Cloud Data file format
VERSION 0.7
FIELDS x y z rgb
SIZE 4 4 4 4
TYPE F F F U
COUNT 1 1 1 1
WIDTH 1014
HEIGHT 1
VIEWPOINT 0 0 0 1 0 0 0
POINTS 1014
DATA ascii
0.0024859975 -0.0026219941 0.36300001 4288369991
0.0037558903 -0.0026870023 0.37200001 4288102197
0.0049908361 -0.0027014485 0.37400001 4287117612
0.0062553659 -0.0027231178 0.377 4286661426
0.0074997037 -0.0027303412 0.37800002 4286922286
0.0087505365 -0.002737564 0.37900001 4287447601
0.010007866 -0.0027447874 0.38000003 4287315243
0.011242107 -0.0027447874 0.38000003 4287183657
0.01250918 -0.0027520105 0.38100001 4286724391
0.013746668 -0.0027520105 0.38100001 4286004012
0.014905499 -0.002737564 0.37900001 4286998364
-0.0091760904 -0.0014227 0.35800001 4286621072
-0.0080133062 -0.0014227 0.35800001 4284308042
-0.0068696574 -0.0014266741 0.35900003 4284626734
-0.0057036243 -0.0014266741 0.35900003 4285869857
-0.0045375922 -0.0014266741 0.35900003 4286066459
-0.0033715598 -0.0014266741 0.35900003 4286328346
-0.0022116704 -0.0014306481 0.36000001 4286524955
-0.0010423897 -0.0014306481 0.36000001 4286918940
0.0001272434 -0.0014346222 0.36100003 4287707943
0.0012997721 -0.0014346222 0.36100003 4287246888
0.002479149 -0.0014385962 0.36200002 4292842121
0.0037558903 -0.0014783364 0.37200001 4288102964
0.0050041811 -0.0014902585 0.37500003 4288497720
0.0062553659 -0.0014982064 0.377 4287051044
0.0075195436 -0.0015061545 0.37900001 4288038196
0.0087736258 -0.0015101286 0.38000003 4286526245
0.010034202 -0.0015141026 0.38100001 4285343002
0.011271691 -0.0015141026 0.38100001 4285476385
0.012542013 -0.0015180766 0.38200003 4285017117
0.013782749 -0.0015180766 0.38200003 4284756005
-0.0091760904 -0.00025952145 0.35800001 4287146644
-0.0080133062 -0.00025952145 0.35800001 4283121201
-0.0068505215 -0.00025952145 0.35800001 4284692527
-0.0056877369 -0.00025952145 0.35800001 4285476385
-0.0045375922 -0.00026024636 0.35900003 4285606680
-0.0033715598 -0.00026024636 0.35900003 4285868567
-0.0022055269 -0.00026024636 0.35900003 4286394139
-0.0010423897 -0.00026097128 0.36000001 4286327830
0.00012689093 -0.00026097128 0.36000001 4286656284
0.0012961716 -0.00026097128 0.36000001 4286983970
0.0024723008 -0.0002616962 0.36100003 4287706669
0.0036347327 -0.00026097128 0.36000001 4287706921
0.0050041811 -0.00027184509 0.37500003 4288957756
0.0062719584 -0.00027401984 0.37800002 4287642409
0.0075393845 -0.00027546968 0.38000003 4286524957
0.0087967133 -0.00027619459 0.38100001 4285806637
0.010060539 -0.00027691954 0.38200003 4284031001
0.01133086 -0.00027764443 0.38300002 4283899667
0.012574845 -0.00027764443 0.38300002 4285018916
0.013818828 -0.00027764443 0.38300002 4285414187
-0.010309996 0.000901133 0.35700002 4286817679
-0.0091504594 0.000901133 0.35700002 4287278230
-0.0079909237 0.000901133 0.35700002 4283184936
-0.0068505215 0.00090365717 0.35800001 4284691495
-0.0056877369 0.00090365717 0.35800001 4285411359
-0.0045249527 0.00090365717 0.35800001 4285343513
-0.0033621681 0.00090365717 0.35800001 4284948753
-0.0022055269 0.00090618141 0.35900003 4285014543
-0.0010394942 0.00090618141 0.35900003 4285934873
0.00012689093 0.00090870552 0.36000001 4286065946
0.0012961716 0.00090870552 0.36000001 4286524957
0.0024654521 0.00090870552 0.36000001 4286787872
0.0036347327 0.00090870552 0.36000001 4287377956
0.0048040138 0.00090870552 0.36000001 4288299058
0.0063051437 0.0009591892 0.38000003 4286328096
0.007559225 0.00096171338 0.38100001 4285475099
0.0088198027 0.00096423761 0.38200003 4283837470
0.010086875 0.00096676173 0.38300002 4283639071
0.011360444 0.0009692859 0.384 4284032536
0.012607677 0.0009692859 0.384 4284164120
0.013854909 0.0009692859 0.384 4284427292
0.01514147 0.00097181014 0.38500002 4284822820
-0.011469533 0.0020610625 0.35700002 4287343510
-0.010309996 0.0020610625 0.35700002 4287015058
-0.0091504594 0.0020610625 0.35700002 4287540887
-0.0079909237 0.0020610625 0.35700002 4283708966
-0.0068313861 0.0020610625 0.35700002 4284888615
-0.0056718495 0.0020610625 0.35700002 4285673246
-0.0045249527 0.0020668358 0.35800001 4285278488
-0.0033621681 0.0020668358 0.35800001 4284554513
-0.0022055269 0.002072609 0.35900003 4284817687
-0.0010394942 0.002072609 0.35900003 4285738269
0.00012689093 0.0020783823 0.36000001 4285935648
0.0012961716 0.0020783823 0.36000001 4286132770
0.0024654521 0.0020783823 0.36000001 4286065694
0.0036347327 0.0020783823 0.36000001 4286853413
0.0048040138 0.0020783823 0.36000001 4286853413
0.0063383286 0.0022053947 0.38200003 4285869598
0.0075989058 0.0022111679 0.38300002 4285280802
0.0088428911 0.0022111679 0.38300002 4289115294
0.010113211 0.002216941 0.384 4286417013
0.011390029 0.0022227145 0.38500002 4283638807
0.01264051 0.0022227145 0.38500002 4284032534
0.01389099 0.0022227145 0.38500002 4284428062
0.015180798 0.0022284877 0.38600001 4285349164
0.016434528 0.0022284877 0.38600001 4287926911
-0.011469533 0.0032209919 0.35700002 4282667064
-0.010309996 0.0032209919 0.35700002 4282010165
-0.0091504594 0.0032209919 0.35700002 4282797883
-0.0079909237 0.0032209919 0.35700002 4284561706
-0.0068313861 0.0032209919 0.35700002 4285083937
-0.0056718495 0.0032209919 0.35700002 4285804062
-0.0045249527 0.0032300141 0.35800001 4285607453
-0.0033621681 0.0032300141 0.35800001 4284621080
-0.0022055269 0.0032390368 0.35900003 4284555546
-0.0010394942 0.0032390368 0.35900003 4284423697
0.00012689093 0.003248059 0.36000001 4285345053
0.0012961716 0.003248059 0.36000001 4285542430
0.0024723008 0.0032570816 0.36100003 4286002981
0.0036448294 0.0032570816 0.36100003 4286266153
0.0048173582 0.0032570816 0.36100003 4286133797
0.0063383286 0.0034465517 0.38200003 4285608738
0.0075989058 0.0034555739 0.38300002 4289959814
0.0088659786 0.0034645961 0.384 4287605912
0.010139548 0.0034736188 0.38500002 4288855463
0.011390029 0.0034736188 0.38500002 4283048469
0.012673343 0.003482641 0.38600001 4283901720
0.013927069 0.003482641 0.38600001 4284428062
0.015180798 0.003482641 0.38600001 4285020712
0.016477104 0.0034916636 0.38700002 4284757029
-0.011469533 0.0043809214 0.35700002 4282601008
-0.010281117 0.0043686498 0.35600001 4282533421
-0.0091248276 0.0043686498 0.35600001 4282531111
-0.0079685394 0.0043686498 0.35600001 4284627240
-0.0068122507 0.0043686498 0.35600001 4284953123
-0.0056718495 0.0043809214 0.35700002 4286133797
-0.0045249527 0.0043931929 0.35800001 4286199590
-0.0033621681 0.0043931929 0.35800001 4284096280
-0.0022055269 0.0044054645 0.35900003 4283439380
-0.0010423897 0.0044177361 0.36000001 4284228378
0.00012689093 0.0044177361 0.36000001 4284886308
0.0012997721 0.0044300077 0.36100003 4285216295
0.002479149 0.0044422788 0.36200002 4285216293
0.0036549256 0.0044422788 0.36200002 4285413672
0.0048173582 0.0044300077 0.36100003 4284097814
0.0060064788 0.0044422788 0.36200002 4282852373
0.0075989058 0.0046999799 0.38300002 4288719255
0.0088659786 0.0047122515 0.384 4287278232
0.010139548 0.0047245231 0.38500002 4287409816
0.011419613 0.0047367946 0.38600001 4283315239
0.012673343 0.0047367946 0.38600001 4283770647
0.013963151 0.0047490662 0.38700002 4284362782
0.015220128 0.0047490662 0.38700002 4284889126
0.016477104 0.0047490662 0.38700002 4285936936
0.017734082 0.0047490662 0.38700002 4286987827
-0.010281117 0.0055253301 0.35600001 4281545240
-0.0091248276 0.0055253301 0.35600001 4282922530
-0.0079685394 0.0055253301 0.35600001 4284889126
-0.0068122507 0.0055253301 0.35600001 4285280289
-0.0056718495 0.005540851 0.35700002 4286789930
-0.0045249527 0.0055563715 0.35800001 4286990137
-0.0033621681 0.0055563715 0.35800001 4288388750
-0.0022116704 0.005587413 0.36000001 4287996045
-0.0010423897 0.005587413 0.36000001 4284564023
0.0001272434 0.0056029335 0.36100003 4283113495
0.0013033724 0.005618454 0.36200002 4284163609
0.0024859975 0.0056339744 0.36300001 4285084711
0.0036549256 0.005618454 0.36200002 4282784014
0.0048307027 0.005618454 0.36200002 4284037940
0.0063383286 0.0059288661 0.38200003 4279965456
0.0075989058 0.0059443866 0.38300002 4288324760
0.0088890679 0.0059754276 0.38500002 4287279000
0.010165884 0.0059909481 0.38600001 4287147414
0.011449198 0.006006469 0.38700002 4284109120
0.012706175 0.006006469 0.38700002 4283509788
0.013999231 0.006021989 0.38800001 4284296989
0.015259456 0.006021989 0.38800001 4285020712
0.016519681 0.006021989 0.38800001 4285936936
-0.0090991966 0.0066632414 0.35500002 4284169769
-0.007946156 0.0066632414 0.35500002 4285346595
-0.0067931153 0.0066632414 0.35500002 4285739557
-0.0056718495 0.0067007807 0.35700002 4286396199
-0.0045249527 0.0067195501 0.35800001 4290549123
-0.0033621681 0.0067195501 0.35800001 4287733641
-0.0022116704 0.0067570894 0.36000001 4286612337
-0.0010452853 0.0067758597 0.36100003 4283707942
0.00012759588 0.0067946292 0.36200002 4283772192
0.0013069729 0.0068133986 0.36300001 4284951326
0.002492846 0.0068321684 0.36400002 4286268981
0.0036650221 0.0068133986 0.36300001 4281470982
0.0050575584 0.0071137138 0.37900001 4282069285
0.0063217357 0.0071512531 0.38100001 4284639067
0.0075989058 0.0071887928 0.38300002 4280559903
0.0088890679 0.0072263321 0.38500002 4287540891
0.010165884 0.0072451015 0.38600001 4287278230
0.011449198 0.0072638714 0.38700002 4286414958
0.012739007 0.0072826408 0.38800001 4283049498
0.013999231 0.0072826408 0.38800001 4284098329
0.015298785 0.0073014111 0.38900003 4284032536
0.016562259 0.0073014111 0.38900003 4286000932
-0.010223357 0.0077946531 0.354 4281935119
-0.0090991966 0.0078166723 0.35500002 4284299556
-0.007946156 0.0078166723 0.35500002 4285411105
-0.0067931153 0.0078166723 0.35500002 4286066979
-0.0056718495 0.0078607099 0.35700002 4285937703
-0.0045249527 0.0078827282 0.35800001 4289435521
-0.0033621681 0.0078827282 0.35800001 4284103470
-0.0022178141 0.0079487851 0.36100003 4284955953
-0.0010452853 0.0079487851 0.36100003 4284166435
0.00012759588 0.0079708034 0.36200002 4284164892
0.0013105734 0.0080148419 0.36400002 4286200875
0.0024996945 0.0080368603 0.36500001 4286070832
0.0037962764 0.0082790665 0.37600002 4281604882
0.0050442144 0.0083231041 0.37800002 4280426005
0.0063217357 0.008389161 0.38100001 4279900694
0.0075989058 0.0084331986 0.38300002 4281612591
0.0088890679 0.0084772361 0.38500002 4288395430
0.010192221 0.0085212737 0.38700002 4287409305
0.011478783 0.0085432921 0.38800001 4287993738
0.01277184 0.0085653113 0.38900003 4282523672
0.014035312 0.0085653113 0.38900003 4284164122
0.015338113 0.0085873296 0.39000002 4284690464
0.016604833 0.0085873296 0.39000002 4286132772
0.017963205 0.0086313672 0.39200002 4287972146
0.019236421 0.0086313672 0.39200002 4291527276
0.020509636 0.0086313672 0.39200002 4287451194
-0.012558319 0.0089701032 0.35500002 4282006041
-0.011405277 0.0089701032 0.35500002 4281741586
-0.010223357 0.0089448346 0.354 4283379481
-0.0090991966 0.0089701032 0.35500002 4284888613
-0.007946156 0.0089701032 0.35500002 4285935393
-0.0067931153 0.0089701032 0.35500002 4286132000
-0.0056400741 0.0089701032 0.35500002 4285544228
-0.0045249527 0.0090459064 0.35800001 4285020714
-0.0033715598 0.009071175 0.35900003 4285479728
-0.0022178141 0.0091217114 0.36100003 4285216043
-0.0010481807 0.0091469781 0.36200002 4284360988
0.00012794834 0.0091722459 0.36300001 4285017634
0.0013105734 0.0091975145 0.36400002 4286463534
0.0024996945 0.0092227822 0.36500001 4284097814
0.0037962764 0.0095007289 0.37600002 4283916366
0.0050442144 0.0095512653 0.37800002 4283853401
0.0063051437 0.0096018007 0.38000003 4279573526
0.0075790659 0.0096523371 0.38200003 4280757800
0.0088890679 0.0097281402 0.38500002 4287868834
0.010192221 0.0097786766 0.38700002 4287343771
0.011508367 0.009829212 0.38900003 4284373837
0.01277184 0.009829212 0.38900003 4283048217
0.014071392 0.0098544797 0.39000002 4284097816
0.015377442 0.0098797483 0.39100003 4285018916
0.016647412 0.0098797483 0.39100003 4285804062
0.017963205 0.0099050151 0.39200002 4286853922
0.019236421 0.0099050151 0.39200002 4286853665
0.020509636 0.0099050151 0.39200002 4286657831
-0.012558319 0.010123535 0.35500002 4281084687
-0.011405277 0.010123535 0.35500002 4281214990
-0.010252237 0.010123535 0.35500002 4284760105
-0.0090991966 0.010123535 0.35500002 4285282086
-0.007946156 0.010123535 0.35500002 4286132254
-0.0067931153 0.010123535 0.35500002 4286789669
-0.0056559616 0.010152051 0.35600001 4286003235
-0.0045123133 0.010180569 0.35700002 4285805856
-0.0033715598 0.010237603 0.35900003 4285938219
-0.0022116704 0.01026612 0.36000001 4284951839
-0.0010481807 0.010323154 0.36200002 4284754460
0.00012794834 0.010351671 0.36300001 4285542178
0.0013141739 0.010408705 0.36500001 4286266668
0.002506543 0.010437222 0.36600003 4285681211
0.0037861799 0.010693875 0.37500003 4284841061
0.0050308695 0.010750908 0.377 4282077503
0.0063051437 0.01083646 0.38000003 4282009913
0.0075790659 0.010893494 0.38200003 4282009400
0.0089121563 0.011007561 0.38600001 4287934111
0.010218557 0.011064596 0.38800001 4287804576
0.011508367 0.011093114 0.38900003 4283251245
0.012804672 0.01112163 0.39000002 4283639069
0.014107473 0.011150148 0.39100003 4284425497
0.015377442 0.011150148 0.39100003 4285280291
0.016689988 0.011178664 0.39200002 4285935396
0.017963205 0.011178664 0.39200002 4286132772
0.019236421 0.011178664 0.39200002 4286264615
0.020509636 0.011178664 0.39200002 4285610285
-0.013711359 0.011276967 0.35500002 4281348113
-0.012558319 0.011276967 0.35500002 4280820493
-0.011405277 0.011276967 0.35500002 4280359431
-0.010252237 0.011276967 0.35500002 4284758824
-0.0090991966 0.011276967 0.35500002 4285347363
-0.007946156 0.011276967 0.35500002 4286197534
-0.0068122507 0.011308732 0.35600001 4287381036
-0.0056559616 0.011308732 0.35600001 4285607707
-0.0045249527 0.011372264 0.35800001 4285937701
-0.0033715598 0.011404031 0.35900003 4285346595
-0.0022116704 0.011435797 0.36000001 4284622874
-0.0010481807 0.011499329 0.36200002 4285017117
0.00012830083 0.011562862 0.36400002 4285542432
0.0013177744 0.011626394 0.36600003 4285742891
0.0025202399 0.011689926 0.36800003 4286607197
0.0037760835 0.011880523 0.37400001 4281945656
0.0050175255 0.011944055 0.37600002 4281221681
0.0062885508 0.012039353 0.37900001 4284313180
0.007559225 0.012102885 0.38100001 4281089063
0.0089352448 0.012293482 0.38700002 4288000156
0.010244895 0.012357014 0.38900003 4287934361
0.011537951 0.01238878 0.39000002 4283904294
0.012837506 0.012420547 0.39100003 4284098075
0.014143554 0.012452313 0.39200002 4284818968
0.01541677 0.012452313 0.39200002 4285608225
0.016689988 0.012452313 0.39200002 4285804064
0.018009027 0.012484078 0.39300001 4285870627
0.019285493 0.012484078 0.39300001 4284035880
-0.0148644 0.012430398 0.35500002 4281809177
-0.013711359 0.012430398 0.35500002 4280558345
-0.012558319 0.012430398 0.35500002 4280688909
-0.011405277 0.012430398 0.35500002 4280555524
-0.010252237 0.012430398 0.35500002 4284954406
-0.0090991966 0.012430398 0.35500002 4285542945
-0.0079685394 0.012465413 0.35600001 4286196764
-0.0068122507 0.012465413 0.35600001 4287316015
-0.0056718495 0.012500429 0.35700002 4285015318
-0.0045249527 0.012535443 0.35800001 4286267697
-0.0033715598 0.012570458 0.35900003 4285677359
-0.0022116704 0.012605473 0.36000001 4284558365
-0.0010481807 0.012675504 0.36200002 4285017630
0.00012830083 0.012745535 0.36400002 4285542945
0.0013177744 0.012815565 0.36600003 4284033304
0.0025202399 0.012885596 0.36800003 4283976249
0.003765987 0.013060671 0.37300003 4283059258
0.0050041811 0.013130702 0.37500003 4292074957
0.0062553659 0.013200732 0.377 4282928951
0.0075195436 0.013270762 0.37900001 4282730543
0.0089814216 0.013620915 0.38900003 4286352501
0.010297568 0.013690946 0.39100003 4283851856
0.01159712 0.013725961 0.39200002 4284033565
0.012870338 0.013725961 0.39200002 4284754460
0.014179633 0.013760975 0.39300001 4285343513
0.015456098 0.013760975 0.39300001 4285474842
0.016732562 0.013760975 0.39300001 4286198820
0.018009027 0.013760975 0.39300001 4285085994
0.019285493 0.013760975 0.39300001 4288062871
-0.0148644 0.013583829 0.35500002 4281545751
-0.013711359 0.013583829 0.35500002 4280887056
-0.012558319 0.013583829 0.35500002 4280885773
-0.011405277 0.013583829 0.35500002 4282592281
-0.010252237 0.013583829 0.35500002 4285741353
-0.0090991966 0.013583829 0.35500002 4286330408
-0.0079685394 0.013622093 0.35600001 4286459682
-0.0068122507 0.013622093 0.35600001 4286789417
-0.0056718495 0.013660357 0.35700002 4284818970
-0.0045249527 0.013698622 0.35800001 4285809717
-0.0033715598 0.013736886 0.35900003 4284231458
-0.0022116704 0.01377515 0.36000001 4284362784
-0.0010452853 0.013813416 0.36100003 4285280289
0.00012830083 0.013928208 0.36400002 4285608484
0.0013177744 0.014004736 0.36600003 4283377952
0.0025270884 0.014119529 0.36900002 4282002209
0.0037558903 0.014234321 0.37200001 4280886808
0.0049908361 0.014310851 0.37400001 4286678127
0.0062387735 0.014387379 0.37600002 4288388716
0.0074798628 0.014425643 0.377 4287401821
0.00900451 0.014923079 0.39000002 4281874203
0.010323904 0.014999609 0.39200002 4281936666
0.011626705 0.015037872 0.39300001 4283638807
0.01290317 0.015037872 0.39300001 4284885531
0.014215714 0.015076137 0.39400002 4285606428
0.015495427 0.015076137 0.39400002 4285803037
0.016775141 0.015076137 0.39400002 4284754974
0.018009027 0.015037872 0.39300001 4288978575
-0.013711359 0.01473726 0.35500002 4281017872
-0.012558319 0.01473726 0.35500002 4281345040
-0.011405277 0.01473726 0.35500002 4284891954
-0.010252237 0.01473726 0.35500002 4285937190
-0.0090991966 0.01473726 0.35500002 4286328096
-0.0079685394 0.014778772 0.35600001 4287906358
-0.0068122507 0.014778772 0.35600001 4286327326
-0.0056718495 0.014820287 0.35700002 4284555796
-0.0045249527 0.0148618 0.35800001 4285743152
-0.0033715598 0.014903313 0.35900003 4284231458
-0.0022116704 0.014944826 0.36000001 4284099099
-0.0010452853 0.014986341 0.36100003 4285015834
0.00012830083 0.015110881 0.36400002 4285674018
0.0013177744 0.015193908 0.36600003 4283774507
0.0025270884 0.015318448 0.36900002 4281673244
0.0037457941 0.015401474 0.37100002 4281214488
0.0049774921 0.015484502 0.37300003 4282991664
0.0062221815 0.015567528 0.37500003 4282201623
0.0074600223 0.015609041 0.37600002 4283386409
0.0090275994 0.016231744 0.39100003 4282268961
0.010376576 0.016356282 0.39400002 4281936918
0.01165629 0.016356282 0.39400002 4284622874
0.012968834 0.016397797 0.39500001 4285607455
0.014251795 0.016397797 0.39500001 4285934623
0.015534755 0.016397797 0.39500001 4286131489
0.016775141 0.016356282 0.39400002 4285087537
-0.014906271 0.015935453 0.35600001 4281019155
-0.013711359 0.015890691 0.35500002 4280887058
-0.012558319 0.015890691 0.35500002 4281474318
-0.011405277 0.015890691 0.35500002 4284626986
-0.010252237 0.015890691 0.35500002 4286067236
-0.0091248276 0.015935453 0.35600001 4286787877
-0.0079685394 0.015935453 0.35600001 4287380009
-0.0068122507 0.015935453 0.35600001 4287971376
-0.0056718495 0.015980216 0.35700002 4287313448
-0.0045249527 0.016024979 0.35800001 4286987050
-0.0033621681 0.016024979 0.35800001 4285016347
-0.0022116704 0.016114503 0.36000001 4284818972
-0.0010452853 0.016159266 0.36100003 4285672221
0.00012865329 0.016338315 0.36500001 4286461994
0.0013213749 0.016427841 0.36700001 4282722330
0.0025270884 0.016517365 0.36900002 4281936668
0.0037457941 0.016606892 0.37100002 4282002972
0.0049774921 0.016696416 0.37300003 4282530598
0.0062055886 0.016741179 0.37400001 4282070037
0.0074401824 0.016785942 0.37500003 4282202137
0.0090275994 0.017502142 0.39100003 4281938713
0.010402913 0.017681191 0.39500001 4281736459
0.011685873 0.017681191 0.39500001 4285147935
0.012968834 0.017681191 0.39500001 4285869600
0.014251795 0.017681191 0.39500001 4286196510
0.015534755 0.017681191 0.39500001 4286591268
0.016817717 0.017681191 0.39500001 4287855469
-0.014906271 0.017092135 0.35600001 4281744159
-0.013749982 0.017092135 0.35600001 4280887571
-0.012558319 0.017044123 0.35500002 4283115805
-0.011405277 0.017044123 0.35500002 4285676848
-0.010252237 0.017044123 0.35500002 4286460452
-0.0091248276 0.017092135 0.35600001 4286524448
-0.0079685394 0.017092135 0.35600001 4290272330
-0.0068122507 0.017092135 0.35600001 4288101159
-0.0056718495 0.017140146 0.35700002 4287969318
-0.0045123133 0.017140146 0.35700002 4288298283
-0.0033621681 0.017188158 0.35800001 4287772966
-0.0022055269 0.017236169 0.35900003 4287839529
-0.0010423897 0.017284181 0.36000001 4290078549
0.00012865329 0.017524239 0.36500001 4286593321
0.0013249754 0.017668275 0.36800003 4281932555
0.0025270884 0.017716285 0.36900002 4281935898
0.0037457941 0.01781231 0.37100002 4282793258
0.0049641472 0.017860319 0.37200001 4282860078
0.0062055886 0.017956344 0.37400001 4285294919
0.0074203415 0.017956344 0.37400001 4284439610
0.0091661299 0.01906061 0.39700001 4282856996
0.01042925 0.0190126 0.39600003 4282850577
0.011715459 0.0190126 0.39600003 4286264104
0.013001667 0.0190126 0.39600003 4286065694
0.014287875 0.0190126 0.39600003 4286459166
0.015574085 0.0190126 0.39600003 4287314221
-0.016107678 0.018300075 0.35700002 4281613091
-0.014906271 0.018248815 0.35600001 4281810470
-0.013749982 0.018248815 0.35600001 4281612321
-0.012593693 0.018248815 0.35600001 4284364329
-0.011437405 0.018248815 0.35600001 4285807146
-0.010281117 0.018248815 0.35600001 4286853924
-0.0091248276 0.018248815 0.35600001 4287445032
-0.0079685394 0.018248815 0.35600001 4287444001
-0.0068122507 0.018248815 0.35600001 4287509794
-0.0056718495 0.018300075 0.35700002 4287969575
-0.0045123133 0.018300075 0.35700002 4289287488
-0.0033621681 0.018351335 0.35800001 4287839279
-0.0021993832 0.018351335 0.35800001 4288429872
-0.0010394942 0.018402597 0.35900003 4288233263
0.00012900577 0.018761422 0.36600003 4287644726
0.0013285758 0.018915204 0.36900002 4282130193
0.0025339369 0.018966464 0.37 4282068767
0.0037457941 0.019017726 0.37100002 4283781700
0.0049641472 0.019068986 0.37200001 4283585859
0.0065706233 0.020299245 0.39600003 4282006570
0.0078568328 0.020299245 0.39600003 4286480494
0.0091661299 0.020350505 0.39700001 4282064402
0.01042925 0.020299245 0.39600003 4284097564
0.011715459 0.020299245 0.39600003 4286132002
0.013001667 0.020299245 0.39600003 4286524705
0.014287875 0.020299245 0.39600003 4286656034
0.015574085 0.020299245 0.39600003 4286853670
-0.016107678 0.019460006 0.35700002 4282206513
-0.014906271 0.019405494 0.35600001 4281416484
-0.013749982 0.019405494 0.35600001 4281942058
-0.012593693 0.019405494 0.35600001 4284627499
-0.011437405 0.019405494 0.35600001 4285347111
-0.010281117 0.019405494 0.35600001 4286460706
-0.0091248276 0.019405494 0.35600001 4286524700
-0.0079685394 0.019405494 0.35600001 4287246622
-0.0068122507 0.019405494 0.35600001 4287378208
-0.0056718495 0.019460006 0.35700002 4287640356
-0.0045123133 0.019460006 0.35700002 4288232493
-0.0033621681 0.019514514 0.35800001 4291922813
-0.0021993832 0.019514514 0.35800001 4287248430
-0.0010394942 0.019569024 0.35900003 4288363824
0.00012935825 0.020005103 0.36700001 4287380011
0.0013321763 0.020168632 0.37 4281406474
0.0025407854 0.020223143 0.37100002 4281280283
0.0037558903 0.020277651 0.37200001 4281742376
0.0052176928 0.021313339 0.39100003 4282729523
0.0065374384 0.021476869 0.39400002 4283516729
0.0078369919 0.021531377 0.39500001 4289635478
0.0091430414 0.021585887 0.39600003 4282585867
0.01042925 0.021585887 0.39600003 4286002992
0.011715459 0.021585887 0.39600003 4286526499
0.013001667 0.021585887 0.39600003 4286853667
0.014287875 0.021585887 0.39600003 4287181862
0.015574085 0.021585887 0.39600003 4286592040
-0.016107678 0.020619934 0.35700002 4287409301
-0.014906271 0.020562174 0.35600001 4287803289
-0.013749982 0.020562174 0.35600001 4285958775
-0.012593693 0.020562174 0.35600001 4284233513
-0.011437405 0.020562174 0.35600001 4285150502
-0.010281117 0.020562174 0.35600001 4286131487
-0.0091248276 0.020562174 0.35600001 4286327323
-0.0079685394 0.020562174 0.35600001 4286721307
-0.0068122507 0.020562174 0.35600001 4286918686
-0.0056718495 0.020619934 0.35700002 4287246622
-0.0045123133 0.020619934 0.35700002 4287509024
-0.0033621681 0.020677693 0.35800001 4288236095
-0.0021993832 0.020677693 0.35800001 4291854456
-0.0010394942 0.020735452 0.35900003 4287640356
0.00012935825 0.021197524 0.36700001 4288892476
0.0013357768 0.021428559 0.37100002 4281996814
0.0025476338 0.021486318 0.37200001 4281739296
0.0037558903 0.021486318 0.37200001 4280756251
0.0052043479 0.022525977 0.39000002 4281940009
0.0065042535 0.022641497 0.39200002 4286003764
0.0077973106 0.022699254 0.39300001 4286594098
0.0090968646 0.022757014 0.39400002 4284818459
0.010402913 0.022814773 0.39500001 4286460713
0.011685873 0.022814773 0.39500001 4287051046
0.012968834 0.022814773 0.39500001 4287116067
0.014251795 0.022814773 0.39500001 4287313448
0.015574085 0.022872532 0.39600003 4288240206
-0.014906271 0.021718854 0.35600001 4287211924
-0.013749982 0.021718854 0.35600001 4286748804
-0.012593693 0.021718854 0.35600001 4284168493
-0.011437405 0.021718854 0.35600001 4284559396
-0.010281117 0.021718854 0.35600001 4285606428
-0.0091248276 0.021718854 0.35600001 4285802776
-0.0079685394 0.021718854 0.35600001 4285933590
-0.0068313861 0.021779863 0.35700002 4286327578
-0.0056718495 0.021779863 0.35700002 4286589721
-0.0045123133 0.021779863 0.35700002 4286918940
-0.0033621681 0.02184087 0.35800001 4287311138
-0.0021993832 0.02184087 0.35800001 4288100909
-0.0010394942 0.021901879 0.35900003 4288299310
0.00012935825 0.022389943 0.36700001 4288301109
0.0013393773 0.022694983 0.37200001 4281929736
0.0025613308 0.022816999 0.37400001 4281410072
0.003765987 0.022755992 0.37300003 4281478943
0.0051910039 0.02373212 0.38900003 4283906608
0.006487661 0.023854136 0.39100003 4287448630
0.0077774702 0.023915144 0.39200002 4287840819
0.0090737753 0.023976151 0.39300001 4288830285
0.010376576 0.02403716 0.39400002 4287511600
0.01165629 0.02403716 0.39400002 4287510827
0.012968834 0.024098167 0.39500001 4287642411
0.014251795 0.024098167 0.39500001 4287380784
-0.014906271 0.022875536 0.35600001 4286948752
-0.013749982 0.022875536 0.35600001 4285498739
-0.012593693 0.022875536 0.35600001 4283577128
-0.011437405 0.022875536 0.35600001 4284428839
-0.010309996 0.022939794 0.35700002 4284818968
-0.0091504594 0.022939794 0.35700002 4285212695
-0.0079909237 0.022939794 0.35700002 4285475094
-0.0068313861 0.022939794 0.35700002 4285342738
-0.0056718495 0.022939794 0.35700002 4286130969
-0.0045249527 0.023004051 0.35800001 4286195733
-0.0033621681 0.023004051 0.35800001 4287246368
-0.0022055269 0.023068309 0.35900003 4287640356
-0.0010423897 0.023132564 0.36000001 4287312163
0.00012900577 0.023518108 0.36600003 4287511595
0.0013429777 0.023967909 0.37300003 4282062094
0.0025750278 0.024160679 0.37600002 4281868056
0.0038871446 0.024738993 0.38500002 4282194193
0.005177659 0.024931764 0.38800001 4286859071
0.0064544762 0.024996022 0.38900003 4287708204
0.0077576302 0.025124537 0.39100003 4287312931
0.0090506868 0.025188792 0.39200002 4289883225
0.010350239 0.02525305 0.39300001 4287577393
0.01165629 0.025317308 0.39400002 4287642929
0.012936003 0.025317308 0.39400002 4287773747
0.014215714 0.025317308 0.39400002 4286071604
-0.014948144 0.024099724 0.35700002 4287080340
-0.013788607 0.024099724 0.35700002 4285236850
-0.012629069 0.024099724 0.35700002 4283052328
-0.011469533 0.024099724 0.35700002 4283509536
-0.010309996 0.024099724 0.35700002 4284425495
-0.0091504594 0.024099724 0.35700002 4284096017
-0.0079909237 0.024099724 0.35700002 4284423697
-0.0068505215 0.024167228 0.35800001 4285146904
-0.0056877369 0.024167228 0.35800001 4285869598
-0.0045375922 0.024234736 0.35900003 4286263586
-0.0033715598 0.024234736 0.35900003 4286196764
-0.0022116704 0.024302242 0.36000001 4286393373
-0.0010452853 0.024369748 0.36100003 4286919717
0.00012865329 0.024639772 0.36500001 4285934621
0.0013141739 0.024639772 0.36500001 4288121219
0.0025887247 0.025517354 0.37800002 4283053362
0.0038770481 0.02592239 0.384 4284756777
0.0051643145 0.02612491 0.38700002 4285869603
0.0064378832 0.026192416 0.38800001 4288235318
0.0077377893 0.026327427 0.39000002 4288432697
0.0090275994 0.026394935 0.39100003 4289289805
0.010350239 0.026529947 0.39300001 4290013787
0.011626705 0.026529947 0.39300001 4288767331
0.01290317 0.026529947 0.39300001 4291927190
0.014179633 0.026529947 0.39300001 4286469957
-0.014948144 0.025259653 0.35700002 4287277717
-0.013788607 0.025259653 0.35700002 4287736469
-0.012629069 0.025259653 0.35700002 4283841844
-0.011469533 0.025259653 0.35700002 4284035880
-0.010309996 0.025259653 0.35700002 4284296991
-0.0091760904 0.025330408 0.35800001 4284164122
-0.0080133062 0.025330408 0.35800001 4284491288
-0.0068505215 0.025330408 0.35800001 4284491288
-0.0057036243 0.025401164 0.35900003 4285279519
-0.0045375922 0.025401164 0.35900003 4285608738
-0.003380951 0.025471918 0.36000001 4286068776
-0.0022178141 0.025542675 0.36100003 4286134569
-0.0010481807 0.025613429 0.36200002 4286462764
0.00012865329 0.025825694 0.36500001 4285083677
0.0013141739 0.025825694 0.36500001 4288982427
0.0025955732 0.026816269 0.37900001 4287601803
0.0038770481 0.027170045 0.384 4284889910
0.0051509701 0.027311556 0.38600001 4286659893
0.0064378832 0.027453067 0.38800001 4287841589
0.0077179489 0.027523823 0.38900003 4288235318
0.00900451 0.027594578 0.39000002 4288628793
0.010350239 0.027806843 0.39300001 4292183157
0.01159712 0.027736088 0.39200002 4294959828
0.01290317 0.027806843 0.39300001 4288569941
0.014179633 0.027806843 0.39300001 4287973952
-0.014948144 0.026419582 0.35700002 4287212439
-0.013788607 0.026419582 0.35700002 4287672477
-0.012664445 0.026493585 0.35800001 4283450166
-0.01150166 0.026493585 0.35800001 4284628532
-0.010338875 0.026493585 0.35800001 4284561447
-0.0091760904 0.026493585 0.35800001 4283968540
-0.0080356905 0.026567591 0.35900003 4284559650
-0.0068696574 0.026567591 0.35900003 4284559650
-0.0057195118 0.026641594 0.36000001 4284887845
-0.0045502316 0.026641594 0.36000001 4285151015
-0.0033903427 0.026715601 0.36100003 4285545260
-0.0022239573 0.026789604 0.36200002 4285545260
-0.0010510762 0.026863607 0.36300001 4284491286
0.00012865329 0.027011616 0.36500001 4285148957
0.0013177744 0.027085623 0.36600003 4289179804
0.0025133914 0.027159626 0.36700001 4287802262
0.0038871446 0.028491706 0.38500002 4286941052
0.0051509701 0.028565709 0.38600001 4284957245
0.0064378832 0.028713718 0.38800001 4288169784
0.0077179489 0.028787725 0.38900003 4288233263
0.0089814216 0.028787725 0.38900003 4288561455
0.010271231 0.028861728 0.39000002 4288889650
0.011567537 0.028935732 0.39100003 4288298036
0.012870338 0.029009737 0.39200002 4288431162
0.014143554 0.029009737 0.39200002 4288234037
0.01541677 0.029009737 0.39200002 4286789932
-0.014948144 0.027579511 0.35700002 4287409564
-0.01382723 0.027656764 0.35800001 4287343771
-0.012664445 0.027656764 0.35800001 4288589213
-0.011533787 0.027734019 0.35900003 4285292372
-0.010367756 0.027734019 0.35900003 4284824880
-0.0092017232 0.027734019 0.35900003 4284692779
-0.0080580739 0.027811272 0.36000001 4285086767
-0.0068887929 0.027811272 0.36000001 4284954667
-0.0057353997 0.027888525 0.36100003 4284168233
-0.004575511 0.027965778 0.36200002 4284301364
-0.0033997342 0.027965778 0.36200002 4285945424
-0.0022301008 0.028043032 0.36300001 4284626734
-0.0010539718 0.028120287 0.36400002 4284624158
0.00012900577 0.028274793 0.36600003 4285412390
0.0013177744 0.028274793 0.36600003 4289639585
0.0025681793 0.028970076 0.37500003 4287934361
0.0038972411 0.029819863 0.38600001 4287670680
0.0051643145 0.029897118 0.38700002 4287991682
0.0064378832 0.029974369 0.38800001 4287773745
0.007698108 0.029974369 0.38800001 4288429869
0.0089814216 0.030051624 0.38900003 4288691754
0.010271231 0.030128878 0.39000002 4288625963
0.011567537 0.030206133 0.39100003 4288757297
0.012870338 0.030283384 0.39200002 4288297261
0.014143554 0.030283384 0.39200002 4288693046
0.01541677 0.030283384 0.39200002 4287446061
-0.01382723 0.028819943 0.35800001 4287870115
-0.012699821 0.028900446 0.35900003 4287738016
-0.011565915 0.028980948 0.36000001 4285299052
-0.010396635 0.028980948 0.36000001 4285154876
-0.0092273541 0.028980948 0.36000001 4284693294
-0.0080804573 0.029061452 0.36100003 4285415218
-0.0069079287 0.029061452 0.36100003 4283376151
-0.0057512871 0.029141953 0.36200002 4288851604
-0.00458815 0.029222455 0.36300001 4288459676
-0.0034091256 0.029222455 0.36300001 4289707694
-0.0022362445 0.029302958 0.36400002 4284239682
-0.0010568673 0.02938346 0.36500001 4284560423
0.00012900577 0.029463964 0.36600003 4285611053
0.0013213749 0.029544465 0.36700001 4288054132
0.0025681793 0.030188488 0.37500003 4288391573
0.0038972411 0.031074015 0.38600001 4289305997
0.0051643145 0.031154519 0.38700002 4286135348
0.0064378832 0.031235021 0.38800001 4288102449
0.007698108 0.031235021 0.38800001 4288627248
0.0089814216 0.031315524 0.38900003 4288429097
0.010271231 0.031396028 0.39000002 4288626478
0.011567537 0.031476531 0.39100003 4288364076
0.012837506 0.031476531 0.39100003 4287442722
0.014143554 0.031557031 0.39200002 4287377956
0.01541677 0.031557031 0.39200002 4287051301
-0.012735196 0.030150624 0.36000001 4287738783
-0.011598043 0.030234378 0.36100003 4288987053
-0.010425515 0.030234378 0.36100003 4284828993
-0.0092786169 0.030318128 0.36200002 4284233259
-0.0081028407 0.030318128 0.36200002 4284954667
-0.0069270642 0.030318128 0.36200002 4284033819
-0.0057671745 0.030401878 0.36300001 4289773478
-0.0046007899 0.030485632 0.36400002 4288131481
-0.0034185173 0.030485632 0.36400002 4288131742
-0.002242388 0.030569382 0.36500001 4284575838
-0.0010597629 0.030653136 0.36600003 4283707430
0.00012935825 0.030736886 0.36700001 4284756775
0.0013213749 0.030736886 0.36700001 4285413676
0.0026298154 0.032160666 0.384 4286794305
0.0038972411 0.03232817 0.38600001 4287511348
0.0051643145 0.032411922 0.38700002 4287379757
0.0064378832 0.032495674 0.38800001 4291722597
0.007698108 0.032495674 0.38800001 4288233515
0.0089814216 0.032579426 0.38900003 4288495662
0.010271231 0.032663178 0.39000002 4288561201
0.011537951 0.032663178 0.39000002 4288037171
0.012837506 0.03274693 0.39100003 4286918436
0.014107473 0.03274693 0.39100003 4286919463
0.01541677 0.032830682 0.39200002 4286266416
-0.012735196 0.0313203 0.36000001 4288133028
-0.01163017 0.031494305 0.36200002 4288132258
-0.010454394 0.031494305 0.36200002 4285689697
-0.0093042487 0.031581301 0.36300001 4285023804
-0.0081252242 0.031581301 0.36300001 4284757804
-0.006965335 0.031668305 0.36400002 4285414705
-0.005783062 0.031668305 0.36400002 4289243030
-0.0046134293 0.031755306 0.36500001 4288000154
-0.0034279088 0.031755306 0.36500001 4288066465
-0.0022485317 0.031842306 0.36600003 4288855213
-0.0010626584 0.031929307 0.36700001 4285687646
0.00012935825 0.031929307 0.36700001 4284233263
0.0013249754 0.032016307 0.36800003 4286265903
0.0025750278 0.032712314 0.37600002 4287052591
0.0038972411 0.033582322 0.38600001 4289354308
0.0051643145 0.033669323 0.38700002 4290078029
0.0064378832 0.033756323 0.38800001 4288495660
0.007698108 0.033756323 0.38800001 4288364074
0.0089814216 0.033843327 0.38900003 4288365101
0.010244895 0.033843327 0.38900003 4286524957
0.011537951 0.033930324 0.39000002 4286395944
0.012837506 0.034017328 0.39100003 4286658862
0.014107473 0.034017328 0.39100003 4285085740
-0.011694426 0.032850981 0.36400002 4288330153
-0.010512154 0.032850981 0.36400002 4289707181
-0.0093298806 0.032850981 0.36400002 4283185711
-0.0081476076 0.032850981 0.36400002 4284626218
-0.0069844704 0.03294123 0.36500001 4284953386
-0.0057989494 0.03294123 0.36500001 4283971884
-0.0046260692 0.033031482 0.36600003 4288852122
-0.0034373004 0.033031482 0.36600003 4288263328
-0.0022546751 0.033121731 0.36700001 4288197537
-0.0010626584 0.033121731 0.36700001 4288854184
0.00012971072 0.03321198 0.36800003 4283650373
0.0013249754 0.03321198 0.36800003 4284686873
0.0025750278 0.033933979 0.37600002 4287052591
0.0038972411 0.034836479 0.38600001 4288036908
0.0051643145 0.034926727 0.38700002 4288101929
0.0064212908 0.034926727 0.38700002 4288429869
0.007698108 0.035016976 0.38800001 4288429872
0.0089583332 0.035016976 0.38800001 4286264615
0.010244895 0.035107229 0.38900003 4285675562
0.011537951 0.035197478 0.39000002 4285611314
0.012837506 0.03528773 0.39100003 4285153593
0.014107473 0.03528773 0.39100003 4287074689
-0.011726553 0.03412715 0.36500001 4288132774
-0.010541032 0.03412715 0.36500001 4288460455
-0.0093555115 0.03412715 0.36500001 4283124801
-0.008169991 0.03412715 0.36500001 4284495148
-0.0070036063 0.034220651 0.36600003 4284888363
-0.0058148373 0.034220651 0.36600003 4285412654
-0.0046260692 0.034220651 0.36600003 4290288525
-0.0034466919 0.034314148 0.36700001 4288130711
-0.0022546751 0.034314148 0.36700001 4288131227
-0.001065554 0.034407649 0.36800003 4288458909
0.0001300632 0.034501147 0.36900002 4286147166
0.0013285758 0.034501147 0.36900002 4285671969
0.0025681793 0.035062142 0.37500003 4287315509
0.0037861799 0.035062142 0.37500003 4288300080
0.0051643145 0.036184132 0.38700002 4288562482
0.0064212908 0.036184132 0.38700002 4286199338
0.007698108 0.036277629 0.38800001 4285812545
0.0089583332 0.036277629 0.38800001 4285687382
0.010244895 0.03637113 0.38900003 4286084707
0.011508367 0.03637113 0.38900003 4287339144
-0.011726553 0.035313074 0.36500001 4288198567
-0.010569912 0.035409823 0.36600003 4288001188
-0.0093811434 0.035409823 0.36600003 4285826169
-0.0081923753 0.035409823 0.36600003 4284364847
-0.0070227417 0.035506569 0.36700001 4284362792
-0.0058307247 0.035506569 0.36700001 4285873205
-0.0046387082 0.035506569 0.36700001 4285411625
-0.0034560836 0.035603318 0.36800003 4284361767
-0.0022608186 0.035603318 0.36800003 4284166700
-0.0010684495 0.035700068 0.36900002 4285214761
0.0001300632 0.035700068 0.36900002 4286592303
0.0013321763 0.035796814 0.37 4286986028
0.0025544823 0.036087058 0.37300003 4292316544
0.0037760835 0.036183808 0.37400001 4288235068
0.0051643145 0.037441533 0.38700002 4287707954
0.0064212908 0.037441533 0.38700002 4290222221
0.007698108 0.037538283 0.38800001 4287667850
0.0089583332 0.037538283 0.38800001 4287144334
-0.01175868 0.036598995 0.36600003 4288132774
-0.010569912 0.036598995 0.36600003 4288329385
-0.0094067743 0.03669899 0.36700001 4289248688
-0.0082147587 0.03669899 0.36700001 4284497460
-0.0070227417 0.03669899 0.36700001 4284692781
-0.0058466126 0.036798988 0.36800003 4285676848
-0.0046513481 0.036798988 0.36800003 4285609258
-0.0034560836 0.036798988 0.36800003 4285278758
-0.0022669621 0.036898986 0.36900002 4285606953
-0.0010684495 0.036898986 0.36900002 4286065957
0.00013041566 0.03699898 0.37 4286853418
0.0013357768 0.037098981 0.37100002 4287114786
0.0025544823 0.037298974 0.37300003 4287969066
0.003765987 0.037298974 0.37300003 4288102451
0.0049774921 0.037298974 0.37300003 4287445034
-0.010598792 0.03789141 0.36700001 4288198569
-0.0094067743 0.03789141 0.36700001 4288987313
-0.0082371421 0.037994657 0.36800003 4283644719
-0.0070418776 0.037994657 0.36800003 4283903524
-0.0058466126 0.037994657 0.36800003 4285479982
-0.0046639876 0.038097903 0.36900002 4285346597
-0.0034654748 0.038097903 0.36900002 4285016349
-0.0022669621 0.038097903 0.36900002 4285409826
-0.0010713449 0.03820115 0.37 4286394920
0.00013041566 0.03820115 0.37 4285868063
0.0013357768 0.038304396 0.37100002 4286788131
0.0025476338 0.038407642 0.37200001 4287247140
0.003765987 0.038510889 0.37300003 4287378728
0.0049641472 0.038407642 0.37200001 4287578163
-0.010598792 0.039083831 0.36700001 4288132774
-0.0094324071 0.03919033 0.36800003 4288395946
-0.0082371421 0.03919033 0.36800003 4283844159
-0.0070610126 0.039296821 0.36900002 4284496948
-0.0058624996 0.039296821 0.36900002 4284954667
-0.0046639876 0.039296821 0.36900002 4285018918
-0.0034748663 0.039403316 0.37 4284754462
-0.0022731056 0.039403316 0.37 4284688154
-0.0010713449 0.039403316 0.37 4285279521
0.00013076815 0.039509814 0.37100002 4285871656
0.0013357768 0.039509814 0.37100002 4286395690
0.0025476338 0.039616309 0.37200001 4286856241
0.0037558903 0.039616309 0.37200001 4286461740
0.0049641472 0.039616309 0.37200001 4286004016
-0.0094324071 0.040385999 0.36800003 4288330153
-0.0082595255 0.040495742 0.36900002 4286413168
-0.0070610126 0.040495742 0.36900002 4284695870
-0.005878387 0.040605485 0.37 4284692527
-0.004676627 0.040605485 0.37 4284560171
-0.0034748663 0.040605485 0.37 4284691495
-0.0022731056 0.040605485 0.37 4284625189
-0.0010742405 0.040715229 0.37100002 4284624419
0.00013076815 0.040715229 0.37100002 4285414189
0.0013357768 0.040715229 0.37100002 4285741871
0.0025476338 0.040824972 0.37200001 4286334008
0.0037558903 0.040824972 0.37200001 4284890419
0.0049641472 0.040824972 0.37200001 4287924092
-0.009458038 0.04169466 0.36900002 4288330153
-0.0082595255 0.04169466 0.36900002 4289709493
-0.007080148 0.041807652 0.37 4284111178
-0.005878387 0.041807652 0.37 4284694841
-0.004676627 0.041807652 0.37 4284956984
-0.003484258 0.041920647 0.37100002 4285087798
-0.0022792493 0.041920647 0.37100002 4284956212
-0.0010742405 0.041920647 0.37100002 4285153591
0.00013076815 0.041920647 0.37100002 4284890419
0.0013393773 0.042033639 0.37200001 4284825398
0.0025476338 0.042033639 0.37200001 4286078547
0.0037558903 0.042033639 0.37200001 4288260250
-0.0082595255 0.042893577 0.36900002 4288329383
-0.007080148 0.043009818 0.37 4288855467
-0.005878387 0.043009818 0.37 4287468934
-0.0046892664 0.043126062 0.37100002 4286480753
-0.003484258 0.043126062 0.37100002 4286479726
-0.0022792493 0.043126062 0.37100002 4286480496
-0.0010742405 0.043126062 0.37100002 4286677875
0.00013076815 0.043126062 0.37100002 4287138683
0.0013393773 0.043242306 0.37200001 4287800729
0.0025476338 0.043242306 0.37200001 4287999391
0.0037558903 0.043242306 0.37200001 4287079316
-0.007080148 0.044211987 0.37 4288132774
-0.0058942749 0.04433148 0.37100002 4287869856
-0.0046892664 0.04433148 0.37100002 4287803293
-0.003484258 0.04433148 0.37100002 4287671705
-0.0022792493 0.04433148 0.37100002 4287540119
-0.0010742405 0.04433148 0.37100002 4287342740
0.00013076815 0.04433148 0.37100002 4287211154
0.0013393773 0.044450969 0.37200001 4287211156
0.0025476338 0.044450969 0.37200001 4287474328
0.0037558903 0.044450969 0.37200001 4287145363
0.0018627942 0.016638258 0.37405056 4294967295
0.0018627942 0.016638258 0.37405056 4294901760
0.0018627942 0.016638258 0.37455055 4294901760
0.0018627942 0.016638258 0.37505054 4294901760
0.0018627942 0.016638258 0.37555057 4294901760
0.0018627942 0.016638258 0.37605056 4294901760
0.0018627942 0.016638258 0.37655056 4294901760
0.0018627942 0.016638258 0.37705055 4294901760
0.0018627942 0.016638258 0.37755057 4294901760
0.0018627942 0.016638258 0.37805057 4294901760
0.0018627942 0.016638258 0.37855056 4294901760
0.0018627942 0.016638258 0.37905055 4294901760
0.0018627942 0.016638258 0.37955055 4294901760
0.0018627942 0.016638258 0.38005057 4294901760
0.0018627942 0.016638258 0.38055056 4294901760
0.0018627942 0.016638258 0.38105056 4294901760
0.0018627942 0.016638258 0.38155055 4294901760
0.0018627942 0.016638258 0.38205057 4294901760
0.0018627942 0.016638258 0.38255057 4294901760
0.0018627942 0.016638258 0.38305056 4294901760
0.0018627942 0.016638258 0.38355055 4294901760
0.0018627942 0.016638258 0.38405055 4294901760
0.0018627942 0.016638258 0.38455057 4294901760
0.0018627942 0.016638258 0.38505057 4294901760
0.0018627942 0.016638258 0.38555056 4294901760
0.0018627942 0.016638258 0.38605055 4294901760
0.0018627942 0.016638258 0.38655055 4294901760
0.0018627942 0.016638258 0.38705057 4294901760
0.0018627942 0.016638258 0.38755056 4294901760
0.0018627942 0.016638258 0.38805056 4294901760
0.0018627942 0.016638258 0.38855055 4294901760
0.0018627942 0.016638258 0.38905057 4294901760
0.0018627942 0.016638258 0.38955057 4294901760
0.0018627942 0.016638258 0.39005056 4294901760
0.0018627942 0.016638258 0.39055055 4294901760
0.0018627942 0.016638258 0.39105058 4294901760
0.0018627942 0.016638258 0.39155057 4294901760
0.0018627942 0.016638258 0.39205056 4294901760
0.0018627942 0.016638258 0.39255056 4294901760
0.0018627942 0.016638258 0.39305055 4294901760
0.0018627942 0.016638258 0.39355057 4294901760
0.0018627942 0.016638258 0.39405057 4294901760
0.0018627942 0.016638258 0.39455056 4294901760
0.0018627942 0.016638258 0.39505056 4294901760
0.0018627942 0.016638258 0.39555055 4294901760
0.0018627942 0.016638258 0.39605057 4294901760
0.0018627942 0.016638258 0.39655057 4294901760
0.0018627942 0.016638258 0.39705056 4294901760
0.0018627942 0.016638258 0.39755055 4294901760
0.0018627942 0.016638258 0.39805058 4294901760
0.0018627942 0.016638258 0.39855057 4294901760
0.0018627942 0.016638258 0.39905056 4294901760
0.0018627942 0.016638258 0.39955056 4294901760
0.0018627942 0.016638258 0.40005055 4294901760
0.0018627942 0.016638258 0.40055057 4294901760
0.0018627942 0.016638258 0.40105057 4294901760
0.0018627942 0.016638258 0.40155056 4294901760
0.0018627942 0.016638258 0.40205055 4294901760
0.0018627942 0.016638258 0.40255058 4294901760
0.0018627942 0.016638258 0.40305057 4294901760
0.0018627942 0.016638258 0.40355057 4294901760
0.0018627942 0.016638258 0.40405056 4294901760
0.0018627942 0.016638258 0.40455055 4294901760
0.0018627942 0.016638258 0.40505058 4294901760
0.0018627942 0.016638258 0.40555057 4294901760
0.0018627942 0.016638258 0.40605056 4294901760
0.0018627942 0.016638258 0.40655056 4294901760
0.0018627942 0.016638258 0.40705058 4294901760
0.0018627942 0.016638258 0.40755057 4294901760
0.0018627942 0.016638258 0.40805057 4294901760
0.0018627942 0.016638258 0.40855056 4294901760
0.0018627942 0.016638258 0.40905055 4294901760
0.0018627942 0.016638258 0.40955058 4294901760
0.0018627942 0.016638258 0.41005057 4294901760
0.0018627942 0.016638258 0.41055056 4294901760
0.0018627942 0.016638258 0.41105056 4294901760
0.0018627942 0.016638258 0.41155058 4294901760
0.0018627942 0.016638258 0.41205058 4294901760
0.0018627942 0.016638258 0.41255057 4294901760
0.0018627942 0.016638258 0.41305056 4294901760
0.0018627942 0.016638258 0.41355056 4294901760
0.0018627942 0.016638258 0.41405058 4294901760
0.0018627942 0.016638258 0.41455057 4294901760
0.0018627942 0.016638258 0.41505057 4294901760
0.0018627942 0.016638258 0.41555056 4294901760
0.0018627942 0.016638258 0.41605055 4294901760
0.0018627942 0.016638258 0.41655058 4294901760
0.0018627942 0.016638258 0.41705057 4294901760
0.0018627942 0.016638258 0.41755056 4294901760
0.0018627942 0.016638258 0.41805056 4294901760
0.0018627942 0.016638258 0.41855055 4294901760
0.0018627942 0.016638258 0.41905057 4294901760
0.0018627942 0.016638258 0.41955057 4294901760
0.0018627942 0.016638258 0.42005056 4294901760
0.0018627942 0.016638258 0.42055058 4294901760
0.0018627942 0.016638258 0.42105058 4294901760
0.0018627942 0.016638258 0.42155057 4294901760
0.0018627942 0.016638258 0.42205057 4294901760
0.0018627942 0.016638258 0.42255056 4294901760
0.0018627942 0.016638258 0.42305058 4294901760
0.0018627942 0.016638258 0.42355058 4294901760
0.0018627942 0.016638258 0.42405057 4294901760
0.0018627942 0.016638258 0.37405056 4278255360
0.0014554241 0.016571105 0.37433258 4278255360
0.0010480542 0.016503951 0.37461463 4278255360
0.00064068416 0.016436795 0.37489665 4278255360
0.00023331423 0.016369641 0.37517866 4278255360
-0.00017405581 0.016302487 0.37546068 4278255360
-0.00058142585 0.016235333 0.37574273 4278255360
-0.00098879589 0.016168177 0.37602475 4278255360
-0.0013961657 0.016101023 0.37630677 4278255360
-0.001803536 0.016033869 0.37658882 4278255360
-0.0022109058 0.015966715 0.37687084 4278255360
-0.0026182756 0.015899561 0.37715286 4278255360
-0.0030256459 0.015832406 0.37743491 4278255360
-0.0034330157 0.015765252 0.37771693 4278255360
-0.0038403859 0.015698098 0.37799895 4278255360
-0.0042477562 0.015630944 0.378281 4278255360
-0.0046551256 0.015563789 0.37856302 4278255360
-0.0050624958 0.015496634 0.37884504 4278255360
-0.0054698661 0.01542948 0.37912706 4278255360
-0.0058772354 0.015362326 0.3794091 4278255360
-0.0062846057 0.015295171 0.37969112 4278255360
