# .PCD v0.7 - Point Cloud Data file format
VERSION 0.7
FIELDS x y z rgb
SIZE 4 4 4 4
TYPE F F F U
COUNT 1 1 1 1
WIDTH 525
HEIGHT 1
VIEWPOINT 0 0 0 1 0 0 0
POINTS 525
DATA ascii
-0.04850854 0.015160738 0.60000002 4282144579
-0.04655974 0.015160738 0.60000002 4280042283
-0.044685289 0.015186005 0.60100001 4278929962
-0.042804345 0.015211275 0.60200006 4278866736
-0.040916905 0.015236542 0.60300004 4280574789
-0.039022967 0.015261809 0.60400003 4282152023
-0.037061173 0.015261809 0.60400003 4280638268
-0.035157491 0.015287077 0.60500002 4281362505
-0.04655974 0.017110201 0.60000002 4280041768
-0.044685289 0.017138716 0.60100001 4279389480
-0.042804345 0.017167235 0.60200006 4278799396
-0.040916905 0.017195752 0.60300004 4279129129
-0.039022967 0.017224267 0.60400003 4279391533
-0.037061173 0.017224267 0.60400003 4278866986
-0.035157491 0.017252784 0.60500002 4280446272
-0.033192452 0.017252784 0.60500002 4279919154
-0.03122741 0.017252784 0.60500002 4279721775
-0.029262368 0.017252784 0.60500002 4278998824
-0.027297327 0.017252784 0.60500002 4279656756
-0.025374157 0.017281301 0.60600001 4279787572
-0.023405869 0.017281301 0.60600001 4280313403
-0.02143758 0.017281301 0.60600001 4279392301
-0.01950142 0.01730982 0.60700005 4279983670
-0.017558761 0.017338336 0.60800004 4281099846
-0.015583976 0.017338336 0.60800004 4282086228
-0.013631575 0.017366853 0.60900003 4283796336
-0.00965962 0.017338336 0.60800004 4287213718
-0.0076848357 0.017338336 0.60800004 4286884240
-0.046482142 0.019027896 0.59900004 4279976227
-0.04461094 0.019059662 0.60000002 4279323428
-0.042804345 0.019123195 0.60200006 4279192355
-0.040916905 0.01915496 0.60300004 4279193638
-0.039022967 0.019186726 0.60400003 4279325992
-0.037122533 0.019218491 0.60500002 4278998824
-0.035157491 0.019218491 0.60500002 4279064617
-0.033192452 0.019218491 0.60500002 4278998822
-0.03122741 0.019218491 0.60500002 4279064615
-0.029310735 0.019250257 0.60600001 4279064615
-0.027342446 0.019250257 0.60600001 4278998822
-0.025374157 0.019250257 0.60600001 4279064615
-0.023405869 0.019250257 0.60600001 4278933542
-0.021472957 0.019282026 0.60700005 4278868519
-0.019533547 0.019313792 0.60800004 4278802726
-0.017587641 0.019345557 0.60900003 4279130923
-0.015635239 0.019377323 0.61000001 4279394097
-0.013653958 0.019377323 0.61000001 4279590709
-0.011710948 0.019440856 0.61200005 4279327539
-0.0096913949 0.019377323 0.61000001 4279523119
-0.007722754 0.019409088 0.611 4280377145
-0.0057476172 0.019440856 0.61200005 4280639036
-0.0037659833 0.019472621 0.61300004 4283400804
-0.0017778536 0.019504387 0.61400002 4286622095
0.00021677199 0.019536152 0.61500001 4287147925
-0.048346847 0.020939093 0.59800005 4280500004
-0.046482142 0.020974107 0.59900004 4279844641
-0.04461094 0.021009123 0.60000002 4279126049
-0.042733241 0.021044137 0.60100001 4279127330
-0.040916905 0.021114169 0.60300004 4279194406
-0.039022967 0.021149185 0.60400003 4279194406
-0.037122533 0.021184199 0.60500002 4278998824
-0.035157491 0.021184199 0.60500002 4279327789
-0.033247314 0.021219213 0.60600001 4278933029
-0.031279024 0.021219213 0.60600001 4278998822
-0.029310735 0.021219213 0.60600001 4278866466
-0.027342446 0.021219213 0.60600001 4278207252
-0.025374157 0.021219213 0.60600001 4278538271
-0.023444494 0.02125423 0.60700005 4278801956
-0.021508332 0.021289244 0.60800004 4278801956
-0.019565674 0.02132426 0.60900003 4278801956
-0.01761652 0.021359274 0.61000001 4278868519
-0.015660869 0.02139429 0.611 4278736933
-0.013698726 0.021429306 0.61200005 4278933544
-0.011749219 0.021499336 0.61400002 4278933544
-0.0097390581 0.02146432 0.61300004 4278407200
-0.0077606728 0.021499336 0.61400002 4279065130
-0.0057757911 0.02153435 0.61500001 4278867238
-0.0037844139 0.021569367 0.61600006 4279130410
-0.0017865401 0.021604382 0.61700004 4280050744
0.00021818189 0.021674411 0.61900002 4280116283
0.0022466972 0.021849487 0.62400001 4280507709
-0.048265994 0.022843789 0.597 4279645209
-0.046404541 0.022882055 0.59800005 4279516703
-0.044536591 0.02292032 0.59900004 4279190304
-0.042733241 0.022996847 0.60100001 4279060767
-0.040849052 0.023035113 0.60200006 4279193636
-0.039022967 0.023111641 0.60400003 4279062820
-0.037122533 0.023149906 0.60500002 4279129640
-0.035157491 0.023149906 0.60500002 4278800675
-0.033247314 0.023188168 0.60600001 4279129640
-0.031279024 0.023188168 0.60600001 4279063845
-0.029310735 0.023188168 0.60600001 4279392297
-0.027342446 0.023188168 0.60600001 4279061537
-0.025416031 0.023226434 0.60700005 4279522090
-0.023483116 0.023264699 0.60800004 4278402839
-0.021543706 0.023302963 0.60900003 4279652393
-0.0195978 0.023341225 0.61000001 4279652906
-0.01767428 0.023417756 0.61200005 4279851051
-0.015712133 0.02345602 0.61300004 4279522599
-0.013743492 0.023494285 0.61400002 4278800160
-0.011787491 0.023570813 0.61600006 4279326504
-0.0097867204 0.023570813 0.61600006 4279194918
-0.0077985916 0.023609078 0.61700004 4279063845
-0.005803966 0.023647342 0.61800003 4278867236
-0.0038089878 0.023723869 0.62 4278933029
-0.0017981223 0.023762135 0.62100005 4278999335
0.00021959179 0.023838663 0.62300003 4278867751
0.0022574987 0.023991721 0.62700003 4279459890
0.0043213898 0.024144778 0.63100004 4279064619
-0.048265994 0.024783503 0.597 4279975711
-0.046404541 0.024825018 0.59800005 4279649313
-0.044536591 0.024866531 0.59900004 4279387937
-0.042733241 0.024949558 0.60100001 4279323426
-0.040849052 0.024991073 0.60200006 4279391013
-0.039022967 0.025074098 0.60400003 4279127841
-0.037122533 0.025115611 0.60500002 4279063845
-0.035157491 0.025115611 0.60500002 4279261224
-0.033247314 0.025157124 0.60600001 4278866468
-0.031279024 0.025157124 0.60600001 4279063334
-0.029310735 0.025157124 0.60600001 4279325222
-0.027387567 0.02519864 0.60700005 4279059488
-0.025457902 0.025240153 0.60800004 4278198528
-0.02352174 0.025281666 0.60900003 4278461968
-0.021579081 0.025323179 0.61000001 4278592019
-0.019662056 0.025406206 0.61200005 4278789652
-0.017703159 0.025447719 0.61300004 4278723859
-0.015763396 0.025530744 0.61500001 4278199817
-0.013788261 0.025572261 0.61600006 4279059740
-0.011806626 0.025613774 0.61700004 4278202120
-0.0098184953 0.025655286 0.61800003 4278200321
-0.0078365095 0.025738312 0.62 4278200578
-0.0058321408 0.025779827 0.62100005 4278200835
-0.0038274184 0.025862852 0.62300003 4278402326
-0.0018097042 0.02594588 0.625 4279455014
0.0002210017 0.026028907 0.62700003 4280047662
0.0022719007 0.02619496 0.63100004 4279522601
0.0043419348 0.0263195 0.634 4279260713
0.0064314576 0.02644404 0.63700002 4279130412
-0.048265994 0.026723217 0.597 4279844641
-0.046404541 0.026767982 0.59800005 4279517473
-0.044536591 0.026812743 0.59900004 4279257121
-0.042733241 0.026902268 0.60100001 4278862875
-0.040849052 0.026947033 0.60200006 4279062818
-0.039022967 0.027036555 0.60400003 4279260711
-0.037122533 0.027081318 0.60500002 4279326504
-0.035157491 0.027081318 0.60500002 4279260711
-0.033247314 0.027126079 0.60600001 4278998052
-0.031279024 0.027126079 0.60600001 4279129638
-0.029310735 0.027126079 0.60600001 4280377397
-0.027387567 0.027170844 0.60700005 4280638772
-0.025457902 0.027215606 0.60800004 4278199303
-0.02352174 0.027260369 0.60900003 4279383838
-0.021614457 0.027349891 0.611 4279250971
-0.019662056 0.027394656 0.61200005 4280632624
-0.017732039 0.02748418 0.61400002 4280435247
-0.015789028 0.027573707 0.61600006 4279581219
-0.013810643 0.02761847 0.61700004 4279520293
-0.011844897 0.027707992 0.61900002 4279520293
-0.0098502701 0.027752755 0.62 4278533910
-0.0078617893 0.027842281 0.62200004 4279586598
-0.0058603152 0.027931806 0.62400001 4279849770
-0.0038458491 0.028021332 0.62600005 4279587113
-0.0018183909 0.028110856 0.62800002 4279783725
0.0002224116 0.028245144 0.63100004 4279652139
0.0022827019 0.028379429 0.634 4280243762
0.0043556322 0.028468955 0.63600004 4278202894
0.006451651 0.028603245 0.63900006 4279063849
-0.048265994 0.028662933 0.597 4279910949
-0.046404541 0.028710946 0.59800005 4279846951
-0.044536591 0.028758958 0.59900004 4279322914
-0.042662136 0.028806968 0.60000002 4279652906
-0.040849052 0.028902993 0.60200006 4279062050
-0.038958363 0.028951004 0.60300004 4279194406
-0.037061173 0.028999016 0.60400003 4279261226
-0.035157491 0.029047025 0.60500002 4279458605
-0.033247314 0.029095037 0.60600001 4278735652
-0.031279024 0.029095037 0.60600001 4278998824
-0.029359104 0.02914305 0.60700005 4279587111
-0.027387567 0.02914305 0.60700005 4280834870
-0.025457902 0.029191062 0.60800004 4278726421
-0.023560364 0.029287085 0.61000001 4279712805
-0.021614457 0.029335095 0.611 4278197767
-0.019694183 0.02943112 0.61300004 4278198285
-0.017760918 0.029527143 0.61500001 4280107563
-0.015789028 0.029575156 0.61600006 4280832311
-0.013833026 0.029671177 0.61800003 4278199049
-0.011864032 0.0297672 0.62 4278331917
-0.0098820459 0.029863225 0.62200004 4280769588
-0.0078870682 0.029959247 0.62400001 4279387935
-0.0058790985 0.030055271 0.62600005 4278796830
-0.003858136 0.030151293 0.62800002 4278402585
-0.0018270776 0.030295329 0.63100004 4278203150
0.00022311654 0.03039135 0.63300002 4279323941
0.0022899031 0.030535387 0.63600004 4280442422
0.0043693287 0.03063141 0.63800001 4279126562
0.006461747 0.030727433 0.64000005 4279391787
0.0085805021 0.030871468 0.64300001 4279129129
-0.048265994 0.030602647 0.597 4280043049
-0.046404541 0.030653909 0.59800005 4279781160
-0.044536591 0.030705169 0.59900004 4279322660
-0.042662136 0.030756429 0.60000002 4279521320
-0.040849052 0.030858953 0.60200006 4279127845
-0.038958363 0.030910213 0.60300004 4279391785
-0.037061173 0.030961473 0.60400003 4279261228
-0.035157491 0.031012733 0.60500002 4279195435
-0.033192452 0.031012733 0.60500002 4278669859
-0.031279024 0.031063993 0.60600001 4278867236
-0.029310735 0.031063993 0.60600001 4279256867
-0.027387567 0.031115256 0.60700005 4280177453
-0.025457902 0.031166516 0.60800004 4278461968
-0.023560364 0.031269036 0.61000001 4278789652
-0.021649834 0.03137156 0.61200005 4278789138
-0.019694183 0.03142282 0.61300004 4278854677
-0.017760918 0.03152534 0.61500001 4278527763
-0.01581466 0.031627864 0.61700004 4280833081
-0.01385541 0.031730384 0.61900002 4278200847
-0.011883168 0.031832907 0.62100005 4280964151
-0.0098979333 0.031935427 0.62300003 4279189791
-0.0078997072 0.032037947 0.625 4278466835
-0.00588849 0.032140467 0.62700003 4279454500
-0.0038704232 0.032294251 0.63000005 4279059488
-0.0018328686 0.032448031 0.63300002 4278401558
0.00022382149 0.032550555 0.63500005 4278796316
0.0022971039 0.032704335 0.63800001 4279388967
0.0043830262 0.032806858 0.64000005 4279126562
0.0064819399 0.032909378 0.64200002 4279325992
0.008593847 0.033011902 0.64400005 4279325992
-0.048265994 0.032542359 0.597 4280306741
-0.046404541 0.032596871 0.59800005 4279649322
-0.044536591 0.03265138 0.59900004 4279716137
-0.042662136 0.032705892 0.60000002 4279849518
-0.040849052 0.032814912 0.60200006 4279522603
-0.038958363 0.032869421 0.60300004 4279523373
-0.037061173 0.032923929 0.60400003 4279260713
-0.035157491 0.032978438 0.60500002 4279261226
-0.033192452 0.032978438 0.60500002 4279129638
-0.031279024 0.033032946 0.60600001 4279195431
-0.029310735 0.033032946 0.60600001 4278272023
-0.027387567 0.033087462 0.60700005 4279192101
-0.025499774 0.033196479 0.60900003 4279849772
-0.023560364 0.033250988 0.61000001 4280046383
-0.021649834 0.033360008 0.61200005 4280111408
-0.019694183 0.033414517 0.61300004 4280900924
-0.017760918 0.033523537 0.61500001 4280900409
-0.01581466 0.033632558 0.61700004 4279321377
-0.01385541 0.033741575 0.61900002 4278201612
-0.011883168 0.033850599 0.62100005 4278199299
-0.0098979333 0.033959616 0.62300003 4278199301
-0.0078997072 0.034068633 0.625 4278198530
-0.0058978815 0.034232166 0.62800002 4278199300
-0.0038765667 0.034395695 0.63100004 4278200844
-0.001835764 0.034559224 0.634 4278927904
0.00022417397 0.034668244 0.63600004 4279783211
0.0023007046 0.034831773 0.63900006 4279191588
0.0043898746 0.034940794 0.64100003 4279719469
0.0064920364 0.035049811 0.64300001 4279260199
0.008593847 0.035104323 0.64400005 4278864673
-0.046404541 0.034539834 0.59800005 4279581996
-0.044536591 0.034597594 0.59900004 4279714863
-0.042662136 0.034655351 0.60000002 4280373815
-0.040849052 0.034770872 0.60200006 4280178998
-0.038958363 0.034828629 0.60300004 4279850803
-0.037061173 0.034886386 0.60400003 4279588144
-0.03509938 0.034886386 0.60400003 4279457326
-0.033192452 0.034944147 0.60500002 4279260715
-0.031279024 0.035001904 0.60600001 4279260715
-0.029310735 0.035001904 0.60600001 4279523887
-0.027387567 0.035059664 0.60700005 4279326254
-0.025499774 0.035175182 0.60900003 4279457580
-0.023560364 0.035232939 0.61000001 4279325994
-0.021649834 0.03534846 0.61200005 4279391787
-0.01972631 0.035463978 0.61400002 4279391787
-0.017760918 0.035521735 0.61500001 4279522603
-0.01581466 0.035637252 0.61700004 4279522090
-0.01385541 0.03575277 0.61900002 4279587111
-0.011883168 0.035868291 0.62100005 4279718697
-0.0098979333 0.035983805 0.62300003 4279718699
-0.0079123471 0.036157083 0.62600005 4279718699
-0.0059072729 0.036330357 0.62900001 4279587113
-0.0038765667 0.036445878 0.63100004 4279718699
-0.001835764 0.036619153 0.634 4279718445
0.00022452643 0.036792431 0.63700002 4279981619
0.0023043051 0.036965709 0.64000005 4279521838
0.0043967227 0.037081227 0.64200002 4279457328
0.0064920364 0.037138984 0.64300001 4279326256
-0.040849052 0.036726829 0.60200006 4285832329
-0.037061173 0.036848843 0.60400003 4282477908
-0.03509938 0.036848843 0.60400003 4281292864
-0.033192452 0.036909852 0.60500002 4280307254
-0.03122741 0.036909852 0.60500002 4280110645
-0.029310735 0.036970858 0.60600001 4279256879
-0.027387567 0.03703187 0.60700005 4279849270
-0.025499774 0.037153885 0.60900003 4280244541
-0.023560364 0.03721489 0.61000001 4279783990
-0.021649834 0.037336908 0.61200005 4279587379
-0.01972631 0.037458923 0.61400002 4279850551
-0.017760918 0.037519932 0.61500001 4279522097
-0.01581466 0.03764195 0.61700004 4279587890
-0.01385541 0.037763964 0.61900002 4279522097
-0.011883168 0.037885983 0.62100005 4280048695
-0.0098979333 0.038007997 0.62300003 4279390765
-0.0079123471 0.03819102 0.62600005 4279522351
-0.0059072729 0.038374044 0.62900001 4279588144
-0.0038827101 0.038557068 0.63200003 4279324972
-0.0018386596 0.038740095 0.63500005 4279522097
0.00022452643 0.038862109 0.63700002 4279653170
0.0023043051 0.039045133 0.64000005 4279718195
0.0043967227 0.039167147 0.64200002 4278797093
0.0064920364 0.039228156 0.64300001 4279846703
-0.017760918 0.039518133 0.61500001 4285765761
-0.01581466 0.039646648 0.61700004 4285239417
-0.01385541 0.039775159 0.61900002 4284779379
-0.011883168 0.039903678 0.62100005 4284910965
-0.0098979333 0.040032189 0.62300003 4285371516
-0.0079123471 0.040224962 0.62600005 4285700481
-0.0059072729 0.040417731 0.62900001 4286226825
-0.0038827101 0.040610503 0.63200003 4286555790
-0.0018386596 0.040803276 0.63500005 4286556306
0.00022487891 0.040996045 0.63800001 4286819224
0.0023043051 0.04112456 0.64000005 4287213468
0.0043967227 0.041253075 0.64200002 4287279002
-0.0079123471 0.0422589 0.62600005 4287146646
-0.0038827101 0.042663936 0.63200003 4287146392
-0.02136785 0.028037086 0.61354703 4294967295
-0.02136785 0.028037086 0.61354703 4294901760
-0.02136785 0.028037086 0.61404705 4294901760
-0.02136785 0.028037086 0.61454701 4294901760
-0.02136785 0.028037086 0.61504704 4294901760
-0.02136785 0.028037086 0.615547 4294901760
-0.02136785 0.028037086 0.61604702 4294901760
-0.02136785 0.028037086 0.61654705 4294901760
-0.02136785 0.028037086 0.61704701 4294901760
-0.02136785 0.028037086 0.61754704 4294901760
-0.02136785 0.028037086 0.618047 4294901760
-0.02136785 0.028037086 0.61854702 4294901760
-0.02136785 0.028037086 0.61904705 4294901760
-0.02136785 0.028037086 0.61954701 4294901760
-0.02136785 0.028037086 0.62004703 4294901760
-0.02136785 0.028037086 0.62054706 4294901760
-0.02136785 0.028037086 0.62104702 4294901760
-0.02136785 0.028037086 0.62154704 4294901760
-0.02136785 0.028037086 0.62204701 4294901760
-0.02136785 0.028037086 0.62254703 4294901760
-0.02136785 0.028037086 0.62304705 4294901760
-0.02136785 0.028037086 0.62354702 4294901760
-0.02136785 0.028037086 0.62404704 4294901760
-0.02136785 0.028037086 0.624547 4294901760
-0.02136785 0.028037086 0.62504703 4294901760
-0.02136785 0.028037086 0.62554705 4294901760
-0.02136785 0.028037086 0.62604702 4294901760
-0.02136785 0.028037086 0.62654704 4294901760
-0.02136785 0.028037086 0.627047 4294901760
-0.02136785 0.028037086 0.62754703 4294901760
-0.02136785 0.028037086 0.62804705 4294901760
-0.02136785 0.028037086 0.62854701 4294901760
-0.02136785 0.028037086 0.62904704 4294901760
-0.02136785 0.028037086 0.629547 4294901760
-0.02136785 0.028037086 0.63004702 4294901760
-0.02136785 0.028037086 0.63054705 4294901760
-0.02136785 0.028037086 0.63104701 4294901760
-0.02136785 0.028037086 0.63154703 4294901760
-0.02136785 0.028037086 0.63204706 4294901760
-0.02136785 0.028037086 0.63254702 4294901760
-0.02136785 0.028037086 0.63304704 4294901760
-0.02136785 0.028037086 0.63354701 4294901760
-0.02136785 0.028037086 0.63404703 4294901760
-0.02136785 0.028037086 0.63454705 4294901760
-0.02136785 0.028037086 0.63504702 4294901760
-0.02136785 0.028037086 0.63554704 4294901760
-0.02136785 0.028037086 0.63604701 4294901760
-0.02136785 0.028037086 0.63654703 4294901760
-0.02136785 0.028037086 0.63704705 4294901760
-0.02136785 0.028037086 0.63754702 4294901760
-0.02136785 0.028037086 0.63804704 4294901760
-0.02136785 0.028037086 0.63854706 4294901760
-0.02136785 0.028037086 0.63904703 4294901760
-0.02136785 0.028037086 0.63954705 4294901760
-0.02136785 0.028037086 0.64004701 4294901760
-0.02136785 0.028037086 0.64054704 4294901760
-0.02136785 0.028037086 0.64104706 4294901760
-0.02136785 0.028037086 0.64154702 4294901760
-0.02136785 0.028037086 0.64204705 4294901760
-0.02136785 0.028037086 0.64254701 4294901760
-0.02136785 0.028037086 0.64304703 4294901760
-0.02136785 0.028037086 0.64354706 4294901760
-0.02136785 0.028037086 0.64404702 4294901760
-0.02136785 0.028037086 0.64454705 4294901760
-0.02136785 0.028037086 0.64504701 4294901760
-0.02136785 0.028037086 0.64554703 4294901760
-0.02136785 0.028037086 0.64604706 4294901760
-0.02136785 0.028037086 0.64654702 4294901760
-0.02136785 0.028037086 0.64704704 4294901760
-0.02136785 0.028037086 0.64754701 4294901760
-0.02136785 0.028037086 0.64804703 4294901760
-0.02136785 0.028037086 0.64854705 4294901760
-0.02136785 0.028037086 0.64904702 4294901760
-0.02136785 0.028037086 0.64954704 4294901760
-0.02136785 0.028037086 0.65004706 4294901760
-0.02136785 0.028037086 0.65054703 4294901760
-0.02136785 0.028037086 0.65104705 4294901760
-0.02136785 0.028037086 0.65154701 4294901760
-0.02136785 0.028037086 0.65204704 4294901760
-0.02136785 0.028037086 0.65254706 4294901760
-0.02136785 0.028037086 0.65304703 4294901760
-0.02136785 0.028037086 0.65354705 4294901760
-0.02136785 0.028037086 0.65404701 4294901760
-0.02136785 0.028037086 0.65454704 4294901760
-0.02136785 0.028037086 0.65504706 4294901760
-0.02136785 0.028037086 0.65554702 4294901760
-0.02136785 0.028037086 0.65604705 4294901760
-0.02136785 0.028037086 0.65654707 4294901760
-0.02136785 0.028037086 0.65704703 4294901760
-0.02136785 0.028037086 0.65754706 4294901760
-0.02136785 0.028037086 0.65804702 4294901760
-0.02136785 0.028037086 0.65854704 4294901760
-0.02136785 0.028037086 0.65904707 4294901760
-0.02136785 0.028037086 0.65954703 4294901760
-0.02136785 0.028037086 0.66004705 4294901760
-0.02136785 0.028037086 0.66054702 4294901760
-0.02136785 0.028037086 0.66104704 4294901760
-0.02136785 0.028037086 0.66154706 4294901760
-0.02136785 0.028037086 0.66204703 4294901760
-0.02136785 0.028037086 0.66254705 4294901760
-0.02136785 0.028037086 0.66304702 4294901760
-0.02136785 0.028037086 0.66354704 4294901760
-0.02136785 0.028037086 0.61354703 4278255360
-0.021594984 0.028048126 0.61399233 4278255360
-0.021822119 0.028059168 0.61443764 4278255360
-0.022049256 0.028070208 0.61488289 4278255360
-0.02227639 0.028081248 0.61532819 4278255360
-0.022503525 0.028092289 0.6157735 4278255360
-0.02273066 0.028103329 0.61621881 4278255360
-0.022957794 0.028114371 0.61666411 4278255360
-0.023184931 0.028125411 0.61710936 4278255360
-0.023412066 0.028136451 0.61755466 4278255360
-0.0236392 0.028147493 0.61799997 4278255360
-0.023866335 0.028158532 0.61844528 4278255360
-0.024093471 0.028169572 0.61889058 4278255360
-0.024320606 0.028180614 0.61933589 4278255360
-0.024547741 0.028191654 0.61978114 4278255360
-0.024774875 0.028202696 0.62022644 4278255360
-0.02500201 0.028213736 0.62067175 4278255360
-0.025229147 0.028224776 0.62111706 4278255360
-0.025456281 0.028235817 0.62156236 4278255360
-0.025683416 0.028246857 0.62200761 4278255360
-0.025910551 0.028257897 0.62245291 4278255360
-0.026137685 0.028268939 0.62289822 4278255360
-0.026364822 0.028279979 0.62334353 4278255360
-0.026591957 0.028291021 0.62378883 4278255360
-0.026819091 0.02830206 0.62423408 4278255360
-0.027046226 0.0283131 0.62467939 4278255360
-0.027273361 0.028324142 0.62512469 4278255360
-0.027500497 0.028335182 0.62557 4278255360
-0.027727632 0.028346222 0.62601531 4278255360
-0.027954767 0.028357264 0.62646055 4278255360
-0.028181903 0.028368304 0.62690586 4278255360
-0.028409038 0.028379343 0.62735116 4278255360
-0.028636172 0.028390385 0.62779647 4278255360
-0.028863307 0.028401425 0.62824178 4278255360
-0.029090442 0.028412467 0.62868708 4278255360
-0.029317576 0.028423507 0.62913233 4278255360
-0.029544711 0.028434547 0.62957764 4278255360
-0.029771848 0.028445588 0.63002294 4278255360
-0.029998982 0.028456628 0.63046825 4278255360
-0.030226117 0.028467668 0.63091356 4278255360
-0.030453254 0.02847871 0.6313588 4278255360
-0.030680388 0.02848975 0.63180411 4278255360
-0.030907523 0.028500792 0.63224941 4278255360
-0.031134658 0.028511832 0.63269472 4278255360
-0.031361792 0.028522871 0.63314003 4278255360
-0.031588927 0.028533913 0.63358527 4278255360
-0.031816065 0.028544953 0.63403058 4278255360
-0.032043196 0.028555993 0.63447589 4278255360
-0.032270335 0.028567035 0.63492119 4278255360
-0.032497469 0.028578075 0.6353665 4278255360
-0.032724604 0.028589115 0.63581181 4278255360
-0.032951739 0.028600156 0.63625705 4278255360
-0.033178873 0.028611196 0.63670236 4278255360
-0.033406008 0.028622238 0.63714767 4278255360
-0.033633143 0.028633278 0.63759297 4278255360
-0.033860277 0.028644318 0.63803828 4278255360
-0.034087412 0.02865536 0.63848352 4278255360
-0.03431455 0.028666399 0.63892883 4278255360
-0.034541681 0.028677439 0.63937414 4278255360
-0.03476882 0.028688481 0.63981944 4278255360
-0.034995954 0.028699521 0.64026475 4278255360
-0.035223089 0.028710563 0.64071 4278255360
-0.035450224 0.028721603 0.6411553 4278255360
-0.035677359 0.028732643 0.64160061 4278255360
-0.035904493 0.028743684 0.64204592 4278255360
-0.036131628 0.028754724 0.64249122 4278255360
-0.036358766 0.028765764 0.64293647 4278255360
-0.036585901 0.028776806 0.64338177 4278255360
-0.036813036 0.028787846 0.64382708 4278255360
-0.037040167 0.028798888 0.64427239 4278255360
-0.037267305 0.028809927 0.64471769 4278255360
-0.03749444 0.028820967 0.64516294 4278255360
-0.037721574 0.028832009 0.64560825 4278255360
-0.037948713 0.028843049 0.64605355 4278255360
-0.038175844 0.028854089 0.64649886 4278255360
-0.038402982 0.028865131 0.64694417 4278255360
-0.038630113 0.028876171 0.64738947 4278255360
-0.038857251 0.02888721 0.64783472 4278255360
-0.039084382 0.028898252 0.64828002 4278255360
-0.039311521 0.028909292 0.64872533 4278255360
-0.039538655 0.028920334 0.64917064 4278255360
-0.03976579 0.028931374 0.64961594 4278255360
-0.039992925 0.028942414 0.65006119 4278255360
-0.040220059 0.028953455 0.6505065 4278255360
-0.040447194 0.028964495 0.6509518 4278255360
-0.040674329 0.028975535 0.65139711 4278255360
-0.040901467 0.028986577 0.65184242 4278255360
-0.041128598 0.028997617 0.65228772 4278255360
-0.041355737 0.029008659 0.65273297 4278255360
-0.041582871 0.029019699 0.65317827 4278255360
-0.041810006 0.029030738 0.65362358 4278255360
-0.042037141 0.02904178 0.65406889 4278255360
-0.042264275 0.02905282 0.65451419 4278255360
-0.042491414 0.02906386 0.65495944 4278255360
-0.042718545 0.029074902 0.65540475 4278255360
-0.042945683 0.029085942 0.65585005 4278255360
-0.043172814 0.029096983 0.65629536 4278255360
-0.043399952 0.029108023 0.65674067 4278255360
-0.043627087 0.029119063 0.65718591 4278255360
-0.043854222 0.029130105 0.65763122 4278255360
-0.044081356 0.029141145 0.65807652 4278255360
