# .PCD v0.7 - Point Cloud Data file format
VERSION 0.7
FIELDS x y z rgb
SIZE 4 4 4 4
TYPE F F F U
COUNT 1 1 1 1
WIDTH 1034
HEIGHT 1
VIEWPOINT 0 0 0 1 0 0 0
POINTS 1034
DATA ascii
-0.024328878 0.017612647 0.50300002 4286288255
-0.024377245 0.019285209 0.50400001 4286091648
-0.022695133 0.019246945 0.50300002 4281878841
-0.026065852 0.02096427 0.505 4286091394
-0.024377245 0.020922758 0.50400001 4286223234
-0.022695133 0.020881243 0.50300002 4280892718
-0.026065852 0.022605065 0.505 4286157441
-0.024377245 0.022560304 0.50400001 4286354048
-0.022695133 0.022515543 0.50300002 4280891946
-0.026014239 0.024197852 0.50400001 4286288773
-0.024377245 0.024197852 0.50400001 4286748808
-0.022695133 0.024149843 0.50300002 4281089327
-0.025962623 0.02578414 0.50300002 4285959808
-0.024328878 0.02578414 0.50300002 4286552199
-0.022650015 0.02573288 0.50200003 4281023534
-0.025911009 0.027363928 0.50200003 4286222980
-0.024232144 0.02730942 0.50100005 4286683785
-0.022604896 0.02730942 0.50100005 4280694051
-0.02575616 0.028821699 0.49900001 4286223234
-0.024135407 0.028821699 0.49900001 4287274637
-0.022469535 0.028763942 0.49800003 4281022503
-0.028532773 0.029954938 0.49100003 4285960062
-0.026992869 0.030015945 0.49200001 4286552197
-0.0255497 0.030198971 0.49500003 4286289025
-0.023990305 0.030259978 0.49600002 4286946185
-0.022334177 0.030198971 0.49500003 4281417776
-0.020726418 0.030198971 0.49500003 4282929469
-0.019080032 0.030137962 0.49400002 4282864443
-0.017440144 0.030076955 0.49300003 4283391828
-0.015806749 0.030015945 0.49200001 4283784789
-0.030004824 0.031421736 0.48900002 4286354566
-0.028474661 0.03148599 0.49000001 4282143044
-0.026883142 0.03148599 0.49000001 4282602314
-0.025394851 0.031614505 0.49200001 4282865484
-0.023796834 0.031614505 0.49200001 4282602566
-0.022198817 0.031614505 0.49200001 4282996810
-0.020600801 0.031614505 0.49200001 4282470980
-0.030004824 0.033010546 0.48900002 4286617740
-0.02841655 0.033010546 0.48900002 4282735183
-0.02682828 0.033010546 0.48900002 4282931279
-0.02529162 0.033078052 0.49000001 4282404933
-0.023700099 0.033078052 0.49000001 4282602312
-0.022063458 0.033010546 0.48900002 4282536257
-0.020475188 0.033010546 0.48900002 4283522373
-0.018848291 0.03294304 0.48800004 4283456844
-0.017263265 0.03294304 0.48800004 4282602061
-0.015646113 0.032875534 0.48700002 4285957504
-0.014035458 0.032808028 0.48600003 4283392080
-0.012456928 0.032808028 0.48600003 4281879611
-0.010856016 0.032740518 0.48500001 4281090610
-0.0092807347 0.032740518 0.48500001 4280959024
-0.0076895659 0.032673012 0.48400003 4281024304
-0.0061175339 0.032673012 0.48400003 4280958511
-0.004545501 0.032673012 0.48400003 4281813816
-0.0029796115 0.032740518 0.48500001 4281355827
-0.031528492 0.034528602 0.48800004 4286354566
-0.029943464 0.034528602 0.48800004 4286353798
-0.028358439 0.034528602 0.48800004 4282734670
-0.026773416 0.034528602 0.48800004 4282338626
-0.02518839 0.034528602 0.48800004 4282733384
-0.023554998 0.034457844 0.48700002 4282996547
-0.021973221 0.034457844 0.48700002 4284442188
-0.020349573 0.034387089 0.48600003 4285164355
-0.018771045 0.034387089 0.48600003 4282466853
-0.017157139 0.034316335 0.48500001 4282865474
-0.015581857 0.034316335 0.48500001 4282865738
-0.012380033 0.034174822 0.48300001 4280562981
-0.009223328 0.034104068 0.48200002 4280628522
-0.0076419036 0.034033313 0.48100004 4280497706
-0.0060796151 0.034033313 0.48100004 4281221683
-0.0045173266 0.034033313 0.48100004 4281685310
-0.0029550374 0.034033313 0.48100004 4279780899
-0.031528492 0.036114164 0.48800004 4286354566
-0.029943464 0.036114164 0.48800004 4286222210
-0.028300326 0.036040157 0.48700002 4282668877
-0.026718551 0.036040157 0.48700002 4283984219
-0.025085159 0.035966154 0.48600003 4283918426
-0.02350663 0.035966154 0.48600003 4282140207
-0.021882981 0.035892148 0.48500001 4283191603
-0.020307701 0.035892148 0.48500001 4284178491
-0.018693797 0.035818145 0.48400003 4283717174
-0.017121764 0.035818145 0.48400003 4282335787
-0.015517603 0.035744138 0.48300001 4282667328
-0.0076101287 0.035448123 0.47900003 4280891694
-0.0060416963 0.035374116 0.47800002 4280958257
-0.0044891518 0.035374116 0.47800002 4280304940
-0.0029304633 0.035300113 0.47700003 4279190043
-0.0013811664 0.035300113 0.47700003 4279060765
-0.029882105 0.03762247 0.48700002 4286222980
-0.028300326 0.03762247 0.48700002 4287011726
-0.026663689 0.037545215 0.48600003 4282669129
-0.025085159 0.037545215 0.48600003 4282207292
-0.023458261 0.037467964 0.48500001 4282599214
-0.021837862 0.037390709 0.48400003 4282664232
-0.020265831 0.037390709 0.48400003 4283980083
-0.018655173 0.037313454 0.48300001 4282993188
-0.017051013 0.037236203 0.48200002 4281479958
-0.015485475 0.037236203 0.48200002 4281021724
-0.01389106 0.037158951 0.48100004 4282801226
-0.012303138 0.037081696 0.48000002 4280235047
-0.0060164174 0.03677268 0.47600001 4281090610
-0.0044609774 0.036695428 0.47500002 4280174121
-0.0029120327 0.036618177 0.47400004 4279124250
-0.0013695842 0.036540922 0.47300002 4278993947
0.00016601563 0.036386412 0.47100002 4278862875
-0.029882105 0.039204784 0.48700002 4286091394
-0.028242216 0.03912428 0.48600003 4286880140
-0.026663689 0.03912428 0.48600003 4282470980
-0.025033543 0.039043777 0.48500001 4282931013
-0.023409896 0.038963273 0.48400003 4282927922
-0.021837862 0.038963273 0.48400003 4282401314
-0.020223958 0.03888277 0.48300001 4282532383
-0.01861655 0.03880227 0.48200002 4282532383
-0.017051013 0.03880227 0.48200002 4280558345
-0.015453348 0.038721766 0.48100004 4280888600
-0.01386218 0.038641263 0.48000002 4282865736
-0.012277507 0.038560763 0.47900003 4280497960
-0.0059911385 0.038158249 0.47400004 4280761132
-0.004442194 0.038077746 0.47300002 4280240426
-0.0028997457 0.037997242 0.47200003 4279190043
-0.0013608977 0.037836239 0.47000003 4279059738
0.0001649582 0.037675232 0.46800002 4278928152
0.0016778221 0.037514228 0.46600002 4278797080
0.0031571484 0.037111714 0.46100003 4278731287
0.0046342839 0.036950707 0.45900002 4278797080
0.0061117732 0.036870208 0.45800003 4278533908
-0.029882105 0.040787093 0.48700002 4286222980
-0.028242216 0.040703345 0.48600003 4286354566
-0.026608825 0.040619589 0.48500001 4282601798
-0.024981929 0.040535841 0.48400003 4283654740
-0.023409896 0.040535841 0.48400003 4282928949
-0.021792741 0.040452085 0.48300001 4284441924
-0.020223958 0.040452085 0.48300001 4282598691
-0.01861655 0.040368337 0.48200002 4282335519
-0.017051013 0.040368337 0.48200002 4282072865
-0.015453348 0.040284585 0.48100004 4282534195
-0.01386218 0.040200833 0.48000002 4283852631
-0.012277507 0.040117081 0.47900003 4281089073
-0.0059784986 0.039614569 0.47300002 4280892716
-0.0044328026 0.039530821 0.47200003 4280438059
-0.0028874585 0.039363317 0.47000003 4279124761
-0.0013551066 0.039195813 0.46800002 4278928152
0.00016425326 0.039028309 0.46600002 4278993945
0.0016706211 0.038860805 0.46400002 4278928152
0.0031502999 0.038525797 0.46000001 4278928152
0.0046241879 0.038358297 0.45800003 4278862359
0.0060850838 0.038190793 0.45600003 4278928152
0.0075329873 0.038023289 0.45400003 4279321629
0.0089877397 0.037939534 0.45300001 4278727441
0.010459085 0.037939534 0.45300001 4278333453
-0.028184103 0.042195406 0.48500001 4286157187
-0.026608825 0.042195406 0.48500001 4282207556
-0.024981929 0.042108405 0.48400003 4283325521
-0.023409896 0.042108405 0.48400003 4284311385
-0.021837862 0.042108405 0.48400003 4279968532
-0.020223958 0.042021401 0.48300001 4279374600
-0.01861655 0.041934405 0.48200002 4279111426
-0.017051013 0.041934405 0.48200002 4279835406
-0.015453348 0.041847404 0.48100004 4283192904
-0.01386218 0.0417604 0.48000002 4284181596
-0.012277507 0.0416734 0.47900003 4280891948
-0.0075306911 0.041238397 0.47400004 4280562981
-0.0059658596 0.041064397 0.47200003 4280762413
-0.0044234111 0.040977392 0.47100002 4279912485
-0.0028813148 0.040803391 0.46900001 4279190554
-0.001352211 0.040629391 0.46700001 4278994459
0.00016354831 0.040368386 0.46400002 4278928666
0.0016634201 0.040194385 0.46200001 4278862873
0.0031434514 0.039933383 0.45900002 4278928152
0.004614091 0.039759383 0.45700002 4278796566
0.0060850838 0.039672382 0.45600003 4278796566
0.0075329873 0.039498381 0.45400003 4278730003
0.0089877397 0.039411377 0.45300001 4278727441
0.010435997 0.039324377 0.45200002 4279386141
0.011877757 0.03923738 0.45100003 4278861080
0.013313021 0.039150376 0.45000002 4278199554
0.014774622 0.039150376 0.45000002 4278199815
0.016200142 0.039063375 0.44900003 4278595601
0.018946541 0.038715374 0.44500002 4278926101
0.020391902 0.038715374 0.44500002 4279123478
0.021788191 0.038628373 0.44400004 4278992662
0.023230303 0.038628373 0.44400004 4278861076
0.024616847 0.038541369 0.44300002 4278795796
0.026055712 0.038541369 0.44300002 4278927382
0.027432514 0.038454369 0.44200003 4278599187
0.028868129 0.038454369 0.44200003 4278599187
-0.028184103 0.043771222 0.48500001 4286222980
-0.026553961 0.043680973 0.48400003 4286023548
-0.024981929 0.043680973 0.48400003 4283325521
-0.023409896 0.043680973 0.48400003 4283457361
-0.021837862 0.043680973 0.48400003 4285233770
-0.020265831 0.043680973 0.48400003 4283390283
-0.018655173 0.043590721 0.48300001 4283061318
-0.017051013 0.043500472 0.48200002 4282930504
-0.015485475 0.043500472 0.48200002 4283062603
-0.01389106 0.043410223 0.48100004 4282667843
-0.012277507 0.043229725 0.47900003 4281088811
-0.010699331 0.043139473 0.47800002 4281482288
-0.0075306911 0.042778477 0.47400004 4280563753
-0.0059658596 0.042597976 0.47200003 4280762413
-0.0044140196 0.042417474 0.47000003 4279846438
-0.0028751716 0.042236976 0.46800002 4279124765
-0.00134642 0.041966226 0.46500003 4278928670
0.00016319583 0.041785724 0.46300003 4278862877
0.0016598196 0.041605227 0.46100003 4278862877
0.0031366032 0.041334476 0.45800003 4278993949
0.004603995 0.041153975 0.45600003 4278928154
0.0060717394 0.041063726 0.45500001 4278664982
0.0075163944 0.040883224 0.45300001 4279123482
0.0089877397 0.040883224 0.45300001 4278196480
0.010435997 0.040792976 0.45200002 4278727441
0.011877757 0.040702727 0.45100003 4278728211
0.013313021 0.040612474 0.45000002 4278524681
0.01474179 0.040522225 0.44900003 4278524170
0.016164061 0.040431976 0.44800001 4278654986
0.017579837 0.040341727 0.44700003 4278720779
0.018989118 0.040251475 0.44600001 4278589963
0.020391902 0.040161226 0.44500002 4278458888
0.021788191 0.040070977 0.44400004 4278196997
0.023230303 0.040070977 0.44400004 4278197511
0.024616847 0.039980724 0.44300002 4278198020
0.026055712 0.039980724 0.44300002 4278793750
0.027432514 0.039890476 0.44200003 4279189275
0.028802816 0.039800227 0.44100001 4279124252
0.030166626 0.039709978 0.44000003 4278795800
0.031523935 0.039619725 0.43900001 4278664214
0.032799695 0.039439224 0.43700001 4278401808
0.034140769 0.039348975 0.43600002 4278664980
0.035393793 0.039168477 0.43400002 4278468115
0.036718626 0.039078228 0.43300003 4278533910
0.037948914 0.038897727 0.43100002 4278402324
0.039257504 0.038807474 0.43000001 4278533910
0.040465057 0.038626976 0.42800003 4278731289
0.041757409 0.038536727 0.42700002 4278731289
0.043043267 0.038446479 0.42600003 4278797084
0.044322625 0.038356226 0.42500001 4278862877
0.045595489 0.038265977 0.42400002 4279256867
0.046861857 0.038175724 0.42300001 4278993695
0.048121728 0.038085476 0.42200002 4279453476
0.050742518 0.037995227 0.42100003 4283663463
0.052109923 0.037995227 0.42100003 4286689171
-0.028184103 0.045347035 0.48500001 4286353796
-0.026553961 0.045253538 0.48400003 4286222980
-0.024981929 0.045253538 0.48400003 4286157187
-0.023409896 0.045253538 0.48400003 4282471496
-0.021882981 0.045347035 0.48500001 4282536773
-0.020307701 0.045347035 0.48500001 4282338880
-0.018693797 0.045253538 0.48400003 4282602050
-0.015485475 0.045066539 0.48200002 4281220397
-0.01389106 0.044973042 0.48100004 4280825637
-0.012303138 0.044879541 0.48000002 4281747253
-0.0090893796 0.044412047 0.47500002 4280825387
-0.0075148032 0.044225048 0.47300002 4280235047
-0.0059532197 0.04403805 0.47100002 4281091378
-0.0044046277 0.043851051 0.46900001 4279780645
-0.0028690279 0.043664053 0.46700001 4279124765
-0.00134642 0.043477058 0.46500003 4279059740
0.00016284335 0.043196559 0.46200001 4278993947
0.0016562191 0.043009561 0.46000001 4278993949
0.0031366032 0.042822566 0.45800003 4278993949
0.004603995 0.042635567 0.45600003 4278796570
0.0060583949 0.042448569 0.45400003 4278862361
0.0075163944 0.042355068 0.45300001 4279058457
0.0089678997 0.042261571 0.45200002 4278196736
0.010412908 0.04216807 0.45100003 4279122199
0.011877757 0.04216807 0.45100003 4278727441
0.013313021 0.042074572 0.45000002 4278654986
0.01474179 0.041981071 0.44900003 4278851597
0.016164061 0.041887574 0.44800001 4278917390
0.017579837 0.041794073 0.44700003 4278851597
0.018989118 0.041700576 0.44600001 4278785804
0.020391902 0.041607074 0.44500002 4278720011
0.021788191 0.041513577 0.44400004 4278654732
0.023230303 0.041513577 0.44400004 4278654734
0.024616847 0.041420076 0.44300002 4278720527
0.026055712 0.041420076 0.44300002 4278459660
0.027432514 0.041326579 0.44200003 4278858259
0.028802816 0.041233078 0.44100001 4278595087
0.030166626 0.04113958 0.44000003 4278196992
0.031523935 0.041046079 0.43900001 4278196480
0.032799695 0.040859081 0.43700001 4278196736
0.034140769 0.040765584 0.43600002 4278594576
0.035475347 0.040672086 0.43500003 4278727957
0.036718626 0.040485088 0.43300003 4279451680
0.038036961 0.040391587 0.43200001 4278795287
0.039257504 0.040204588 0.43000001 4278993179
0.040559601 0.040111091 0.42900002 4278664984
0.041855201 0.040017594 0.42800003 4278665496
0.043144308 0.039924093 0.42700002 4278731289
0.044426914 0.039830595 0.42600003 4278664982
0.045703024 0.039737094 0.42500001 4278928154
0.046972644 0.039643597 0.42400002 4278796568
0.048235759 0.039550096 0.42300001 4279059740
0.049492389 0.039456598 0.42200002 4278796568
0.050863042 0.039456598 0.42200002 4278927132
0.052357472 0.039550096 0.42300001 4279058720
0.053985428 0.039737094 0.42500001 4279518758
0.055496104 0.039830595 0.42600003 4279846951
0.057146799 0.040017594 0.42800003 4282939994
0.058673706 0.040111091 0.42900002 4285833862
0.060347132 0.040298089 0.43100002 4282676052
0.061747022 0.040298089 0.43100002 4279583781
0.063293427 0.040391587 0.43200001 4279979307
-0.026553961 0.046826106 0.48400003 4286223234
-0.024981929 0.046826106 0.48400003 4286091648
-0.023458261 0.046922851 0.48500001 4286353535
-0.021928102 0.047019601 0.48600003 4282141751
-0.020349573 0.047019601 0.48600003 4284443993
-0.018732419 0.046922851 0.48500001 4284115539
-0.017157139 0.046922851 0.48500001 4280759331
-0.015549731 0.046826106 0.48400003 4281614640
-0.013919939 0.046632607 0.48200002 4280562465
-0.012303138 0.046439111 0.48000002 4280694051
-0.010699331 0.046245612 0.47800002 4280694053
-0.0091085145 0.046052117 0.47600001 4281286452
-0.0075148032 0.045761872 0.47300002 4280827438
-0.0059532197 0.045568377 0.47100002 4280762926
-0.0044046277 0.045374881 0.46900001 4279320861
-0.0028628844 0.045084637 0.46600002 4278993949
-0.0013435245 0.044891141 0.46400002 4278862877
0.00016284335 0.044697642 0.46200001 4278862875
0.0016526188 0.044407401 0.45900002 4278731289
0.0031297544 0.044213902 0.45700002 4278797082
0.0045938981 0.044020407 0.45500001 4278862875
0.0060583949 0.043923661 0.45400003 4278533910
0.0075163944 0.043826912 0.45300001 4279255066
0.0089678997 0.043730162 0.45200002 4278197506
0.010412908 0.043633416 0.45100003 4279451680
0.01185142 0.043536667 0.45000002 4278464015
0.013313021 0.043536667 0.45000002 4278524170
0.01474179 0.043439921 0.44900003 4279445018
0.016164061 0.043343168 0.44800001 4278852881
0.017579837 0.043246422 0.44700003 4279905569
0.018989118 0.043149672 0.44600001 4278721549
0.020391902 0.043052927 0.44500002 4280103200
0.021788191 0.042956181 0.44400004 4279379479
0.023230303 0.042956181 0.44400004 4279576604
0.024616847 0.042859428 0.44300002 4278655504
0.026055712 0.042859428 0.44300002 4279051027
0.027432514 0.042762682 0.44200003 4278859543
0.028802816 0.042665932 0.44100001 4278925336
0.030166626 0.042569187 0.44000003 4279385117
0.031523935 0.042472437 0.43900001 4279318810
0.032874752 0.042375688 0.43800002 4279253017
0.034219075 0.042278938 0.43700001 4278989845
0.035475347 0.042085446 0.43500003 4279713570
0.036803428 0.041988697 0.43400002 4279516191
0.038036961 0.041795198 0.43200001 4278792468
0.0393488 0.041698452 0.43100002 4278199046
0.040654145 0.041601703 0.43000001 4278195968
0.041952994 0.041504957 0.42900002 4278196992
0.043245349 0.041408207 0.42800003 4278198789
0.044531204 0.041311458 0.42700002 4278595087
0.045810562 0.041214712 0.42600003 4279319324
0.047083426 0.041117962 0.42500001 4279320348
0.048463825 0.041117962 0.42500001 4279386652
0.049726948 0.041021217 0.42400002 4279255836
0.051104102 0.041021217 0.42400002 4278993177
0.052481253 0.041021217 0.42400002 4278927384
0.054112453 0.041214712 0.42600003 4278796570
0.055626374 0.041311458 0.42700002 4278862363
0.057146799 0.041408207 0.42800003 4278928156
0.058810472 0.041601703 0.43000001 4278993949
0.060347132 0.041698452 0.43100002 4279453217
0.061747022 0.041698452 0.43100002 4279256351
0.063293427 0.041795198 0.43200001 4279257635
0.064696558 0.041795198 0.43200001 4279126049
0.066099696 0.041795198 0.43200001 4279648291
-0.023458261 0.048498664 0.48500001 4282140468
-0.022063458 0.048898656 0.48900002 4282139437
-0.015581857 0.048498664 0.48500001 4282468400
-0.013977698 0.04839867 0.48400003 4282535994
-0.012354402 0.048198674 0.48200002 4282667580
-0.010721715 0.047898684 0.47900003 4282536507
-0.0091085145 0.04759869 0.47600001 4280892198
-0.0075148032 0.0472987 0.47300002 4280497186
-0.0059532197 0.047098704 0.47100002 4280892714
-0.0043952363 0.046798714 0.46800002 4279453217
-0.0028628844 0.046598718 0.46600002 4278993949
-0.001340629 0.046298727 0.46300003 4278862877
0.00016249088 0.046098731 0.46100003 4278731291
0.0016526188 0.045898739 0.45900002 4278731802
0.0031297544 0.045698743 0.45700002 4278731802
0.0045938981 0.045498747 0.45500001 4278665496
0.0060583949 0.045398753 0.45400003 4278665496
0.0075163944 0.045298751 0.45300001 4278595603
0.0089678997 0.045198757 0.45200002 4278197765
0.010412908 0.045098759 0.45100003 4278596371
0.01185142 0.044998761 0.45000002 4278199303
0.013283437 0.044898767 0.44900003 4278524683
0.01474179 0.044898767 0.44900003 4278195205
0.016164061 0.044798765 0.44800001 4279577369
0.017579837 0.044698771 0.44700003 4279577369
0.018989118 0.044598773 0.44600001 4278194691
0.020391902 0.044498775 0.44500002 4278194689
0.021788191 0.044398781 0.44400004 4278327304
0.023230303 0.044398781 0.44400004 4279709727
0.024616847 0.044298783 0.44300002 4278328074
0.025996897 0.044198785 0.44200003 4278853646
0.027432514 0.044198785 0.44200003 4278991642
0.028802816 0.044098787 0.44100001 4278200328
0.030166626 0.043998789 0.44000003 4278460169
0.031523935 0.043898791 0.43900001 4278195712
0.032874752 0.043798797 0.43800002 4279385119
0.034219075 0.043698795 0.43700001 4278198789
0.035556898 0.043598801 0.43600002 4278990359
0.036888227 0.043498803 0.43500003 4279385887
0.038125012 0.043298811 0.43300003 4279385887
0.039440095 0.043198809 0.43200001 4279254301
0.040748693 0.043098815 0.43100002 4279057176
0.042050786 0.042998817 0.43000001 4279386141
0.043346386 0.042898819 0.42900002 4279385117
0.044635493 0.042798825 0.42800003 4279648289
0.045918096 0.042698827 0.42700002 4279318812
0.047304995 0.042698827 0.42700002 4278923541
0.04857786 0.042598829 0.42600003 4278198019
0.049961511 0.042598829 0.42600003 4278196224
0.051345158 0.042598829 0.42600003 4278196224
0.052728806 0.042598829 0.42600003 4278199047
0.054239478 0.042698827 0.42700002 4278859797
0.055756651 0.042798825 0.42800003 4279124252
0.057280317 0.042898819 0.42900002 4278795798
0.058810472 0.042998817 0.43000001 4279058970
0.060347132 0.043098815 0.43100002 4278993179
0.061747022 0.043098815 0.43100002 4278664984
0.063293427 0.043198809 0.43200001 4278533910
0.064546801 0.043098815 0.43100002 4278731289
0.065946691 0.043098815 0.43100002 4279058970
-0.0075306911 0.048938774 0.47400004 4281284898
-0.0059532197 0.048629031 0.47100002 4281155622
-0.0044046277 0.048422538 0.46900001 4279386652
-0.0028628844 0.048112798 0.46600002 4278993177
-0.001340629 0.047803063 0.46300003 4278993947
0.00016249088 0.047596566 0.46100003 4278928154
0.0016526188 0.047390074 0.45900002 4278928154
0.0031297544 0.047183581 0.45700002 4278797082
0.0045938981 0.046977088 0.45500001 4278533910
0.0060583949 0.046873845 0.45400003 4278731289
0.0075163944 0.046770595 0.45300001 4279582498
0.0089678997 0.046667352 0.45200002 4278395660
0.010412908 0.046564106 0.45100003 4278991131
0.01185142 0.046460856 0.45000002 4278199817
0.013283437 0.046357613 0.44900003 4278786318
0.014708957 0.046254363 0.44800001 4278786318
0.016127981 0.04615112 0.44700003 4278720525
0.017579837 0.04615112 0.44700003 4278720525
0.018989118 0.04604787 0.44600001 4278654986
0.020391902 0.045944627 0.44500002 4278720779
0.021788191 0.045841381 0.44400004 4278721549
0.023230303 0.045841381 0.44400004 4279314967
0.024616847 0.045738135 0.44300002 4278853646
0.025996897 0.045634888 0.44200003 4278854929
0.027432514 0.045634888 0.44200003 4279056922
0.028802816 0.045531642 0.44100001 4278263558
0.030166626 0.045428395 0.44000003 4278786572
0.031595748 0.045428395 0.44000003 4278392330
0.032949809 0.045325149 0.43900001 4278198025
0.034297381 0.045221902 0.43800002 4279450398
0.035556898 0.04501541 0.43600002 4278198275
0.036888227 0.044912163 0.43500003 4278266124
0.038213059 0.044808917 0.43400002 4279253019
0.039531395 0.04470567 0.43300003 4278200331
0.040843233 0.044602424 0.43200001 4279123482
0.042148579 0.044499177 0.43100002 4278926103
0.043447427 0.044395931 0.43000001 4279124252
0.044739779 0.044292685 0.42900002 4279058459
0.046133172 0.044292685 0.42900002 4278992666
0.047415782 0.044189438 0.42800003 4279321631
0.048691891 0.044086192 0.42700002 4279386654
0.050078791 0.044086192 0.42700002 4279386654
0.051465686 0.044086192 0.42700002 4279451934
0.052852582 0.044086192 0.42700002 4279320094
0.054366503 0.044189438 0.42800003 4278397197
0.055886921 0.044292685 0.42900002 4279779361
0.057413835 0.044395931 0.43000001 4279190041
0.058810472 0.044395931 0.43000001 4279058968
0.060347132 0.044499177 0.43100002 4278795798
0.061747022 0.044499177 0.43100002 4278927384
0.063146912 0.044499177 0.43100002 4278599189
0.064546801 0.044499177 0.43100002 4278533396
0.065946691 0.044499177 0.43100002 4278861078
0.067190319 0.044395931 0.43000001 4278399246
-0.02575616 0.053141229 0.49900001 4285892732
-0.02408704 0.053034734 0.49800003 4281679663
-0.022289056 0.052608754 0.49400002 4282730802
-0.020642674 0.05250226 0.49300003 4282992684
-0.0059658596 0.050265856 0.47200003 4281023522
-0.0044046277 0.049946368 0.46900001 4279386650
-0.0028628844 0.049626879 0.46600002 4278993175
-0.001340629 0.049307395 0.46300003 4278928152
0.00016249088 0.049094405 0.46100003 4279322912
0.0016490183 0.04877492 0.45800003 4278993947
0.003122906 0.048561927 0.45600003 4278928154
0.0045938981 0.048455428 0.45500001 4278664982
0.0060583949 0.048348937 0.45400003 4278664982
0.0075163944 0.048242439 0.45300001 4278201097
0.0089678997 0.048135944 0.45200002 4278726162
0.010412908 0.048029449 0.45100003 4278991642
0.01185142 0.047922954 0.45000002 4279189021
0.013283437 0.047816459 0.44900003 4279249687
0.014708957 0.04770996 0.44800001 4278328072
0.016127981 0.047603469 0.44700003 4278589963
0.017540509 0.047496971 0.44600001 4278589709
0.018989118 0.047496971 0.44600001 4278785804
0.020391902 0.047390476 0.44500002 4278917390
0.021788191 0.047283981 0.44400004 4278917390
0.023177981 0.047177486 0.44300002 4278851597
0.024616847 0.047177486 0.44300002 4278786572
0.025996897 0.047070991 0.44200003 4279578650
0.027432514 0.047070991 0.44200003 4278859545
0.028802816 0.046964493 0.44100001 4278197767
0.030166626 0.046858002 0.44000003 4278983435
0.031595748 0.046858002 0.44000003 4278588939
0.032949809 0.046751503 0.43900001 4278791703
0.034297381 0.046645008 0.43800002 4279252252
0.035638448 0.046538509 0.43700001 4278200588
0.036973029 0.046432018 0.43600002 4278199303
0.038301107 0.046325523 0.43500003 4279187738
0.039622691 0.046219025 0.43400002 4278200586
0.040937781 0.04611253 0.43300003 4279187226
0.042246372 0.046006035 0.43200001 4278660882
0.043548469 0.04589954 0.43100002 4279121433
0.044844069 0.045793042 0.43000001 4278266638
0.046240706 0.045793042 0.43000001 4278197504
0.047526564 0.04568655 0.42900002 4278200843
0.048919957 0.04568655 0.42900002 4279452193
0.050196074 0.045580056 0.42800003 4279583779
0.051586218 0.045580056 0.42800003 4279190045
0.052976359 0.045580056 0.42800003 4279124252
0.054493528 0.04568655 0.42900002 4278857748
0.055886921 0.04568655 0.42900002 4279384092
0.057413835 0.045793042 0.43000001 4279124248
0.058947243 0.04589954 0.43100002 4278927382
0.060347132 0.04589954 0.43100002 4278993175
0.061747022 0.04589954 0.43100002 4278795796
0.063146912 0.04589954 0.43100002 4278795796
0.064546801 0.04589954 0.43100002 4278730003
0.065946691 0.04589954 0.43100002 4278794515
0.067190319 0.045793042 0.43000001 4278201096
-0.0059911385 0.052018922 0.47400004 4279180035
-0.0044234111 0.051689684 0.47100002 4279319576
-0.0028690279 0.051250704 0.46700001 4278991894
-0.0013435245 0.050921474 0.46400002 4278862361
0.00016249088 0.05059224 0.46100003 4278664982
0.0016526188 0.05037275 0.45900002 4278402324
0.0031297544 0.050153259 0.45700002 4278468117
0.0045938981 0.049933773 0.45500001 4278336531
0.0060583949 0.049824029 0.45400003 4278664982
0.0075163944 0.049714282 0.45300001 4278992666
0.0089678997 0.049604539 0.45200002 4278925849
0.010412908 0.049494796 0.45100003 4278532374
0.01185142 0.049385048 0.45000002 4278992925
0.013283437 0.049275305 0.44900003 4279058205
0.014708957 0.049165558 0.44800001 4278991642
0.016127981 0.049055815 0.44700003 4279320094
0.017540509 0.048946071 0.44600001 4279056922
0.018946541 0.048836328 0.44500002 4279318558
0.020391902 0.048836328 0.44500002 4279515424
0.021788191 0.048726585 0.44400004 4279184408
0.023177981 0.048616838 0.44300002 4278657550
0.024616847 0.048616838 0.44300002 4278196486
0.025996897 0.048507094 0.44200003 4279514141
0.027370447 0.048397347 0.44100001 4278198276
0.028802816 0.048397347 0.44100001 4278856211
0.030166626 0.048287604 0.44000003 4279973410
0.031595748 0.048287604 0.44000003 4280105510
0.032949809 0.048177857 0.43900001 4279252765
0.034297381 0.048068114 0.43800002 4279385119
0.035638448 0.04795837 0.43700001 4278991129
0.036973029 0.047848627 0.43600002 4279056922
0.038301107 0.047738884 0.43500003 4278197760
0.039622691 0.047629137 0.43400002 4278464787
0.041032325 0.047629137 0.43400002 4279911463
0.042344164 0.047519393 0.43300003 4278266124
0.04364951 0.047409646 0.43200001 4278197508
0.044948358 0.047299903 0.43100002 4279515424
0.046240706 0.047190156 0.43000001 4279120918
0.047637347 0.047190156 0.43000001 4278726160
0.048919957 0.047080413 0.42900002 4279251734
0.050313354 0.047080413 0.42900002 4279712287
0.051706742 0.047080413 0.42900002 4278858773
0.053100135 0.047080413 0.42900002 4279320861
0.054620549 0.047190156 0.43000001 4278200074
0.05601719 0.047190156 0.43000001 4280108326
0.057413835 0.047190156 0.43000001 4279058968
0.058947243 0.047299903 0.43100002 4278993175
0.060347132 0.047299903 0.43100002 4279058968
0.061747022 0.047299903 0.43100002 4278993175
0.063146912 0.047299903 0.43100002 4278730003
0.064546801 0.047299903 0.43100002 4278664210
0.065946691 0.047299903 0.43100002 4278926101
0.067190319 0.047190156 0.43000001 4278333453
-0.00134642 0.052542049 0.46500003 4278990613
0.00016284335 0.052203067 0.46200001 4278794517
0.0016526188 0.051864088 0.45900002 4279058457
0.0031297544 0.0516381 0.45700002 4278729492
0.0045938981 0.051412113 0.45500001 4278927384
0.0060583949 0.051299121 0.45400003 4278795798
0.0075163944 0.051186126 0.45300001 4278664214
0.0089678997 0.051073134 0.45200002 4278992925
0.010412908 0.050960138 0.45100003 4278795800
0.01185142 0.050847143 0.45000002 4278993179
0.013283437 0.050734151 0.44900003 4278993179
0.014708957 0.050621156 0.44800001 4278993179
0.016127981 0.050508164 0.44700003 4278795798
0.017540509 0.050395168 0.44600001 4278927384
0.018946541 0.050282177 0.44500002 4278993179
0.020346079 0.050169185 0.44400004 4278795800
0.021788191 0.050169185 0.44400004 4278795800
0.023177981 0.050056189 0.44300002 4278992666
0.024561279 0.049943198 0.44200003 4279189021
0.025996897 0.049943198 0.44200003 4279189021
0.027370447 0.049830202 0.44100001 4279649059
0.028802816 0.049830202 0.44100001 4280108840
0.030166626 0.04971721 0.44000003 4279186711
0.031523935 0.049604215 0.43900001 4278593804
0.032949809 0.049604215 0.43900001 4278196224
0.034297381 0.049491223 0.43800002 4278195200
0.035638448 0.049378227 0.43700001 4278195712
0.036973029 0.049265232 0.43600002 4278199307
0.038301107 0.04915224 0.43500003 4279121433
0.039713986 0.04915224 0.43500003 4279385119
0.041032325 0.049039245 0.43400002 4278859543
0.042344164 0.048926253 0.43300003 4279057176
0.04364951 0.048813257 0.43200001 4279057176
0.044948358 0.048700266 0.43100002 4279188762
0.046348244 0.048700266 0.43100002 4279385371
0.047637347 0.04858727 0.43000001 4279187478
0.049033988 0.04858727 0.43000001 4279976227
0.050430629 0.04858727 0.43000001 4278199818
0.051827271 0.04858727 0.43000001 4278595087
0.053223912 0.04858727 0.43000001 4279255068
0.054620549 0.04858727 0.43000001 4278197248
0.05601719 0.04858727 0.43000001 4280042533
0.057547357 0.048700266 0.43100002 4278992664
0.058947243 0.048700266 0.43100002 4279058968
0.060347132 0.048700266 0.43100002 4278993175
0.061747022 0.048700266 0.43100002 4278993175
0.063146912 0.048700266 0.43100002 4278664210
0.064546801 0.048700266 0.43100002 4278598417
0.065946691 0.048700266 0.43100002 4278795287
0.067190319 0.04858727 0.43000001 4279320861
0.00016284335 0.053704154 0.46200001 4278786306
0.0016526188 0.053355426 0.45900002 4278985482
0.0031297544 0.053122938 0.45700002 4278920972
0.0045938981 0.052890453 0.45500001 4278988562
0.0060583949 0.052774213 0.45400003 4279120918
0.0075163944 0.052657969 0.45300001 4278990359
0.0089678997 0.052541725 0.45200002 4279187738
0.010412908 0.052425485 0.45100003 4278991129
0.01185142 0.052309241 0.45000002 4279320607
0.013283437 0.052192997 0.44900003 4279255584
0.014708957 0.052076753 0.44800001 4279123998
0.016127981 0.051960513 0.44700003 4279058972
0.017540509 0.051844269 0.44600001 4278993179
0.018946541 0.051728029 0.44500002 4278993179
0.020346079 0.051611785 0.44400004 4278927386
0.021788191 0.051611785 0.44400004 4278795800
0.023177981 0.051495541 0.44300002 4278927386
0.024561279 0.051379301 0.44200003 4279058972
0.025996897 0.051379301 0.44200003 4278795800
0.027370447 0.051263057 0.44100001 4278993177
0.028737504 0.051146813 0.44000003 4278993177
0.030166626 0.051146813 0.44000003 4278664212
0.031523935 0.051030569 0.43900001 4278861078
0.032949809 0.051030569 0.43900001 4279123482
0.034297381 0.050914329 0.43800002 4279254555
0.035638448 0.050798085 0.43700001 4279056922
0.036973029 0.050681841 0.43600002 4278859543
0.038301107 0.0505656 0.43500003 4279516189
0.039713986 0.0505656 0.43500003 4279384090
0.041032325 0.050449356 0.43400002 4278725392
0.042344164 0.050333116 0.43300003 4278197506
0.04364951 0.050216869 0.43200001 4278194432
0.045052644 0.050216869 0.43200001 4278196224
0.046348244 0.050100628 0.43100002 4278264841
0.047748134 0.050100628 0.43100002 4279318299
0.049033988 0.049984384 0.43000001 4280042533
0.050430629 0.049984384 0.43000001 4280042533
0.051827271 0.049984384 0.43000001 4279517727
0.053223912 0.049984384 0.43000001 4279057176
0.054620549 0.049984384 0.43000001 4278196480
0.056147467 0.050100628 0.43100002 4279780129
0.057547357 0.050100628 0.43100002 4279255836
0.058947243 0.050100628 0.43100002 4278992662
0.060347132 0.050100628 0.43100002 4279058455
0.061747022 0.050100628 0.43100002 4279124248
0.063146912 0.050100628 0.43100002 4278664212
0.064546801 0.050100628 0.43100002 4278664212
0.065946691 0.050100628 0.43100002 4278794517
0.067190319 0.049984384 0.43000001 4278464785
0.0016526188 0.054846764 0.45900002 4279244809
0.0031297544 0.054607779 0.45700002 4279376908
0.0045938981 0.054368794 0.45500001 4279246346
0.0060583949 0.054249305 0.45400003 4279312652
0.0075163944 0.054129809 0.45300001 4279642131
0.0089678997 0.05401032 0.45200002 4279182350
0.010412908 0.053890828 0.45100003 4284513379
0.01185142 0.053771336 0.45000002 4281685825
0.013283437 0.053651847 0.44900003 4279581480
0.014708957 0.053532351 0.44800001 4279055390
0.016127981 0.053412862 0.44700003 4279384867
0.017540509 0.053293366 0.44600001 4279517223
0.018946541 0.053173877 0.44500002 4279517475
0.020346079 0.053054389 0.44400004 4279320609
0.021739118 0.052934892 0.44300002 4279123998
0.023177981 0.052934892 0.44300002 4279123998
0.024561279 0.052815404 0.44200003 4278992666
0.025938079 0.052695908 0.44100001 4278730007
0.027370447 0.052695908 0.44100001 4278795798
0.028737504 0.052576419 0.44000003 4278927384
0.030166626 0.052576419 0.44000003 4278927382
0.031523935 0.052456923 0.43900001 4278927382
0.032874752 0.052337434 0.43800002 4278795796
0.034297381 0.052337434 0.43800002 4278927382
0.035638448 0.052217942 0.43700001 4278993177
0.036973029 0.052098449 0.43600002 4278993177
0.038301107 0.051978961 0.43500003 4278795798
0.039713986 0.051978961 0.43500003 4279058457
0.041032325 0.051859464 0.43400002 4279189275
0.042344164 0.051739976 0.43300003 4278662931
0.04364951 0.051620483 0.43200001 4279254555
0.045052644 0.051620483 0.43200001 4279516703
0.046348244 0.051500991 0.43100002 4279977254
0.047748134 0.051500991 0.43100002 4279318810
0.049033988 0.051381499 0.43000001 4279383322
0.050430629 0.051381499 0.43000001 4278197763
0.051827271 0.051381499 0.43000001 4278196224
0.053223912 0.051381499 0.43000001 4278196480
0.054747578 0.051500991 0.43100002 4278198275
0.056147467 0.051500991 0.43100002 4279516957
0.057547357 0.051500991 0.43100002 4279124250
0.058947243 0.051500991 0.43100002 4279255834
0.060347132 0.051500991 0.43100002 4279124248
0.061747022 0.051500991 0.43100002 4278992662
0.063146912 0.051500991 0.43100002 4279058455
0.064546801 0.051500991 0.43100002 4278663697
0.065946691 0.051500991 0.43100002 4278794263
0.067190319 0.051381499 0.43000001 4278397456
0.017540509 0.054742467 0.44600001 4286092161
0.018946541 0.054619726 0.44500002 4284974964
0.020346079 0.054496989 0.44400004 4282935640
0.021739118 0.054374244 0.44300002 4280435760
0.023177981 0.054374244 0.44300002 4279514658
0.024561279 0.054251507 0.44200003 4278924314
0.025938079 0.054128762 0.44100001 4279385635
0.027370447 0.054128762 0.44100001 4279451428
0.028737504 0.054006021 0.44000003 4279451682
0.030098066 0.053883281 0.43900001 4279386400
0.031523935 0.053883281 0.43900001 4279189021
0.032874752 0.05376054 0.43800002 4278795287
0.034297381 0.05376054 0.43800002 4278992666
0.035638448 0.053637799 0.43700001 4279124252
0.036973029 0.053515058 0.43600002 4278992666
0.038301107 0.053392321 0.43500003 4278795287
0.039713986 0.053392321 0.43500003 4278730007
0.041032325 0.053269576 0.43400002 4278927386
0.042344164 0.053146835 0.43300003 4278993179
0.04364951 0.053024095 0.43200001 4278993179
0.045052644 0.053024095 0.43200001 4278992666
0.046348244 0.052901354 0.43100002 4279124252
0.047748134 0.052901354 0.43100002 4278992666
0.049148023 0.052901354 0.43100002 4278991896
0.050430629 0.052778613 0.43000001 4279255068
0.051827271 0.052778613 0.43000001 4279255068
0.053223912 0.052778613 0.43000001 4279255068
0.054747578 0.052901354 0.43100002 4279320348
0.056147467 0.052901354 0.43100002 4279255068
0.057547357 0.052901354 0.43100002 4279255836
0.058947243 0.052901354 0.43100002 4279058457
0.060487147 0.053024095 0.43200001 4279058457
0.061890285 0.053024095 0.43200001 4278992664
0.063146912 0.052901354 0.43100002 4278992662
0.064546801 0.052901354 0.43100002 4278861078
0.065946691 0.052901354 0.43100002 4278859545
0.067190319 0.052778613 0.43000001 4282212171
0.02450571 0.055561621 0.44100001 4285236339
0.025938079 0.055561621 0.44100001 4285565817
0.027308384 0.055435631 0.44000003 4284711022
0.028737504 0.055435631 0.44000003 4284053092
0.030098066 0.055309638 0.43900001 4281685312
0.031523935 0.055309638 0.43900001 4279777315
0.032874752 0.055183649 0.43800002 4279055388
0.034297381 0.055183649 0.43800002 4279515937
0.035638448 0.05505766 0.43700001 4279516451
0.036973029 0.05493167 0.43600002 4279516705
0.038301107 0.054805681 0.43500003 4279582498
0.039713986 0.054805681 0.43500003 4279451682
0.041032325 0.054679688 0.43400002 4279320609
0.042344164 0.054553702 0.43300003 4279320609
0.04364951 0.054427709 0.43200001 4279320609
0.045052644 0.054427709 0.43200001 4279386402
0.046348244 0.05430172 0.43100002 4279386400
0.047748134 0.05430172 0.43100002 4279386400
0.049148023 0.05430172 0.43100002 4279189791
0.050430629 0.054175727 0.43000001 4279123998
0.051827271 0.054175727 0.43000001 4279123998
0.053223912 0.054175727 0.43000001 4279123998
0.054747578 0.05430172 0.43100002 4278992412
0.056147467 0.05430172 0.43100002 4279058205
0.057547357 0.05430172 0.43100002 4278992925
0.058947243 0.05430172 0.43100002 4278598167
0.060487147 0.054427709 0.43200001 4278927132
0.061890285 0.054427709 0.43200001 4278730007
0.063293427 0.054427709 0.43200001 4278795287
0.064546801 0.05430172 0.43100002 4278925849
0.065946691 0.05430172 0.43100002 4278660117
0.030098066 0.056735992 0.43900001 4284906604
0.031523935 0.056735992 0.43900001 4284840811
0.032874752 0.056606755 0.43800002 4284775786
0.034297381 0.056606755 0.43800002 4284907372
0.035638448 0.056477513 0.43700001 4284973676
0.036973029 0.056348275 0.43600002 4284710504
0.038301107 0.056219038 0.43500003 4284776299
0.039713986 0.056219038 0.43500003 4284053090
0.041032325 0.056089796 0.43400002 4283855709
0.042344164 0.055960558 0.43300003 4282474056
0.04364951 0.055831317 0.43200001 4281356347
0.045052644 0.055831317 0.43200001 4280238379
0.046348244 0.055702079 0.43100002 4279778598
0.047748134 0.055702079 0.43100002 4279515426
0.049148023 0.055702079 0.43100002 4278990109
0.050430629 0.055572838 0.43000001 4279055902
0.051827271 0.055572838 0.43000001 4279648039
0.053223912 0.055572838 0.43000001 4279384865
0.054747578 0.055702079 0.43100002 4279977002
0.056147467 0.055702079 0.43100002 4279780393
0.057547357 0.055702079 0.43100002 4279649061
0.058947243 0.055702079 0.43100002 4279649061
0.060487147 0.055831317 0.43200001 4279451680
0.061890285 0.055831317 0.43200001 4279451680
0.063293427 0.055831317 0.43200001 4279187738
0.064696558 0.055831317 0.43200001 4279252254
0.065946691 0.055702079 0.43100002 4283789666
0.063293427 0.057234932 0.43200001 4284580206
0.064696558 0.057234932 0.43200001 4284118631
0.01929743 0.044414919 0.45208949 4294967295
0.01929743 0.044414919 0.45208949 4294901760
0.019368473 0.043920182 0.45207572 4294901760
0.019439515 0.043425448 0.45206198 4294901760
0.019510556 0.042930711 0.45204821 4294901760
0.019581599 0.042435974 0.45203444 4294901760
0.019652642 0.04194124 0.4520207 4294901760
0.019723684 0.041446503 0.45200694 4294901760
0.019794725 0.040951766 0.45199317 4294901760
0.019865768 0.040457033 0.45197943 4294901760
0.019936811 0.039962295 0.45196566 4294901760
0.020007852 0.039467558 0.45195189 4294901760
0.020078894 0.038972825 0.45193815 4294901760
0.020149937 0.038478088 0.45192438 4294901760
0.020220978 0.03798335 0.45191061 4294901760
0.020292021 0.037488617 0.45189688 4294901760
0.020363063 0.03699388 0.45188311 4294901760
0.020434106 0.036499143 0.45186934 4294901760
0.020505149 0.036004409 0.4518556 4294901760
0.02057619 0.035509672 0.45184183 4294901760
0.020647231 0.035014935 0.45182806 4294901760
0.020718275 0.034520198 0.45181432 4294901760
0.020789318 0.034025464 0.45180055 4294901760
0.020860359 0.033530727 0.45178679 4294901760
0.0209314 0.03303599 0.45177305 4294901760
0.021002444 0.032541256 0.45175928 4294901760
0.021073487 0.032046519 0.45174551 4294901760
0.021144528 0.031551786 0.45173177 4294901760
0.021215571 0.031057047 0.451718 4294901760
0.021286612 0.030562311 0.45170423 4294901760
0.021357656 0.030067576 0.4516905 4294901760
0.021428697 0.029572839 0.45167673 4294901760
0.021499738 0.029078104 0.45166296 4294901760
0.021570781 0.028583368 0.45164922 4294901760
0.021641824 0.028088631 0.45163545 4294901760
0.021712866 0.027593896 0.45162168 4294901760
0.021783907 0.02709916 0.45160794 4294901760
0.02185495 0.026604423 0.45159417 4294901760
0.021925993 0.026109688 0.45158041 4294901760
0.021997035 0.025614951 0.45156667 4294901760
0.022068076 0.025120215 0.4515529 4294901760
0.022139119 0.024625478 0.45153913 4294901760
0.022210162 0.024130743 0.45152539 4294901760
0.022281203 0.023636008 0.45151162 4294901760
0.022352245 0.023141271 0.45149785 4294901760
0.022423288 0.022646535 0.45148411 4294901760
0.022494331 0.0221518 0.45147035 4294901760
0.022565372 0.021657063 0.45145658 4294901760
0.022636414 0.021162327 0.45144284 4294901760
0.022707457 0.020667592 0.45142907 4294901760
0.0227785 0.020172855 0.4514153 4294901760
0.022849541 0.01967812 0.45140153 4294901760
0.022920582 0.019183384 0.45138779 4294901760
0.022991626 0.018688649 0.45137402 4294901760
0.023062667 0.018193914 0.45136026 4294901760
0.02313371 0.017699175 0.45134652 4294901760
0.023204751 0.017204439 0.45133275 4294901760
0.023275794 0.016709704 0.45131898 4294901760
0.023346838 0.016214969 0.45130524 4294901760
0.023417879 0.015720233 0.45129147 4294901760
0.02348892 0.015225496 0.4512777 4294901760
0.023559963 0.014730759 0.45126396 4294901760
0.023631006 0.014236024 0.4512502 4294901760
0.023702048 0.013741288 0.45123643 4294901760
0.023773089 0.013246551 0.45122269 4294901760
0.023844132 0.012751818 0.45120892 4294901760
0.023915175 0.012257081 0.45119515 4294901760
0.023986217 0.011762343 0.45118141 4294901760
0.024057258 0.011267606 0.45116764 4294901760
0.024128301 0.010772873 0.45115387 4294901760
0.024199344 0.010278136 0.45114014 4294901760
0.024270386 0.0097834021 0.45112637 4294901760
0.024341427 0.0092886649 0.4511126 4294901760
0.02441247 0.0087939277 0.45109886 4294901760
0.024483513 0.0082991906 0.45108509 4294901760
0.024554554 0.0078044571 0.45107132 4294901760
0.024625596 0.0073097199 0.45105758 4294901760
0.024696639 0.0068149827 0.45104381 4294901760
0.024767682 0.0063202493 0.45103005 4294901760
0.024838723 0.0058255121 0.45101631 4294901760
0.024909765 0.0053307749 0.45100254 4294901760
0.024980808 0.0048360378 0.45098877 4294901760
0.025051851 0.0043413043 0.45097503 4294901760
0.025122892 0.0038465671 0.45096126 4294901760
0.025193933 0.0033518337 0.45094749 4294901760
0.025264977 0.0028570965 0.45093375 4294901760
0.02533602 0.0023623593 0.45091999 4294901760
0.025407061 0.0018676221 0.45090622 4294901760
0.025478102 0.0013728887 0.45089248 4294901760
0.025549145 0.00087815151 0.45087871 4294901760
0.025620189 0.00038341805 0.45086494 4294901760
0.02569123 -0.00011131912 0.4508512 4294901760
0.025762271 -0.0006060563 0.45083743 4294901760
0.025833314 -0.0011007935 0.45082366 4294901760
0.025904357 -0.0015955269 0.45080993 4294901760
0.025975399 -0.0020902641 0.45079616 4294901760
0.02604644 -0.0025849976 0.45078239 4294901760
0.026117483 -0.0030797347 0.45076865 4294901760
0.026188526 -0.0035744719 0.45075488 4294901760
0.026259568 -0.0040692091 0.45074111 4294901760
0.026330609 -0.0045639426 0.45072737 4294901760
0.026401652 -0.0050586797 0.4507136 4294901760
0.01929743 0.044414919 0.45208949 4278255360
0.019687273 0.044479419 0.45178312 4278255360
0.020077115 0.044543918 0.45147675 4278255360
0.020466957 0.044608418 0.45117038 4278255360
0.0208568 0.044672921 0.45086402 4278255360
0.021246642 0.044737421 0.45055765 4278255360
0.021636484 0.044801921 0.45025128 4278255360
0.022026327 0.04486642 0.44994488 4278255360
0.022416169 0.04493092 0.44963852 4278255360
0.022806011 0.04499542 0.44933215 4278255360
0.023195853 0.045059919 0.44902578 4278255360
0.023585696 0.045124423 0.44871941 4278255360
0.02397554 0.045188922 0.44841304 4278255360
0.02436538 0.045253422 0.44810668 4278255360
0.024755225 0.045317922 0.44780031 4278255360
0.025145067 0.045382421 0.44749394 4278255360
0.025534909 0.045446921 0.44718757 4278255360
0.025924752 0.045511421 0.4468812 4278255360
0.026314594 0.045575924 0.44657484 4278255360
0.026704436 0.045640424 0.44626844 4278255360
0.027094278 0.045704924 0.44596207 4278255360
0.027484119 0.045769423 0.4456557 4278255360
0.027873963 0.045833923 0.44534934 4278255360
0.028263805 0.045898423 0.44504297 4278255360
0.028653648 0.045962922 0.4447366 4278255360
0.02904349 0.046027422 0.44443023 4278255360
0.029433332 0.046091925 0.44412386 4278255360
0.029823177 0.046156425 0.4438175 4278255360
0.030213017 0.046220925 0.44351113 4278255360
0.030602859 0.046285424 0.44320476 4278255360
0.030992702 0.046349924 0.44289839 4278255360
0.031382546 0.046414424 0.44259202 4278255360
0.031772386 0.046478923 0.44228563 4278255360
0.03216223 0.046543427 0.44197926 4278255360
0.032552071 0.046607926 0.44167289 4278255360
0.032941915 0.046672426 0.44136652 4278255360
0.033331756 0.046736926 0.44106016 4278255360
0.0337216 0.046801426 0.44075379 4278255360
0.03411144 0.046865925 0.44044742 4278255360
0.034501284 0.046930425 0.44014105 4278255360
0.034891125 0.046994928 0.43983468 4278255360
0.035280969 0.047059428 0.43952832 4278255360
0.035670809 0.047123928 0.43922195 4278255360
0.036060654 0.047188427 0.43891558 4278255360
0.036450498 0.047252927 0.43860918 4278255360
0.036840338 0.047317427 0.43830281 4278255360
0.037230179 0.047381926 0.43799645 4278255360
0.037620023 0.04744643 0.43769008 4278255360
0.038009867 0.047510929 0.43738371 4278255360
0.038399708 0.047575429 0.43707734 4278255360
0.038789548 0.047639929 0.43677098 4278255360
0.039179392 0.047704428 0.43646461 4278255360
0.039569236 0.047768928 0.43615824 4278255360
0.039959077 0.047833428 0.43585187 4278255360
0.040348921 0.047897931 0.4355455 4278255360
0.040738761 0.047962431 0.43523914 4278255360
0.041128606 0.048026931 0.43493277 4278255360
0.041518446 0.04809143 0.43462637 4278255360
0.041908287 0.04815593 0.43432 4278255360
0.042298131 0.04822043 0.43401363 4278255360
0.042687975 0.048284929 0.43370727 4278255360
0.043077819 0.048349433 0.4334009 4278255360
0.04346766 0.048413932 0.43309453 4278255360
0.0438575 0.048478432 0.43278816 4278255360
0.044247344 0.048542932 0.4324818 4278255360
0.044637185 0.048607431 0.43217543 4278255360
0.045027029 0.048671931 0.43186906 4278255360
0.045416869 0.048736431 0.43156269 4278255360
0.045806713 0.04880093 0.43125632 4278255360
0.046196558 0.048865434 0.43094993 4278255360
0.046586398 0.048929933 0.43064356 4278255360
0.046976238 0.048994433 0.43033719 4278255360
0.047366083 0.049058933 0.43003082 4278255360
0.047755927 0.049123432 0.42972445 4278255360
0.048145767 0.049187932 0.42941809 4278255360
0.048535608 0.049252436 0.42911172 4278255360
0.048925452 0.049316935 0.42880535 4278255360
0.049315296 0.049381435 0.42849898 4278255360
0.049705137 0.049445935 0.42819262 4278255360
0.050094981 0.049510434 0.42788625 4278255360
0.050484821 0.049574934 0.42757988 4278255360
0.050874665 0.049639434 0.42727351 4278255360
0.05126451 0.049703933 0.42696711 4278255360
0.051654346 0.049768437 0.42666075 4278255360
0.05204419 0.049832936 0.42635438 4278255360
0.052434035 0.049897436 0.42604801 4278255360
0.052823879 0.049961936 0.42574164 4278255360
0.053213716 0.050026435 0.42543527 4278255360
0.05360356 0.050090935 0.42512891 4278255360
0.053993404 0.050155435 0.42482254 4278255360
0.054383248 0.050219938 0.42451617 4278255360
0.054773092 0.050284438 0.4242098 4278255360
0.055162929 0.050348938 0.42390344 4278255360
0.055552773 0.050413437 0.42359707 4278255360
0.055942617 0.050477937 0.42329067 4278255360
0.056332454 0.050542437 0.4229843 4278255360
