# .PCD v0.7 - Point Cloud Data file format
VERSION 0.7
FIELDS x y z rgb
SIZE 4 4 4 4
TYPE F F F U
COUNT 1 1 1 1
WIDTH 731
HEIGHT 1
VIEWPOINT 0 0 0 1 0 0 0
POINTS 731
DATA ascii
0.063293427 -0.033999857 0.43200001 4281033026
0.064696558 -0.033999857 0.43200001 4280771135
0.066099696 -0.033999857 0.43200001 4279786807
0.067502834 -0.033999857 0.43200001 4279655219
0.068905964 -0.033999857 0.43200001 4280248123
0.070309103 -0.033999857 0.43200001 4279327789
0.071712241 -0.033999857 0.43200001 4279130923
0.073115379 -0.033999857 0.43200001 4279328302
0.074691013 -0.034078561 0.43300003 4278867753
0.076097399 -0.034078561 0.43300003 4278867751
0.077503785 -0.034078561 0.43300003 4278867751
0.079092406 -0.034157261 0.43400002 4278867751
0.080502041 -0.034157261 0.43400002 4278406687
0.081911676 -0.034157261 0.43400002 4278998824
0.083321303 -0.034157261 0.43400002 4278735652
0.084730938 -0.034157261 0.43400002 4278669089
0.086140573 -0.034157261 0.43400002 4278997029
0.059084009 -0.032596242 0.43200001 4280834877
0.060487147 -0.032596242 0.43200001 4280640065
0.061747022 -0.03252079 0.43100002 4280114488
0.063146912 -0.03252079 0.43100002 4279852338
0.064546801 -0.03252079 0.43100002 4279655986
0.065946691 -0.03252079 0.43100002 4279525170
0.06734658 -0.03252079 0.43100002 4279656756
0.068746462 -0.03252079 0.43100002 4278933544
0.070146352 -0.03252079 0.43100002 4278867749
0.071712241 -0.032596242 0.43200001 4278867749
0.073115379 -0.032596242 0.43200001 4278801956
0.074518517 -0.032596242 0.43200001 4278670370
0.076097399 -0.032671697 0.43300003 4278538271
0.077503785 -0.032671697 0.43300003 4278472478
0.079092406 -0.032747153 0.43400002 4278603294
0.080502041 -0.032747153 0.43400002 4278733857
0.081911676 -0.032747153 0.43400002 4278200325
0.083321303 -0.032747153 0.43400002 4278201357
0.084730938 -0.032747153 0.43400002 4279191588
0.086140573 -0.032747153 0.43400002 4279127845
0.056147467 -0.031120427 0.43100002 4280178233
0.057680875 -0.031192631 0.43200001 4279786291
0.058810472 -0.031048222 0.43000001 4279655986
0.060207114 -0.031048222 0.43000001 4279459377
0.061603755 -0.031048222 0.43000001 4279327791
0.063000396 -0.031048222 0.43000001 4279065132
0.064397037 -0.031048222 0.43000001 4278868521
0.065793678 -0.031048222 0.43000001 4278736935
0.067190319 -0.031048222 0.43000001 4278736935
0.068586953 -0.031048222 0.43000001 4278671140
0.070146352 -0.031120427 0.43100002 4278604577
0.071546242 -0.031120427 0.43100002 4278538271
0.073115379 -0.031192631 0.43200001 4278603296
0.074518517 -0.031192631 0.43200001 4278537501
0.076097399 -0.031264838 0.43300003 4278800160
0.077503785 -0.031264838 0.43300003 4278336531
0.079092406 -0.031337041 0.43400002 4278202377
0.080502041 -0.031337041 0.43400002 4279717672
0.081911676 -0.031337041 0.43400002 4279388453
0.083321303 -0.031337041 0.43400002 4278203413
0.084926173 -0.031409249 0.43500003 4279323176
0.086339056 -0.031409249 0.43500003 4279127332
0.051224627 -0.029306328 0.42500001 4280115008
0.052852582 -0.02944424 0.42700002 4279918654
0.054493528 -0.029582152 0.42900002 4279327539
0.05601719 -0.029651107 0.43000001 4279393332
0.057413835 -0.029651107 0.43000001 4279327791
0.058536936 -0.029513197 0.42800003 4279130923
0.059927084 -0.029513197 0.42800003 4278737449
0.061317232 -0.029513197 0.42800003 4278605863
0.062707379 -0.029513197 0.42800003 4278736933
0.064097516 -0.029513197 0.42800003 4278802726
0.065487668 -0.029513197 0.42800003 4278209562
0.066877812 -0.029513197 0.42800003 4278341405
0.068427451 -0.029582152 0.42900002 4278669087
0.069983602 -0.029651107 0.43000001 4278800160
0.071380243 -0.029651107 0.43000001 4278997027
0.072946131 -0.029720064 0.43100002 4278469915
0.074518517 -0.029789019 0.43200001 4278200321
0.076097399 -0.029857976 0.43300003 4279257119
0.077503785 -0.029857976 0.43300003 4279322912
0.079092406 -0.029926931 0.43400002 4279520291
0.080502041 -0.029926931 0.43400002 4278993947
0.082100414 -0.029995888 0.43500003 4279718186
0.08351329 -0.029995888 0.43500003 4278928931
0.084926173 -0.029995888 0.43500003 4279323689
0.086339056 -0.029995888 0.43500003 4279390504
0.028364362 -0.02595425 0.39500001 4283072613
0.043071162 -0.027136976 0.41300002 4285173624
0.047779635 -0.027531218 0.41900003 4280509246
0.049375109 -0.027662633 0.42100003 4279524146
0.050983571 -0.027794044 0.42300001 4278934062
0.052481253 -0.027859753 0.42400002 4278999855
0.054366503 -0.028122582 0.42800003 4279131693
0.055756651 -0.028122582 0.42800003 4279131693
0.057413835 -0.028253993 0.43000001 4278736935
0.058263399 -0.027991166 0.42600003 4278539556
0.05964705 -0.027991166 0.42600003 4278539556
0.061030701 -0.027991166 0.42600003 4278407970
0.062414352 -0.027991166 0.42600003 4278604066
0.063797995 -0.027991166 0.42600003 4278538271
0.06518165 -0.027991166 0.42600003 4278603294
0.066721551 -0.028056873 0.42700002 4278405915
0.068267949 -0.028122582 0.42800003 4279193123
0.069820851 -0.028188288 0.42900002 4278202375
0.071380243 -0.028253993 0.43000001 4278203919
0.072946131 -0.028319702 0.43100002 4279388967
0.074518517 -0.028385408 0.43200001 4279257381
0.076097399 -0.028451117 0.43300003 4279323428
0.077503785 -0.028451117 0.43300003 4278203660
0.079092406 -0.028516822 0.43400002 4278664984
0.08068753 -0.02858253 0.43500003 4278204179
0.082100414 -0.02858253 0.43500003 4279256867
0.08351329 -0.02858253 0.43500003 4279258666
0.084926173 -0.02858253 0.43500003 4279061287
0.086339056 -0.02858253 0.43500003 4279717934
0.024577547 -0.024733314 0.39600003 4280436010
0.025863754 -0.024733314 0.39600003 4279716650
0.027149964 -0.024733314 0.39600003 4278406689
0.028364362 -0.024670856 0.39500001 4279723062
0.032376349 -0.024795771 0.39700001 4286293652
0.041224536 -0.025482807 0.40800002 4281098042
0.042862587 -0.025670182 0.41100001 4280901946
0.044412587 -0.025795097 0.41300002 4279852852
0.045975581 -0.025920013 0.41500002 4279196205
0.047437534 -0.025982469 0.41600001 4279130923
0.049023267 -0.026107386 0.41800001 4279197484
0.050621986 -0.026232302 0.42000002 4278868519
0.052109923 -0.02629476 0.42100003 4278802726
0.054239478 -0.026669508 0.42700002 4278736933
0.055756651 -0.026731966 0.42800003 4278211103
0.057413835 -0.026856881 0.43000001 4278408482
0.057853092 -0.026419675 0.42300001 4278473761
0.059226997 -0.026419675 0.42300001 4278604066
0.060600903 -0.026419675 0.42300001 4278406687
0.062121328 -0.026482133 0.42400002 4278800162
0.063498475 -0.026482133 0.42400002 4278799648
0.065028638 -0.026544591 0.42500001 4278205206
0.066565298 -0.02660705 0.42600003 4278200583
0.068108447 -0.026669508 0.42700002 4279388455
0.069658101 -0.026731966 0.42800003 4279519269
0.071214244 -0.026794422 0.42900002 4278993179
0.072776876 -0.026856881 0.43000001 4278993949
0.074346021 -0.026919339 0.43100002 4278203148
0.075921655 -0.026981795 0.43200001 4278729494
0.077503785 -0.027044255 0.43300003 4279190045
0.079092406 -0.027106712 0.43400002 4279124252
0.08068753 -0.027169172 0.43500003 4279454248
0.082100414 -0.027169172 0.43500003 4278204695
0.083705276 -0.027231628 0.43600002 4279389480
0.085121401 -0.027231628 0.43600002 4279850031
0.086537533 -0.027231628 0.43600002 4282214734
0.027149964 -0.02344667 0.39600003 4278800162
0.028436171 -0.02344667 0.39600003 4278867749
0.02972238 -0.02344667 0.39600003 4279130923
0.03100859 -0.02344667 0.39600003 4279328050
0.032376349 -0.023505878 0.39700001 4279524664
0.039508179 -0.023920339 0.40400001 4279655732
0.041022457 -0.024038756 0.40600002 4279064619
0.042549722 -0.024157174 0.40800002 4279393584
0.044089977 -0.024275592 0.41000003 4279328302
0.045643229 -0.024394009 0.41200003 4278801958
0.047095437 -0.024453219 0.41300002 4278868519
0.048671424 -0.024571637 0.41500002 4278408222
0.05013987 -0.024630845 0.41600001 4278670624
0.051614817 -0.024690054 0.41700003 4278802210
0.052715182 -0.024571637 0.41500002 4278539038
0.055756651 -0.025341351 0.42800003 4278604831
0.055544548 -0.024630845 0.41600001 4278604318
0.057442788 -0.02486768 0.42000002 4278800673
0.058946967 -0.02492689 0.42100003 4279392299
0.06031438 -0.02492689 0.42100003 4278732574
0.0618283 -0.024986098 0.42200002 4279126562
0.063348711 -0.025045305 0.42300001 4279652393
0.064875633 -0.025104515 0.42400002 4279849004
0.066409037 -0.025163723 0.42500001 4279388453
0.067948945 -0.025222933 0.42600003 4278201611
0.069495343 -0.025282141 0.42700002 4279059488
0.071214244 -0.025400558 0.42900002 4279322660
0.072776876 -0.025459766 0.43000001 4278598167
0.074346021 -0.025518976 0.43100002 4278729494
0.075921655 -0.025578184 0.43200001 4280241963
0.077682778 -0.025696602 0.43400002 4279716389
0.079092406 -0.025696602 0.43400002 4278201099
0.08068753 -0.025755811 0.43500003 4278201102
0.082100414 -0.025755811 0.43500003 4279716396
0.083705276 -0.025815019 0.43600002 4279979309
0.085121401 -0.025815019 0.43600002 4284253287
0.027149964 -0.022160025 0.39600003 4278929181
0.028436171 -0.022160025 0.39600003 4278405402
0.02972238 -0.022160025 0.39600003 4278210077
0.03100859 -0.022160025 0.39600003 4278539556
0.032376349 -0.022215985 0.39700001 4280513860
0.035131361 -0.022327904 0.39900002 4279787318
0.036518607 -0.022383863 0.40000001 4279393330
0.038006898 -0.022495782 0.40200001 4279131695
0.03941039 -0.022551743 0.40300003 4279132209
0.040921416 -0.022663662 0.40500003 4279132207
0.042341143 -0.022719622 0.40600002 4278672169
0.043874905 -0.022831541 0.40800002 4278277409
0.045310874 -0.0228875 0.40900001 4278671654
0.046867371 -0.022999419 0.41100001 4278209561
0.048319586 -0.02305538 0.41200003 4278604577
0.049898818 -0.023167299 0.41400003 4278867749
0.051367264 -0.023223259 0.41500002 4279064869
0.052588161 -0.023167299 0.41400003 4279326758
0.053932834 -0.023167299 0.41400003 4279195172
0.055544548 -0.023279218 0.41600001 4279192351
0.057169247 -0.023391137 0.41800001 4278400529
0.058666933 -0.023447098 0.41900003 4278856213
0.060171112 -0.023503058 0.42000002 4278198539
0.061681788 -0.023559017 0.42100003 4280112942
0.063049197 -0.023559017 0.42100003 4278862363
0.06472262 -0.023670936 0.42300001 4278200587
0.066252783 -0.023726895 0.42400002 4279255584
0.067789435 -0.023782855 0.42500001 4278598167
0.069495343 -0.023894774 0.42700002 4278927132
0.071048245 -0.023950735 0.42800003 4279519269
0.072776876 -0.024062652 0.43000001 4279585062
0.074346021 -0.024118613 0.43100002 4279058459
0.075921655 -0.024174573 0.43200001 4278200581
0.077682778 -0.024286492 0.43400002 4280110123
0.079092406 -0.024286492 0.43400002 4280175664
0.08068753 -0.024342453 0.43500003 4279913262
0.027149964 -0.020873381 0.39600003 4279058457
0.028436171 -0.020873381 0.39600003 4278666009
0.02972238 -0.020873381 0.39600003 4278273818
0.031086894 -0.02092609 0.39700001 4278669859
0.032376349 -0.02092609 0.39700001 4278408484
0.033750609 -0.020978801 0.39800003 4278868521
0.035043314 -0.020978801 0.39800003 4280315197
0.036518607 -0.021084221 0.40000001 4279329584
0.037912354 -0.021136932 0.40100002 4279198511
0.039312594 -0.021189643 0.40200001 4279132718
0.040719334 -0.021242354 0.40300003 4278606115
0.042236857 -0.021347774 0.40500003 4278342943
0.043659832 -0.021400485 0.40600002 4278342175
0.045089304 -0.021453194 0.40700001 4278538784
0.046639305 -0.021558616 0.40900001 4279063332
0.048085023 -0.021611327 0.41000003 4278206224
0.04953723 -0.021664038 0.41100001 4279391015
0.051119711 -0.021769458 0.41300002 4279588394
0.052461132 -0.021769458 0.41300002 4278399505
0.053932834 -0.021822169 0.41400003 4278660882
0.05541103 -0.02187488 0.41500002 4279052306
0.057032481 -0.021980301 0.41700003 4279117588
0.058526915 -0.022033012 0.41800001 4279183896
0.060027849 -0.022085723 0.41900003 4279053594
0.061535276 -0.022138434 0.42000002 4280835899
0.063049197 -0.022191145 0.42100003 4278727189
0.064569615 -0.022243854 0.42200002 4279318045
0.066096522 -0.022296565 0.42300001 4278596373
0.067789435 -0.022401985 0.42500001 4280177199
0.069332592 -0.022454696 0.42600003 4280308785
0.071048245 -0.022560118 0.42800003 4278202382
0.072776876 -0.022665538 0.43000001 4279321377
0.074346021 -0.022718249 0.43100002 4280242479
0.075921655 -0.02277096 0.43200001 4280900409
0.077682778 -0.02287638 0.43400002 4280570676
0.079092406 -0.02287638 0.43400002 4282739796
0.027218524 -0.019636197 0.39700001 4279321629
0.02850798 -0.019636197 0.39700001 4278928154
0.029797435 -0.019636197 0.39700001 4278666779
0.031086894 -0.019636197 0.39700001 4278864671
0.032376349 -0.019636197 0.39700001 4278668576
0.033750609 -0.01968566 0.39800003 4278867238
0.035043314 -0.01968566 0.39800003 4278538784
0.036427312 -0.01973512 0.39900002 4278671140
0.037912354 -0.019834043 0.40100002 4278408736
0.039312594 -0.019883504 0.40200001 4278737187
0.040719334 -0.019932967 0.40300003 4278604831
0.042132568 -0.019982427 0.40400001 4279524650
0.043552294 -0.020031888 0.40500003 4279326504
0.044978522 -0.020081351 0.40600002 4279260711
0.046411239 -0.020130811 0.40700001 4278271251
0.047967739 -0.020229734 0.40900001 4279783977
0.049416702 -0.020279195 0.41000003 4278991896
0.050872158 -0.020328658 0.41100001 4278527246
0.052334111 -0.020378118 0.41200003 4278920211
0.053802561 -0.020427579 0.41300002 4278525453
0.05541103 -0.020526502 0.41500002 4281223991
0.056895711 -0.020575963 0.41600001 4279973410
0.0583869 -0.020625426 0.41700003 4279712035
0.059884582 -0.020674886 0.41800001 4281094971
0.061388765 -0.020724349 0.41900003 4278992414
0.062899433 -0.020773809 0.42000002 4278199820
0.064416602 -0.020823272 0.42100003 4280833333
0.066096522 -0.020922193 0.42300001 4279714852
0.067629933 -0.020971656 0.42400002 4278201612
0.069332592 -0.021070579 0.42600003 4280571444
0.070882238 -0.02112004 0.42700002 4280900924
0.072607629 -0.021218963 0.42900002 4280637752
0.074346021 -0.021317886 0.43100002 4280768055
0.075921655 -0.021367347 0.43200001 4283069277
0.027218524 -0.018346304 0.39700001 4279124250
0.02850798 -0.018346304 0.39700001 4279257119
0.029797435 -0.018346304 0.39700001 4279191840
0.031086894 -0.018346304 0.39700001 4279060765
0.032457903 -0.018392516 0.39800003 4279127841
0.033750609 -0.018392516 0.39800003 4279063332
0.035131361 -0.018438729 0.39900002 4278867236
0.036518607 -0.018484941 0.40000001 4279130408
0.037912354 -0.018531153 0.40100002 4278999076
0.039312594 -0.018577365 0.40200001 4278866720
0.040719334 -0.018623577 0.40300003 4279129892
0.042132568 -0.01866979 0.40400001 4279063845
0.043552294 -0.018716002 0.40500003 4279392297
0.044978522 -0.018762214 0.40600002 4279325990
0.046411239 -0.018808426 0.40700001 4278203919
0.04785046 -0.018854639 0.40800002 4280309809
0.04929617 -0.018900851 0.40900001 4278527500
0.050748382 -0.018947065 0.41000003 4279116816
0.052207083 -0.018993275 0.41100001 4279907106
0.053802561 -0.019085702 0.41300002 4278592273
0.055277511 -0.019131914 0.41400003 4279053592
0.056895711 -0.019224338 0.41600001 4281224759
0.0583869 -0.01927055 0.41700003 4279383838
0.059884582 -0.019316763 0.41800001 4280767542
0.061388765 -0.019362975 0.41900003 4281294399
0.062899433 -0.019409187 0.42000002 4278596373
0.064416602 -0.019455401 0.42100003 4279978024
0.065940268 -0.019501612 0.42200002 4280702262
0.067629933 -0.019594038 0.42400002 4280571959
0.069332592 -0.019686462 0.42600003 4280769338
0.070882238 -0.019732675 0.42700002 4280176436
0.025994379 -0.017099373 0.39800003 4279975709
0.027287085 -0.017099373 0.39800003 4279124250
0.028579788 -0.017099373 0.39800003 4278993947
0.029872492 -0.017099373 0.39800003 4278797082
0.031165199 -0.017099373 0.39800003 4279389730
0.032457903 -0.017099373 0.39800003 4279456293
0.033835407 -0.017142337 0.39900002 4279062818
0.035131361 -0.017142337 0.39900002 4279063845
0.036518607 -0.017185299 0.40000001 4279261224
0.037912354 -0.017228262 0.40100002 4279392551
0.039312594 -0.017271226 0.40200001 4279260965
0.040719334 -0.01731419 0.40300003 4279194656
0.042132568 -0.017357152 0.40400001 4279326756
0.043552294 -0.017400118 0.40500003 4279523623
0.044867739 -0.017400118 0.40500003 4280311602
0.046297207 -0.01744308 0.40600002 4280111147
0.04785046 -0.017529005 0.40800002 4280177453
0.04929617 -0.017571969 0.40900001 4279382555
0.050748382 -0.017614933 0.41000003 4280895794
0.052207083 -0.017657895 0.41100001 4280763440
0.053672288 -0.01770086 0.41200003 4279118617
0.055277511 -0.017786786 0.41400003 4279052056
0.056758944 -0.017829748 0.41500002 4279117590
0.058246881 -0.017872712 0.41600001 4278858007
0.059741318 -0.017915675 0.41700003 4278925597
0.061242249 -0.017958637 0.41800001 4280769336
0.062749669 -0.018001603 0.41900003 4280704313
0.064263597 -0.018044565 0.42000002 4280309555
0.065940268 -0.018130491 0.42200002 4280506934
0.067470424 -0.018173454 0.42300001 4280373043
0.026059691 -0.015845945 0.39900002 4279713818
0.027355645 -0.015845945 0.39900002 4279124250
0.028651597 -0.015845945 0.39900002 4279059740
0.029947549 -0.015845945 0.39900002 4278863388
0.031243503 -0.015845945 0.39900002 4279193121
0.032539453 -0.015845945 0.39900002 4279325990
0.033835407 -0.015845945 0.39900002 4278865953
0.035219409 -0.015885659 0.40000001 4279655723
0.036518607 -0.015885659 0.40000001 4279392551
0.037912354 -0.015925374 0.40100002 4279326758
0.039312594 -0.015965087 0.40200001 4279195170
0.040719334 -0.016004803 0.40300003 4279194656
0.042132568 -0.016044516 0.40400001 4279655207
0.043552294 -0.016084231 0.40500003 4279654437
0.044978522 -0.016123945 0.40600002 4280245293
0.046297207 -0.016123945 0.40600002 4280440625
0.04773318 -0.016163658 0.40700001 4279519523
0.049175646 -0.016203372 0.40800002 4280039717
0.050748382 -0.016282801 0.41000003 4278789650
0.052207083 -0.016322514 0.41100001 4279183383
0.053672288 -0.016362229 0.41200003 4279314199
0.055143986 -0.016401943 0.41300002 4278657037
0.056758944 -0.016481372 0.41500002 4280830514
0.058246881 -0.016521085 0.41600001 4280571959
0.059741318 -0.0165608 0.41700003 4280047412
0.061242249 -0.016600514 0.41800001 4279982389
0.062749669 -0.016640229 0.41900003 4280178998
0.064263597 -0.016679943 0.42000002 4281030977
0.024825802 -0.014586017 0.40000001 4280171805
0.026125003 -0.014586017 0.40000001 4279582748
0.027424205 -0.014586017 0.40000001 4279255836
0.028723404 -0.014586017 0.40000001 4278993947
0.030022604 -0.014586017 0.40000001 4279126560
0.031321805 -0.014586017 0.40000001 4279061537
0.032621007 -0.014586017 0.40000001 4279062818
0.03392021 -0.014586017 0.40000001 4279129379
0.035219409 -0.014586017 0.40000001 4279392551
0.036609907 -0.014622482 0.40100002 4279457830
0.038006898 -0.014658947 0.40200001 4279326244
0.03941039 -0.014695412 0.40300003 4279392037
0.040820375 -0.014731877 0.40400001 4279523623
0.042132568 -0.014731877 0.40400001 4279457830
0.043552294 -0.014768342 0.40500003 4279719465
0.044978522 -0.014804807 0.40600002 4278269202
0.046411239 -0.014841272 0.40700001 4279980074
0.04773318 -0.014841272 0.40700001 4278200071
0.049175646 -0.014877737 0.40800002 4279116820
0.050624602 -0.014914203 0.40900001 4278459406
0.052207083 -0.014987133 0.41100001 4279843619
0.053672288 -0.015023598 0.41200003 4280700465
0.055143986 -0.015060063 0.41300002 4280835129
0.056758944 -0.015132993 0.41500002 4280571957
0.058246881 -0.015169458 0.41600001 4280637750
0.059741318 -0.015205923 0.41700003 4280309555
0.061242249 -0.015242388 0.41800001 4281688644
0.024887869 -0.013319593 0.40100002 4279975709
0.026190316 -0.013319593 0.40100002 4279386139
0.027492767 -0.013319593 0.40100002 4279058972
0.028795214 -0.013319593 0.40100002 4278797084
0.030097662 -0.013319593 0.40100002 4278929951
0.031321805 -0.013286376 0.40000001 4279390502
0.032621007 -0.013286376 0.40000001 4279062818
0.034005009 -0.013319593 0.40100002 4279589676
0.035307456 -0.013319593 0.40100002 4279392297
0.036701199 -0.013352809 0.40200001 4279326504
0.038006898 -0.013352809 0.40200001 4279523369
0.03941039 -0.013386025 0.40300003 4279523369
0.040820375 -0.01341924 0.40400001 4279851564
0.042236857 -0.013452456 0.40500003 4279851564
0.043552294 -0.013452456 0.40500003 4279652906
0.044978522 -0.013485672 0.40600002 4278202639
0.046411239 -0.013518888 0.40700001 4280506166
0.04773318 -0.013518888 0.40700001 4278663449
0.049175646 -0.013552104 0.40800002 4281030973
0.050624602 -0.01358532 0.40900001 4280636985
0.052080061 -0.013618536 0.41000003 4280375348
0.053672288 -0.013684968 0.41200003 4280441141
0.055143986 -0.013718184 0.41300002 4280441143
0.024949932 -0.01204667 0.40200001 4279976479
0.026255628 -0.01204667 0.40200001 4279451932
0.027561326 -0.01204667 0.40200001 4279059742
0.028795214 -0.012016703 0.40100002 4278862877
0.030097662 -0.012016703 0.40100002 4279062050
0.031400111 -0.012016703 0.40100002 4279456806
0.032702558 -0.012016703 0.40100002 4278997025
0.034005009 -0.012016703 0.40100002 4279326504
0.035307456 -0.012016703 0.40100002 4279326506
0.036701199 -0.01204667 0.40200001 4279392297
0.038101446 -0.012076637 0.40300003 4279392297
0.03941039 -0.012076637 0.40300003 4279326504
0.040820375 -0.012106603 0.40400001 4279852334
0.042236857 -0.01213657 0.40500003 4279720748
0.043552294 -0.01213657 0.40500003 4280048432
0.044978522 -0.012166537 0.40600002 4278927902
0.046411239 -0.012196504 0.40700001 4280113203
0.04773318 -0.012196504 0.40700001 4280113203
0.049175646 -0.012226471 0.40800002 4280244789
0.050624602 -0.012256437 0.40900001 4280178996
0.052080061 -0.012286405 0.41000003 4279979822
0.025011998 -0.010767248 0.40300003 4279780127
0.026255628 -0.010740531 0.40200001 4279190043
0.027561326 -0.010740531 0.40200001 4278993947
0.028867021 -0.010740531 0.40200001 4278994461
0.030172717 -0.010740531 0.40200001 4279062050
0.031400111 -0.010713813 0.40100002 4279193636
0.032702558 -0.010713813 0.40100002 4279260199
0.034005009 -0.010713813 0.40100002 4279457578
0.035395507 -0.010740531 0.40200001 4279523883
0.036701199 -0.010740531 0.40200001 4279523883
0.038101446 -0.010767248 0.40300003 4279523369
0.03941039 -0.010767248 0.40300003 4279720748
0.040820375 -0.010793966 0.40400001 4279720748
0.042236857 -0.010820684 0.40500003 4280048943
0.043659832 -0.010847402 0.40600002 4278600988
0.044978522 -0.010847402 0.40600002 4280573241
0.046411239 -0.01087412 0.40700001 4280178483
0.04773318 -0.01087412 0.40700001 4280178483
0.049175646 -0.010900837 0.40800002 4280767288
0.050500829 -0.010900837 0.40800002 4284779377
0.022394108 -0.0094578601 0.40300003 4279776281
0.023703052 -0.0094578601 0.40300003 4280107295
0.025011998 -0.0094578601 0.40300003 4279451932
0.026320942 -0.0094578601 0.40300003 4279320859
0.027629888 -0.0094578601 0.40300003 4278928154
0.028867021 -0.0094343908 0.40200001 4278994461
0.030172717 -0.0094343908 0.40200001 4279258916
0.031478416 -0.0094343908 0.40200001 4279456808
0.032784112 -0.0094343908 0.40200001 4279325990
0.034089811 -0.0094343908 0.40200001 4279523369
0.035395507 -0.0094343908 0.40200001 4279654955
0.036701199 -0.0094343908 0.40200001 4279523369
0.038101446 -0.0094578601 0.40300003 4279786795
0.03941039 -0.0094578601 0.40300003 4279720748
0.040820375 -0.0094813285 0.40400001 4279852334
0.042236857 -0.0095047979 0.40500003 4279194406
0.043659832 -0.0095282663 0.40600002 4280508985
0.044978522 -0.0095282663 0.40600002 4280374578
0.046411239 -0.0095517347 0.40700001 4282937691
0.04773318 -0.0095517347 0.40700001 4286752919
0.049175646 -0.0095752031 0.40800002 4287409818
0.022394108 -0.0081484718 0.40300003 4283001683
0.023703052 -0.0081484718 0.40300003 4279317527
0.025011998 -0.0081484718 0.40300003 4279517473
0.026320942 -0.0081484718 0.40300003 4279452447
0.027629888 -0.0081484718 0.40300003 4279059742
0.028938832 -0.0081484718 0.40300003 4279126562
0.030172717 -0.0081282528 0.40200001 4279522088
0.031478416 -0.0081282528 0.40200001 4279456808
0.032784112 -0.0081282528 0.40200001 4279654955
0.034089811 -0.0081282528 0.40200001 4279457576
0.035395507 -0.0081282528 0.40200001 4279654955
0.036701199 -0.0081282528 0.40200001 4279720748
0.038101446 -0.0081484718 0.40300003 4279786541
0.03941039 -0.0081484718 0.40300003 4280181299
0.040820375 -0.0081686918 0.40400001 4280179766
0.042236857 -0.0081889117 0.40500003 4281229122
0.043659832 -0.0082091307 0.40600002 4285371516
0.044978522 -0.0082091307 0.40600002 4287016343
0.025011998 -0.0068390835 0.40300003 4281883974
0.026320942 -0.0068390835 0.40300003 4279187488
0.027629888 -0.0068390835 0.40300003 4279518756
0.028938832 -0.0068390835 0.40300003 4279388707
0.030172717 -0.0068221129 0.40200001 4279587881
0.031478416 -0.0068221129 0.40200001 4279588394
0.032784112 -0.0068221129 0.40200001 4279851564
0.034089811 -0.0068221129 0.40200001 4279852334
0.035395507 -0.0068221129 0.40200001 4279852334
0.036701199 -0.0068221129 0.40200001 4279457576
0.038101446 -0.0068390835 0.40300003 4280571957
0.03941039 -0.0068390835 0.40300003 4283201631
0.040820375 -0.0068560536 0.40400001 4286818710
0.030172717 -0.005515974 0.40200001 4279387683
0.031478416 -0.005515974 0.40200001 4280374578
0.032784112 -0.005515974 0.40200001 4280770106
0.034089811 -0.005515974 0.40200001 4280177453
0.035395507 -0.005515974 0.40200001 4281688644
0.051682696 -0.020510744 0.41437095 4294967295
0.051682696 -0.020510744 0.41437095 4294901760
0.051682696 -0.020510744 0.41487095 4294901760
0.051682696 -0.020510744 0.41537094 4294901760
0.051682696 -0.020510744 0.41587096 4294901760
0.051682696 -0.020510744 0.41637096 4294901760
0.051682696 -0.020510744 0.41687095 4294901760
0.051682696 -0.020510744 0.41737095 4294901760
0.051682696 -0.020510744 0.41787097 4294901760
0.051682696 -0.020510744 0.41837096 4294901760
0.051682696 -0.020510744 0.41887096 4294901760
0.051682696 -0.020510744 0.41937095 4294901760
0.051682696 -0.020510744 0.41987094 4294901760
0.051682696 -0.020510744 0.42037097 4294901760
0.051682696 -0.020510744 0.42087096 4294901760
0.051682696 -0.020510744 0.42137095 4294901760
0.051682696 -0.020510744 0.42187095 4294901760
0.051682696 -0.020510744 0.42237097 4294901760
0.051682696 -0.020510744 0.42287096 4294901760
0.051682696 -0.020510744 0.42337096 4294901760
0.051682696 -0.020510744 0.42387095 4294901760
0.051682696 -0.020510744 0.42437094 4294901760
0.051682696 -0.020510744 0.42487097 4294901760
0.051682696 -0.020510744 0.42537096 4294901760
0.051682696 -0.020510744 0.42587095 4294901760
0.051682696 -0.020510744 0.42637095 4294901760
0.051682696 -0.020510744 0.42687094 4294901760
0.051682696 -0.020510744 0.42737097 4294901760
0.051682696 -0.020510744 0.42787096 4294901760
0.051682696 -0.020510744 0.42837095 4294901760
0.051682696 -0.020510744 0.42887095 4294901760
0.051682696 -0.020510744 0.42937097 4294901760
0.051682696 -0.020510744 0.42987096 4294901760
0.051682696 -0.020510744 0.43037096 4294901760
0.051682696 -0.020510744 0.43087095 4294901760
0.051682696 -0.020510744 0.43137097 4294901760
0.051682696 -0.020510744 0.43187097 4294901760
0.051682696 -0.020510744 0.43237096 4294901760
0.051682696 -0.020510744 0.43287095 4294901760
0.051682696 -0.020510744 0.43337095 4294901760
0.051682696 -0.020510744 0.43387097 4294901760
0.051682696 -0.020510744 0.43437096 4294901760
0.051682696 -0.020510744 0.43487096 4294901760
0.051682696 -0.020510744 0.43537095 4294901760
0.051682696 -0.020510744 0.43587095 4294901760
0.051682696 -0.020510744 0.43637097 4294901760
0.051682696 -0.020510744 0.43687096 4294901760
0.051682696 -0.020510744 0.43737096 4294901760
0.051682696 -0.020510744 0.43787095 4294901760
0.051682696 -0.020510744 0.43837097 4294901760
0.051682696 -0.020510744 0.43887097 4294901760
0.051682696 -0.020510744 0.43937096 4294901760
0.051682696 -0.020510744 0.43987095 4294901760
0.051682696 -0.020510744 0.44037095 4294901760
0.051682696 -0.020510744 0.44087097 4294901760
0.051682696 -0.020510744 0.44137096 4294901760
0.051682696 -0.020510744 0.44187096 4294901760
0.051682696 -0.020510744 0.44237095 4294901760
0.051682696 -0.020510744 0.44287097 4294901760
0.051682696 -0.020510744 0.44337097 4294901760
0.051682696 -0.020510744 0.44387096 4294901760
0.051682696 -0.020510744 0.44437096 4294901760
0.051682696 -0.020510744 0.44487095 4294901760
0.051682696 -0.020510744 0.44537097 4294901760
0.051682696 -0.020510744 0.44587097 4294901760
0.051682696 -0.020510744 0.44637096 4294901760
0.051682696 -0.020510744 0.44687095 4294901760
0.051682696 -0.020510744 0.44737098 4294901760
0.051682696 -0.020510744 0.44787097 4294901760
0.051682696 -0.020510744 0.44837096 4294901760
0.051682696 -0.020510744 0.44887096 4294901760
0.051682696 -0.020510744 0.44937095 4294901760
0.051682696 -0.020510744 0.44987097 4294901760
0.051682696 -0.020510744 0.45037097 4294901760
0.051682696 -0.020510744 0.45087096 4294901760
0.051682696 -0.020510744 0.45137095 4294901760
0.051682696 -0.020510744 0.45187098 4294901760
0.051682696 -0.020510744 0.45237097 4294901760
0.051682696 -0.020510744 0.45287097 4294901760
0.051682696 -0.020510744 0.45337096 4294901760
0.051682696 -0.020510744 0.45387095 4294901760
0.051682696 -0.020510744 0.45437098 4294901760
0.051682696 -0.020510744 0.45487097 4294901760
0.051682696 -0.020510744 0.45537096 4294901760
0.051682696 -0.020510744 0.45587096 4294901760
0.051682696 -0.020510744 0.45637095 4294901760
0.051682696 -0.020510744 0.45687097 4294901760
0.051682696 -0.020510744 0.45737097 4294901760
0.051682696 -0.020510744 0.45787096 4294901760
0.051682696 -0.020510744 0.45837095 4294901760
0.051682696 -0.020510744 0.45887095 4294901760
0.051682696 -0.020510744 0.45937097 4294901760
0.051682696 -0.020510744 0.45987096 4294901760
0.051682696 -0.020510744 0.46037096 4294901760
0.051682696 -0.020510744 0.46087098 4294901760
0.051682696 -0.020510744 0.46137097 4294901760
0.051682696 -0.020510744 0.46187097 4294901760
0.051682696 -0.020510744 0.46237096 4294901760
0.051682696 -0.020510744 0.46287096 4294901760
0.051682696 -0.020510744 0.46337098 4294901760
0.051682696 -0.020510744 0.46387097 4294901760
0.051682696 -0.020510744 0.46437097 4294901760
0.051682696 -0.020510744 0.41437095 4278255360
0.051390886 -0.020384533 0.41475686 4278255360
0.051099077 -0.020258322 0.41514274 4278255360
0.050807271 -0.020132111 0.41552866 4278255360
0.050515462 -0.0200059 0.41591457 4278255360
0.050223652 -0.019879689 0.41630045 4278255360
0.049931843 -0.019753478 0.41668636 4278255360
0.049640033 -0.019627267 0.41707224 4278255360
0.049348224 -0.019501057 0.41745815 4278255360
0.049056418 -0.019374846 0.41784406 4278255360
0.048764609 -0.019248635 0.41822994 4278255360
0.048472799 -0.019122424 0.41861585 4278255360
0.04818099 -0.018996213 0.41900176 4278255360
0.04788918 -0.018870002 0.41938764 4278255360
0.047597371 -0.018743791 0.41977355 4278255360
0.047305565 -0.01861758 0.42015946 4278255360
0.047013756 -0.018491369 0.42054534 4278255360
0.046721946 -0.018365158 0.42093125 4278255360
0.046430137 -0.018238947 0.42131716 4278255360
0.046138328 -0.018112736 0.42170304 4278255360
0.045846522 -0.017986525 0.42208895 4278255360
0.045554712 -0.017860314 0.42247483 4278255360
0.045262903 -0.017734103 0.42286074 4278255360
0.044971094 -0.017607892 0.42324665 4278255360
0.044679284 -0.017481681 0.42363253 4278255360
0.044387475 -0.01735547 0.42401844 4278255360
0.044095669 -0.017229259 0.42440435 4278255360
0.04380386 -0.017103048 0.42479023 4278255360
0.04351205 -0.016976837 0.42517614 4278255360
0.043220241 -0.016850626 0.42556205 4278255360
0.042928431 -0.016724415 0.42594793 4278255360
0.042636625 -0.016598204 0.42633384 4278255360
0.042344816 -0.016471993 0.42671973 4278255360
0.042053007 -0.016345782 0.42710564 4278255360
0.041761197 -0.016219571 0.42749155 4278255360
0.041469388 -0.01609336 0.42787743 4278255360
0.041177578 -0.015967149 0.42826334 4278255360
0.040885769 -0.015840938 0.42864925 4278255360
0.040593963 -0.015714727 0.42903513 4278255360
0.040302154 -0.015588516 0.42942104 4278255360
0.040010344 -0.015462305 0.42980695 4278255360
0.039718535 -0.015336094 0.43019283 4278255360
0.039426729 -0.015209883 0.43057874 4278255360
0.03913492 -0.015083672 0.43096465 4278255360
0.03884311 -0.014957462 0.43135053 4278255360
0.038551301 -0.014831251 0.43173644 4278255360
0.038259491 -0.01470504 0.43212232 4278255360
0.037967682 -0.014578829 0.43250823 4278255360
0.037675872 -0.014452618 0.43289414 4278255360
0.037384063 -0.014326407 0.43328002 4278255360
0.037092257 -0.014200196 0.43366593 4278255360
0.036800448 -0.014073985 0.43405184 4278255360
0.036508638 -0.013947774 0.43443772 4278255360
0.036216833 -0.013821563 0.43482363 4278255360
0.035925023 -0.013695352 0.43520954 4278255360
0.035633214 -0.013569141 0.43559542 4278255360
0.035341404 -0.01344293 0.43598133 4278255360
0.035049595 -0.013316719 0.43636721 4278255360
0.034757785 -0.013190508 0.43675312 4278255360
0.034465976 -0.013064297 0.43713903 4278255360
0.034174167 -0.012938086 0.43752491 4278255360
0.033882357 -0.012811875 0.43791083 4278255360
0.033590551 -0.012685664 0.43829674 4278255360
0.033298742 -0.012559453 0.43868262 4278255360
0.033006936 -0.012433242 0.43906853 4278255360
0.032715127 -0.012307031 0.43945444 4278255360
0.032423317 -0.01218082 0.43984032 4278255360
0.032131508 -0.012054609 0.44022623 4278255360
0.031839699 -0.011928398 0.44061214 4278255360
0.031547889 -0.011802187 0.44099802 4278255360
0.03125608 -0.011675976 0.44138393 4278255360
0.030964272 -0.011549765 0.44176981 4278255360
0.030672463 -0.011423554 0.44215572 4278255360
0.030380653 -0.011297343 0.44254163 4278255360
0.030088846 -0.011171132 0.44292751 4278255360
0.029797036 -0.011044921 0.44331342 4278255360
0.029505229 -0.01091871 0.44369933 4278255360
0.029213419 -0.010792499 0.44408521 4278255360
0.028921612 -0.010666288 0.44447112 4278255360
0.0286298 -0.010540077 0.44485703 4278255360
0.028337993 -0.010413866 0.44524291 4278255360
0.028046183 -0.010287656 0.44562882 4278255360
0.027754376 -0.010161445 0.4460147 4278255360
0.027462566 -0.010035234 0.44640061 4278255360
0.027170759 -0.0099090226 0.44678652 4278255360
0.026878947 -0.0097828116 0.4471724 4278255360
0.02658714 -0.0096566007 0.44755831 4278255360
0.02629533 -0.0095303897 0.44794422 4278255360
0.026003523 -0.0094041787 0.4483301 4278255360
0.025711713 -0.0092779677 0.44871601 4278255360
0.025419906 -0.0091517568 0.44910192 4278255360
0.025128094 -0.0090255458 0.44948781 4278255360
0.024836287 -0.0088993348 0.44987372 4278255360
0.024544477 -0.0087731238 0.45025963 4278255360
0.02425267 -0.0086469129 0.45064551 4278255360
0.02396086 -0.0085207019 0.45103142 4278255360
0.023669053 -0.0083944909 0.4514173 4278255360
0.023377243 -0.00826828 0.45180321 4278255360
0.023085434 -0.008142069 0.45218912 4278255360
0.022793626 -0.008015858 0.452575 4278255360
0.022501817 -0.007889647 0.45296091 4278255360
