# .PCD v0.7 - Point Cloud Data file format
VERSION 0.7
FIELDS x y z rgb
SIZE 4 4 4 4
TYPE F F F U
COUNT 1 1 1 1
WIDTH 1069
HEIGHT 1
VIEWPOINT 0 0 0 1 0 0 0
POINTS 1069
DATA ascii
0.030315682 0.068266347 0.31 4279586600
0.031019444 0.067605712 0.30700001 4279652904
0.031912293 0.067385495 0.30600002 4279587109
0.03279864 0.067165278 0.30500001 4279193634
0.033678498 0.066945069 0.30400002 4279062818
0.034551855 0.066724852 0.303 4279194918
0.035418723 0.066504642 0.30200002 4279458603
0.036279093 0.066284426 0.30100003 4279524396
0.03713296 0.066064209 0.30000001 4279261224
0.037980337 0.065843999 0.29900002 4279194918
0.025607489 0.070167422 0.31400001 4279519523
0.026627364 0.070167422 0.31400001 4279652391
0.027559187 0.069943964 0.31300002 4280047147
0.028484514 0.069720492 0.31200001 4279718182
0.029403348 0.069497034 0.31100002 4280047147
0.030315682 0.069273569 0.31 4279849770
0.030918404 0.068379723 0.30600002 4279652904
0.031808 0.06815625 0.30500001 4279718695
0.032691106 0.067932792 0.30400002 4279587109
0.033567712 0.067709327 0.303 4279456293
0.034437824 0.067485869 0.30200002 4279063072
0.035301443 0.067262404 0.30100003 4279655723
0.036279093 0.067262404 0.30100003 4279261478
0.03713296 0.067038938 0.30000001 4279458603
0.037980337 0.066815481 0.29900002 4279524398
0.038690947 0.06636855 0.29700002 4279129638
0.039655603 0.06636855 0.29700002 4279720748
0.040483486 0.066145085 0.296 4280113453
0.026627364 0.071187645 0.31400001 4280046635
0.027647236 0.071187645 0.31400001 4280046633
0.028575812 0.070960931 0.31300002 4279915047
0.029497892 0.070734218 0.31200001 4279980840
0.030413477 0.070507504 0.31100002 4280046633
0.030817362 0.069147229 0.30500001 4279718182
0.031703714 0.068920523 0.30400002 4279652643
0.032583568 0.068693802 0.303 4279849508
0.033456929 0.068467095 0.30200002 4279389471
0.034437824 0.068467095 0.30200002 4279456547
0.035301443 0.068240389 0.30100003 4278864923
0.036158562 0.068013668 0.30000001 4278998306
0.037009187 0.067786962 0.29900002 4278274583
0.037853312 0.067560248 0.29800001 4279195685
0.038690947 0.067333534 0.29700002 4279524650
0.039655603 0.067333534 0.29700002 4279195685
0.040483486 0.067106821 0.296 4279260965
0.041444898 0.067106821 0.296 4279981869
0.025770595 0.072667778 0.31600001 4279454498
0.026712166 0.072437823 0.31500003 4280178219
0.027647236 0.072207861 0.31400001 4280046633
0.028667107 0.072207861 0.31400001 4280046633
0.029592438 0.071977898 0.31300002 4279980840
0.030511267 0.071747936 0.31200001 4279849254
0.030716322 0.069908246 0.30400002 4279586596
0.031599425 0.069678284 0.303 4279849768
0.032583568 0.069678284 0.303 4279586596
0.033456929 0.069448322 0.30200002 4279849508
0.034323793 0.069218367 0.30100003 4279585312
0.035184164 0.068988398 0.30000001 4279653156
0.036158562 0.068988398 0.30000001 4278931486
0.037009187 0.068758443 0.29900002 4278866205
0.037853312 0.068528473 0.29800001 4279195170
0.038690947 0.068298519 0.29700002 4279589928
0.039522082 0.068068549 0.296 4279655721
0.040483486 0.068068549 0.296 4279392297
0.041304883 0.067838594 0.29500002 4279456808
0.042263042 0.067838594 0.29500002 4279916846
0.025770595 0.073694497 0.31600001 4279520293
0.026712166 0.073461294 0.31500003 4279849770
0.027735285 0.073461294 0.31500003 4280178219
0.028667107 0.073228076 0.31400001 4280244012
0.029592438 0.072994873 0.31300002 4280178219
0.030511267 0.072761655 0.31200001 4279980840
0.030716322 0.070895977 0.30400002 4279718182
0.031599425 0.070662759 0.303 4279718182
0.03247603 0.070429556 0.30200002 4279652389
0.033456929 0.070429556 0.30200002 4278729492
0.034323793 0.070196345 0.30100003 4280503852
0.035184164 0.069963135 0.30000001 4279255066
0.036038034 0.069729924 0.29900002 4279258914
0.037009187 0.069729924 0.29900002 4279456547
0.037853312 0.069496706 0.29800001 4279062302
0.038690947 0.069263503 0.29700002 4279523623
0.039522082 0.069030285 0.296 4279326758
0.040346719 0.068797082 0.29500002 4279721516
0.041304883 0.068797082 0.29500002 4279720748
0.042119775 0.068563864 0.294 4279127843
0.04307469 0.068563864 0.294 4279981867
0.026796965 0.07472121 0.31600001 4280244014
0.027735285 0.074484758 0.31500003 4280244014
0.028758405 0.074484758 0.31500003 4279980840
0.029781528 0.074484758 0.31500003 4279849254
0.029631134 0.071647234 0.303 4280309805
0.030615279 0.071647234 0.303 4279718182
0.031599425 0.071647234 0.303 4279783975
0.03247603 0.071410783 0.30200002 4279783975
0.033456929 0.071410783 0.30200002 4280045863
0.034323793 0.071174324 0.30100003 4278727189
0.035184164 0.070937857 0.30000001 4279121433
0.036038034 0.070701405 0.29900002 4279585566
0.036885407 0.070464939 0.29800001 4279587363
0.037853312 0.070464939 0.29800001 4279588133
0.038690947 0.07022848 0.29700002 4279127582
0.039522082 0.069992021 0.296 4279260965
0.040346719 0.069755562 0.29500002 4279260965
0.041304883 0.069755562 0.29500002 4279327019
0.042119775 0.069519103 0.294 4280248121
0.04307469 0.069519103 0.294 4279325990
0.043879841 0.069282643 0.29300001 4279456806
0.029631134 0.072631717 0.303 4280046633
0.030615279 0.072631717 0.303 4279718182
0.031599425 0.072631717 0.303 4279783975
0.03247603 0.072392009 0.30200002 4279520291
0.033346146 0.072152302 0.30100003 4278201608
0.034323793 0.072152302 0.30100003 4279186711
0.035184164 0.071912594 0.30000001 4280503852
0.036038034 0.071672887 0.29900002 4279849256
0.036885407 0.071433172 0.29800001 4279718184
0.037853312 0.071433172 0.29800001 4279521318
0.038690947 0.071193472 0.29700002 4279587111
0.039522082 0.070953757 0.296 4279127328
0.040346719 0.070714049 0.29500002 4278996255
0.041164864 0.070474342 0.294 4279194918
0.042119775 0.070474342 0.294 4279523883
0.042928182 0.070234634 0.29300001 4279721262
0.043879841 0.070234634 0.29300001 4279457578
0.044678502 0.069994926 0.29200003 4278733855
0.028646991 0.073616199 0.303 4279981094
0.029631134 0.073616199 0.303 4279915047
0.030615279 0.073616199 0.303 4279783461
0.031599425 0.073616199 0.303 4279849254
0.03247603 0.073373243 0.30200002 4279586082
0.033456929 0.073373243 0.30200002 4279519010
0.034323793 0.073130287 0.30100003 4278394630
0.035184164 0.072887324 0.30000001 4280699950
0.036038034 0.072644368 0.29900002 4279783463
0.036885407 0.072401412 0.29800001 4279717670
0.037853312 0.072401412 0.29800001 4279718184
0.038690947 0.072158456 0.29700002 4279389219
0.039522082 0.071915492 0.296 4279521318
0.040346719 0.071672536 0.29500002 4279258914
0.041164864 0.071429573 0.294 4278799900
0.041976515 0.071186624 0.29300001 4278932000
0.042928182 0.071186624 0.29300001 4279655723
0.043730084 0.070943668 0.29200003 4280050229
0.044678502 0.070943668 0.29200003 4279852850
0.045470659 0.070700705 0.29100001 4279062050
0.046256322 0.070457749 0.29000002 4279916844
0.047198243 0.070457749 0.29000002 4280045863
0.028646991 0.074600674 0.303 4279915563
0.029631134 0.074600674 0.303 4279718184
0.030615279 0.074600674 0.303 4279783977
0.031599425 0.074600674 0.303 4279586598
0.03247603 0.07435447 0.30200002 4279257631
0.033456929 0.07435447 0.30200002 4278925588
0.034323793 0.074108265 0.30100003 4279645209
0.035184164 0.073862053 0.30000001 4279977254
0.036038034 0.073615849 0.29900002 4280045867
0.037009187 0.073615849 0.29900002 4278794517
0.037853312 0.073369637 0.29800001 4280110375
0.038690947 0.073123433 0.29700002 4279980070
0.039522082 0.072877221 0.296 4279455010
0.040346719 0.072631024 0.29500002 4279258914
0.041164864 0.072384812 0.294 4279390500
0.041976515 0.072138608 0.29300001 4279062302
0.042928182 0.072138608 0.29300001 4278931998
0.043730084 0.071892403 0.29200003 4279326756
0.044525489 0.071646191 0.29100001 4279261224
0.045470659 0.071646191 0.29100001 4280379194
0.046256322 0.071399987 0.29000002 4279062820
0.047198243 0.071399987 0.29000002 4279588394
0.047974162 0.071153775 0.289 4280179248
0.028741537 0.07583461 0.30400002 4279849256
0.029631134 0.075585149 0.303 4279849770
0.030615279 0.075585149 0.303 4279718184
0.031599425 0.075585149 0.303 4279718184
0.03247603 0.075335696 0.30200002 4279586082
0.033456929 0.075335696 0.30200002 4278726925
0.034323793 0.075086243 0.30100003 4280239653
0.035301443 0.075086243 0.30100003 4280044584
0.036158562 0.074836783 0.30000001 4279781412
0.037009187 0.07458733 0.29900002 4278659086
0.037853312 0.07433787 0.29800001 4279051023
0.038690947 0.074088417 0.29700002 4280369702
0.039522082 0.073838957 0.296 4279651105
0.040346719 0.073589511 0.29500002 4279455010
0.041164864 0.073340051 0.294 4279193888
0.041976515 0.073090598 0.29300001 4279062302
0.042928182 0.073090598 0.29300001 4279193886
0.043730084 0.072841145 0.29200003 4279063070
0.044525489 0.072591685 0.29100001 4279260965
0.045470659 0.072591685 0.29100001 4279523883
0.046256322 0.072342232 0.29000002 4280379194
0.047198243 0.072342232 0.29000002 4279984438
0.047974162 0.072092772 0.289 4279522601
0.048912831 0.072092772 0.289 4279982639
0.028741537 0.076822333 0.30400002 4280111658
0.029631134 0.076569624 0.303 4279980072
0.030615279 0.076569624 0.303 4279783463
0.031599425 0.076569624 0.303 4279783463
0.032583568 0.076569624 0.303 4279649572
0.033456929 0.076316923 0.30200002 4278988564
0.034323793 0.076064222 0.30100003 4281095473
0.035301443 0.076064222 0.30100003 4279979559
0.036158562 0.075811513 0.30000001 4279910947
0.037009187 0.075558811 0.29900002 4278920207
0.037853312 0.075306103 0.29800001 4279443986
0.038690947 0.075053401 0.29700002 4279181328
0.039522082 0.074800692 0.296 4278724109
0.040346719 0.074547991 0.29500002 4279846692
0.041164864 0.074295282 0.294 4279586334
0.041976515 0.074042581 0.29300001 4279652641
0.042928182 0.074042581 0.29300001 4279324189
0.043730084 0.07378988 0.29200003 4278930201
0.044525489 0.073537171 0.29100001 4278996507
0.045314405 0.07328447 0.29000002 4279391265
0.046256322 0.07328447 0.29000002 4279457830
0.047198243 0.07328447 0.29000002 4279919154
0.047974162 0.073031753 0.289 4280905799
0.048912831 0.073031753 0.289 4279326508
0.029728929 0.077810064 0.30400002 4280177451
0.030615279 0.077554107 0.303 4279914279
0.031599425 0.077554107 0.303 4280111658
0.032583568 0.077554107 0.303 4280044330
0.033456929 0.077298157 0.30200002 4278856724
0.034437824 0.077298157 0.30200002 4279055125
0.035301443 0.077042207 0.30100003 4279912996
0.036158562 0.07678625 0.30000001 4279515678
0.037009187 0.076530293 0.29900002 4279116818
0.037853312 0.076274335 0.29800001 4280957739
0.038690947 0.076018386 0.29700002 4279312914
0.039522082 0.075762428 0.296 4279443473
0.040346719 0.075506479 0.29500002 4279116305
0.041164864 0.075250521 0.294 4279715617
0.042119775 0.075250521 0.294 4279716898
0.042928182 0.074994572 0.29300001 4279586848
0.043730084 0.074738614 0.29200003 4279192603
0.044525489 0.074482657 0.29100001 4279061789
0.045314405 0.074226707 0.29000002 4279128095
0.046256322 0.074226707 0.29000002 4278996509
0.047035489 0.07397075 0.289 4279326244
0.047974162 0.07397075 0.289 4279787572
0.048912831 0.07397075 0.289 4281695569
0.030716322 0.078797795 0.30400002 4280111658
0.031599425 0.078538589 0.303 4280374830
0.032583568 0.078538589 0.303 4279056154
0.033567712 0.078538589 0.303 4279778850
0.034437824 0.078279383 0.30200002 4280108840
0.035301443 0.078020185 0.30100003 4280241963
0.036158562 0.07776098 0.30000001 4279317277
0.037009187 0.077501781 0.29900002 4278788625
0.037853312 0.077242576 0.29800001 4280432676
0.038690947 0.07698337 0.29700002 4278984717
0.039522082 0.076724164 0.296 4279312400
0.040483486 0.076724164 0.296 4279443986
0.041304883 0.076464966 0.29500002 4278853133
0.042119775 0.07620576 0.294 4280303911
0.04307469 0.07620576 0.294 4279716898
0.043730084 0.075687356 0.29200003 4279848738
0.044678502 0.075687356 0.29200003 4279520543
0.04562692 0.075687356 0.29200003 4279455264
0.04657533 0.075687356 0.29200003 4279127582
0.047523748 0.075687356 0.29200003 4279128095
0.030716322 0.079785518 0.30400002 4281029428
0.031599425 0.079523057 0.303 4280505135
0.032583568 0.079523057 0.303 4280110377
0.033567712 0.079523057 0.303 4279911715
0.034437824 0.07926061 0.30200002 4279781412
0.035301443 0.078998163 0.30100003 4279980072
0.036279093 0.078998163 0.30100003 4278395662
0.03713296 0.078735702 0.30000001 4279314199
0.037980337 0.078473255 0.29900002 4279709723
0.038821217 0.078210801 0.29800001 4280301860
0.039655603 0.077948347 0.29700002 4280037405
0.040483486 0.077685893 0.296 4279641877
0.041304883 0.077423446 0.29500002 4279378195
0.042263042 0.077423446 0.29500002 4279312402
0.04307469 0.077160984 0.294 4278921740
0.044029601 0.077160984 0.294 4280701229
0.044984512 0.077160984 0.294 4279717668
0.045939427 0.077160984 0.294 4279455010
0.046894338 0.077160984 0.294 4279324191
0.047849249 0.077160984 0.294 4279061789
0.030716322 0.080773242 0.30400002 4280891696
0.031703714 0.080773242 0.30400002 4280894512
0.032583568 0.080507539 0.303 4280569391
0.033567712 0.080507539 0.303 4280306989
0.034437824 0.080241837 0.30200002 4279980074
0.035418723 0.080241837 0.30200002 4279848488
0.036279093 0.079976141 0.30100003 4280173608
0.03713296 0.079710439 0.30000001 4279314195
0.037980337 0.079444736 0.29900002 4279444500
0.038821217 0.079179034 0.29800001 4279774748
0.039655603 0.078913331 0.29700002 4278986000
0.040483486 0.078647628 0.296 4281748536
0.041444898 0.078647628 0.296 4280103200
0.042263042 0.078381933 0.29500002 4279443988
0.04307469 0.078116223 0.294 4279443473
0.044179361 0.078381933 0.29500002 4278919437
0.045137525 0.078381933 0.29500002 4279913514
0.046095688 0.078381933 0.29500002 4279652391
0.047053844 0.078381933 0.29500002 4279521316
0.048012007 0.078381933 0.29500002 4279389984
0.031703714 0.081760973 0.30400002 4280562731
0.032583568 0.081492022 0.303 4280369200
0.033567712 0.081492022 0.303 4280569141
0.034437824 0.081223071 0.30200002 4280177453
0.035418723 0.081223071 0.30200002 4280045867
0.036279093 0.080954127 0.30100003 4280242733
0.03713296 0.080685169 0.30000001 4279711774
0.037980337 0.080416225 0.29900002 4279575574
0.038821217 0.080147266 0.29800001 4279443988
0.039655603 0.079878323 0.29700002 4279446553
0.040620256 0.079878323 0.29700002 4280696618
0.041444898 0.079609364 0.296 4279181330
0.042263042 0.079340421 0.29500002 4280958509
0.043221205 0.079340421 0.29500002 4279641879
0.044029601 0.079071462 0.294 4279312400
0.045137525 0.079340421 0.29500002 4279052308
0.046095688 0.079340421 0.29500002 4280371500
0.047053844 0.079340421 0.29500002 4279585314
0.048012007 0.079340421 0.29500002 4279980070
0.030716322 0.082748704 0.30400002 4280694064
0.031703714 0.082748704 0.30400002 4280496938
0.032583568 0.082476497 0.303 4280431145
0.033567712 0.082476497 0.303 4279839776
0.034551855 0.082476497 0.303 4280701231
0.035418723 0.082204305 0.30200002 4280176168
0.036279093 0.081932105 0.30100003 4280374317
0.03725674 0.081932105 0.30100003 4280176940
0.038107362 0.081659898 0.30000001 4280894510
0.03895149 0.081387706 0.29900002 4279445272
0.039789122 0.081115499 0.29800001 4279707160
0.040620256 0.080843307 0.29700002 4279509266
0.041444898 0.0805711 0.296 4279641365
0.042263042 0.080298908 0.29500002 4280893227
0.04307469 0.080026701 0.294 4281025583
0.044029601 0.080026701 0.294 4279313684
0.044678502 0.07948231 0.29200003 4279575574
0.04562692 0.07948231 0.29200003 4279312916
0.046415824 0.079210103 0.29100001 4278988816
0.047198243 0.07893791 0.29000002 4280109860
0.047974162 0.078665704 0.289 4279586082
0.048912831 0.078665704 0.289 4279586850
0.052493267 0.077032506 0.28300002 4279784742
0.053412456 0.077032506 0.28300002 4284060520
0.054139648 0.076760307 0.28200001 4285374081
0.055055585 0.076760307 0.28200001 4280045354
0.055773046 0.076488107 0.28100002 4280637741
0.029728929 0.083736435 0.30400002 4280956722
0.030716322 0.083736435 0.30400002 4280825136
0.031703714 0.083736435 0.30400002 4280693803
0.032691106 0.083736435 0.30400002 4280496424
0.033567712 0.083460979 0.303 4280233252
0.034551855 0.083460979 0.303 4279774750
0.035418723 0.083185531 0.30200002 4280896561
0.036399618 0.083185531 0.30200002 4280242731
0.03725674 0.082910091 0.30100003 4280176938
0.038107362 0.082634635 0.30000001 4280307754
0.03895149 0.082359187 0.29900002 4280832817
0.039789122 0.082083732 0.29800001 4279510291
0.040620256 0.081808291 0.29700002 4279640852
0.041444898 0.081532836 0.296 4279640852
0.042263042 0.081257388 0.29500002 4280103200
0.043221205 0.081257388 0.29500002 4279182096
0.044029601 0.08098194 0.294 4279971614
0.044831507 0.080706492 0.29300001 4280168221
0.04562692 0.080431044 0.29200003 4279312912
0.046415824 0.080155596 0.29100001 4279706643
0.047198243 0.079880148 0.29000002 4279249424
0.047974162 0.079604693 0.289 4279914281
0.048912831 0.079604693 0.289 4279783463
0.049679011 0.079329252 0.28800002 4279389732
0.050438691 0.079053797 0.287 4279389732
0.051191878 0.078778349 0.28600001 4279521570
0.051938564 0.078502908 0.28500003 4279192605
0.052678756 0.078227453 0.28400001 4279456547
0.053412456 0.077952005 0.28300002 4279653156
0.054139648 0.077676557 0.28200001 4283927148
0.055055585 0.077676557 0.28200001 4288005801
0.055773046 0.077401109 0.28100002 4280900659
0.056685731 0.077401109 0.28100002 4280571694
0.028741537 0.084724151 0.30400002 4281154354
0.029728929 0.084724151 0.30400002 4281088308
0.030716322 0.084724151 0.30400002 4280758830
0.031703714 0.084724151 0.30400002 4280627244
0.032691106 0.084724151 0.30400002 4280561704
0.033567712 0.084445447 0.303 4280101153
0.034551855 0.084445447 0.303 4280233252
0.035536002 0.084445447 0.303 4279970594
0.036399618 0.084166758 0.30200002 4280699182
0.03725674 0.083888061 0.30100003 4280504881
0.038234387 0.083888061 0.30100003 4280242731
0.039081763 0.083609357 0.30000001 4280045352
0.039922647 0.083330661 0.29900002 4280568618
0.040757023 0.083051965 0.29800001 4279775768
0.041584916 0.082773268 0.29700002 4279641365
0.042406306 0.082494564 0.296 4279443986
0.043221205 0.082215868 0.29500002 4279641365
0.044029601 0.081937164 0.294 4280103200
0.044831507 0.081658475 0.29300001 4279446553
0.04562692 0.081379779 0.29200003 4280367653
0.046415824 0.081101075 0.29100001 4279706643
0.047198243 0.080822378 0.29000002 4279773717
0.047974162 0.080543682 0.289 4279648291
0.048912831 0.080543682 0.289 4279518758
0.049679011 0.080264986 0.28800002 4279586086
0.050438691 0.079986282 0.287 4279718184
0.051191878 0.079707585 0.28600001 4279389217
0.051938564 0.079428896 0.28500003 4279126558
0.052678756 0.079150192 0.28400001 4279323937
0.053601187 0.079150192 0.28400001 4279456293
0.054139648 0.078592792 0.28200001 4279258916
0.055055585 0.078592792 0.28200001 4283599459
0.055773046 0.078314103 0.28100002 4288202151
0.056685731 0.078314103 0.28100002 4280833846
0.057393439 0.078035399 0.28 4280244012
0.058094662 0.077756703 0.27900001 4280309807
0.059000853 0.077756703 0.27900001 4280830768
0.028741537 0.085711882 0.30400002 4281219634
0.029728929 0.085711882 0.30400002 4281088048
0.030716322 0.085711882 0.30400002 4281088048
0.031703714 0.085711882 0.30400002 4280693290
0.032691106 0.085711882 0.30400002 4280561704
0.033567712 0.085429929 0.303 4280627497
0.034551855 0.085429929 0.303 4280430116
0.035536002 0.085429929 0.303 4280298530
0.036399618 0.085147984 0.30200002 4280167711
0.037380517 0.085147984 0.30200002 4280104481
0.038234387 0.084866039 0.30100003 4280373036
0.039081763 0.084584087 0.30000001 4280241963
0.039922647 0.08430215 0.29900002 4280242733
0.040757023 0.084020197 0.29800001 4280176170
0.041584916 0.083738253 0.29700002 4279512857
0.042406306 0.0834563 0.296 4279313684
0.043221205 0.083174355 0.29500002 4279443986
0.044029601 0.082892403 0.294 4280103198
0.044831507 0.082610466 0.29300001 4280238629
0.04562692 0.082328521 0.29200003 4278856463
0.046415824 0.082046568 0.29100001 4279576084
0.047198243 0.081764624 0.29000002 4280761382
0.047974162 0.081482671 0.289 4280306219
0.048912831 0.081482671 0.289 4278661396
0.049679011 0.081200726 0.28800002 4279516189
0.050438691 0.080918774 0.287 4280241961
0.051191878 0.080636837 0.28600001 4279586082
0.052120801 0.080636837 0.28600001 4279454496
0.052864246 0.080354892 0.28500003 4279323424
0.053601187 0.080072939 0.28400001 4279323937
0.054331634 0.079790995 0.28300002 4279325220
0.055055585 0.079509042 0.28200001 4279127841
0.055773046 0.079227097 0.28100002 4283662684
0.056685731 0.079227097 0.28100002 4288463524
0.057393439 0.078945145 0.28 4281360444
0.058094662 0.078663208 0.27900001 4280571694
0.059000853 0.078663208 0.27900001 4280637237
0.059907045 0.078663208 0.27900001 4280701747
0.028741537 0.086699612 0.30400002 4281219634
0.029728929 0.086699612 0.30400002 4281022255
0.030716322 0.086699612 0.30400002 4280824876
0.031703714 0.086699612 0.30400002 4280693290
0.032691106 0.086699612 0.30400002 4280693290
0.033678498 0.086699612 0.30400002 4280561704
0.034551855 0.086414412 0.303 4280692518
0.035536002 0.086414412 0.303 4280363553
0.036520146 0.086414412 0.303 4280495393
0.037380517 0.086129218 0.30200002 4280363807
0.038234387 0.085844025 0.30100003 4280037920
0.039212037 0.085844025 0.30100003 4281094710
0.040056165 0.085558824 0.30000001 4280307756
0.040893797 0.085273631 0.29900002 4280176170
0.041584916 0.084703237 0.29700002 4280307243
0.042406306 0.084418036 0.296 4280042022
0.043221205 0.084132843 0.29500002 4279641881
0.044029601 0.083847642 0.294 4279443988
0.044831507 0.083562449 0.29300001 4279379988
0.04562692 0.083277255 0.29200003 4280828458
0.046415824 0.082992055 0.29100001 4279313936
0.047198243 0.082706869 0.29000002 4281026348
0.048140164 0.082706869 0.29000002 4280307243
0.048912831 0.082421668 0.289 4280438829
0.049679011 0.082136475 0.28800002 4280437291
0.050438691 0.081851274 0.287 4278726162
0.051191878 0.08156608 0.28600001 4279520289
0.052120801 0.08156608 0.28600001 4279455010
0.052864246 0.081280887 0.28500003 4279784229
0.053601187 0.080995686 0.28400001 4279455264
0.054523617 0.080995686 0.28400001 4279193375
0.055446051 0.080995686 0.28400001 4279193375
0.055773046 0.080140099 0.28100002 4280178473
0.056685731 0.080140099 0.28100002 4282610511
0.057393439 0.079854898 0.28 4287675553
0.058094662 0.079569705 0.27900001 4283925606
0.059000853 0.079569705 0.27900001 4280702514
0.059907045 0.079569705 0.27900001 4280637491
0.06059527 0.079284512 0.27800003 4281161528
0.061498217 0.079284512 0.27800003 4282408263
0.028646991 0.087398887 0.303 4281022255
0.029728929 0.087687336 0.30400002 4281088048
0.030716322 0.087687336 0.30400002 4280890669
0.031703714 0.087687336 0.30400002 4280824876
0.032691106 0.087687336 0.30400002 4280430118
0.033678498 0.087687336 0.30400002 4280561704
0.03466589 0.087687336 0.30400002 4280364325
0.035536002 0.087398887 0.303 4280232739
0.036520146 0.087398887 0.303 4280363553
0.037504289 0.087398887 0.303 4280495393
0.038361412 0.087110445 0.30200002 4280495393
0.039212037 0.086822003 0.30100003 4280562469
0.040056165 0.086533554 0.30000001 4280371498
0.040893797 0.086245112 0.29900002 4280636208
0.041724931 0.085956663 0.29800001 4280373547
0.042549573 0.085668221 0.29700002 4280241961
0.043367717 0.085379772 0.296 4281290036
0.044179361 0.08509133 0.29500002 4279445270
0.044984512 0.084802881 0.294 4279443986
0.045783173 0.084514439 0.29300001 4279772438
0.046415824 0.083937548 0.29100001 4279379477
0.047360994 0.083937548 0.29100001 4280961841
0.048140164 0.083649106 0.29000002 4280111660
0.048912831 0.083360657 0.289 4280045865
0.049679011 0.083072215 0.28800002 4280176938
0.050438691 0.082783766 0.287 4280043047
0.051191878 0.082495324 0.28600001 4278660882
0.052120801 0.082495324 0.28600001 4280110123
0.052864246 0.082206883 0.28500003 4279585312
0.053601187 0.081918433 0.28400001 4279980840
0.054331634 0.081629992 0.28300002 4279587363
0.055250823 0.081629992 0.28300002 4279258398
0.055971522 0.081341542 0.28200001 4279521570
0.056685731 0.081053101 0.28100002 4279850281
0.057393439 0.080764651 0.28 4281623616
0.058302883 0.080764651 0.28 4288070817
0.059000853 0.08047621 0.27900001 4284124268
0.059907045 0.08047621 0.27900001 4279716902
0.06059527 0.080187768 0.27800003 4280309037
0.061498217 0.080187768 0.27800003 4280571696
0.06217669 0.079899319 0.27700001 4281881659
0.063076392 0.079899319 0.27700001 4284709221
0.030716322 0.088675059 0.30400002 4280890669
0.031703714 0.088675059 0.30400002 4280561704
0.032691106 0.088675059 0.30400002 4280692520
0.033678498 0.088675059 0.30400002 4280560934
0.03466589 0.088675059 0.30400002 4280363555
0.035653286 0.088675059 0.30400002 4280495139
0.036520146 0.088383362 0.303 4280429346
0.037504289 0.088383362 0.303 4280429346
0.038361412 0.088091671 0.30200002 4280692518
0.039342307 0.088091671 0.30200002 4280824104
0.040189687 0.087799981 0.30100003 4280364836
0.041030563 0.087508276 0.30000001 4281223475
0.04186495 0.087216586 0.29900002 4281094958
0.042692836 0.086924888 0.29800001 4280569641
0.043367717 0.0863415 0.296 4280701227
0.044179361 0.08604981 0.29500002 4280963885
0.044984512 0.085758112 0.294 4279642649
0.045783173 0.085466422 0.29300001 4279772951
0.04657533 0.085174732 0.29200003 4279379479
0.047360994 0.084883027 0.29100001 4280634672
0.048140164 0.084591337 0.29000002 4279848486
0.048912831 0.084299639 0.289 4279320861
0.049679011 0.084007949 0.28800002 4278595087
0.050438691 0.083716251 0.287 4280108326
0.051191878 0.083424561 0.28600001 4280241198
0.052120801 0.083424561 0.28600001 4279121693
0.052864246 0.08313287 0.28500003 4279385887
0.053601187 0.082841173 0.28400001 4279913768
0.054331634 0.082549483 0.28300002 4279849254
0.055250823 0.082549483 0.28300002 4279783715
0.055971522 0.082257777 0.28200001 4279652643
0.056685731 0.081966087 0.28100002 4279455264
0.057393439 0.08167439 0.28 4279653156
0.058302883 0.08167439 0.28 4280506414
0.059000853 0.081382699 0.27900001 4288136104
0.059907045 0.081382699 0.27900001 4284911469
0.06059527 0.081091009 0.27800003 4280636719
0.061498217 0.081091009 0.27800003 4280177451
0.06217669 0.080799311 0.27700001 4280701999
0.063076392 0.080799311 0.27700001 4281291571
0.029728929 0.08966279 0.30400002 4280824874
0.030716322 0.08966279 0.30400002 4280693288
0.031703714 0.08966279 0.30400002 4280759081
0.032691106 0.08966279 0.30400002 4280560932
0.033678498 0.08966279 0.30400002 4280495139
0.03466589 0.08966279 0.30400002 4280363553
0.035653286 0.08966279 0.30400002 4280429346
0.036520146 0.089367837 0.303 4280429346
0.037504289 0.089367837 0.303 4280692518
0.038488433 0.089367837 0.303 4280692518
0.039342307 0.089072898 0.30200002 4280955690
0.040189687 0.088777959 0.30100003 4281153841
0.041030563 0.088483013 0.30000001 4281614903
0.04186495 0.088188075 0.29900002 4281815864
0.042692836 0.087893121 0.29800001 4281357362
0.043514233 0.087598182 0.29700002 4280832813
0.044329122 0.087303236 0.296 4280701481
0.045137525 0.087008297 0.29500002 4280898096
0.045783173 0.086418413 0.29300001 4280171555
0.04657533 0.086123466 0.29200003 4279776029
0.047360994 0.08582852 0.29100001 4280503084
0.048140164 0.085533582 0.29000002 4280111147
0.048912831 0.085238636 0.289 4278857748
0.049679011 0.084943697 0.28800002 4279314195
0.050438691 0.084648743 0.287 4279511576
0.051191878 0.084353805 0.28600001 4279647523
0.052120801 0.084353805 0.28600001 4280175151
0.052864246 0.084058866 0.28500003 4279515937
0.053601187 0.08376392 0.28400001 4279450398
0.054331634 0.083468981 0.28300002 4279782182
0.055250823 0.083468981 0.28300002 4280045352
0.055971522 0.083174028 0.28200001 4280242731
0.056685731 0.082879089 0.28100002 4279783463
0.057598419 0.082879089 0.28100002 4279192605
0.058302883 0.082584143 0.28 4279521570
0.059000853 0.082289204 0.27900001 4279519258
0.059907045 0.082289204 0.27900001 4287411853
0.06059527 0.081994265 0.27800003 4285503602
0.061498217 0.081994265 0.27800003 4280505135
0.06217669 0.081699312 0.27700001 4280440875
0.063076392 0.081699312 0.27700001 4280506668
0.063976087 0.081699312 0.27700001 4281423927
0.064875782 0.081699312 0.27700001 4283658584
0.028741537 0.090650514 0.30400002 4281153841
0.029728929 0.090650514 0.30400002 4280824876
0.030716322 0.090650514 0.30400002 4280824876
0.031703714 0.090650514 0.30400002 4280759083
0.032691106 0.090650514 0.30400002 4280430118
0.033678498 0.090650514 0.30400002 4280430118
0.03466589 0.090650514 0.30400002 4280495139
0.035653286 0.090650514 0.30400002 4280429346
0.036640678 0.090650514 0.30400002 4280231967
0.037504289 0.090352319 0.303 4280692520
0.038488433 0.090352319 0.303 4280692520
0.039342307 0.090054132 0.30200002 4281021485
0.040189687 0.089755945 0.30100003 4281548346
0.041030563 0.089457743 0.30000001 4281943357
0.042004965 0.089457743 0.30000001 4282141501
0.042836104 0.089159556 0.29900002 4286748808
0.043660741 0.088861361 0.29800001 4281357880
0.044329122 0.088264972 0.296 4280832303
0.045137525 0.087966785 0.29500002 4280702001
0.045783173 0.087370396 0.29300001 4280570415
0.04657533 0.087072209 0.29200003 4280701231
0.047360994 0.086774014 0.29100001 4279779875
0.048140164 0.086475819 0.29000002 4279977254
0.048912831 0.086177625 0.289 4279448602
0.049679011 0.085879438 0.28800002 4279510293
0.050438691 0.085581243 0.287 4279838744
0.051191878 0.085283048 0.28600001 4279314967
0.052120801 0.085283048 0.28600001 4280568366
0.052864246 0.084984861 0.28500003 4280306989
0.053601187 0.084686667 0.28400001 4280108840
0.054331634 0.08438848 0.28300002 4279187226
0.055250823 0.08438848 0.28300002 4280372784
0.055971522 0.084090278 0.28200001 4280045352
0.056685731 0.08379209 0.28100002 4279915049
0.057598419 0.08379209 0.28100002 4279849770
0.058302883 0.083493896 0.28 4279192351
0.059212323 0.083493896 0.28 4279784227
0.059907045 0.083195701 0.27900001 4279848736
0.06059527 0.082897514 0.27800003 4285109108
0.061498217 0.082897514 0.27800003 4286490761
0.062401161 0.082897514 0.27800003 4281097268
0.063076392 0.08259932 0.27700001 4280374315
0.063976087 0.08259932 0.27700001 4280440621
0.064875782 0.08259932 0.27700001 4280899376
0.029728929 0.091638245 0.30400002 4280889899
0.030716322 0.091638245 0.30400002 4280824106
0.031703714 0.091638245 0.30400002 4280759083
0.032691106 0.091638245 0.30400002 4280693290
0.033678498 0.091638245 0.30400002 4280429348
0.03466589 0.091638245 0.30400002 4280495139
0.035653286 0.091638245 0.30400002 4280297760
0.036640678 0.091638245 0.30400002 4280495139
0.037504289 0.091336802 0.303 4280692518
0.038488433 0.091336802 0.303 4280758311
0.03947258 0.091336802 0.303 4281481521
0.040323205 0.091035359 0.30200002 4281745978
0.041167334 0.090733923 0.30100003 4281943357
0.042004965 0.09043248 0.30000001 4282798918
0.042836104 0.090131037 0.29900002 4287077006
0.043660741 0.089829594 0.29800001 4287538842
0.044478886 0.089528158 0.29700002 4282802511
0.04529053 0.089226708 0.296 4281292854
0.045939427 0.088623822 0.294 4280570415
0.04657533 0.088020951 0.29200003 4280373549
0.047360994 0.0877195 0.29100001 4280570161
0.048140164 0.087418064 0.29000002 4278988310
0.048912831 0.087116621 0.289 4280632624
0.049679011 0.086815178 0.28800002 4279248404
0.050438691 0.086513735 0.287 4279772951
0.051191878 0.086212292 0.28600001 4279445268
0.052120801 0.086212292 0.28600001 4281159218
0.052864246 0.085910857 0.28500003 4278397708
0.053601187 0.085609414 0.28400001 4280240426
0.054331634 0.085307971 0.28300002 4280832303
0.055250823 0.085307971 0.28300002 4279252506
0.055971522 0.085006528 0.28200001 4279845922
0.056685731 0.084705092 0.28100002 4280176168
0.057598419 0.084705092 0.28100002 4279980842
0.058302883 0.084403642 0.28 4279783463
0.059212323 0.084403642 0.28 4279388703
0.059907045 0.084102206 0.27900001 4279455010
0.06059527 0.08380077 0.27800003 4279586084
0.061498217 0.08380077 0.27800003 4282939472
0.062401161 0.08380077 0.27800003 4287740053
0.063076392 0.08349932 0.27700001 4281622849
0.063976087 0.08349932 0.27700001 4280375600
0.064875782 0.08349932 0.27700001 4280244012
0.065538026 0.083197884 0.27600002 4280636204
0.066434473 0.083197884 0.27600002 4281751868
0.029728929 0.092625968 0.30400002 4280890669
0.030716322 0.092625968 0.30400002 4280759083
0.031703714 0.092625968 0.30400002 4280627497
0.032691106 0.092625968 0.30400002 4280561704
0.033678498 0.092625968 0.30400002 4280429348
0.03466589 0.092625968 0.30400002 4280495139
0.035653286 0.092625968 0.30400002 4280363553
0.036640678 0.092625968 0.30400002 4280560932
0.03762807 0.092625968 0.30400002 4280692518
0.038488433 0.092321269 0.303 4280758311
0.03947258 0.092321269 0.303 4281416241
0.040456723 0.092321269 0.303 4281614390
0.041167334 0.091711894 0.30100003 4282009150
0.042004965 0.091407202 0.30000001 4285759864
0.042836104 0.091102518 0.29900002 4287076238
0.043660741 0.090797819 0.29800001 4287077008
0.044478886 0.090493135 0.29700002 4287405973
0.04529053 0.090188436 0.296 4283526232
0.046251941 0.090188436 0.296 4281225011
0.046415824 0.088664986 0.29100001 4281095475
0.047198243 0.088360295 0.29000002 4280767024
0.048140164 0.088360295 0.29000002 4280372012
0.048912831 0.088055603 0.289 4279581217
0.049679011 0.087750912 0.28800002 4280499239
0.050438691 0.08744622 0.287 4280234784
0.051370867 0.08744622 0.287 4279906586
0.052120801 0.087141536 0.28600001 4280105762
0.052864246 0.086836845 0.28500003 4280764975
0.053601187 0.086532153 0.28400001 4280172838
0.054331634 0.086227462 0.28300002 4280437545
0.055250823 0.086227462 0.28300002 4280700717
0.055971522 0.08592277 0.28200001 4279383320
0.056685731 0.085618079 0.28100002 4279646494
0.057598419 0.085618079 0.28100002 4280440112
0.058302883 0.085313387 0.28 4279914279
0.059212323 0.085313387 0.28 4280045865
0.059907045 0.085008696 0.27900001 4279717668
0.060813237 0.085008696 0.27900001 4278862359
0.061498217 0.084704012 0.27800003 4279717668
0.062401161 0.084704012 0.27800003 4280702001
0.063076392 0.084399313 0.27700001 4288727471
0.063976087 0.084399313 0.27700001 4282807123
0.064641573 0.084094629 0.27600002 4280374830
0.065538026 0.084094629 0.27600002 4280440621
0.066434473 0.084094629 0.27600002 4280637487
0.067086965 0.08378993 0.27500001 4281751357
0.067980163 0.08378993 0.27500001 4284315233
0.029728929 0.093613699 0.30400002 4280693290
0.030716322 0.093613699 0.30400002 4280693290
0.031703714 0.093613699 0.30400002 4280561704
0.032691106 0.093613699 0.30400002 4280430118
0.033678498 0.093613699 0.30400002 4280364325
0.03466589 0.093613699 0.30400002 4280561186
0.035653286 0.093613699 0.30400002 4280495393
0.036640678 0.093613699 0.30400002 4280495393
0.03762807 0.093613699 0.30400002 4280495139
0.038615461 0.093613699 0.30400002 4280824104
0.039602853 0.093613699 0.30400002 4281679413
0.040590249 0.093613699 0.30400002 4281876792
0.041577637 0.093613699 0.30400002 4281482036
0.042565033 0.093613699 0.30400002 4287141264
0.043552425 0.093613699 0.30400002 4287339157
0.04453982 0.093613699 0.30400002 4287207824
0.045527209 0.093613699 0.30400002 4287470482
0.046514604 0.093613699 0.30400002 4287865240
0.047501996 0.093613699 0.30400002 4285366388
0.046415824 0.089610472 0.29100001 4281290804
0.047198243 0.08930254 0.29000002 4280963889
0.048140164 0.08930254 0.29000002 4280636467
0.048912831 0.088994592 0.289 4280570674
0.049679011 0.08868666 0.28800002 4280302887
0.050438691 0.088378713 0.287 4280236580
0.051370867 0.088378713 0.287 4280764460
0.052120801 0.08807078 0.28600001 4280567848
0.052864246 0.08776284 0.28500003 4280174119
0.053601187 0.0874549 0.28400001 4280372012
0.054331634 0.08714696 0.28300002 4279055638
0.055250823 0.08714696 0.28300002 4280437545
0.055971522 0.086839013 0.28200001 4280700717
0.056685731 0.08653108 0.28100002 4280700463
0.057598419 0.08653108 0.28100002 4279384090
0.058302883 0.086223133 0.28 4280503852
0.059212323 0.086223133 0.28 4280307752
0.059907045 0.0859152 0.27900001 4280045863
0.06059527 0.08560726 0.27800003 4279783461
0.061498217 0.08560726 0.27800003 4279454496
0.06217669 0.085299321 0.27700001 4279783461
0.063076392 0.085299321 0.27700001 4280505131
0.063976087 0.085299321 0.27700001 4288791973
0.064641573 0.084991381 0.27600002 4283922774
0.065538026 0.084991381 0.27600002 4280176936
0.066434473 0.084991381 0.27600002 4280374828
0.067086965 0.084683441 0.27500001 4280702764
0.067980163 0.084683441 0.27500001 4281293104
0.033678498 0.094601423 0.30400002 4280298532
0.03466589 0.094601423 0.30400002 4280495139
0.035653286 0.094601423 0.30400002 4280429600
0.036640678 0.094601423 0.30400002 4280363807
0.03762807 0.094601423 0.30400002 4280758565
0.038615461 0.094601423 0.30400002 4281284655
0.039602853 0.094601423 0.30400002 4281679413
0.040590249 0.094601423 0.30400002 4281942587
0.041577637 0.094601423 0.30400002 4282863689
0.042565033 0.094601423 0.30400002 4287536022
0.043552425 0.094601423 0.30400002 4287207571
0.04453982 0.094601423 0.30400002 4287207824
0.045527209 0.094601423 0.30400002 4287339410
0.046514604 0.094601423 0.30400002 4287405203
0.047501996 0.094601423 0.30400002 4287405203
0.047198243 0.090244778 0.29000002 4282013505
0.048140164 0.090244778 0.29000002 4280964403
0.048912831 0.089933589 0.289 4280767794
0.049679011 0.089622401 0.28800002 4280832817
0.050438691 0.089311205 0.287 4280897583
0.051370867 0.089311205 0.287 4278922256
0.052120801 0.089000024 0.28600001 4280568364
0.052864246 0.088688836 0.28500003 4279318810
0.053601187 0.088377647 0.28400001 4280700463
0.054523617 0.088377647 0.28400001 4279975457
0.055250823 0.088066459 0.28300002 4280436780
0.055971522 0.087755263 0.28200001 4279253017
0.056685731 0.087444082 0.28100002 4280372266
0.057598419 0.087444082 0.28100002 4280240426
0.058302883 0.087132886 0.28 4278989847
0.059000853 0.086821698 0.27900001 4279978278
0.059907045 0.086821698 0.27900001 4280111145
0.06059527 0.086510517 0.27800003 4279849254
0.061498217 0.086510517 0.27800003 4279980840
0.06217669 0.086199321 0.27700001 4279783715
0.063076392 0.086199321 0.27700001 4279520543
0.063745126 0.08588814 0.27600002 4279780897
0.064641573 0.08588814 0.27600002 4286884746
0.065538026 0.08588814 0.27600002 4283596641
0.066193767 0.085576944 0.27500001 4281031479
0.067086965 0.085576944 0.27500001 4280570924
0.067980163 0.085576944 0.27500001 4280702510
0.068622917 0.085265756 0.27400002 4281029678
0.069512874 0.085265756 0.27400002 4282670912
0.048140164 0.091187023 0.29000002 4282144064
0.049082082 0.091187023 0.29000002 4281554230
0.049679011 0.090558149 0.28800002 4280767794
0.050438691 0.090243705 0.287 4280569645
0.051370867 0.090243705 0.287 4281028145
0.052120801 0.089929268 0.28600001 4279514141
0.052864246 0.089614831 0.28500003 4280963635
0.053601187 0.089300394 0.28400001 4280239912
0.054523617 0.089300394 0.28400001 4280042020
0.055250823 0.088985957 0.28300002 4279778850
0.055971522 0.088671513 0.28200001 4281554491
0.056685731 0.088357076 0.28100002 4280304676
0.057598419 0.088357076 0.28100002 4280569645
0.058302883 0.088042639 0.28 4280702001
0.059000853 0.087728202 0.27900001 4279121433
0.059907045 0.087728202 0.27900001 4279581471
0.06059527 0.087413765 0.27800003 4280111145
0.061498217 0.087413765 0.27800003 4280178219
0.06217669 0.087099329 0.27700001 4279915047
0.063076392 0.087099329 0.27700001 4279783461
0.063745126 0.086784892 0.27600002 4279717668
0.064641573 0.086784892 0.27600002 4279979557
0.065300561 0.086470447 0.27500001 4284845413
0.066193767 0.086470447 0.27500001 4285700470
0.067086965 0.086470447 0.27500001 4281228604
0.067732967 0.086156011 0.27400002 4280374319
0.068622917 0.086156011 0.27400002 4280638000
0.069512874 0.086156011 0.27400002 4280636717
0.070145875 0.085841574 0.273 4281684792
0.049679011 0.09149389 0.28800002 4281160501
0.050438691 0.091176197 0.287 4281161268
0.051191878 0.090858512 0.28600001 4280898608
0.052120801 0.090858512 0.28600001 4280701231
0.052864246 0.090540834 0.28500003 4279777826
0.053601187 0.090223141 0.28400001 4279909666
0.054523617 0.090223141 0.28400001 4280438829
0.055250823 0.089905456 0.28300002 4280241450
0.055971522 0.089587763 0.28200001 4280569131
0.056685731 0.089270078 0.28100002 4280634922
0.057598419 0.089270078 0.28100002 4279779102
0.058302883 0.088952385 0.28 4280569391
0.059000853 0.088634707 0.27900001 4281097018
0.059907045 0.088634707 0.27900001 4280174119
0.06059527 0.088317022 0.27800003 4279514906
0.061498217 0.088317022 0.27800003 4280438059
0.06217669 0.087999329 0.27700001 4279915049
0.06284868 0.087681644 0.27600002 4279980842
0.063745126 0.087681644 0.27600002 4279915301
0.064641573 0.087681644 0.27600002 4279783715
0.065300561 0.087363951 0.27500001 4279914270
0.066193767 0.087363951 0.27500001 4283266892
0.06684301 0.087046273 0.27400002 4287016078
0.067732967 0.087046273 0.27400002 4282740560
0.068372466 0.08672858 0.273 4280505901
0.069259167 0.08672858 0.273 4280176936
0.070145875 0.08672858 0.273 4280636717
0.070772395 0.086410895 0.27200001 4281357364
0.050438691 0.092108682 0.287 4281552694
0.051191878 0.091787748 0.28600001 4281030194
0.052120801 0.091787748 0.28600001 4280964401
0.052864246 0.091466814 0.28500003 4280898096
0.053601187 0.091145873 0.28400001 4279713057
0.054523617 0.091145873 0.28400001 4278923541
0.055250823 0.090824947 0.28300002 4280700977
0.055971522 0.090504006 0.28200001 4279121945
0.056685731 0.090183072 0.28100002 4280240680
0.057598419 0.090183072 0.28100002 4279647262
0.058302883 0.089862131 0.28 4281094708
0.059000853 0.089541197 0.27900001 4280176170
0.059907045 0.089541197 0.27900001 4280373547
0.06059527 0.089220263 0.27800003 4280502825
0.061276998 0.088899322 0.27700001 4279712539
0.06217669 0.088899322 0.27700001 4279911715
0.06284868 0.088578388 0.27600002 4279979559
0.063745126 0.088578388 0.27600002 4280177449
0.064407364 0.088257447 0.27500001 4279980840
0.065300561 0.088257447 0.27500001 4279586336
0.065953061 0.087936521 0.27400002 4279980324
0.06684301 0.087936521 0.27400002 4281425724
0.067732967 0.087936521 0.27400002 4286819212
0.068372466 0.087615579 0.273 4281294138
0.069259167 0.087615579 0.273 4280374315
0.070145875 0.087615579 0.273 4280176936
0.070772395 0.087294646 0.27200001 4280637487
0.071655847 0.087294646 0.27200001 4281554230
0.051191878 0.092716992 0.28600001 4282671175
0.052120801 0.092716992 0.28600001 4281291569
0.052864246 0.092392817 0.28500003 4280898608
0.053601187 0.09206862 0.28400001 4280569643
0.054523617 0.09206862 0.28400001 4280042535
0.055250823 0.091744445 0.28300002 4278594324
0.055971522 0.091420248 0.28200001 4280305194
0.056685731 0.091096073 0.28100002 4280042020
0.057598419 0.091096073 0.28100002 4280304422
0.058302883 0.090771876 0.28 4280436778
0.059000853 0.090447702 0.27900001 4279582236
0.059907045 0.090447702 0.27900001 4280701229
0.06059527 0.090123519 0.27800003 4280570413
0.061276998 0.08979933 0.27700001 4280700715
0.06217669 0.08979933 0.27700001 4280040221
0.06284868 0.089475147 0.27600002 4280304424
0.063745126 0.089475147 0.27600002 4280309039
0.064407364 0.089150958 0.27500001 4280178221
0.065300561 0.089150958 0.27500001 4280046635
0.065953061 0.088826776 0.27400002 4279717670
0.06684301 0.088826776 0.27400002 4279716898
0.067485765 0.088502586 0.273 4280111143
0.068372466 0.088502586 0.273 4286162048
0.069259167 0.088502586 0.273 4281557310
0.069888934 0.088178404 0.27200001 4280244014
0.070772395 0.088178404 0.27200001 4279849770
0.071655847 0.088178404 0.27200001 4280505131
0.072272621 0.087854221 0.27100003 4281029678
0.073152833 0.087854221 0.27100003 4283458123
0.052864246 0.093318813 0.28500003 4281554489
0.053601187 0.092991367 0.28400001 4281029682
0.054331634 0.092663936 0.28300002 4280768307
0.055250823 0.092663936 0.28300002 4280965432
0.055971522 0.092336498 0.28200001 4279974946
0.056685731 0.092009068 0.28100002 4280961839
0.057598419 0.092009068 0.28100002 4280569391
0.058302883 0.091681629 0.28 4280569391
0.059212323 0.091681629 0.28 4279581982
0.059907045 0.091354199 0.27900001 4279514906
0.06059527 0.091026768 0.27800003 4280700715
0.061276998 0.09069933 0.27700001 4280634922
0.06217669 0.09069933 0.27700001 4280634922
0.06284868 0.090371899 0.27600002 4279713057
0.063514166 0.090044461 0.27500001 4279318045
0.064407364 0.090044461 0.27500001 4280109610
0.065063111 0.089717031 0.27400002 4279980842
0.065953061 0.089717031 0.27400002 4280309805
0.066599056 0.089389592 0.273 4279849254
0.067485765 0.089389592 0.273 4279388703
0.068372466 0.089389592 0.273 4279913766
0.069005474 0.089062162 0.27200001 4285241718
0.069888934 0.089062162 0.27200001 4281295428
0.070772395 0.089062162 0.27200001 4280440623
0.07139241 0.088734731 0.27100003 4280440621
0.072272621 0.088734731 0.27100003 4280309035
0.073152833 0.088734731 0.27100003 4281029167
0.073759846 0.088407286 0.27000001 4281421106
0.053601187 0.093914114 0.28400001 4282144831
0.054331634 0.093583435 0.28300002 4281029682
0.055250823 0.093583435 0.28300002 4280767794
0.055971522 0.093252748 0.28200001 4281161268
0.056685731 0.092922069 0.28100002 4280435495
0.057598419 0.092922069 0.28100002 4279317275
0.058302883 0.092591383 0.28 4280832049
0.059212323 0.092591383 0.28 4279844641
0.059907045 0.092260703 0.27900001 4280699180
0.06059527 0.091930024 0.27800003 4280961069
0.061276998 0.09159933 0.27700001 4279252504
0.06217669 0.09159933 0.27700001 4280438059
0.06284868 0.091268651 0.27600002 4280767794
0.063514166 0.090937965 0.27500001 4280567342
0.064407364 0.090937965 0.27500001 4279316762
0.065063111 0.090607285 0.27400002 4279912231
0.065953061 0.090607285 0.27400002 4280374317
0.066599056 0.090276599 0.273 4280374315
0.067485765 0.090276599 0.273 4279980070
0.068122022 0.08994592 0.27200001 4279716898
0.069005474 0.08994592 0.27200001 4280309037
0.069631994 0.089615241 0.27100003 4281954896
0.070512205 0.089615241 0.27100003 4282612058
0.07139241 0.089615241 0.27100003 4280835383
0.072005928 0.089284547 0.27000001 4280177451
0.072882891 0.089284547 0.27000001 4280440623
0.073759846 0.089284547 0.27000001 4280440110
0.074360378 0.088953868 0.26900002 4281092143
0.075234093 0.088953868 0.26900002 4284905317
0.054331634 0.094502926 0.28300002 4281223729
0.055055585 0.094168991 0.28200001 4281554743
0.055971522 0.094168991 0.28200001 4280964401
0.056685731 0.093835063 0.28100002 4281030194
0.057598419 0.093835063 0.28100002 4281225013
0.058302883 0.093501121 0.28 4279842336
0.059212323 0.093501121 0.28 4280634670
0.059907045 0.093167193 0.27900001 4280700977
0.06059527 0.092833266 0.27800003 4279776283
0.061276998 0.092499331 0.27700001 4280434727
0.06217669 0.092499331 0.27700001 4280239653
0.06284868 0.092165396 0.27600002 4280373036
0.063514166 0.091831461 0.27500001 4280701231
0.064407364 0.091831461 0.27500001 4280503338
0.065063111 0.091497533 0.27400002 4279712287
0.065712355 0.091163598 0.273 4279976229
0.066599056 0.091163598 0.273 4280505133
0.067238562 0.090829663 0.27200001 4280176938
0.068122022 0.090829663 0.27200001 4280374828
0.069005474 0.090829663 0.27200001 4279783461
0.069631994 0.090495735 0.27100003 4279849768
0.070512205 0.090495735 0.27100003 4280836665
0.071128964 0.0901618 0.27000001 4283270240
0.072005928 0.0901618 0.27000001 4280506164
0.072882891 0.0901618 0.27000001 4279980840
0.073486663 0.089827873 0.26900002 4280178219
0.074360378 0.089827873 0.26900002 4280176938
0.075234093 0.089827873 0.26900002 4280108067
0.076107807 0.089827873 0.26900002 4284971630
0.055055585 0.095085241 0.28200001 4283525721
0.055971522 0.095085241 0.28200001 4281554741
0.056685731 0.094748057 0.28100002 4281029680
0.057598419 0.094748057 0.28100002 4280832815
0.058302883 0.094410874 0.28 4281029682
0.059212323 0.094410874 0.28 4279843106
0.059907045 0.094073698 0.27900001 4280961839
0.06059527 0.093736514 0.27800003 4280765225
0.061498217 0.093736514 0.27800003 4280699434
0.06217669 0.093399331 0.27700001 4279909153
0.06284868 0.093062155 0.27600002 4280107815
0.063514166 0.092724964 0.27500001 4280042022
0.064407364 0.092724964 0.27500001 4280832049
0.065063111 0.092387788 0.27400002 4280700463
0.065712355 0.092050605 0.273 4280304424
0.066599056 0.092050605 0.273 4279843106
0.067238562 0.091713421 0.27200001 4280306221
0.068122022 0.091713421 0.27200001 4280177451
0.068751782 0.091376245 0.27100003 4280244014
0.069631994 0.091376245 0.27100003 4279783461
0.070252009 0.091039062 0.27000001 4279586082
