# .PCD v0.7 - Point Cloud Data file format
VERSION 0.7
FIELDS x y z rgb
SIZE 4 4 4 4
TYPE F F F U
COUNT 1 1 1 1
WIDTH 1078
HEIGHT 1
VIEWPOINT 0 0 0 1 0 0 0
POINTS 1078
DATA ascii
0.047028389 0.012640489 0.36100003 4279312398
0.04820092 0.012640489 0.36100003 4279311889
0.049373444 0.012640489 0.36100003 4279640854
0.051718507 0.012640489 0.36100003 4281746480
0.05523609 0.012640489 0.36100003 4281483567
0.056408621 0.012640489 0.36100003 4281154604
0.05742164 0.012605473 0.36000001 4280759844
0.035498686 0.013889942 0.36300001 4279508494
0.04820092 0.013813416 0.36100003 4280759848
0.049373444 0.013813416 0.36100003 4279443221
0.050545976 0.013813416 0.36100003 4279772440
0.059262205 0.013660357 0.35700002 4281615407
0.060421735 0.013660357 0.35700002 4280694819
0.035498686 0.015069366 0.36300001 4280693542
0.043390274 0.014944826 0.36000001 4280299293
0.044559553 0.014944826 0.36000001 4280562465
0.045855861 0.014986341 0.36100003 4280628258
0.047028389 0.014986341 0.36100003 4279444498
0.04820092 0.014986341 0.36100003 4280825641
0.049373444 0.014986341 0.36100003 4280365090
0.050545976 0.014986341 0.36100003 4279706647
0.059262205 0.014820287 0.35700002 4281615921
0.060421735 0.014820287 0.35700002 4280365600
0.061408777 0.014778772 0.35600001 4279904537
0.062565066 0.014778772 0.35600001 4281155118
0.044559553 0.016114503 0.36000001 4280759331
0.045728832 0.016114503 0.36000001 4280957225
0.049373444 0.016159266 0.36100003 4281088813
0.050545976 0.016159266 0.36100003 4279838231
0.059262205 0.015980216 0.35700002 4281746993
0.060421735 0.015980216 0.35700002 4280562206
0.061408777 0.015935453 0.35600001 4279640084
0.062565066 0.015935453 0.35600001 4280891948
0.050545976 0.017332194 0.36100003 4280234016
0.059428204 0.017188158 0.35800001 4281220136
0.060421735 0.017140146 0.35700002 4280364573
0.061408777 0.017092135 0.35600001 4279838231
0.062565066 0.017092135 0.35600001 4280167198
0.063542366 0.017044123 0.35500002 4281352497
0.064695403 0.017044123 0.35500002 4281089325
0.058428172 0.018402597 0.35900003 4281483821
0.059428204 0.018351335 0.35800001 4281285929
0.060421735 0.018300075 0.35700002 4279969815
0.061408777 0.018248815 0.35600001 4280232991
0.062565066 0.018248815 0.35600001 4279640854
0.063542366 0.018197555 0.35500002 4280891946
0.064695403 0.018197555 0.35500002 4281352497
0.06566295 0.018146293 0.354 4279776029
0.050405957 0.019623535 0.36000001 4280562983
0.058428172 0.019569024 0.35900003 4281155116
0.059428204 0.019514514 0.35800001 4280561952
0.060590982 0.019514514 0.35800001 4280101403
0.061581276 0.019460006 0.35700002 4280232989
0.062565066 0.019405494 0.35600001 4280167196
0.063542366 0.019350985 0.35500002 4281418288
0.064695403 0.019350985 0.35500002 4281418288
0.06566295 0.019296475 0.354 4280039969
0.045474783 0.020677693 0.35800001 4280562717
0.050405957 0.020793211 0.36000001 4280102432
0.058590923 0.020793211 0.36000001 4281746739
0.059594207 0.020735452 0.35900003 4280100635
0.060590982 0.020677693 0.35800001 4280101403
0.061581276 0.020619934 0.35700002 4280167196
0.062565066 0.020562174 0.35600001 4280430368
0.063721359 0.020562174 0.35600001 4280233500
0.064695403 0.020504417 0.35500002 4281945656
0.065848447 0.020504417 0.35500002 4280040737
0.05742164 0.021962887 0.36000001 4281024302
0.058590923 0.021962887 0.36000001 4280957739
0.059594207 0.021901879 0.35900003 4280429598
0.060590982 0.02184087 0.35800001 4279969047
0.061581276 0.021779863 0.35700002 4280364575
0.06274081 0.021779863 0.35700002 4280561954
0.063721359 0.021718854 0.35600001 4279641617
0.064695403 0.021657847 0.35500002 4280893481
0.065848447 0.021657847 0.35500002 4279713822
0.066812746 0.021596838 0.354 4279121945
0.057581145 0.023196824 0.36100003 4281352497
0.058590923 0.023132564 0.36000001 4280430368
0.059760205 0.023132564 0.36000001 4280034329
0.060760234 0.023068309 0.35900003 4280100633
0.061753768 0.023004051 0.35800001 4280429598
0.06274081 0.022939794 0.35700002 4279969047
0.063721359 0.022875536 0.35600001 4279838229
0.064695403 0.022811281 0.35500002 4280169756
0.06566295 0.022747021 0.354 4279319578
0.066812746 0.022747021 0.354 4279451934
0.054063562 0.024369748 0.36100003 4280429598
0.05523609 0.024369748 0.36100003 4280891946
0.057581145 0.024369748 0.36100003 4281549362
0.058590923 0.024302242 0.36000001 4280561182
0.059760205 0.024302242 0.36000001 4280165143
0.060760234 0.024234736 0.35900003 4279967764
0.061753768 0.024167228 0.35800001 4279640082
0.06274081 0.024099724 0.35700002 4279837459
0.063542366 0.023964711 0.35500002 4279838229
0.064695403 0.023964711 0.35500002 4279906586
0.06566295 0.023897203 0.354 4279189275
0.066812746 0.023897203 0.354 4279321631
0.05157524 0.025471918 0.36000001 4280299034
0.052744523 0.025471918 0.36000001 4280429598
0.054063562 0.025542675 0.36100003 4280561186
0.058753677 0.025542675 0.36100003 4279640850
0.059760205 0.025471918 0.36000001 4279967764
0.060760234 0.025401164 0.35900003 4279836178
0.061753768 0.025330408 0.35800001 4279902741
0.062565066 0.025188897 0.35600001 4279837461
0.063542366 0.025118142 0.35500002 4279706897
0.064513162 0.025047386 0.354 4279709975
0.065477468 0.024976632 0.35300002 4279123482
0.066624016 0.024976632 0.35300002 4279190045
0.052744523 0.026641594 0.36000001 4280363803
0.059760205 0.026641594 0.36000001 4279770385
0.060760234 0.026567591 0.35900003 4280033557
0.061581276 0.026419582 0.35700002 4279837461
0.062565066 0.026345577 0.35600001 4280034838
0.063363373 0.026197568 0.354 4279641617
0.064330921 0.026123563 0.35300002 4279578389
0.065291978 0.02604956 0.35200003 4278860310
0.066435277 0.02604956 0.35200003 4279190045
0.067386582 0.025975555 0.35100001 4279584033
0.051431976 0.027734019 0.35900003 4280363290
0.059594207 0.027734019 0.35900003 4279376399
0.060590982 0.027656764 0.35800001 4280033559
0.061581276 0.027579511 0.35700002 4279968532
0.062389322 0.027425004 0.35500002 4279968532
0.063184381 0.027270496 0.35300002 4279641617
0.064148679 0.027193245 0.35200003 4279578902
0.065106489 0.027115989 0.35100001 4278991383
0.066246539 0.027115989 0.35100001 4278795287
0.067194603 0.027038736 0.35000002 4279058459
0.062826395 0.028256424 0.35100001 4279511061
0.063966438 0.028256424 0.35100001 4280238629
0.064920999 0.028175922 0.35000002 4278859795
0.066057809 0.028175922 0.35000002 4278729492
0.067194603 0.028175922 0.35000002 4278861078
0.068136171 0.028095419 0.34900001 4279255836
0.061334852 0.029229354 0.34900001 4279707156
0.062826395 0.029396858 0.35100001 4278920461
0.063784197 0.029313108 0.35000002 4279647262
0.064920999 0.029313108 0.35000002 4278794002
0.066057809 0.029313108 0.35000002 4278532113
0.067002617 0.029229354 0.34900001 4279058457
0.068136171 0.029229354 0.34900001 4278992664
0.069071248 0.029145604 0.34800002 4279320346
0.070201546 0.029145604 0.34800002 4279187738
0.071331851 0.029145604 0.34800002 4280633907
0.061334852 0.030363292 0.34900001 4279707156
0.062826395 0.030537292 0.35100001 4279251221
0.063784197 0.030450294 0.35000002 4279384344
0.064920999 0.030450294 0.35000002 4279056406
0.066057809 0.030450294 0.35000002 4278925588
0.067194603 0.030450294 0.35000002 4278861078
0.068136171 0.030363292 0.34900001 4279255836
0.069269724 0.030363292 0.34900001 4278860310
0.070201546 0.030276291 0.34800002 4279254553
0.071331851 0.030276291 0.34800002 4279255066
0.072462156 0.030276291 0.34800002 4279320861
0.073592462 0.030276291 0.34800002 4279912485
0.074508041 0.030189289 0.347 4279713822
0.075635098 0.030189289 0.347 4279384092
0.076762155 0.030189289 0.347 4279318045
0.062826395 0.03167773 0.35100001 4279843612
0.063966438 0.03167773 0.35100001 4279646744
0.065106489 0.03167773 0.35100001 4279450648
0.066057809 0.031587481 0.35000002 4278728209
0.067194603 0.031587481 0.35000002 4278729492
0.068331406 0.031587481 0.35000002 4278730005
0.069269724 0.031497229 0.34900001 4281821511
0.07040327 0.031497229 0.34900001 4281228858
0.071331851 0.03140698 0.34800002 4279189273
0.072462156 0.03140698 0.34800002 4278926101
0.073592462 0.03140698 0.34800002 4278926103
0.074508041 0.031316731 0.347 4278662931
0.075635098 0.031316731 0.347 4279057176
0.076762155 0.031316731 0.347 4279057176
0.077664748 0.03122648 0.34600002 4279188762
0.078788556 0.03122648 0.34600002 4279320348
0.079681411 0.031136231 0.34500003 4279451934
0.062037833 0.033005163 0.35300002 4279511061
0.063005388 0.032911666 0.35200003 4279843612
0.064148679 0.032911666 0.35200003 4279844123
0.065291978 0.032911666 0.35200003 4279319062
0.066246539 0.032818165 0.35100001 4278990097
0.067386582 0.032818165 0.35100001 4279057174
0.068331406 0.032724667 0.35000002 4278991894
0.069468208 0.032724667 0.35000002 4278861078
0.070605002 0.032724667 0.35000002 4278795285
0.071536824 0.032631166 0.34900001 4278729490
0.072670378 0.032631166 0.34900001 4278795283
0.073592462 0.032537669 0.34800002 4278729492
0.074508041 0.032444168 0.347 4278597906
0.075635098 0.032444168 0.347 4278795283
0.076540947 0.032350671 0.34600002 4278729490
0.077664748 0.032350671 0.34600002 4278729490
0.078560852 0.032257173 0.34500003 4278597906
0.079681411 0.032257173 0.34500003 4278795285
0.080567755 0.032163672 0.34400001 4278729492
0.081685066 0.032163672 0.34400001 4278795283
0.091238588 0.031602681 0.33800003 4279450650
0.092336401 0.031602681 0.33800003 4280042274
0.062213577 0.034248844 0.354 4279644697
0.063363373 0.034248844 0.354 4279777819
0.064330921 0.034152094 0.35300002 4279581723
0.065477468 0.034152094 0.35300002 4279385369
0.066435277 0.034055348 0.35200003 4279385369
0.067578569 0.034055348 0.35200003 4279451162
0.068721868 0.034055348 0.35200003 4279057174
0.069666684 0.033958599 0.35100001 4279189273
0.070605002 0.033861853 0.35000002 4279320859
0.071741804 0.033861853 0.35000002 4278794515
0.072670378 0.033765104 0.34900001 4278334734
0.073592462 0.033668354 0.34800002 4278597906
0.074722767 0.033668354 0.34800002 4278663699
0.075635098 0.033571605 0.347 4278795285
0.076540947 0.033474859 0.34600002 4278728722
0.077664748 0.033474859 0.34600002 4278860308
0.078560852 0.033378113 0.34500003 4278728722
0.079681411 0.033378113 0.34500003 4278663701
0.080567755 0.033281364 0.34400001 4278532115
0.081685066 0.033281364 0.34400001 4278663697
0.082561679 0.033184614 0.34300002 4278532111
0.084048204 0.032894369 0.34 4278729492
0.084902078 0.032797623 0.33900002 4278729492
0.086003147 0.032797623 0.33900002 4278663699
0.087104224 0.032797623 0.33900002 4278728722
0.087945111 0.032700874 0.33800003 4278728722
0.090407446 0.032797623 0.33900002 4278926101
0.091508523 0.032797623 0.33900002 4278794515
0.092609584 0.032797623 0.33900002 4279254553
0.093987085 0.032894369 0.34 4279057174
0.095371097 0.032991119 0.34100002 4279254553
0.096761592 0.033087865 0.34200001 4279254555
0.097872406 0.033087865 0.34200001 4279320348
0.099272653 0.033184614 0.34300002 4279779875
0.10067938 0.033281364 0.34400001 4279647775
0.062389322 0.035499025 0.35500002 4279842588
0.063542366 0.035499025 0.35500002 4279844125
0.064513162 0.035399023 0.354 4279713309
0.06566295 0.035399023 0.354 4279450650
0.066812746 0.035399023 0.354 4279450648
0.067770556 0.035299029 0.35300002 4279320346
0.068917103 0.035299029 0.35300002 4279320346
0.069865167 0.035199031 0.35200003 4279715104
0.070806727 0.035099033 0.35100001 4279452445
0.071946777 0.035099033 0.35100001 4279386654
0.072878607 0.034999039 0.35000002 4279189275
0.073803931 0.034899037 0.34900001 4279123482
0.074722767 0.034799043 0.34800002 4279123480
0.075635098 0.034699045 0.347 4278991896
0.076762155 0.034699045 0.347 4278794517
0.077664748 0.034599047 0.34600002 4278860310
0.078560852 0.034499053 0.34500003 4278728724
0.079681411 0.034499053 0.34500003 4278860310
0.080567755 0.034399055 0.34400001 4278728724
0.081447616 0.034299057 0.34300002 4278794515
0.082561679 0.034299057 0.34300002 4278860308
0.083187841 0.034099061 0.34100002 4278662929
0.084048204 0.033999063 0.34 4278794515
0.085152522 0.033999063 0.34 4278794515
0.086003147 0.033899069 0.33900002 4278729492
0.087104224 0.033899069 0.33900002 4278794515
0.0882053 0.033899069 0.33900002 4278728722
0.089306369 0.033899069 0.33900002 4278662929
0.090407446 0.033899069 0.33900002 4278728722
0.091508523 0.033899069 0.33900002 4278728720
0.092609584 0.033899069 0.33900002 4278399755
0.093987085 0.033999063 0.34 4278728207
0.095371097 0.034099061 0.34100002 4278859793
0.096761592 0.034199059 0.34200001 4278728207
0.09815859 0.034299057 0.34300002 4278925586
0.099272653 0.034299057 0.34300002 4278991379
0.10067938 0.034399055 0.34400001 4278794002
0.10179669 0.034399055 0.34400001 4278925588
0.10321318 0.034499053 0.34500003 4278794002
0.10433374 0.034499053 0.34500003 4279057174
0.061753768 0.036962193 0.35800001 4279183633
0.06274081 0.03685895 0.35700002 4279908635
0.063721359 0.0367557 0.35600001 4279647516
0.064877644 0.0367557 0.35600001 4279582236
0.065848447 0.036652453 0.35500002 4279582236
0.067001484 0.036652453 0.35500002 4279450650
0.068154521 0.036652453 0.35500002 4279320348
0.069112331 0.036549207 0.354 4279386141
0.070063643 0.03644596 0.35300002 4279715106
0.071008459 0.036342718 0.35200003 4279452447
0.072151758 0.036342718 0.35200003 4279123228
0.073086828 0.036239468 0.35100001 4279189021
0.073803931 0.036032975 0.34900001 4279255068
0.074937485 0.036032975 0.34900001 4278794004
0.075853072 0.035929732 0.34800002 4279188762
0.076762155 0.035826482 0.347 4279057176
0.077664748 0.035723239 0.34600002 4279189275
0.078560852 0.035619993 0.34500003 4278926103
0.079681411 0.035619993 0.34500003 4278991896
0.080567755 0.035516743 0.34400001 4278794004
0.081685066 0.035516743 0.34400001 4279188762
0.082561679 0.0354135 0.34300002 4278991383
0.083431788 0.03531025 0.34200001 4278991381
0.084295407 0.035207007 0.34100002 4278925588
0.085402973 0.035207007 0.34100002 4278859795
0.086256839 0.035103757 0.34 4278267658
0.087361164 0.035103757 0.34 4278794002
0.0882053 0.035000514 0.33900002 4278925588
0.089306369 0.035000514 0.33900002 4278794002
0.090407446 0.035000514 0.33900002 4278794002
0.09177845 0.035103757 0.34 4278859793
0.092609584 0.035000514 0.33900002 4278925586
0.094263524 0.035207007 0.34100002 4278859793
0.09565077 0.03531025 0.34200001 4278860306
0.096761592 0.03531025 0.34200001 4278794513
0.09815859 0.0354135 0.34300002 4278991379
0.099562079 0.035516743 0.34400001 4278925586
0.10067938 0.035516743 0.34400001 4278794000
0.10209262 0.035619993 0.34500003 4278859793
0.10321318 0.035619993 0.34500003 4278728209
0.10433374 0.035619993 0.34500003 4278859795
0.061926268 0.038231868 0.35900003 4279446805
0.062916555 0.03812537 0.35800001 4279842842
0.063900352 0.038018879 0.35700002 4279911199
0.065059885 0.038018879 0.35700002 4279648027
0.066219419 0.038018879 0.35700002 4279516955
0.067190222 0.03791238 0.35600001 4279451162
0.068346508 0.03791238 0.35600001 4279582748
0.069307566 0.037805885 0.35500002 4279845922
0.070262127 0.03769939 0.354 4279912485
0.071411915 0.03769939 0.354 4279517727
0.072151758 0.0374864 0.35200003 4279320348
0.073086828 0.037379902 0.35100001 4279188762
0.074015409 0.037273411 0.35000002 4279254555
0.074937485 0.037166912 0.34900001 4279057176
0.075853072 0.037060417 0.34800002 4279254555
0.076762155 0.036953922 0.347 4279188762
0.077889211 0.036953922 0.347 4278859797
0.078788556 0.036847427 0.34600002 4278991383
0.079681411 0.036740933 0.34500003 4279253017
0.080801971 0.036740933 0.34500003 4278462990
0.081685066 0.036634434 0.34400001 4278198280
0.082802385 0.036634434 0.34400001 4279318297
0.083675742 0.036527943 0.34300002 4279187476
0.084542602 0.036421444 0.34200001 4279187990
0.085402973 0.036314949 0.34100002 4279056404
0.086510539 0.036314949 0.34100002 4279187990
0.087618113 0.036314949 0.34100002 4279122197
0.088465489 0.036208451 0.34 4279319576
0.089569807 0.036208451 0.34 4278925588
0.090674132 0.036208451 0.34 4278925588
0.092048392 0.036314949 0.34100002 4279320346
0.093975507 0.036634434 0.34400001 4279057174
0.094539955 0.036421444 0.34200001 4278596623
0.09565077 0.036421444 0.34200001 4278728209
0.09704452 0.036527943 0.34300002 4278794513
0.09844476 0.036634434 0.34400001 4278794000
0.099562079 0.036634434 0.34400001 4278859793
0.10067938 0.036634434 0.34400001 4278728207
0.10209262 0.036740933 0.34500003 4278926101
0.10321318 0.036740933 0.34500003 4278926103
0.10433374 0.036740933 0.34500003 4278991896
0.061098732 0.039617784 0.36100003 4284380260
0.062098764 0.039508041 0.36000001 4282407236
0.063092306 0.039398298 0.35900003 4280236832
0.064258337 0.039398298 0.35900003 4279713820
0.065242119 0.039288551 0.35800001 4279451162
0.066404909 0.039288551 0.35800001 4279320346
0.067567699 0.039288551 0.35800001 4279451932
0.068538494 0.039178807 0.35700002 4279451934
0.069502793 0.03906906 0.35600001 4279780899
0.070659086 0.03906906 0.35600001 4279715106
0.071411915 0.03884957 0.354 4279517473
0.072356731 0.038739827 0.35300002 4279320348
0.073295057 0.038630083 0.35200003 4279385371
0.074226879 0.038520336 0.35100001 4278990099
0.075152203 0.038410597 0.35000002 4279450650
0.076071039 0.038300849 0.34900001 4279450650
0.076983377 0.038191106 0.34800002 4279319064
0.077889211 0.038081359 0.347 4279319578
0.079016268 0.038081359 0.347 4279122199
0.079912372 0.037971616 0.34600002 4279252504
0.080801971 0.037861872 0.34500003 4278922258
0.081922531 0.037861872 0.34500003 4278922258
0.082802385 0.037752125 0.34400001 4279646492
0.083919697 0.037752125 0.34400001 4279318551
0.084789813 0.037642382 0.34300002 4279187478
0.085903868 0.037642382 0.34300002 4279319064
0.086764239 0.037532635 0.34200001 4279450650
0.087875053 0.037532635 0.34200001 4279450650
0.088985875 0.037532635 0.34200001 4279450650
0.09009669 0.037532635 0.34200001 4279319062
0.091207512 0.037532635 0.34200001 4279385369
0.092318326 0.037532635 0.34200001 4278990611
0.093975507 0.037752125 0.34400001 4279451162
0.094816387 0.037642382 0.34300002 4279187990
0.095930457 0.037642382 0.34300002 4279385369
0.097327448 0.037752125 0.34400001 4279122197
0.09844476 0.037752125 0.34400001 4279385369
0.099851504 0.037861872 0.34500003 4279187990
0.10097206 0.037861872 0.34500003 4279122197
0.10209262 0.037861872 0.34500003 4279122197
0.10321318 0.037861872 0.34500003 4278925588
0.10493857 0.038081359 0.347 4278859795
0.061098732 0.040790711 0.36100003 4284446053
0.062271263 0.040790711 0.36100003 4284644713
0.063268043 0.040677715 0.36000001 4280039969
0.06443733 0.040677715 0.36000001 4279582234
0.065606602 0.040677715 0.36000001 4279451162
0.066590399 0.040564723 0.35900003 4279452445
0.067756437 0.040564723 0.35900003 4279320861
0.068730474 0.040451728 0.35800001 4279452447
0.069698036 0.040338736 0.35700002 4279912998
0.070659086 0.040225741 0.35600001 4279715106
0.071613647 0.040112749 0.35500002 4279320348
0.072561711 0.039999753 0.354 4279320348
0.073503278 0.039886761 0.35300002 4279122199
0.074226879 0.039660774 0.35100001 4279451164
0.075152203 0.039547779 0.35000002 4279319578
0.076071039 0.039434783 0.34900001 4279516443
0.076983377 0.039321791 0.34800002 4279516443
0.078113675 0.039321791 0.34800002 4279450650
0.079016268 0.039208796 0.347 4279384344
0.080143325 0.039208796 0.347 4278197511
0.081036173 0.039095804 0.34600002 4278788623
0.082159981 0.039095804 0.34600002 4279514395
0.083043091 0.038982812 0.34500003 4279252504
0.084163651 0.038982812 0.34500003 4278856213
0.085037008 0.038869817 0.34400001 4278459658
0.086154319 0.038869817 0.34400001 4278656265
0.087271631 0.038869817 0.34400001 4278525703
0.088132001 0.038756825 0.34300002 4278328835
0.089246072 0.038756825 0.34300002 4278921486
0.090360135 0.038756825 0.34300002 4279317014
0.091474198 0.038756825 0.34300002 4279712026
0.092588268 0.038756825 0.34300002 4279252758
0.093975507 0.038869817 0.34400001 4279318551
0.095092818 0.038869817 0.34400001 4279318551
0.09621013 0.038869817 0.34400001 4279318551
0.097610384 0.038982812 0.34500003 4279450650
0.098730944 0.038982812 0.34500003 4279385371
0.099851504 0.038982812 0.34500003 4279122199
0.10126472 0.039095804 0.34600002 4279319064
0.10238854 0.039095804 0.34600002 4279516441
0.10351235 0.039095804 0.34600002 4279516441
0.10493857 0.039208796 0.347 4279450648
0.10606562 0.039208796 0.347 4279319576
0.10719269 0.039208796 0.347 4279122197
0.10831974 0.039208796 0.347 4279450648
0.10944679 0.039208796 0.347 4279450650
0.11057385 0.039208796 0.347 4279187478
0.11170091 0.039208796 0.347 4278924820
0.11282796 0.039208796 0.347 4278859797
0.11395502 0.039208796 0.347 4278728211
0.11508209 0.039208796 0.347 4278728209
0.11620913 0.039208796 0.347 4278661646
0.11733619 0.039208796 0.347 4279056404
0.11846325 0.039208796 0.347 4279385369
0.1195903 0.039208796 0.347 4279780125
0.12071736 0.039208796 0.347 4279187988
0.12219556 0.039321791 0.34800002 4279187988
0.12332587 0.039321791 0.34800002 4278859023
0.12445617 0.039321791 0.34800002 4279056402
0.12558647 0.039321791 0.34800002 4278924816
0.12671678 0.039321791 0.34800002 4278859023
0.131238 0.039321791 0.34800002 4278990613
0.1323683 0.039321791 0.34800002 4279187990
0.13349861 0.039321791 0.34800002 4279122197
0.13462891 0.039321791 0.34800002 4279713820
0.13575922 0.039321791 0.34800002 4279515928
0.13649616 0.039208796 0.347 4279844895
0.13762322 0.039208796 0.347 4279778330
0.13875026 0.039208796 0.347 4280434977
0.13987732 0.039208796 0.347 4280040221
0.14100438 0.039208796 0.347 4280171555
0.061267979 0.042079877 0.36200002 4284445799
0.062271263 0.041963637 0.36100003 4284117858
0.063443795 0.041963637 0.36100003 4282670923
0.064616323 0.041963637 0.36100003 4279976481
0.065606602 0.041847393 0.36000001 4279648543
0.066775888 0.041847393 0.36000001 4279451932
0.067945167 0.041847393 0.36000001 4279649313
0.06892246 0.041731153 0.35900003 4280175657
0.069893263 0.041614905 0.35800001 4279978278
0.07085757 0.041498665 0.35700002 4279451934
0.071815372 0.041382421 0.35600001 4279320348
0.072561711 0.041149933 0.354 4279386141
0.073503278 0.041033693 0.35300002 4279451934
0.074438356 0.040917452 0.35200003 4279254555
0.075366922 0.040801208 0.35100001 4279319578
0.076289006 0.040684965 0.35000002 4279319578
0.077204593 0.040568721 0.34900001 4279319578
0.078113675 0.04045248 0.34800002 4279319578
0.079243988 0.04045248 0.34800002 4279187478
0.080374293 0.04045248 0.34800002 4278657035
0.081270382 0.040336236 0.347 4280039201
0.082397439 0.040336236 0.347 4279712285
0.083283797 0.040219992 0.34600002 4279843871
0.084407598 0.040219992 0.34600002 4278786570
0.085531406 0.040219992 0.34600002 4279115023
0.086404771 0.040103752 0.34500003 4279180814
0.08752533 0.040103752 0.34500003 4279115021
0.08864589 0.040103752 0.34500003 4278917642
0.089506261 0.039987508 0.34400001 4278983435
0.090623572 0.039987508 0.34400001 4278917642
0.091740884 0.039987508 0.34400001 4278983435
0.093128145 0.040103752 0.34500003 4278917642
0.094248697 0.040103752 0.34500003 4278720777
0.095369257 0.040103752 0.34500003 4278524166
0.096489817 0.040103752 0.34500003 4278918924
0.097893305 0.040219992 0.34600002 4278525449
0.099017113 0.040219992 0.34600002 4279183892
0.10014093 0.040219992 0.34600002 4279185943
0.10126472 0.040219992 0.34600002 4279778332
0.10238854 0.040219992 0.34600002 4279317779
0.10381151 0.040336236 0.347 4279646744
0.10493857 0.040336236 0.347 4279318549
0.10606562 0.040336236 0.347 4279319062
0.10719269 0.040336236 0.347 4279121685
0.10831974 0.040336236 0.347 4279384344
0.10944679 0.040336236 0.347 4279515928
0.11057385 0.040336236 0.347 4279449365
0.11170091 0.040336236 0.347 4279318551
0.11282796 0.040336236 0.347 4279253271
0.11395502 0.040336236 0.347 4279319064
0.11508209 0.040336236 0.347 4279253271
0.11620913 0.040336236 0.347 4279516441
0.11733619 0.040336236 0.347 4279319062
0.11846325 0.040336236 0.347 4278990097
0.1195903 0.040336236 0.347 4279187990
0.12071736 0.040336236 0.347 4278990611
0.12184442 0.040336236 0.347 4279055890
0.12332587 0.04045248 0.34800002 4278990097
0.12445617 0.04045248 0.34800002 4279253269
0.12558647 0.04045248 0.34800002 4279122197
0.12671678 0.04045248 0.34800002 4279319576
0.12784709 0.04045248 0.34800002 4279780897
0.12897739 0.04045248 0.34800002 4279254553
0.1301077 0.04045248 0.34800002 4279188760
0.131238 0.04045248 0.34800002 4278925588
0.1323683 0.04045248 0.34800002 4278990609
0.13349861 0.04045248 0.34800002 4279056402
0.13462891 0.04045248 0.34800002 4279056402
0.13575922 0.04045248 0.34800002 4278990611
0.13688952 0.04045248 0.34800002 4279055890
0.13801983 0.04045248 0.34800002 4278990097
0.13875026 0.040336236 0.347 4279186963
0.13987732 0.040336236 0.347 4279318549
0.14100438 0.040336236 0.347 4279515928
0.14254104 0.04045248 0.34800002 4279843612
0.061267979 0.043256052 0.36200002 4284511592
0.062443756 0.043256052 0.36200002 4284248674
0.063619532 0.043256052 0.36200002 4284051295
0.064616323 0.043136563 0.36100003 4281223989
0.06578885 0.043136563 0.36100003 4280042020
0.066775888 0.043017067 0.36000001 4279648543
0.067945167 0.043017067 0.36000001 4279648543
0.06892246 0.042897578 0.35900003 4280175657
0.069893263 0.042778086 0.35800001 4280175657
0.07085757 0.042658594 0.35700002 4279582750
0.071815372 0.042539101 0.35600001 4279649313
0.072766684 0.042419609 0.35500002 4279188762
0.073503278 0.042180628 0.35300002 4279320348
0.074438356 0.042061135 0.35200003 4279188762
0.075366922 0.041941643 0.35100001 4278990613
0.076289006 0.04182215 0.35000002 4279451164
0.077204593 0.041702658 0.34900001 4279516957
0.078338139 0.041702658 0.34900001 4279319578
0.079471692 0.041702658 0.34900001 4279251734
0.080374293 0.041583166 0.34800002 4278393863
0.081504591 0.041583166 0.34800002 4279842336
0.082634896 0.041583166 0.34800002 4279646746
0.083524495 0.041463673 0.347 4278658314
0.084651552 0.041463673 0.347 4279049742
0.085778609 0.041463673 0.347 4279707674
0.086655214 0.041344184 0.34600002 4279905821
0.087779023 0.041344184 0.34600002 4278918926
0.088902831 0.041344184 0.34600002 4279313682
0.090026647 0.041344184 0.34600002 4280563749
0.091150455 0.041344184 0.34600002 4279575572
0.092274264 0.041344184 0.34600002 4280233502
0.093398072 0.041344184 0.34600002 4279510291
0.094521873 0.041344184 0.34600002 4279115535
0.095645688 0.041344184 0.34600002 4279180814
0.096769497 0.041344184 0.34600002 4279115021
0.097893305 0.041344184 0.34600002 4278917644
0.09930329 0.041463673 0.347 4279180816
0.10043035 0.041463673 0.347 4278854927
0.1015574 0.041463673 0.347 4279579418
0.10268445 0.041463673 0.347 4279447830
0.10381151 0.041463673 0.347 4278921486
0.10493857 0.041463673 0.347 4278460937
0.10606562 0.041463673 0.347 4278196994
0.10719269 0.041463673 0.347 4278197506
0.10831974 0.041463673 0.347 4279053072
0.10944679 0.041463673 0.347 4279250451
0.11057385 0.041463673 0.347 4279711772
0.11170091 0.041463673 0.347 4279777819
0.11282796 0.041463673 0.347 4279580440
0.11395502 0.041463673 0.347 4279515158
0.11508209 0.041463673 0.347 4279712537
0.11620913 0.041463673 0.347 4279317779
0.11733619 0.041463673 0.347 4279515158
0.11846325 0.041463673 0.347 4279318551
0.1195903 0.041463673 0.347 4279515930
0.12071736 0.041463673 0.347 4279318549
0.12184442 0.041463673 0.347 4279252756
0.12297148 0.041463673 0.347 4279121170
0.12445617 0.041583166 0.34800002 4279318549
0.12558647 0.041583166 0.34800002 4279253269
0.12671678 0.041583166 0.34800002 4278990097
0.12784709 0.041583166 0.34800002 4278924820
0.12897739 0.041583166 0.34800002 4278595853
0.1301077 0.041583166 0.34800002 4278990611
0.131238 0.041583166 0.34800002 4279056404
0.1323683 0.041583166 0.34800002 4279122197
0.13349861 0.041583166 0.34800002 4279122195
0.13462891 0.041583166 0.34800002 4279319574
0.13575922 0.041583166 0.34800002 4279187988
0.13688952 0.041583166 0.34800002 4279056402
0.13801983 0.041583166 0.34800002 4279253267
0.13915013 0.041583166 0.34800002 4279252754
0.14028043 0.041583166 0.34800002 4279121168
0.14141074 0.041583166 0.34800002 4279121168
0.14254104 0.041583166 0.34800002 4279121168
0.14367135 0.041583166 0.34800002 4279646746
0.061437227 0.044554967 0.36300001 4284380260
0.062443756 0.044432227 0.36200002 4284248674
0.063619532 0.044432227 0.36200002 4284117088
0.064616323 0.044309489 0.36100003 4284051295
0.06578885 0.044309489 0.36100003 4283459926
0.066775888 0.044186745 0.36000001 4279975205
0.067945167 0.044186745 0.36000001 4280372014
0.06892246 0.044064008 0.35900003 4280108842
0.069893263 0.043941263 0.35800001 4280043047
0.07085757 0.043818522 0.35700002 4279648543
0.071815372 0.043695781 0.35600001 4279516957
0.072561711 0.0434503 0.354 4279780129
0.073503278 0.043327559 0.35300002 4279451164
0.074438356 0.043204818 0.35200003 4279385371
0.075366922 0.043082077 0.35100001 4279451164
0.076289006 0.042959336 0.35000002 4279385371
0.077425815 0.042959336 0.35000002 4279451164
0.078338139 0.042836595 0.34900001 4279318297
0.079471692 0.042836595 0.34900001 4278658314
0.080605246 0.042836595 0.34900001 4279184146
0.081504591 0.042713854 0.34800002 4279580186
0.082634896 0.042713854 0.34800002 4279515160
0.083765201 0.042713854 0.34800002 4278459910
0.084895507 0.042713854 0.34800002 4279048717
0.085778609 0.04259111 0.347 4279180816
0.086905658 0.04259111 0.347 4278983951
0.088032715 0.04259111 0.347 4279641879
0.089159779 0.04259111 0.347 4279444498
0.090286836 0.04259111 0.347 4279049740
0.091150455 0.042468373 0.34600002 4278917644
0.09254095 0.04259111 0.347 4280299295
0.093668006 0.04259111 0.347 4279115021
0.094795056 0.04259111 0.347 4278852363
0.095922112 0.04259111 0.347 4279247121
0.097049169 0.04259111 0.347 4280234016
0.098176233 0.04259111 0.347 4279312914
0.09930329 0.04259111 0.347 4279115021
0.10043035 0.04259111 0.347 4280039201
0.1015574 0.04259111 0.347 4279448602
0.10268445 0.04259111 0.347 4279382807
0.10381151 0.04259111 0.347 4279448600
0.10493857 0.04259111 0.347 4279579416
0.10606562 0.04259111 0.347 4279579418
0.10719269 0.04259111 0.347 4279645209
0.10831974 0.04259111 0.347 4279974174
0.10944679 0.04259111 0.347 4279842588
0.11057385 0.04259111 0.347 4279579416
0.11170091 0.04259111 0.347 4279513623
0.11282796 0.04259111 0.347 4279315730
0.11395502 0.04259111 0.347 4278723593
0.11508209 0.04259111 0.347 4278723593
0.11620913 0.04259111 0.347 4278592009
0.11733619 0.04259111 0.347 4278855181
0.11846325 0.04259111 0.347 4279644695
0.1195903 0.04259111 0.347 4279513623
0.12071736 0.04259111 0.347 4279514393
0.12184442 0.04259111 0.347 4279448600
0.12297148 0.04259111 0.347 4279448600
0.12409852 0.04259111 0.347 4279514393
0.12558647 0.042713854 0.34800002 4279449367
0.12671678 0.042713854 0.34800002 4279318551
0.12784709 0.042713854 0.34800002 4279384344
0.12897739 0.042713854 0.34800002 4279384344
0.1301077 0.042713854 0.34800002 4279318549
0.131238 0.042713854 0.34800002 4279318549
0.1323683 0.042713854 0.34800002 4279384342
0.13349861 0.042713854 0.34800002 4279186963
0.13462891 0.042713854 0.34800002 4279187476
0.13575922 0.042713854 0.34800002 4279055888
0.13688952 0.042713854 0.34800002 4279187474
0.13801983 0.042713854 0.34800002 4279253267
0.13915013 0.042713854 0.34800002 4279384340
0.14028043 0.042713854 0.34800002 4279252754
0.14141074 0.042713854 0.34800002 4279384342
0.14254104 0.042713854 0.34800002 4279121170
0.14367135 0.042713854 0.34800002 4279055377
0.062443756 0.045608405 0.36200002 4284380006
0.063619532 0.045608405 0.36200002 4284051041
0.064616323 0.045482416 0.36100003 4283985248
0.06578885 0.045482416 0.36100003 4283787869
0.066775888 0.045356423 0.36000001 4284380776
0.067756437 0.045230437 0.35900003 4283921506
0.068730474 0.045104444 0.35800001 4280567342
0.069893263 0.045104444 0.35800001 4279712803
0.07085757 0.044978455 0.35700002 4279713570
0.071613647 0.044726476 0.35500002 4279976742
0.072561711 0.044600483 0.354 4279910947
0.073503278 0.044474494 0.35300002 4279713568
0.074438356 0.044348504 0.35200003 4279976740
0.075366922 0.044222515 0.35100001 4279516189
0.076289006 0.044096526 0.35000002 4279647775
0.077425815 0.044096526 0.35000002 4279581982
0.07856261 0.044096526 0.35000002 4278988562
0.079471692 0.043970533 0.34900001 4279447830
0.080605246 0.043970533 0.34900001 4278856463
0.0817388 0.043970533 0.34900001 4279778332
0.082872353 0.043970533 0.34900001 4279647516
0.083765201 0.043844543 0.34800002 4279382807
0.084895507 0.043844543 0.34800002 4278984717
0.086025812 0.043844543 0.34800002 4278720777
0.08715611 0.043844543 0.34800002 4278654984
0.088032715 0.04371855 0.347 4278852365
0.089159779 0.04371855 0.347 4279180816
0.090286836 0.04371855 0.347 4279115023
0.091413893 0.04371855 0.347 4279180303
0.09254095 0.04371855 0.347 4279180303
0.093668006 0.04371855 0.347 4279048717
0.094795056 0.04371855 0.347 4279246609
0.095922112 0.04371855 0.347 4279181326
0.097328857 0.043844543 0.34800002 4279905049
0.098459162 0.043844543 0.34800002 4278983947
0.099589467 0.043844543 0.34800002 4279707670
0.10071978 0.043844543 0.34800002 4279973660
0.10185007 0.043844543 0.34800002 4279250453
0.10298038 0.043844543 0.34800002 4278525449
0.10411069 0.043844543 0.34800002 4278918924
0.10524099 0.043844543 0.34800002 4279115533
0.1063713 0.043844543 0.34800002 4279312912
0.10719269 0.04371855 0.347 4279578391
0.10831974 0.04371855 0.347 4279118353
0.10944679 0.04371855 0.347 4278789388
0.11057385 0.04371855 0.347 4279184146
0.11170091 0.04371855 0.347 4279645209
0.11282796 0.04371855 0.347 4279447830
0.11395502 0.04371855 0.347 4279382037
0.11508209 0.04371855 0.347 4279645209
0.11620913 0.04371855 0.347 4279843360
0.11733619 0.04371855 0.347 4279777567
0.11846325 0.04371855 0.347 4279711004
0.1195903 0.04371855 0.347 4280105762
0.12071736 0.04371855 0.347 4279644697
0.12184442 0.04371855 0.347 4279249939
0.12297148 0.04371855 0.347 4279052560
0.12409852 0.04371855 0.347 4278723080
0.12522559 0.04371855 0.347 4278394115
0.12671678 0.043844543 0.34800002 4278459910
0.12784709 0.043844543 0.34800002 4279184146
0.12897739 0.043844543 0.34800002 4279315732
0.1301077 0.043844543 0.34800002 4279513623
0.131238 0.043844543 0.34800002 4279579416
0.1323683 0.043844543 0.34800002 4279449367
0.13349861 0.043844543 0.34800002 4279317781
0.13462891 0.043844543 0.34800002 4279581721
0.13575922 0.043844543 0.34800002 4279318549
0.13688952 0.043844543 0.34800002 4279581719
0.13801983 0.043844543 0.34800002 4279384340
0.13915013 0.043844543 0.34800002 4279186961
0.14028043 0.043844543 0.34800002 4279252756
0.14141074 0.043844543 0.34800002 4279121170
0.14254104 0.043844543 0.34800002 4278923791
0.14367135 0.043844543 0.34800002 4279054607
0.064616323 0.046655338 0.36100003 4284182627
0.065606602 0.046526097 0.36000001 4283985248
0.066590399 0.046396859 0.35900003 4284117606
0.067567699 0.046267621 0.35800001 4284315498
0.068730474 0.046267621 0.35800001 4284381289
0.069698036 0.046138383 0.35700002 4284381803
0.070659086 0.046009142 0.35600001 4284973940
0.071411915 0.045750663 0.354 4284973940
0.072356731 0.045621425 0.35300002 4284118885
0.073295057 0.045492187 0.35200003 4282540623
0.074226879 0.045362946 0.35100001 4281158968
0.075366922 0.045362946 0.35100001 4279843108
0.076289006 0.045233708 0.35000002 4279514141
0.077425815 0.045233708 0.35000002 4279448348
0.07856261 0.045233708 0.35000002 4279974946
0.079699412 0.045233708 0.35000002 4279975459
0.080605246 0.045104466 0.34900001 4279909664
0.0817388 0.045104466 0.34900001 4279713055
0.082872353 0.045104466 0.34900001 4279778848
0.084005907 0.045104466 0.34900001 4279713055
0.084895507 0.044975229 0.34800002 4279909664
0.086025812 0.044975229 0.34800002 4279909151
0.08715611 0.044975229 0.34800002 4279843358
0.088286422 0.044975229 0.34800002 4280040737
0.089416727 0.044975229 0.34800002 4280105760
0.090547033 0.044975229 0.34800002 4280236834
0.091413893 0.044845987 0.347 4280301860
0.092807643 0.044975229 0.34800002 4279446551
0.093937948 0.044975229 0.34800002 4279116305
0.095068246 0.044975229 0.34800002 4279247121
0.096198551 0.044975229 0.34800002 4278654984
0.097328857 0.044975229 0.34800002 4279180814
0.098459162 0.044975229 0.34800002 4278983949
0.099589467 0.044975229 0.34800002 4280037918
0.10071978 0.044975229 0.34800002 4280171553
0.10185007 0.044975229 0.34800002 4279579416
0.10298038 0.044975229 0.34800002 4279050510
0.10411069 0.044975229 0.34800002 4279312398
0.10524099 0.044975229 0.34800002 4279180814
0.1063713 0.044975229 0.34800002 4280102428
0.1075016 0.044975229 0.34800002 4279511061
0.10863191 0.044975229 0.34800002 4279775516
0.10944679 0.044845987 0.347 4280039453
0.11057385 0.044845987 0.347 4278789386
0.11170091 0.044845987 0.347 4279446805
0.11282796 0.044845987 0.347 4279907354
0.11395502 0.044845987 0.347 4279842074
0.11508209 0.044845987 0.347 4279578902
0.11620913 0.044845987 0.347 4279710236
0.11733619 0.044845987 0.347 4279118867
0.11846325 0.044845987 0.347 4279513623
0.1195903 0.044845987 0.347 4279645209
0.12071736 0.044845987 0.347 4279842074
0.12184442 0.044845987 0.347 4280039453
0.12297148 0.044845987 0.347 4280105246
0.12409852 0.044845987 0.347 4279973914
0.12522559 0.044845987 0.347 4280039707
0.12671678 0.044975229 0.34800002 4279776281
0.12784709 0.044975229 0.34800002 4280039453
0.12897739 0.044975229 0.34800002 4279842074
0.1301077 0.044975229 0.34800002 4279775768
0.131238 0.044975229 0.34800002 4279709975
0.1323683 0.044975229 0.34800002 4279381010
0.13349861 0.044975229 0.34800002 4278919689
0.13462891 0.044975229 0.34800002 4279382807
0.13575922 0.044975229 0.34800002 4279646746
0.13728288 0.045104466 0.34900001 4279712537
0.13841644 0.045104466 0.34900001 4279712024
0.13954997 0.045104466 0.34900001 4279712537
0.14068353 0.045104466 0.34900001 4279646744
0.14181708 0.045104466 0.34900001 4279581721
0.14295064 0.045104466 0.34900001 4279581721
0.14408419 0.045104466 0.34900001 4279842840
0.066404909 0.047430802 0.35800001 4284445801
0.067567699 0.047430802 0.35800001 4284380008
0.068538494 0.047298312 0.35700002 4284512875
0.069698036 0.047298312 0.35700002 4284512875
0.07085757 0.047298312 0.35700002 4284776047
0.071210191 0.04676836 0.35300002 4284644461
0.072151758 0.046635874 0.35200003 4284710254
0.073086828 0.046503384 0.35100001 4284644461
0.074226879 0.046503384 0.35100001 4284512875
0.075152203 0.046370897 0.35000002 4284644461
0.076289006 0.046370897 0.35000002 4284710508
0.077425815 0.046370897 0.35000002 4284710508
0.07856261 0.046370897 0.35000002 4285369722
0.079699412 0.046370897 0.35000002 4285106548
0.080836214 0.046370897 0.35000002 4284842344
0.0817388 0.046238404 0.34900001 4282999886
0.082872353 0.046238404 0.34900001 4281685312
0.084005907 0.046238404 0.34900001 4279974694
0.084895507 0.046105918 0.34800002 4279974174
0.086025812 0.046105918 0.34800002 4279711002
0.08715611 0.046105918 0.34800002 4280368934
0.088286422 0.046105918 0.34800002 4279909151
0.089416727 0.046105918 0.34800002 4279909664
0.090547033 0.046105918 0.34800002 4279975457
0.091677338 0.046105918 0.34800002 4279778850
0.092807643 0.046105918 0.34800002 4279778850
0.093937948 0.046105918 0.34800002 4279778080
0.095068246 0.046105918 0.34800002 4279909666
0.096198551 0.046105918 0.34800002 4279843358
0.097328857 0.046105918 0.34800002 4280039967
0.098459162 0.046105918 0.34800002 4280039967
0.099589467 0.046105918 0.34800002 4279842588
0.10071978 0.046105918 0.34800002 4279711002
0.10185007 0.046105918 0.34800002 4279118865
0.10298038 0.046105918 0.34800002 4278789386
0.10411069 0.046105918 0.34800002 4278196736
0.10524099 0.046105918 0.34800002 4278590213
0.1063713 0.046105918 0.34800002 4279577108
0.1075016 0.046105918 0.34800002 4279775770
0.10863191 0.046105918 0.34800002 4280236321
0.10976221 0.046105918 0.34800002 4279973662
0.11089251 0.046105918 0.34800002 4280039455
0.11170091 0.045973428 0.347 4279776281
0.11282796 0.045973428 0.347 4279315730
0.11395502 0.045973428 0.347 4279381523
0.11508209 0.045973428 0.347 4280039453
0.11620913 0.045973428 0.347 4280171039
0.11733619 0.045973428 0.347 4279184146
0.11846325 0.045973428 0.347 4279709977
0.1195903 0.045973428 0.347 4279314449
0.12071736 0.045973428 0.347 4279446805
0.12184442 0.045973428 0.347 4279183633
0.12297148 0.045973428 0.347 4279709975
0.12409852 0.045973428 0.347 4279381010
0.12558647 0.046105918 0.34800002 4279118351
0.12671678 0.046105918 0.34800002 4279184144
0.12784709 0.046105918 0.34800002 4279118351
0.12897739 0.046105918 0.34800002 4279578902
0.1301077 0.046105918 0.34800002 4280105246
0.131238 0.046105918 0.34800002 4279776281
0.1323683 0.046105918 0.34800002 4280104735
0.13349861 0.046105918 0.34800002 4279248402
0.13462891 0.046105918 0.34800002 4279645209
0.13614932 0.046238404 0.34900001 4279842842
0.13728288 0.046238404 0.34900001 4279514645
0.13841644 0.046238404 0.34900001 4279909403
0.13954997 0.046238404 0.34900001 4279580438
0.14068353 0.046238404 0.34900001 4279712537
0.14181708 0.046238404 0.34900001 4279712024
0.14295064 0.046238404 0.34900001 4279909403
0.14408419 0.046238404 0.34900001 4280303391
0.071008459 0.047779553 0.35200003 4284775534
0.071946777 0.047643814 0.35100001 4285038706
0.072878607 0.04750808 0.35000002 4284972913
0.074226879 0.047643814 0.35100001 4285038706
0.075152203 0.04750808 0.35000002 4285038706
0.076289006 0.04750808 0.35000002 4284907120
0.077425815 0.04750808 0.35000002 4285038706
0.07856261 0.04750808 0.35000002 4284907120
0.079699412 0.04750808 0.35000002 4284907120
0.080836214 0.04750808 0.35000002 4285367925
0.0817388 0.047372341 0.34900001 4285038960
0.082872353 0.047372341 0.34900001 4285367925
0.084005907 0.047372341 0.34900001 4285038960
0.085139453 0.047372341 0.34900001 4284907887
0.086025812 0.047236603 0.34800002 4285105266
0.08715611 0.047236603 0.34800002 4285433716
0.088286422 0.047236603 0.34800002 4285696886
0.089416727 0.047236603 0.34800002 4284775786
0.090547033 0.047236603 0.34800002 4283328340
0.091677338 0.047236603 0.34800002 4280895024
0.092807643 0.047236603 0.34800002 4280172071
0.093937948 0.047236603 0.34800002 4279119383
0.095068246 0.047236603 0.34800002 4279448861
0.096198551 0.047236603 0.34800002 4280107043
0.097328857 0.047236603 0.34800002 4279975457
0.098459162 0.047236603 0.34800002 4279909918
0.099589467 0.047236603 0.34800002 4279909918
0.10071978 0.047236603 0.34800002 4279909918
0.10185007 0.047236603 0.34800002 4279909918
0.10298038 0.047236603 0.34800002 4279909918
0.10411069 0.047236603 0.34800002 4279844125
0.10524099 0.047236603 0.34800002 4280171807
0.1063713 0.047236603 0.34800002 4280369186
0.1075016 0.047236603 0.34800002 4280303393
0.10863191 0.047236603 0.34800002 4280039707
0.10976221 0.047236603 0.34800002 4279776281
0.11089251 0.047236603 0.34800002 4279776281
0.11170091 0.047100864 0.347 4278855179
0.11282796 0.047100864 0.347 4278394628
0.11395502 0.047100864 0.347 4278394630
0.11508209 0.047100864 0.347 4279381525
0.11620913 0.047100864 0.347 4279709975
0.11733619 0.047100864 0.347 4280038940
0.11846325 0.047100864 0.347 4280302366
0.1195903 0.047100864 0.347 4280039194
0.12071736 0.047100864 0.347 4279842328
0.12184442 0.047100864 0.347 4279710488
0.12297148 0.047100864 0.347 4279513109
0.12409852 0.047100864 0.347 4279644695
0.12558647 0.047236603 0.34800002 4280301342
0.12671678 0.047236603 0.34800002 4279446033
0.12784709 0.047236603 0.34800002 4279511315
0.12897739 0.047236603 0.34800002 4279709205
0.1301077 0.047236603 0.34800002 4279842328
0.131238 0.047236603 0.34800002 4279579156
0.13274866 0.047372341 0.34900001 4279051023
0.13388221 0.047372341 0.34900001 4279841563
0.13501577 0.047372341 0.34900001 4279842074
0.13614932 0.047372341 0.34900001 4279908635
0.13728288 0.047372341 0.34900001 4279777817
0.13841644 0.047372341 0.34900001 4279777817
0.13994984 0.04750808 0.35000002 4279580438
0.14108664 0.04750808 0.35000002 4279777817
0.14181708 0.047372341 0.34900001 4279777817
0.14295064 0.047372341 0.34900001 4280238368
0.072670378 0.048506279 0.34900001 4285169522
0.074226879 0.048784252 0.35100001 4285432696
0.075366922 0.048784252 0.35100001 4285432696
0.076506972 0.048784252 0.35100001 4285236085
0.077425815 0.048645265 0.35000002 4285236085
0.07856261 0.048645265 0.35000002 4285367671
0.079699412 0.048645265 0.35000002 4285170292
0.080836214 0.048645265 0.35000002 4285367671
0.081973009 0.048645265 0.35000002 4285301878
0.082872353 0.048506279 0.34900001 4285301878
0.084246613 0.048645265 0.35000002 4285367671
0.085383408 0.048645265 0.35000002 4285170292
0.08652021 0.048645265 0.35000002 4285236085
0.087657012 0.048645265 0.35000002 4285170292
0.088793814 0.048645265 0.35000002 4285498487
0.089930616 0.048645265 0.35000002 4285564280
0.091067418 0.048645265 0.35000002 4285301108
0.092204221 0.048645265 0.35000002 4285301108
0.093341023 0.048645265 0.35000002 4285302132
0.094477825 0.048645265 0.35000002 4284907887
0.095068246 0.048367295 0.34800002 4285433977
0.096198551 0.048367295 0.34800002 4285762429
0.097328857 0.048367295 0.34800002 4285367671
0.098459162 0.048367295 0.34800002 4284117854
0.099589467 0.048367295 0.34800002 4282933834
0.10071978 0.048367295 0.34800002 4280565799
0.10185007 0.048367295 0.34800002 4279711004
0.10298038 0.048367295 0.34800002 4279317016
0.10411069 0.048367295 0.34800002 4279580440
0.10524099 0.048367295 0.34800002 4279383061
0.1063713 0.048367295 0.34800002 4280172577
0.1075016 0.048367295 0.34800002 4279975198
0.10863191 0.048367295 0.34800002 4280040991
0.10976221 0.048367295 0.34800002 4280040991
0.11089251 0.048367295 0.34800002 4279909405
0.11202282 0.048367295 0.34800002 4279909151
0.11282796 0.048228305 0.347 4280105760
0.11395502 0.048228305 0.347 4279842588
0.11508209 0.048228305 0.347 4279974174
0.11620913 0.048228305 0.347 4280040221
0.11733619 0.048228305 0.347 4280040221
0.11846325 0.048228305 0.347 4280500258
0.1195903 0.048228305 0.347 4279315984
0.12071736 0.048228305 0.347 4278986252
0.12184442 0.048228305 0.347 4278657287
0.12297148 0.048228305 0.347 4278526728
0.12445617 0.048367295 0.34800002 4279249937
0.12558647 0.048367295 0.34800002 4278919689
0.12671678 0.048367295 0.34800002 4280235549
0.12784709 0.048367295 0.34800002 4280301342
0.12897739 0.048367295 0.34800002 4280235549
0.13048157 0.048506279 0.34900001 4279842074
0.13161512 0.048506279 0.34900001 4278920207
0.13274866 0.048506279 0.34900001 4279841563
0.13388221 0.048506279 0.34900001 4279907354
0.13501577 0.048506279 0.34900001 4279777819
0.13614932 0.048506279 0.34900001 4279383061
0.13767624 0.048645265 0.35000002 4279777817
0.13881305 0.048645265 0.35000002 4279843610
0.13994984 0.048645265 0.35000002 4279843610
0.14108664 0.048645265 0.35000002 4279909403
0.14222345 0.048645265 0.35000002 4280172575
0.079699412 0.049782455 0.35000002 4285366901
0.080836214 0.049782455 0.35000002 4285366901
0.081973009 0.049782455 0.35000002 4285432694
0.083109811 0.049782455 0.35000002 4285432694
0.084246613 0.049782455 0.35000002 4285498487
0.085383408 0.049782455 0.35000002 4285433464
0.08652021 0.049782455 0.35000002 4285301878
0.087657012 0.049782455 0.35000002 4285170292
0.088793814 0.049782455 0.35000002 4285366901
0.089930616 0.049782455 0.35000002 4285498487
0.091067418 0.049782455 0.35000002 4285366901
0.092204221 0.049782455 0.35000002 4285366901
0.093341023 0.049782455 0.35000002 4285366388
0.094477825 0.049782455 0.35000002 4285367155
0.095614612 0.049782455 0.35000002 4285236339
0.096751414 0.049782455 0.35000002 4285236339
0.097888216 0.049782455 0.35000002 4285432948
0.099025026 0.049782455 0.35000002 4285432181
0.10016183 0.049782455 0.35000002 4285497974
0.10071978 0.049497984 0.34800002 4285366901
0.10185007 0.049497984 0.34800002 4285366901
0.10298038 0.049497984 0.34800002 4285367153
0.10411069 0.049497984 0.34800002 4285498224
0.10524099 0.049497984 0.34800002 4285828472
0.1063713 0.049497984 0.34800002 4285368436
0.1075016 0.049497984 0.34800002 4285302645
0.10863191 0.049497984 0.34800002 4284381028
0.10976221 0.049497984 0.34800002 4283723863
0.11089251 0.049497984 0.34800002 4282342724
0.11202282 0.049497984 0.34800002 4280961071
0.11282796 0.049355745 0.347 4280434727
0.11395502 0.049355745 0.347 4279711004
0.11508209 0.049355745 0.347 4279644695
0.11620913 0.049355745 0.347 4279776535
