# .PCD v0.7 - Point Cloud Data file format
VERSION 0.7
FIELDS x y z rgb
SIZE 4 4 4 4
TYPE F F F U
COUNT 1 1 1 1
WIDTH 1009
HEIGHT 1
VIEWPOINT 0 0 0 1 0 0 0
POINTS 1009
DATA ascii
0.015180798 -0.0115672 0.38600001 4278716424
0.016434528 -0.0115672 0.38600001 4278849031
0.017688256 -0.0115672 0.38600001 4279045640
0.018892914 -0.011537233 0.38500002 4280427293
0.020143393 -0.011537233 0.38500002 4278585344
0.021393875 -0.011537233 0.38500002 4281546271
0.022644356 -0.011537233 0.38500002 4281151513
0.023894835 -0.011537233 0.38500002 4280756755
0.025145316 -0.011537233 0.38500002 4280756755
0.026327236 -0.011507266 0.384 4284766796
0.027574468 -0.011507266 0.384 4281143818
0.028821699 -0.011507266 0.384 4282389004
0.03014724 -0.011537233 0.38500002 4283899161
0.031397719 -0.011537233 0.38500002 4286398772
0.032733001 -0.0115672 0.38600001 4284817687
0.033986729 -0.0115672 0.38600001 4290345580
0.035331756 -0.011597168 0.38700002 4284422929
0.036588732 -0.011597168 0.38700002 4284882453
0.037845708 -0.011597168 0.38700002 4284686103
0.039102685 -0.011597168 0.38700002 4283182372
-0.011983573 -0.0099657169 0.37300003 4283574559
-0.010772069 -0.0099657169 0.37300003 4283047954
-0.0095605645 -0.0099657169 0.37300003 4283184416
-0.0083714435 -0.0099924337 0.37400001 4282333984
-0.007175826 -0.010019152 0.37500003 4282991914
-0.0060054874 -0.010099305 0.37800002 4283441942
-0.0047903825 -0.010126023 0.37900001 4282717194
-0.0035687818 -0.01015274 0.38000003 4281209863
-0.0023406844 -0.010179458 0.38100001 4281016077
-0.0011060913 -0.010206176 0.38200003 4280953366
0.00013499784 -0.010232894 0.38300002 4280953366
0.0013825829 -0.010259612 0.384 4280756755
0.0026298154 -0.010259612 0.384 4279967241
0.0038871446 -0.010286329 0.38500002 4279045635
0.0051376256 -0.010286329 0.38500002 4278979844
0.0063881059 -0.010286329 0.38500002 4278849031
0.0076385872 -0.010286329 0.38500002 4278914824
0.0089121563 -0.010313047 0.38600001 4279443223
0.010165884 -0.010313047 0.38600001 4284378723
0.011419613 -0.010313047 0.38600001 4283852119
0.012673343 -0.010313047 0.38600001 4282865738
0.013927069 -0.010313047 0.38600001 4283655252
0.015180798 -0.010313047 0.38600001 4282798918
0.016434528 -0.010313047 0.38600001 4278453505
0.017688256 -0.010313047 0.38600001 4280361502
0.018941985 -0.010313047 0.38600001 4279047180
0.020195713 -0.010313047 0.38600001 4279442192
0.021449441 -0.010313047 0.38600001 4279967244
0.022703171 -0.010313047 0.38600001 4281743650
0.0239569 -0.010313047 0.38600001 4281151513
0.025210626 -0.010313047 0.38600001 4280690964
0.026395798 -0.010286329 0.38500002 4286085738
0.027646277 -0.010286329 0.38500002 4280291589
0.028821699 -0.010259612 0.384 4282061322
0.03014724 -0.010286329 0.38500002 4283571733
0.031397719 -0.010286329 0.38500002 4284555285
0.032648202 -0.010286329 0.38500002 4284948246
0.033986729 -0.010313047 0.38600001 4285409052
0.035240456 -0.010313047 0.38600001 4285014548
0.036494188 -0.010313047 0.38600001 4284685329
0.037747912 -0.010313047 0.38600001 4284357134
0.039001644 -0.010313047 0.38600001 4283507483
-0.011951446 -0.0087303324 0.37200001 4284033054
-0.01074319 -0.0087303324 0.37200001 4282128135
-0.0095605645 -0.0087538008 0.37300003 4282725916
-0.0083490601 -0.0087538008 0.37300003 4282334238
-0.0071566901 -0.0087772692 0.37400001 4282990887
-0.0060054874 -0.0088711446 0.37800002 4283572503
-0.0048030224 -0.0089180814 0.38000003 4282454535
-0.0035781732 -0.0089415498 0.38100001 4281080074
-0.0023468281 -0.0089650191 0.38200003 4280557323
-0.0011060913 -0.0089650191 0.38200003 4280690964
0.00013499784 -0.0089884875 0.38300002 4280756757
0.0013825829 -0.0090119559 0.384 4280230413
0.0026298154 -0.0090119559 0.384 4279572231
0.0038871446 -0.0090354243 0.38500002 4281481005
0.0051376256 -0.0090354243 0.38500002 4281350702
0.0063881059 -0.0090354243 0.38500002 4278784008
0.0076584271 -0.0090588927 0.38600001 4280428063
0.0089121563 -0.0090588927 0.38600001 4283393881
0.010165884 -0.0090588927 0.38600001 4282999123
0.011419613 -0.0090588927 0.38600001 4288656540
0.012673343 -0.0090588927 0.38600001 4282996547
0.013927069 -0.0090588927 0.38600001 4281747255
0.015180798 -0.0090588927 0.38600001 4283195471
0.016434528 -0.0090588927 0.38600001 4283523152
0.017734082 -0.0090823621 0.38700002 4278192384
0.018991059 -0.0090823621 0.38700002 4278257664
0.020248035 -0.0090823621 0.38700002 4278652676
0.021505011 -0.0090823621 0.38700002 4278783492
0.022761988 -0.0090823621 0.38700002 4281546019
0.024018966 -0.0090823621 0.38700002 4281085722
0.025210626 -0.0090588927 0.38600001 4280822550
0.026464358 -0.0090588927 0.38600001 4285956208
0.027646277 -0.0090354243 0.38500002 4281282595
0.028896756 -0.0090354243 0.38500002 4281865228
0.03014724 -0.0090354243 0.38500002 4283111698
0.031397719 -0.0090354243 0.38500002 4284095249
0.032648202 -0.0090354243 0.38500002 4284357138
0.033898681 -0.0090354243 0.38500002 4284291343
0.035149161 -0.0090354243 0.38500002 4284357136
0.036494188 -0.0090588927 0.38600001 4284423699
0.037747912 -0.0090588927 0.38600001 4283964431
0.039001644 -0.0090588927 0.38600001 4282653457
-0.011951446 -0.0075216666 0.37200001 4286071867
-0.01074319 -0.0075216666 0.37200001 4283247129
-0.0095349327 -0.0075216666 0.37200001 4282726686
-0.0083490601 -0.0075418861 0.37300003 4282136859
-0.0071566901 -0.0075621055 0.37400001 4282725149
-0.0060372627 -0.0076834229 0.38000003 4283375124
-0.0048156618 -0.0077036424 0.38100001 4282323209
-0.0035875649 -0.0077238623 0.38200003 4282528803
-0.0023468281 -0.0077238623 0.38200003 4280162567
-0.0011089868 -0.0077440813 0.38300002 4280820497
0.00013535032 -0.0077643008 0.384 4281149462
0.0013825829 -0.0077643008 0.384 4281148949
0.0026366641 -0.0077845207 0.38500002 4279833350
0.0038871446 -0.0077845207 0.38500002 4280230684
0.0051376256 -0.0077845207 0.38500002 4281745206
0.0063881059 -0.0077845207 0.38500002 4278981387
0.0076584271 -0.0078047398 0.38600001 4280955690
0.0089121563 -0.0078047398 0.38600001 4281813566
0.010165884 -0.0078047398 0.38600001 4280101403
0.011419613 -0.0078047398 0.38600001 4282795307
0.012673343 -0.0078047398 0.38600001 4281084437
0.013927069 -0.0078047398 0.38600001 4280296727
0.015180798 -0.0078047398 0.38600001 4280758563
0.016434528 -0.0078047398 0.38600001 4281747253
0.017734082 -0.0078249592 0.38700002 4281746741
0.018991059 -0.0078249592 0.38700002 4279639317
0.020248035 -0.0078249592 0.38700002 4278192384
0.02156058 -0.0078451792 0.38800001 4279968536
0.022820804 -0.0078451792 0.38800001 4281151009
0.024018966 -0.0078249592 0.38700002 4280953882
0.02527594 -0.0078249592 0.38700002 4279967244
0.026464358 -0.0078047398 0.38600001 4285564019
0.027646277 -0.0077845207 0.38500002 4283653455
0.028896756 -0.0077845207 0.38500002 4282062607
0.03014724 -0.0077845207 0.38500002 4282849039
0.031397719 -0.0077845207 0.38500002 4283570448
0.032648202 -0.0077845207 0.38500002 4283635214
0.033898681 -0.0077845207 0.38500002 4284292115
0.035149161 -0.0077845207 0.38500002 4284292115
0.036399644 -0.0077845207 0.38500002 4284359191
0.037650123 -0.0077845207 0.38500002 4283571218
0.038900606 -0.0077845207 0.38500002 4281274121
-0.017371027 -0.0065336158 0.38500002 4284841840
-0.016078675 -0.0065166452 0.384 4285694835
-0.014831441 -0.0065166452 0.384 4282461477
-0.013584209 -0.0065166452 0.384 4284820515
-0.01074319 -0.0063129999 0.37200001 4286007609
-0.0095349327 -0.0063129999 0.37200001 4283708446
-0.0083266757 -0.0063129999 0.37200001 4282594328
-0.0073289103 -0.0064996746 0.38300002 4282918932
-0.0060531502 -0.006465734 0.38100001 4283046672
-0.0048283017 -0.0064827045 0.38200003 4282389256
-0.0035875649 -0.0064827045 0.38200003 4283381797
-0.0023529716 -0.0064996746 0.38300002 4281935121
-0.0011089868 -0.0064996746 0.38300002 4282392852
0.00013535032 -0.0065166452 0.384 4282786326
0.0013861834 -0.0065336158 0.38500002 4282917912
0.0026366641 -0.0065336158 0.38500002 4279896064
0.0038871446 -0.0065336158 0.38500002 4281678384
0.0051376256 -0.0065336158 0.38500002 4278717699
0.0064046984 -0.0065505859 0.38600001 4278454273
0.0076584271 -0.0065505859 0.38600001 4281153069
0.0089121563 -0.0065505859 0.38600001 4280626464
0.010165884 -0.0065505859 0.38600001 4281348642
0.011419613 -0.0065505859 0.38600001 4288256626
0.012673343 -0.0065505859 0.38600001 4282992934
0.013927069 -0.0065505859 0.38600001 4281217308
0.015180798 -0.0065505859 0.38600001 4280296211
0.016477104 -0.0065675569 0.38700002 4280758563
0.017734082 -0.0065675569 0.38700002 4282602050
0.018991059 -0.0065675569 0.38700002 4279442705
0.020300355 -0.006584527 0.38800001 4278718728
0.02156058 -0.006584527 0.38800001 4279179020
0.022820804 -0.006584527 0.38800001 4279966994
0.024081029 -0.006584527 0.38800001 4280822553
0.025341252 -0.006584527 0.38800001 4279704072
0.026464358 -0.0065505859 0.38600001 4285103983
0.027646277 -0.0065336158 0.38500002 4285036389
0.028896756 -0.0065336158 0.38500002 4281602054
0.03014724 -0.0065336158 0.38500002 4282586381
0.031397719 -0.0065336158 0.38500002 4282980364
0.032648202 -0.0065336158 0.38500002 4282913801
0.033898681 -0.0065336158 0.38500002 4283373069
0.035149161 -0.0065336158 0.38500002 4284096278
0.036399644 -0.0065336158 0.38500002 4283244311
0.037650123 -0.0065336158 0.38500002 4282521873
0.038900606 -0.0065336158 0.38500002 4282001955
-0.018621508 -0.0052827117 0.38500002 4284776049
-0.017371027 -0.0052827117 0.38500002 4284776047
-0.016078675 -0.0052689901 0.384 4283516729
-0.014831441 -0.0052689901 0.384 4284694323
-0.013584209 -0.0052689901 0.384 4285018918
-0.012304849 -0.0052552689 0.38300002 4285083425
-0.011060865 -0.0052552689 0.38300002 4284687384
-0.0098168794 -0.0052552689 0.38300002 4284951326
-0.0085728951 -0.0052552689 0.38300002 4284557079
-0.0073289103 -0.0052552689 0.38300002 4284162835
-0.0060690381 -0.0052415477 0.38200003 4283046159
-0.0048283017 -0.0052415477 0.38200003 4282389256
-0.0035969564 -0.0052552689 0.38300002 4282849805
-0.0023529716 -0.0052552689 0.38300002 4283244563
-0.0011118823 -0.0052689901 0.384 4283505938
0.00013535032 -0.0052689901 0.384 4283702804
0.0013861834 -0.0052827117 0.38500002 4283047702
0.0026366641 -0.0052827117 0.38500002 4280420610
0.0038871446 -0.0052827117 0.38500002 4280164891
0.0051376256 -0.0052827117 0.38500002 4278455043
0.0063881059 -0.0052827117 0.38500002 4280165915
0.0076385872 -0.0052827117 0.38500002 4280626466
0.0088890679 -0.0052827117 0.38500002 4280165141
0.010139548 -0.0052827117 0.38500002 4280427538
0.011390029 -0.0052827117 0.38500002 4280624649
0.012673343 -0.0052964329 0.38600001 4281413906
0.013927069 -0.0052964329 0.38600001 4280887569
0.015180798 -0.0052964329 0.38600001 4280164366
0.016477104 -0.0053101545 0.38700002 4280692770
0.017734082 -0.0053101545 0.38700002 4281944122
0.01904013 -0.0053238757 0.38800001 4278586631
0.020300355 -0.0053238757 0.38800001 4279902489
0.02156058 -0.0053238757 0.38800001 4280626212
0.022820804 -0.0053238757 0.38800001 4279703822
0.024081029 -0.0053238757 0.38800001 4280690967
0.025341252 -0.0053238757 0.38800001 4279967764
0.026670041 -0.0053375969 0.38900003 4284709741
0.027646277 -0.0052827117 0.38500002 4285168493
0.028896756 -0.0052827117 0.38500002 4281996812
0.03014724 -0.0052827117 0.38500002 4282914832
0.031397719 -0.0052827117 0.38500002 4283243536
0.032648202 -0.0052827117 0.38500002 4282914571
0.033898681 -0.0052827117 0.38500002 4282651660
0.035149161 -0.0052827117 0.38500002 4282520588
0.036494188 -0.0052964329 0.38600001 4282391057
0.037650123 -0.0052827117 0.38500002 4282326809
-0.018621508 -0.0040318072 0.38500002 4284907635
-0.017325906 -0.0040213349 0.384 4285630073
-0.016078675 -0.0040213349 0.384 4284302134
-0.014831441 -0.0040213349 0.384 4284496685
-0.013584209 -0.0040213349 0.384 4284753179
-0.012304849 -0.0040108627 0.38300002 4285014296
-0.011060865 -0.0040108627 0.38300002 4284817687
-0.0098168794 -0.0040108627 0.38300002 4284883480
-0.0085728951 -0.0040108627 0.38300002 4284948501
-0.0073289103 -0.0040108627 0.38300002 4285937449
-0.0060690381 -0.0040003904 0.38200003 4283308048
-0.0048409407 -0.0040108627 0.38300002 4282520328
-0.0035969564 -0.0040108627 0.38300002 4283046672
-0.0023591151 -0.0040213349 0.384 4283571731
-0.0011118823 -0.0040213349 0.384 4283898899
0.00013535032 -0.0040213349 0.384 4283964692
0.0013861834 -0.0040318072 0.38500002 4283968286
0.0026366641 -0.0040318072 0.38500002 4280222720
0.0038871446 -0.0040318072 0.38500002 4279442192
0.0051376256 -0.0040318072 0.38500002 4279574291
0.0063881059 -0.0040318072 0.38500002 4278784262
0.0076385872 -0.0040318072 0.38500002 4280626466
0.0088890679 -0.0040318072 0.38500002 4279440648
0.010139548 -0.0040318072 0.38500002 4280427538
0.011390029 -0.0040318072 0.38500002 4280230411
0.012673343 -0.0040422794 0.38600001 4280493581
0.013927069 -0.0040422794 0.38600001 4280361997
0.015180798 -0.0040422794 0.38600001 4279506690
0.016477104 -0.0040527517 0.38700002 4280758563
0.017734082 -0.0040527517 0.38700002 4282667845
0.01904013 -0.004063224 0.38800001 4278323206
0.020300355 -0.004063224 0.38800001 4280560934
0.02156058 -0.004063224 0.38800001 4280955690
0.022879621 -0.0040736962 0.38900003 4279836178
0.024143094 -0.0040736962 0.38900003 4280494360
0.025406566 -0.0040736962 0.38900003 4284640350
0.026670041 -0.0040736962 0.38900003 4284907374
0.027646277 -0.0040318072 0.38500002 4284444770
0.028896756 -0.0040318072 0.38500002 4282587666
0.03014724 -0.0040318072 0.38500002 4283177491
0.031397719 -0.0040318072 0.38500002 4283833620
0.032648202 -0.0040318072 0.38500002 4282782987
0.033986729 -0.0040422794 0.38600001 4282062092
0.035240456 -0.0040422794 0.38600001 4282193678
0.036494188 -0.0040422794 0.38600001 4282262812
0.037747912 -0.0040422794 0.38600001 4282660398
-0.018573139 -0.0027736798 0.384 4284841842
-0.017325906 -0.0027736798 0.384 4282667845
-0.016078675 -0.0027736798 0.384 4284168495
-0.014831441 -0.0027736798 0.384 4284494118
-0.013548833 -0.0027664567 0.38300002 4284620826
-0.012304849 -0.0027664567 0.38300002 4284883482
-0.011060865 -0.0027664567 0.38300002 4284422159
-0.0098168794 -0.0027664567 0.38300002 4284753177
-0.0085728951 -0.0027664567 0.38300002 4285014296
-0.0073289103 -0.0027664567 0.38300002 4284816917
-0.006084925 -0.0027664567 0.38300002 4283308048
-0.0048409407 -0.0027664567 0.38300002 4282586121
-0.0035969564 -0.0027664567 0.38300002 4283046159
-0.0023591151 -0.0027736798 0.384 4283505938
-0.0011118823 -0.0027736798 0.384 4283833106
0.00013570279 -0.0027809029 0.38500002 4283899153
0.0013861834 -0.0027809029 0.38500002 4283242766
0.0026366641 -0.0027809029 0.38500002 4280485120
0.0038871446 -0.0027809029 0.38500002 4279705110
0.0051509701 -0.002788126 0.38600001 4278389763
0.0064046984 -0.002788126 0.38600001 4278849285
0.0076385872 -0.0027809029 0.38500002 4281612589
0.0088890679 -0.0027809029 0.38500002 4280690969
0.010139548 -0.0027809029 0.38500002 4280756760
0.011419613 -0.002788126 0.38600001 4280427790
0.012673343 -0.002788126 0.38600001 4281216534
0.013927069 -0.002788126 0.38600001 4280624397
0.015180798 -0.002788126 0.38600001 4280756757
0.016477104 -0.0027953491 0.38700002 4280955427
0.017734082 -0.0027953491 0.38700002 4280232219
0.01904013 -0.0028025722 0.38800001 4279903004
0.020300355 -0.0028025722 0.38800001 4278652937
0.02156058 -0.0028025722 0.38800001 4278784008
0.022879621 -0.0028097956 0.38900003 4280428315
0.024143094 -0.0028097956 0.38900003 4279179016
0.025406566 -0.0028097956 0.38900003 4285760628
0.026670041 -0.0028097956 0.38900003 4284972395
0.027646277 -0.0027809029 0.38500002 4283587147
0.028896756 -0.0027809029 0.38500002 4282980625
0.03014724 -0.0027809029 0.38500002 4283308561
0.031397719 -0.0027809029 0.38500002 4283506708
0.032648202 -0.0027809029 0.38500002 4287262821
0.033986729 -0.002788126 0.38600001 4285951845
0.035240456 -0.002788126 0.38600001 4281144331
0.036494188 -0.002788126 0.38600001 4281079824
-0.019871987 -0.0015299987 0.38500002 4284973428
-0.018573139 -0.0015260245 0.384 4284841840
-0.017325906 -0.0015260245 0.384 4281876531
-0.016078675 -0.0015260245 0.384 4283839016
-0.014831441 -0.0015260245 0.384 4283967261
-0.013548833 -0.0015220506 0.38300002 4284621080
-0.012304849 -0.0015220506 0.38300002 4284948505
-0.011060865 -0.0015220506 0.38300002 4284685333
-0.0097912485 -0.0015180766 0.38200003 4289094750
-0.0085505117 -0.0015180766 0.38200003 4284751894
-0.0073289103 -0.0015220506 0.38300002 4284422929
-0.006084925 -0.0015220506 0.38300002 4283374093
-0.0048409407 -0.0015220506 0.38300002 4282717192
-0.0035969564 -0.0015220506 0.38300002 4282717707
-0.0023591151 -0.0015260245 0.384 4283571220
-0.0011118823 -0.0015260245 0.384 4283701520
0.00013570279 -0.0015299987 0.38500002 4283635727
0.0013861834 -0.0015299987 0.38500002 4283373839
0.0026366641 -0.0015299987 0.38500002 4281141765
0.0038972411 -0.0015339727 0.38600001 4278650625
0.0051509701 -0.0015339727 0.38600001 4278717445
0.0064046984 -0.0015339727 0.38600001 4278717447
0.0076584271 -0.0015339727 0.38600001 4279901203
0.0089121563 -0.0015339727 0.38600001 4280756508
0.010165884 -0.0015339727 0.38600001 4280362004
0.011419613 -0.0015339727 0.38600001 4280164366
0.012673343 -0.0015339727 0.38600001 4280427022
0.013927069 -0.0015339727 0.38600001 4280493585
0.015220128 -0.0015379468 0.38700002 4281085468
0.016477104 -0.0015379468 0.38700002 4280756762
0.017734082 -0.0015379468 0.38700002 4279047432
0.01904013 -0.0015419207 0.38800001 4279771416
0.020300355 -0.0015419207 0.38800001 4280889897
0.021616148 -0.0015458948 0.38900003 4278915848
0.022879621 -0.0015458948 0.38900003 4280427545
0.024143094 -0.0015458948 0.38900003 4282602566
0.025406566 -0.0015458948 0.38900003 4284775788
0.026670041 -0.0015458948 0.38900003 4284972397
0.027933512 -0.0015458948 0.38900003 4281874986
0.028896756 -0.0015299987 0.38500002 4283374354
0.03014724 -0.0015299987 0.38500002 4283571733
0.031479269 -0.0015339727 0.38600001 4282389774
0.032733001 -0.0015339727 0.38600001 4286280810
0.03407478 -0.0015379468 0.38700002 4285756776
0.035331756 -0.0015379468 0.38700002 4280817165
0.036588732 -0.0015379468 0.38700002 4282135340
-0.019871987 -0.0002790943 0.38500002 4284776049
-0.018573139 -0.00027836935 0.384 4284907633
-0.017325906 -0.00027836935 0.384 4282074423
-0.016078675 -0.00027836935 0.384 4283642151
-0.014792819 -0.00027764443 0.38300002 4283704862
-0.013548833 -0.00027764443 0.38300002 4284227605
-0.012304849 -0.00027764443 0.38300002 4284555287
-0.011031985 -0.00027691954 0.38200003 4284817689
-0.0097912485 -0.00027691954 0.38200003 4284883482
-0.0085505117 -0.00027691954 0.38200003 4284817689
-0.0073097749 -0.00027691954 0.38200003 4284094736
-0.006084925 -0.00027764443 0.38300002 4283373323
-0.0048409407 -0.00027764443 0.38300002 4282913288
-0.0035969564 -0.00027764443 0.38300002 4282782987
-0.0023591151 -0.00027836935 0.384 4283373841
-0.0011118823 -0.00027836935 0.384 4283373841
0.00013570279 -0.0002790943 0.38500002 4283439634
0.0013861834 -0.0002790943 0.38500002 4283112463
0.0026366641 -0.0002790943 0.38500002 4281865740
0.0038972411 -0.00027981919 0.38600001 4279176199
0.0051509701 -0.00027981919 0.38600001 4278848261
0.0064046984 -0.00027981919 0.38600001 4278717447
0.0076584271 -0.00027981919 0.38600001 4278717447
0.0089121563 -0.00027981919 0.38600001 4278848261
0.010165884 -0.00027981919 0.38600001 4281481005
0.011419613 -0.00027981919 0.38600001 4280494106
0.012673343 -0.00027981919 0.38600001 4280494106
0.013963151 -0.00028054413 0.38700002 4281151520
0.015220128 -0.00028054413 0.38700002 4280428313
0.016477104 -0.00028054413 0.38700002 4279770385
0.017779905 -0.00028126905 0.38800001 4281350700
0.01904013 -0.00028126905 0.38800001 4280890921
0.020300355 -0.00028126905 0.38800001 4278652935
0.021616148 -0.00028199397 0.38900003 4279703567
0.022879621 -0.00028199397 0.38900003 4279506445
0.024143094 -0.00028199397 0.38900003 4285565563
0.025406566 -0.00028199397 0.38900003 4284644463
0.026670041 -0.00028199397 0.38900003 4285629042
0.027933512 -0.00028199397 0.38900003 4281410324
0.029196983 -0.00028199397 0.38900003 4283570450
0.030225543 -0.00027981919 0.38600001 4284031001
0.031479269 -0.00027981919 0.38600001 4282524442
0.032733001 -0.00027981919 0.38600001 4285560167
0.03407478 -0.00028054413 0.38700002 4283124799
0.035331756 -0.00028054413 0.38700002 4281079056
-0.018573139 0.0009692859 0.384 4284841840
-0.017325906 0.0009692859 0.384 4283326035
-0.016036803 0.00096676173 0.38300002 4284170809
-0.014792819 0.00096676173 0.38300002 4283246881
-0.013548833 0.00096676173 0.38300002 4283636759
-0.012272721 0.00096423761 0.38200003 4284030485
-0.011031985 0.00096423761 0.38200003 4284030485
-0.0097912485 0.00096423761 0.38200003 4283898386
-0.0085505117 0.00096423761 0.38200003 4283766800
-0.0073097749 0.00096423761 0.38200003 4283438348
-0.0060690381 0.00096423761 0.38200003 4283307276
-0.0048409407 0.00096676173 0.38300002 4283176460
-0.0035969564 0.00096676173 0.38300002 4282913803
-0.0023591151 0.0009692859 0.384 4283046159
-0.0011118823 0.0009692859 0.384 4282980879
0.00013570279 0.00097181014 0.38500002 4282718221
0.0013861834 0.00097181014 0.38500002 4282260496
0.0026366641 0.00097181014 0.38500002 4281539341
0.0038972411 0.00097433425 0.38600001 4279965967
0.0051509701 0.00097433425 0.38600001 4278848261
0.0064046984 0.00097433425 0.38600001 4278848263
0.0076584271 0.00097433425 0.38600001 4278651654
0.0089121563 0.00097433425 0.38600001 4278717447
0.010165884 0.00097433425 0.38600001 4278849033
0.011449198 0.00097685843 0.38700002 4278848512
0.012706175 0.00097685843 0.38700002 4278783488
0.013963151 0.00097685843 0.38700002 4279045892
0.015220128 0.00097685843 0.38700002 4278453760
0.016519681 0.00097938266 0.38800001 4278652422
0.017779905 0.00097938266 0.38800001 4280298012
0.01904013 0.00097938266 0.38800001 4278915594
0.020300355 0.00097938266 0.38800001 4279505934
0.021616148 0.00098190689 0.38900003 4282130715
0.022879621 0.00098190689 0.38900003 4286608750
0.024143094 0.00098190689 0.38900003 4284512362
0.025406566 0.00098190689 0.38900003 4284710254
0.026670041 0.00098190689 0.38900003 4286085736
0.027933512 0.00098190689 0.38900003 4282654227
0.029196983 0.00098190689 0.38900003 4283964692
0.030225543 0.00097433425 0.38600001 4284161558
0.031479269 0.00097433425 0.38600001 4285687130
0.032733001 0.00097433425 0.38600001 4285234286
-0.018573139 0.002216941 0.384 4284776047
-0.017325906 0.002216941 0.384 4285433464
-0.016036803 0.0022111679 0.38300002 4282991162
-0.014792819 0.0022111679 0.38300002 4282329377
-0.013548833 0.0022111679 0.38300002 4282652948
-0.012272721 0.0022053947 0.38200003 4283178006
-0.011031985 0.0022053947 0.38200003 4283506710
-0.0097912485 0.0022053947 0.38200003 4283571733
-0.0085505117 0.0022053947 0.38200003 4283242768
-0.0073097749 0.0022053947 0.38200003 4283045389
-0.0060690381 0.0022053947 0.38200003 4283242766
-0.0048283017 0.0022053947 0.38200003 4283571218
-0.0035969564 0.0022111679 0.38300002 4283111180
-0.0023529716 0.0022111679 0.38300002 4283441430
-0.0011118823 0.002216941 0.384 4281869074
0.00013535032 0.002216941 0.384 4281606929
0.0013861834 0.0022227145 0.38500002 4281016847
0.0026366641 0.0022227145 0.38500002 4280885777
0.0038972411 0.0022284877 0.38600001 4280492561
0.0051509701 0.0022284877 0.38600001 4279703820
0.0064046984 0.0022284877 0.38600001 4278848261
0.007678268 0.002234261 0.38700002 4278848263
0.0089352448 0.002234261 0.38700002 4278717447
0.010192221 0.002234261 0.38700002 4278717447
0.011449198 0.002234261 0.38700002 4280823843
0.012706175 0.002234261 0.38700002 4279376397
0.013999231 0.0022400343 0.38800001 4280494110
0.015259456 0.0022400343 0.38800001 4282075195
0.016519681 0.0022400343 0.38800001 4280363553
0.017779905 0.0022400343 0.38800001 4278586629
0.01904013 0.0022400343 0.38800001 4279766280
0.020300355 0.0022400343 0.38800001 4283774255
0.02156058 0.0022400343 0.38800001 4284033054
0.022820804 0.0022400343 0.38800001 4283506971
0.024143094 0.0022458076 0.38900003 4285036391
0.025406566 0.0022458076 0.38900003 4284907372
0.026670041 0.0022458076 0.38900003 4282590746
0.027933512 0.0022458076 0.38900003 4283768599
0.029272038 0.0022515808 0.39000002 4284161558
0.030538762 0.0022515808 0.39000002 4283833106
0.031805482 0.0022515808 0.39000002 4286087283
-0.018573139 0.0034645961 0.384 4284644977
-0.017280787 0.0034555739 0.38300002 4284710770
-0.016036803 0.0034555739 0.38300002 4284773221
-0.014792819 0.0034555739 0.38300002 4282794553
-0.013513459 0.0034465517 0.38200003 4282195738
-0.012272721 0.0034465517 0.38200003 4282588951
-0.011031985 0.0034465517 0.38200003 4282851608
-0.0097912485 0.0034465517 0.38200003 4282522641
-0.0085505117 0.0034465517 0.38200003 4282390285
-0.0073097749 0.0034465517 0.38200003 4282258699
-0.0060690381 0.0034465517 0.38200003 4283046670
-0.0048283017 0.0034465517 0.38200003 4283703571
-0.0035969564 0.0034555739 0.38300002 4283307530
-0.0023529716 0.0034555739 0.38300002 4282783239
-0.0011118823 0.0034645961 0.384 4281476365
0.00013535032 0.0034645961 0.384 4281017613
0.0013861834 0.0034736188 0.38500002 4280558093
0.0026366641 0.0034736188 0.38500002 4280558093
0.0038972411 0.003482641 0.38600001 4280624399
0.0051509701 0.003482641 0.38600001 4280492815
0.0064212908 0.0034916636 0.38700002 4280230166
0.007678268 0.0034916636 0.38700002 4278848261
0.0089352448 0.0034916636 0.38700002 4278848263
0.010192221 0.0034916636 0.38700002 4278782470
0.011478783 0.0035006858 0.38800001 4281021222
0.012739007 0.0035006858 0.38800001 4281350702
0.013999231 0.0035006858 0.38800001 4278455045
0.015259456 0.0035006858 0.38800001 4278718728
0.016519681 0.0035006858 0.38800001 4278979847
0.017779905 0.0035006858 0.38800001 4279766794
0.01904013 0.0035006858 0.38800001 4283374870
0.020300355 0.0035006858 0.38800001 4284228632
0.02156058 0.0035006858 0.38800001 4284226835
0.022820804 0.0035006858 0.38800001 4284358937
0.024143094 0.0035097084 0.38900003 4283972147
0.025406566 0.0035097084 0.38900003 4285620822
0.026670041 0.0035097084 0.38900003 4283965208
0.027933512 0.0035097084 0.38900003 4284160790
0.029272038 0.0035187306 0.39000002 4284489753
0.030538762 0.0035187306 0.39000002 4283703067
0.031887036 0.0035277531 0.39100003 4285036905
-0.017280787 0.0046999799 0.38300002 4284710770
-0.016036803 0.0046999799 0.38300002 4284776049
-0.014792819 0.0046999799 0.38300002 4284708458
-0.013513459 0.0046877088 0.38200003 4283648065
-0.012272721 0.0046877088 0.38200003 4282922028
-0.011031985 0.0046877088 0.38200003 4282065174
-0.0097656166 0.0046754372 0.38100001 4282064404
-0.0085281283 0.0046754372 0.38100001 4281800719
-0.007290639 0.0046754372 0.38100001 4281867795
-0.0060690381 0.0046877088 0.38200003 4282392852
-0.0048283017 0.0046877088 0.38200003 4283179542
-0.0035875649 0.0046877088 0.38200003 4283833360
-0.0023529716 0.0046999799 0.38300002 4283373323
-0.0011118823 0.0047122515 0.384 4282327824
0.00013535032 0.0047122515 0.384 4281148683
0.0013861834 0.0047245231 0.38500002 4280689677
0.0026366641 0.0047245231 0.38500002 4280558093
0.0038972411 0.0047367946 0.38600001 4280558606
0.0051509701 0.0047367946 0.38600001 4280624399
0.0064212908 0.0047490662 0.38700002 4280361999
0.007678268 0.0047490662 0.38700002 4280295952
0.0089352448 0.0047490662 0.38700002 4280361750
0.010218557 0.0047613373 0.38800001 4279309064
0.011478783 0.0047613373 0.38800001 4278586113
0.012739007 0.0047613373 0.38800001 4278651652
0.013999231 0.0047613373 0.38800001 4279046410
0.015259456 0.0047613373 0.38800001 4279636750
0.016519681 0.0047613373 0.38800001 4281209613
0.017779905 0.0047613373 0.38800001 4283376669
0.01904013 0.0047613373 0.38800001 4284162325
0.020300355 0.0047613373 0.38800001 4283963150
0.02156058 0.0047613373 0.38800001 4284488724
0.022820804 0.0047613373 0.38800001 4285212447
0.024081029 0.0047613373 0.38800001 4285016099
0.025341252 0.0047613373 0.38800001 4284490525
0.026670041 0.0047736093 0.38900003 4284423447
0.027933512 0.0047736093 0.38900003 4284554263
0.029272038 0.0047858804 0.39000002 4283965208
0.030538762 0.0047858804 0.39000002 4287067500
0.031887036 0.004798152 0.39100003 4285628528
0.033157006 0.004798152 0.39100003 4280950802
-0.014754196 0.0059288661 0.38200003 4284710256
-0.013513459 0.0059288661 0.38200003 4285957757
-0.012272721 0.0059288661 0.38200003 4280887839
-0.011003105 0.0059133451 0.38100001 4282131226
-0.0097656166 0.0059133451 0.38100001 4281473296
-0.0085281283 0.0059133451 0.38100001 4281144331
-0.007290639 0.0059133451 0.38100001 4280883726
-0.0060531502 0.0059133451 0.38100001 4280556298
-0.0048283017 0.0059288661 0.38200003 4282065683
-0.0035875649 0.0059288661 0.38200003 4283965460
-0.0023529716 0.0059443866 0.38300002 4283701774
-0.0011118823 0.0059599066 0.384 4283308300
0.00013535032 0.0059599066 0.384 4282392074
0.0013861834 0.0059754276 0.38500002 4280820747
0.0026366641 0.0059754276 0.38500002 4280558093
0.0038972411 0.0059909481 0.38600001 4280361999
0.0051643145 0.006006469 0.38700002 4280427792
0.0064212908 0.006006469 0.38700002 4280625169
0.007678268 0.006006469 0.38700002 4280427790
0.0089583332 0.006021989 0.38800001 4280427790
0.010218557 0.006021989 0.38800001 4280361997
0.011478783 0.006021989 0.38800001 4280098830
0.012739007 0.006021989 0.38800001 4280164625
0.013999231 0.006021989 0.38800001 4280098832
0.015259456 0.006021989 0.38800001 4280295954
0.016519681 0.006021989 0.38800001 4282129682
0.017779905 0.006021989 0.38800001 4283178772
0.01904013 0.006021989 0.38800001 4283635981
0.020300355 0.006021989 0.38800001 4284161042
0.02156058 0.006021989 0.38800001 4284816917
0.022820804 0.006021989 0.38800001 4284882710
0.024081029 0.006021989 0.38800001 4284816917
0.025341252 0.006021989 0.38800001 4284685331
0.026670041 0.00603751 0.38900003 4284487952
0.027933512 0.00603751 0.38900003 4284816917
0.029272038 0.0060530305 0.39000002 4283840815
0.030538762 0.0060530305 0.39000002 4285824626
0.031887036 0.0060685514 0.39100003 4283517758
0.033157006 0.0060685514 0.39100003 4282852123
-0.012240593 0.0071512531 0.38100001 4285367671
-0.011003105 0.0071512531 0.38100001 4281872679
-0.0097656166 0.0071512531 0.38100001 4281079310
-0.0085281283 0.0071512531 0.38100001 4281078540
-0.007290639 0.0071512531 0.38100001 4280291591
-0.0060531502 0.0071512531 0.38100001 4280097292
-0.0048156618 0.0071512531 0.38100001 4280622864
-0.0035875649 0.0071700229 0.38200003 4283309842
-0.0023529716 0.0071887928 0.38300002 4283899667
-0.0011118823 0.0072075622 0.384 4283898640
0.00013535032 0.0072075622 0.384 4283701774
0.0013861834 0.0072263321 0.38500002 4281933836
0.0026435126 0.0072451015 0.38600001 4280885513
0.0038972411 0.0072451015 0.38600001 4280492813
0.0051643145 0.0072638714 0.38700002 4280427020
0.0064212908 0.0072638714 0.38700002 4280427020
0.007678268 0.0072638714 0.38700002 4280558606
0.0089583332 0.0072826408 0.38800001 4280427020
0.010218557 0.0072826408 0.38800001 4280230413
0.011478783 0.0072826408 0.38800001 4280033034
0.012739007 0.0072826408 0.38800001 4280164366
0.013999231 0.0072826408 0.38800001 4279967244
0.015259456 0.0072826408 0.38800001 4279769865
0.016519681 0.0072826408 0.38800001 4280816650
0.017779905 0.0072826408 0.38800001 4282654742
0.01904013 0.0072826408 0.38800001 4283767827
0.020300355 0.0072826408 0.38800001 4284423701
0.02156058 0.0072826408 0.38800001 4284882710
0.022820804 0.0072826408 0.38800001 4285014039
0.024081029 0.0072826408 0.38800001 4284948246
0.025341252 0.0072826408 0.38800001 4284882453
0.026670041 0.0073014111 0.38900003 4284882453
0.027933512 0.0073014111 0.38900003 4284422161
0.029272038 0.0073201805 0.39000002 4286010701
0.030617068 0.0073389504 0.39100003 4286479213
0.031887036 0.0073389504 0.39100003 4282654231
0.033157006 0.0073389504 0.39100003 4282391059
-0.0023529716 0.0084331986 0.38300002 4282981393
-0.0011118823 0.0084552169 0.384 4284292628
0.00013535032 0.0084552169 0.384 4284095249
0.0013861834 0.0084772361 0.38500002 4283899153
0.0026435126 0.0084992545 0.38600001 4282981131
0.0038972411 0.0084992545 0.38600001 4280885259
0.0051509701 0.0084992545 0.38600001 4280492300
0.0064212908 0.0085212737 0.38700002 4280492813
0.007678268 0.0085212737 0.38700002 4280098055
0.0089352448 0.0085212737 0.38700002 4280033034
0.010218557 0.0085432921 0.38800001 4280164366
0.011478783 0.0085432921 0.38800001 4279769610
0.012739007 0.0085432921 0.38800001 4279835403
0.013999231 0.0085432921 0.38800001 4279836948
0.015259456 0.0085432921 0.38800001 4283852633
0.016519681 0.0085432921 0.38800001 4284378977
0.017734082 0.0085212737 0.38700002 4284769881
0.018991059 0.0085212737 0.38700002 4284031253
0.020248035 0.0085212737 0.38700002 4284948505
0.021505011 0.0085212737 0.38700002 4285013269
0.022761988 0.0085212737 0.38700002 4285079062
0.024018966 0.0085212737 0.38700002 4285144855
0.025341252 0.0085432921 0.38800001 4285210648
0.026601478 0.0085432921 0.38800001 4288503128
0.027933512 0.0085653113 0.38900003 4284686619
0.029272038 0.0085873296 0.39000002 4284489753
0.030617068 0.0086093489 0.39100003 4284294171
0.031887036 0.0086093489 0.39100003 4283309590
0.033157006 0.0086093489 0.39100003 4281996301
-0.0023529716 0.0096776048 0.38300002 4280882958
-0.0011118823 0.0097028716 0.384 4283505938
0.00013570279 0.0097281402 0.38500002 4284227351
0.0013861834 0.0097281402 0.38500002 4284292115
0.0026435126 0.0097534079 0.38600001 4284226322
0.0038972411 0.0097534079 0.38600001 4283768851
0.0051509701 0.0097534079 0.38600001 4281799172
0.0064212908 0.0097786766 0.38700002 4280292872
0.007678268 0.0097786766 0.38700002 4279701510
0.0089352448 0.0097786766 0.38700002 4279440393
0.010192221 0.0097786766 0.38700002 4279440393
0.011449198 0.0097786766 0.38700002 4279506186
0.012706175 0.0097786766 0.38700002 4279900944
0.013963151 0.0097786766 0.38700002 4280825639
0.015220128 0.0097786766 0.38700002 4283524949
0.016477104 0.0097786766 0.38700002 4284707424
0.017734082 0.0097786766 0.38700002 4285161808
0.018991059 0.0097786766 0.38700002 4284358419
0.020248035 0.0097786766 0.38700002 4285014039
0.021505011 0.0097786766 0.38700002 4285210646
0.022761988 0.0097786766 0.38700002 4285210646
0.024018966 0.0097786766 0.38700002 4285342232
0.025341252 0.0098039433 0.38800001 4284487693
0.026601478 0.0098039433 0.38800001 4290611323
0.027933512 0.009829212 0.38900003 4284423701
0.029272038 0.0098544797 0.39000002 4284948505
0.030538762 0.0098544797 0.39000002 4284423701
0.031887036 0.0098797483 0.39100003 4283968288
0.033157006 0.0098797483 0.39100003 4283776303
-0.0023529716 0.010922011 0.38300002 4279834381
-0.0011118823 0.010950527 0.384 4280947722
0.00013570279 0.010979045 0.38500002 4283178518
0.0013861834 0.010979045 0.38500002 4284292626
0.0026435126 0.011007561 0.38600001 4284686101
0.0038972411 0.011007561 0.38600001 4284488722
0.0051509701 0.011007561 0.38600001 4284488722
0.0064046984 0.011007561 0.38600001 4284095765
0.0076584271 0.011007561 0.38600001 4283505940
0.0089352448 0.011036079 0.38700002 4282718741
0.010192221 0.011036079 0.38700002 4282127887
0.011449198 0.011036079 0.38700002 4281865488
0.012706175 0.011036079 0.38700002 4282195223
0.013963151 0.011036079 0.38700002 4283445540
0.015220128 0.011036079 0.38700002 4282918166
0.016477104 0.011036079 0.38700002 4283899413
0.017688256 0.011007561 0.38600001 4284687386
0.018941985 0.011007561 0.38600001 4285079832
0.020195713 0.011007561 0.38600001 4285079832
0.021449441 0.011007561 0.38600001 4285145623
0.022761988 0.011036079 0.38700002 4285014037
0.024018966 0.011036079 0.38700002 4285013267
0.025341252 0.011064596 0.38800001 4285473818
0.026601478 0.011064596 0.38800001 4289096287
0.027933512 0.011093114 0.38900003 4284621078
0.029272038 0.01112163 0.39000002 4284882710
0.030538762 0.01112163 0.39000002 4284488722
0.031887036 0.011150148 0.39100003 4283245594
0.033157006 0.011150148 0.39100003 4285885279
-0.0023529716 0.012166417 0.38300002 4279569926
-0.0011118823 0.012198183 0.384 4279504903
0.00013570279 0.01222995 0.38500002 4280552964
0.0013897839 0.012261716 0.38600001 4283637265
0.0026435126 0.012261716 0.38600001 4284030226
0.0038972411 0.012261716 0.38600001 4284816917
0.0051509701 0.012261716 0.38600001 4284750867
0.0064046984 0.012261716 0.38600001 4284882453
0.0076584271 0.012261716 0.38600001 4284948246
0.0089121563 0.012261716 0.38600001 4284816917
0.010192221 0.012293482 0.38700002 4284619540
0.011449198 0.012293482 0.38700002 4284882712
0.012706175 0.012293482 0.38700002 4284948505
0.013963151 0.012293482 0.38700002 4284948503
0.015220128 0.012293482 0.38700002 4285014296
0.016434528 0.012261716 0.38600001 4285014298
0.017688256 0.012261716 0.38600001 4284686103
0.018941985 0.012261716 0.38600001 4284816917
0.020195713 0.012261716 0.38600001 4285474847
0.021449441 0.012261716 0.38600001 4284685331
0.022761988 0.012293482 0.38700002 4284619538
0.024018966 0.012293482 0.38700002 4284487952
0.025341252 0.012325248 0.38800001 4284750867
0.026601478 0.012325248 0.38800001 4284882455
0.027933512 0.012357014 0.38900003 4285014041
0.029272038 0.01238878 0.39000002 4284292113
0.030538762 0.01238878 0.39000002 4284029456
0.031887036 0.012420547 0.39100003 4282786330
0.00013605527 0.013515868 0.38600001 4282588951
0.0013897839 0.013515868 0.38600001 4284095765
0.0026435126 0.013515868 0.38600001 4284751896
0.0038972411 0.013515868 0.38600001 4288831832
0.0051509701 0.013515868 0.38600001 4285278236
0.0064046984 0.013515868 0.38600001 4285210646
0.0076584271 0.013515868 0.38600001 4285144853
0.0089121563 0.013515868 0.38600001 4285014037
0.010165884 0.013515868 0.38600001 4285079832
0.011449198 0.013550884 0.38700002 4285145625
0.012706175 0.013550884 0.38700002 4285211418
0.013963151 0.013550884 0.38700002 4285409054
0.015180798 0.013515868 0.38600001 4286725684
0.016434528 0.013515868 0.38600001 4289954935
0.017688256 0.013515868 0.38600001 4287717721
0.018941985 0.013515868 0.38600001 4283438350
0.020195713 0.013515868 0.38600001 4283374354
0.021449441 0.013515868 0.38600001 4282848010
0.022761988 0.013550884 0.38700002 4283570450
0.024018966 0.013550884 0.38700002 4284029202
0.025341252 0.013585899 0.38800001 4284357908
0.026601478 0.013585899 0.38800001 4284292115
0.027933512 0.013620915 0.38900003 4284422931
0.029272038 0.01365593 0.39000002 4283897616
0.030538762 0.01365593 0.39000002 4283438348
0.031805482 0.01365593 0.39000002 4281538578
-0.0023775457 0.014808287 0.38700002 4282980625
-0.001120569 0.014808287 0.38700002 4283835934
0.00013605527 0.014770022 0.38600001 4283769112
0.0013897839 0.014770022 0.38600001 4284948248
0.0026435126 0.014770022 0.38600001 4285144857
0.0038972411 0.014770022 0.38600001 4286066984
0.0051509701 0.014770022 0.38600001 4285079832
0.0064046984 0.014770022 0.38600001 4284815888
0.0076584271 0.014770022 0.38600001 4284815888
0.0089352448 0.014808287 0.38700002 4284882451
0.010192221 0.014808287 0.38700002 4284422157
0.011449198 0.014808287 0.38700002 4284488722
0.012706175 0.014808287 0.38700002 4284160527
0.013963151 0.014808287 0.38700002 4283701261
0.015220128 0.014808287 0.38700002 4283372555
0.016434528 0.014770022 0.38600001 4282391834
0.017688256 0.014770022 0.38600001 4284566853
0.018941985 0.014770022 0.38600001 4285098846
0.020195713 0.014770022 0.38600001 4284706395
0.021449441 0.014770022 0.38600001 4284171833
0.022761988 0.014808287 0.38700002 4282718739
0.024018966 0.014808287 0.38700002 4283242768
0.025341252 0.01484655 0.38800001 4283571220
0.026601478 0.01484655 0.38800001 4283702036
0.027933512 0.014884816 0.38900003 4283702036
0.029272038 0.014923079 0.39000002 4283242768
0.030538762 0.014923079 0.39000002 4282914832
0.031805482 0.014923079 0.39000002 4283451713
-0.0036439139 0.016107202 0.38800001 4282591518
-0.0023836892 0.016107202 0.38800001 4283048987
-0.0011234644 0.016107202 0.38800001 4283639069
0.00013640775 0.016065689 0.38700002 4283834905
0.0013933844 0.016065689 0.38700002 4284487952
0.002650361 0.016065689 0.38700002 4284815890
0.0039073378 0.016065689 0.38700002 4285014039
0.0051643145 0.016065689 0.38700002 4284685074
0.0064212908 0.016065689 0.38700002 4284553488
0.007678268 0.016065689 0.38700002 4284421902
0.0089352448 0.016065689 0.38700002 4283831564
0.010192221 0.016065689 0.38700002 4282781702
0.011449198 0.016065689 0.38700002 4280881411
0.012706175 0.016065689 0.38700002 4281343507
0.013963151 0.016065689 0.38700002 4282530350
0.015220128 0.016065689 0.38700002 4282598709
0.016434528 0.016024174 0.38600001 4284509536
0.017688256 0.016024174 0.38600001 4284313184
0.018941985 0.016024174 0.38600001 4284574555
0.020195713 0.016024174 0.38600001 4281544997
0.021449441 0.016024174 0.38600001 4281603599
0.022761988 0.016065689 0.38700002 4282655258
0.024081029 0.016107202 0.38800001 4282653457
0.025341252 0.016107202 0.38800001 4282916116
0.026670041 0.016148716 0.38900003 4282915600
0.027933512 0.016148716 0.38900003 4282784014
0.029272038 0.016190229 0.39000002 4282654229
0.030538762 0.016190229 0.39000002 4282131996
-0.0036533056 0.017412616 0.38900003 4280753939
-0.0023836892 0.017367853 0.38800001 4282922026
-0.0011234644 0.017367853 0.38800001 4283377952
0.00013676021 0.017367853 0.38800001 4283375637
0.0013933844 0.017323092 0.38700002 4283898638
0.002650361 0.017323092 0.38700002 4284226320
0.0039073378 0.017323092 0.38700002 4284357136
0.0051643145 0.017323092 0.38700002 4284817687
0.0064212908 0.017323092 0.38700002 4284423699
0.007678268 0.017323092 0.38700002 4283765769
0.0089583332 0.017367853 0.38800001 4282979081
0.010218557 0.017367853 0.38800001 4281996297
0.011478783 0.017367853 0.38800001 4280292874
0.012739007 0.017367853 0.38800001 4280359440
0.013999231 0.017367853 0.38800001 4280887321
0.015259456 0.017367853 0.38800001 4280888091
0.016562259 0.017412616 0.38900003 4280030477
0.01782573 0.017412616 0.38900003 4280358415
0.019089203 0.017412616 0.38900003 4281210126
0.020352677 0.017412616 0.38900003 4281800980
0.021616148 0.017412616 0.38900003 4282195225
0.022761988 0.017323092 0.38700002 4282063639
0.024081029 0.017367853 0.38800001 4281668879
0.025341252 0.017367853 0.38800001 4282129430
0.026670041 0.017412616 0.38900003 4282326039
0.027933512 0.017412616 0.38900003 4282327322
0.029272038 0.017457379 0.39000002 4283059008
-0.0049420572 0.018772542 0.39100003 4279377430
-0.003662697 0.018724529 0.39000002 4279638547
-0.0023898329 0.018676519 0.38900003 4283254332
-0.00112636 0.018676519 0.38900003 4282920229
0.00013676021 0.018628506 0.38800001 4282654227
0.0013969848 0.018628506 0.38800001 4283241483
0.0026572095 0.018628506 0.38800001 4283899153
0.0039174343 0.018628506 0.38800001 4284030226
0.005177659 0.018628506 0.38800001 4284030739
0.0064378832 0.018628506 0.38800001 4283176714
0.007698108 0.018628506 0.38800001 4282979081
0.0089583332 0.018628506 0.38800001 4282324492
0.010244895 0.018676519 0.38900003 4281143302
0.011508367 0.018676519 0.38900003 4281208843
0.01277184 0.018676519 0.38900003 4281012747
0.014035312 0.018676519 0.38900003 4280947724
0.015298785 0.018676519 0.38900003 4281342482
0.016562259 0.018676519 0.38900003 4280816398
0.01782573 0.018676519 0.38900003 4281606427
-0.0075585363 0.020247983 0.39500001 4279706908
-0.0062596882 0.020196723 0.39400002 4279575322
-0.0049546966 0.020094201 0.39200002 4279509016
-0.0036720887 0.020042941 0.39100003 4279508246
-0.0023959761 0.019991679 0.39000002 4279375629
-0.0011292555 0.019991679 0.39000002 4283451450
0.0001371127 0.019940419 0.38900003 4282526238
0.0014005854 0.019940419 0.38900003 4282916116
0.002664058 0.019940419 0.38900003 4283112211
0.0039174343 0.019889157 0.38800001 4283374354
0.0051910039 0.019940419 0.38900003 4283111952
0.0064544762 0.019940419 0.38900003 4282784014
0.0077179489 0.019940419 0.38900003 4282652944
0.0089814216 0.019940419 0.38900003 4283381034
0.010244895 0.019940419 0.38900003 4281735955
0.011508367 0.019940419 0.38900003 4281866771
0.01277184 0.019940419 0.38900003 4281473298
0.014035312 0.019940419 0.38900003 4281015060
0.015298785 0.019940419 0.38900003 4280818194
0.016562259 0.019940419 0.38900003 4282862658
-0.0062596882 0.021476869 0.39400002 4279640602
-0.0049673361 0.021422358 0.39300001 4279377430
-0.0036814802 0.021367848 0.39200002 4279377430
-0.0024021198 0.021313339 0.39100003 4279441938
-0.0011292555 0.021258829 0.39000002 4279703567
0.00013746516 0.021258829 0.39000002 4282530863
0.0014005854 0.021204319 0.38900003 4282524955
0.002664058 0.021204319 0.38900003 4282195477
0.0039275307 0.021204319 0.38900003 4282194193
0.0051910039 0.021204319 0.38900003 4282325777
0.0064544762 0.021204319 0.38900003 4281471752
0.0077179489 0.021204319 0.38900003 4283119143
0.00900451 0.021258829 0.39000002 4281740066
0.010271231 0.021258829 0.39000002 4280687378
0.011537951 0.021258829 0.39000002 4280227856
0.012804672 0.021258829 0.39000002 4279900174
0.014071392 0.021258829 0.39000002 4279638031
0.015298785 0.021204319 0.38900003 4279835156
0.016604833 0.021258829 0.39000002 4282996556
-0.0062755756 0.022814773 0.39500001 4279706395
-0.0049673361 0.022699254 0.39300001 4279640602
-0.0036814802 0.022641497 0.39200002 4279377430
-0.0024082633 0.022641497 0.39200002 4279508244
-0.0011321511 0.022583738 0.39100003 4279573524
0.00013781765 0.022583738 0.39100003 4279770133
0.0014041858 0.022525977 0.39000002 4280228626
0.0026709065 0.022525977 0.39000002 4280753685
0.0039376272 0.022525977 0.39000002 4281211923
0.0052043479 0.022525977 0.39000002 4281146128
0.0064710681 0.022525977 0.39000002 4280621067
0.0077377893 0.022525977 0.39000002 4280161802
0.00900451 0.022525977 0.39000002 4279834383
0.010271231 0.022525977 0.39000002 4279638031
0.011537951 0.022525977 0.39000002 4279376399
0.012804672 0.022525977 0.39000002 4279376145
0.014071392 0.022525977 0.39000002 4279507731
0.015338113 0.022525977 0.39000002 4279573524
-0.004979976 0.02403716 0.39400002 4279641113
-0.0036908714 0.023976151 0.39300001 4279575322
-0.0024082633 0.023915144 0.39200002 4279640600
-0.0011350466 0.023915144 0.39200002 4279640600
0.00013781765 0.023854136 0.39100003 4279509014
0.0014077864 0.023854136 0.39100003 4279574037
0.0026709065 0.023793127 0.39000002 4279639571
0.0039376272 0.023793127 0.39000002 4279835410
0.0052043479 0.023793127 0.39000002 4280032530
0.0064710681 0.023793127 0.39000002 4279901201
0.0077377893 0.023793127 0.39000002 4279704594
0.00900451 0.023793127 0.39000002 4279573524
0.010271231 0.023793127 0.39000002 4279573524
0.011537951 0.023793127 0.39000002 4279771416
0.012804672 0.023793127 0.39000002 4279771416
0.014071392 0.023793127 0.39000002 4279969565
-0.004979976 0.025317308 0.39400002 4279641113
-0.0036908714 0.02525305 0.39300001 4279443736
-0.0024082633 0.025188792 0.39200002 4279246357
-0.0011350466 0.025188792 0.39200002 4278982672
0.00013817011 0.025188792 0.39200002 4279180051
0.0014077864 0.025124537 0.39100003 4279048465
0.002677755 0.025124537 0.39100003 4279311637
0.0039376272 0.025060279 0.39000002 4279376658
0.0052043479 0.025060279 0.39000002 4279310865
0.0064710681 0.025060279 0.39000002 4279179279
0.0077377893 0.025060279 0.39000002 4279441938
0.00900451 0.025060279 0.39000002 4279310865
0.010297568 0.025124537 0.39100003 4279113486
0.011567537 0.025124537 0.39100003 4279179279
-0.0011379421 0.026529947 0.39300001 4279180564
0.00013817011 0.026462441 0.39200002 4279048465
0.0014113868 0.026462441 0.39200002 4279377430
0.0026846034 0.026462441 0.39200002 4279311637
0.0039578201 0.026462441 0.39200002 4279180051
0.011053525 -0.0064478256 0.38390347 4294967295
0.011053525 -0.0064478256 0.38390347 4294901760
0.011053525 -0.0064478256 0.38440347 4294901760
0.011053525 -0.0064478256 0.38490346 4294901760
0.011053525 -0.0064478256 0.38540348 4294901760
0.011053525 -0.0064478256 0.38590348 4294901760
0.011053525 -0.0064478256 0.38640347 4294901760
0.011053525 -0.0064478256 0.38690346 4294901760
0.011053525 -0.0064478256 0.38740349 4294901760
0.011053525 -0.0064478256 0.38790348 4294901760
0.011053525 -0.0064478256 0.38840348 4294901760
0.011053525 -0.0064478256 0.38890347 4294901760
0.011053525 -0.0064478256 0.38940346 4294901760
0.011053525 -0.0064478256 0.38990349 4294901760
