# .PCD v0.7 - Point Cloud Data file format
VERSION 0.7
FIELDS x y z rgb
SIZE 4 4 4 4
TYPE F F F U
COUNT 1 1 1 1
WIDTH 1066
HEIGHT 1
VIEWPOINT 0 0 0 1 0 0 0
POINTS 1066
DATA ascii
0.061334852 0.032631166 0.34900001 4284906600
0.062289417 0.032537669 0.34800002 4283131213
0.06305524 0.032350671 0.34600002 4280764460
0.063993558 0.032257173 0.34500003 4279187992
0.065114126 0.032257173 0.34500003 4279452447
0.066042691 0.032163672 0.34400001 4280242733
0.067160003 0.032163672 0.34400001 4280440110
0.068078846 0.032070175 0.34300002 4279323937
0.069192901 0.032070175 0.34300002 4279456806
0.070306972 0.032070175 0.34300002 4279983922
0.071212806 0.031976674 0.34200001 4280047151
0.072323628 0.031976674 0.34200001 4279060767
0.073434442 0.031976674 0.34200001 4278666009
0.07432729 0.031883176 0.34100002 4278797595
0.075213641 0.031789675 0.34 4278929181
0.076093495 0.031696178 0.33900002 4279257121
0.076966859 0.031602681 0.33800003 4279387683
0.078064688 0.031602681 0.33800003 4279452193
0.078928299 0.03150918 0.33700001 4279452193
0.079785421 0.031415682 0.33600003 4279649059
0.080876753 0.031415682 0.33600003 4279451680
0.061334852 0.033765104 0.34900001 4284840809
0.062289417 0.033668354 0.34800002 4284381793
0.064179048 0.033474859 0.34600002 4279977254
0.065114126 0.033378113 0.34500003 4280636467
0.066042691 0.033281364 0.34400001 4280571698
0.067160003 0.033281364 0.34400001 4280571698
0.068277322 0.033281364 0.34400001 4280309807
0.069192901 0.033184614 0.34300002 4279192353
0.070306972 0.033184614 0.34300002 4278732572
0.071421035 0.033184614 0.34300002 4281099835
0.072323628 0.033087865 0.34200001 4279719465
0.073434442 0.033087865 0.34200001 4279127330
0.07432729 0.032991119 0.34100002 4279258146
0.075434864 0.032991119 0.34100002 4278731802
0.076317959 0.032894369 0.34 4278863388
0.077194571 0.032797623 0.33900002 4278863388
0.078064688 0.032700874 0.33800003 4278862875
0.078928299 0.032604124 0.33700001 4278862875
0.080022871 0.032604124 0.33700001 4278993949
0.081117451 0.032604124 0.33700001 4278993949
0.082212023 0.032604124 0.33700001 4278862109
0.083306603 0.032604124 0.33700001 4279059488
0.084401175 0.032604124 0.33700001 4279255584
0.061334852 0.034899037 0.34900001 4284840809
0.062289417 0.034799043 0.34800002 4285236335
0.064179048 0.034599047 0.34600002 4280832563
0.065114126 0.034499053 0.34500003 4280768053
0.066234678 0.034499053 0.34500003 4280637752
0.067160003 0.034399055 0.34400001 4280637750
0.068277322 0.034399055 0.34400001 4280507188
0.069394633 0.034399055 0.34400001 4280573495
0.070306972 0.034299057 0.34300002 4280837178
0.071421035 0.034299057 0.34300002 4280178735
0.072535105 0.034299057 0.34300002 4278798363
0.073434442 0.034199059 0.34200001 4278995742
0.074545257 0.034199059 0.34200001 4279062048
0.075434864 0.034099061 0.34100002 4278930462
0.076317959 0.033999063 0.34 4279062048
0.077194571 0.033899069 0.33900002 4278930462
0.078295648 0.033899069 0.33900002 4278929951
0.079162508 0.033799071 0.33800003 4278929951
0.080260336 0.033799071 0.33800003 4278732572
0.081117451 0.033699073 0.33700001 4278798365
0.082212023 0.033699073 0.33700001 4278731802
0.083553806 0.033799071 0.33800003 4278929181
0.084651627 0.033799071 0.33800003 4278797595
0.086003147 0.033899069 0.33900002 4278665496
0.06305524 0.035723239 0.34600002 4282011962
0.064179048 0.035723239 0.34600002 4281029942
0.065114126 0.035619993 0.34500003 4280965432
0.066234678 0.035619993 0.34500003 4280571959
0.067355245 0.035619993 0.34500003 4280900924
0.068475805 0.035619993 0.34500003 4280835129
0.069394633 0.035516743 0.34400001 4280704313
0.070511945 0.035516743 0.34400001 4280507188
0.071421035 0.0354135 0.34300002 4280309809
0.072535105 0.0354135 0.34300002 4280047662
0.073649161 0.0354135 0.34300002 4279851051
0.074545257 0.03531025 0.34200001 4279587879
0.075656079 0.03531025 0.34200001 4279653672
0.07654243 0.035207007 0.34100002 4279062048
0.077422284 0.035103757 0.34 4279127841
0.078526601 0.035103757 0.34 4278667290
0.079396717 0.035000514 0.33900002 4278929949
0.080497786 0.035000514 0.33900002 4278929949
0.081598863 0.035000514 0.33900002 4279061535
0.082699932 0.035000514 0.33900002 4278995742
0.083801009 0.035000514 0.33900002 4278929949
0.084902078 0.035000514 0.33900002 4278929949
0.086256839 0.035103757 0.34 4278732570
0.087361164 0.035103757 0.34 4278732572
0.088465489 0.035103757 0.34 4278732572
0.089306369 0.035000514 0.33900002 4278862875
0.09014076 0.034897268 0.33800003 4278797082
0.090968646 0.034794021 0.33700001 4278993945
0.092063211 0.034794021 0.33700001 4278796566
0.092881359 0.034690775 0.33600003 4278928152
0.093693003 0.034587529 0.33500001 4279058968
0.094781086 0.034587529 0.33500001 4278927384
0.095869169 0.034587529 0.33500001 4278730005
0.096957251 0.034587529 0.33500001 4279519010
0.098837487 0.034484282 0.33400002 4279189021
0.099623151 0.034381032 0.333 4279188508
0.10070474 0.034381032 0.333 4279188508
0.10178632 0.034381032 0.333 4279516703
0.102559 0.034277789 0.33200002 4279187740
0.10332518 0.034174543 0.33100003 4279253019
0.10408485 0.034071296 0.33000001 4279712033
0.10515669 0.034071296 0.33000001 4279777315
0.10622853 0.034071296 0.33000001 4280500266
0.10697523 0.03396805 0.32900003 4281684026
0.10804382 0.03396805 0.32900003 4283656020
0.064179048 0.036847427 0.34600002 4280634159
0.065302856 0.036847427 0.34600002 4281162813
0.066426665 0.036847427 0.34600002 4280835131
0.067550473 0.036847427 0.34600002 4280900924
0.068475805 0.036740933 0.34500003 4280835131
0.069596365 0.036740933 0.34500003 4280571957
0.070511945 0.036634434 0.34400001 4280769590
0.071629256 0.036634434 0.34400001 4280572211
0.072746575 0.036634434 0.34400001 4280375602
0.073649161 0.036527943 0.34300002 4280178223
0.074763231 0.036527943 0.34300002 4279849772
0.075656079 0.036421444 0.34200001 4279915563
0.076766886 0.036421444 0.34200001 4279850281
0.077649996 0.036314949 0.34100002 4279653672
0.078757569 0.036314949 0.34100002 4279850283
0.079630919 0.036208451 0.34 4279784490
0.080735244 0.036208451 0.34 4279652391
0.081839561 0.036208451 0.34 4279783977
0.082943879 0.036208451 0.34 4279586598
0.084048204 0.036208451 0.34 4279192351
0.085152522 0.036208451 0.34 4279192351
0.086256839 0.036208451 0.34 4279126558
0.087361164 0.036208451 0.34 4278863386
0.088465489 0.036208451 0.34 4278929179
0.089306369 0.03610196 0.33900002 4278929179
0.09014076 0.035995465 0.33800003 4279652902
0.091238588 0.035995465 0.33800003 4278929181
0.092063211 0.035888966 0.33700001 4278666009
0.092881359 0.035782471 0.33600003 4278731800
0.093693003 0.035675976 0.33500001 4278797593
0.094781086 0.035675976 0.33500001 4278797080
0.095869169 0.035675976 0.33500001 4278797082
0.096957251 0.035675976 0.33500001 4278731289
0.098045327 0.035675976 0.33500001 4278665496
0.098837487 0.035569482 0.33400002 4278467603
0.099922322 0.035569482 0.33400002 4278533396
0.10070474 0.035462983 0.333 4278861078
0.10178632 0.035462983 0.333 4278992664
0.102559 0.035356492 0.33200002 4278926101
0.10332518 0.035249997 0.33100003 4279189273
0.10440026 0.035249997 0.33100003 4279057174
0.10515669 0.035143498 0.33000001 4279254555
0.10622853 0.035143498 0.33000001 4279516957
0.10697523 0.035037003 0.32900003 4279779615
0.10804382 0.035037003 0.32900003 4279844895
0.10911241 0.035037003 0.32900003 4280040221
0.110181 0.035037003 0.32900003 4280302625
0.11124959 0.035037003 0.32900003 4279644695
0.11231819 0.035037003 0.32900003 4280432678
0.065302856 0.037971616 0.34600002 4281423421
0.066426665 0.037971616 0.34600002 4281097790
0.067550473 0.037971616 0.34600002 4281032510
0.068674281 0.037971616 0.34600002 4280900922
0.06979809 0.037971616 0.34600002 4280769336
0.070716925 0.037861872 0.34500003 4280572211
0.071837485 0.037861872 0.34500003 4280506418
0.072746575 0.037752125 0.34400001 4280374832
0.073863879 0.037752125 0.34400001 4280375348
0.074763231 0.037642382 0.34300002 4280046383
0.075877294 0.037642382 0.34300002 4280046383
0.076991357 0.037642382 0.34300002 4279980844
0.077877708 0.037532635 0.34200001 4279980842
0.078988522 0.037532635 0.34200001 4279980842
0.080099337 0.037532635 0.34200001 4279980842
0.080972701 0.037422892 0.34100002 4279913766
0.082080275 0.037422892 0.34100002 4279519008
0.083187841 0.037422892 0.34100002 4279912996
0.084295407 0.037422892 0.34100002 4280176938
0.085402973 0.037422892 0.34100002 4280045863
0.086510539 0.037422892 0.34100002 4280374828
0.087618113 0.037422892 0.34100002 4279717668
0.088465489 0.037313148 0.34 4280178219
0.089569807 0.037313148 0.34 4279520289
0.090407446 0.037203405 0.33900002 4279389217
0.091238588 0.037093662 0.33800003 4279126047
0.092063211 0.036983915 0.33700001 4278994461
0.092881359 0.036874171 0.33600003 4278994461
0.093693003 0.036764424 0.33500001 4278928668
0.094781086 0.036764424 0.33500001 4278994459
0.096155353 0.036874171 0.33600003 4279126045
0.096957251 0.036764424 0.33500001 4278928666
0.098045327 0.036764424 0.33500001 4278797082
0.09913341 0.036764424 0.33500001 4278862877
0.10022149 0.036764424 0.33500001 4278928668
0.10100716 0.036654681 0.33400002 4278797082
0.10209199 0.036654681 0.33400002 4278664982
0.102559 0.036435191 0.33200002 4278927384
0.10363734 0.036435191 0.33200002 4278795798
0.10440026 0.036325447 0.33100003 4278795798
0.10515669 0.036215704 0.33000001 4278730005
0.10622853 0.036215704 0.33000001 4278795798
0.10730037 0.036215704 0.33000001 4278992664
0.10837222 0.036215704 0.33000001 4278926101
0.10911241 0.036105961 0.32900003 4279320859
0.110181 0.036105961 0.32900003 4279582234
0.11158773 0.036215704 0.33000001 4279582234
0.11265957 0.036215704 0.33000001 4279713309
0.11407606 0.036325447 0.33100003 4279778848
0.11584692 0.036544934 0.333 4279975457
0.11692851 0.036544934 0.333 4280040737
0.11836448 0.036654681 0.33400002 4279842588
0.11980694 0.036764424 0.33500001 4279710742
0.12089502 0.036764424 0.33500001 4281091112
0.066618644 0.039208796 0.347 4282082118
0.0677457 0.039208796 0.347 4281359679
0.068872757 0.039208796 0.347 4281031995
0.06979809 0.039095804 0.34600002 4280900409
0.070921898 0.039095804 0.34600002 4280571698
0.071837485 0.038982812 0.34500003 4280571698
0.072958045 0.038982812 0.34500003 4280440625
0.073863879 0.038869817 0.34400001 4280440625
0.074981198 0.038869817 0.34400001 4280243762
0.076098509 0.038869817 0.34400001 4279980590
0.077215821 0.038869817 0.34400001 4279848486
0.07810542 0.038756825 0.34300002 4280045865
0.07921949 0.038756825 0.34300002 4280045865
0.080333553 0.038756825 0.34300002 4280177451
0.081210159 0.03864383 0.34200001 4279252504
0.082320973 0.03864383 0.34200001 4278791183
0.083431788 0.03864383 0.34200001 4280438829
0.084542602 0.03864383 0.34200001 4280373547
0.085653417 0.03864383 0.34200001 4280176938
0.086764239 0.03864383 0.34200001 4280636719
0.087875053 0.03864383 0.34200001 4279912996
0.088725686 0.038530838 0.34100002 4279716387
0.089569807 0.038417842 0.34 4280111145
0.090407446 0.03830485 0.33900002 4280176936
0.091508523 0.03830485 0.33900002 4280111658
0.092336401 0.038191859 0.33800003 4280111658
0.092881359 0.037965868 0.33600003 4279914279
0.093693003 0.037852872 0.33500001 4279980072
0.094781086 0.037852872 0.33500001 4279914277
0.096155353 0.037965868 0.33600003 4279716898
0.097246684 0.037965868 0.33600003 4279257631
0.098338 0.037965868 0.33600003 4279126047
0.099429332 0.037965868 0.33600003 4278928668
0.10052066 0.037965868 0.33600003 4278994461
0.10130957 0.037852872 0.33500001 4279849256
0.10239765 0.037852872 0.33500001 4279388707
0.10286791 0.037626885 0.333 4279257121
0.10363734 0.037513893 0.33200002 4278862363
0.10440026 0.037400901 0.33100003 4278862361
0.10547535 0.037400901 0.33100003 4278928154
0.10622853 0.037287906 0.33000001 4278928154
0.10730037 0.037287906 0.33000001 4278862361
0.10837222 0.037287906 0.33000001 4279058970
0.10944406 0.037287906 0.33000001 4278598419
0.11051589 0.037287906 0.33000001 4278992664
0.11158773 0.037287906 0.33000001 4279058457
0.11300097 0.037400901 0.33100003 4278794002
0.1144207 0.037513893 0.33200002 4278925588
0.11619481 0.03773988 0.33400002 4279188760
0.11763078 0.037852872 0.33500001 4278991381
0.11871886 0.037852872 0.33500001 4279451164
0.12016457 0.037965868 0.33600003 4279319578
0.1212559 0.037965868 0.33600003 4279516443
0.12307549 0.038191859 0.33800003 4279713822
0.12454069 0.03830485 0.33900002 4279909664
0.12601238 0.038417842 0.34 4279777565
0.12711671 0.038417842 0.34 4279184658
0.12822104 0.038417842 0.34 4279908381
0.12932535 0.038417842 0.34 4281880374
0.13230772 0.03864383 0.34200001 4285432685
0.0677457 0.040336236 0.347 4284776811
0.068872757 0.040336236 0.347 4281489468
0.069999814 0.040336236 0.347 4281357880
0.070921898 0.040219992 0.34600002 4281161268
0.072045706 0.040219992 0.34600002 4281161782
0.072958045 0.040103752 0.34500003 4280702260
0.074078605 0.040103752 0.34500003 4280834100
0.075199164 0.040103752 0.34500003 4280110377
0.076098509 0.039987508 0.34400001 4279913768
0.077215821 0.039987508 0.34400001 4279914279
0.078333132 0.039987508 0.34400001 4279848486
0.079450443 0.039987508 0.34400001 4279519523
0.080567755 0.039987508 0.34400001 4279846951
0.081447616 0.039871268 0.34300002 4278988310
0.082561679 0.039871268 0.34300002 4280897331
0.083675742 0.039871268 0.34300002 4279912744
0.084789813 0.039871268 0.34300002 4280373549
0.085903868 0.039871268 0.34300002 4279184144
0.087017938 0.039871268 0.34300002 4279183633
0.087875053 0.03975502 0.34200001 4279314967
0.088985875 0.03975502 0.34200001 4279183381
0.089833252 0.03963878 0.34100002 4278790418
0.090940826 0.03963878 0.34100002 4278790418
0.09177845 0.039522536 0.34 4280108328
0.092609584 0.039406296 0.33900002 4280371500
0.092881359 0.039057568 0.33600003 4280702260
0.09397269 0.039057568 0.33600003 4280242731
0.095064022 0.039057568 0.33600003 4280242731
0.096727706 0.039290052 0.33800003 4280242731
0.097825535 0.039290052 0.33800003 4280045865
0.098923348 0.039290052 0.33800003 4279519523
0.10002118 0.039290052 0.33800003 4279783463
0.10081983 0.039173808 0.33700001 4280309807
0.10191441 0.039173808 0.33700001 4279388707
0.10300899 0.039173808 0.33700001 4279520293
0.10317682 0.03882508 0.33400002 4279453730
0.10363734 0.038592596 0.33200002 4279059742
0.10471567 0.038592596 0.33200002 4278993949
0.10547535 0.038476355 0.33100003 4279322914
0.10655044 0.038476355 0.33100003 4279322912
0.10730037 0.038360108 0.33000001 4280177451
0.10837222 0.038360108 0.33000001 4278993177
0.10944406 0.038360108 0.33000001 4279124763
0.11051589 0.038360108 0.33000001 4279124763
0.11192589 0.038476355 0.33100003 4279190043
0.11300097 0.038476355 0.33100003 4279058457
0.11476534 0.038708836 0.333 4279189273
0.11689059 0.039057568 0.33600003 4279123478
0.11798193 0.039057568 0.33600003 4279189271
0.11942764 0.039173808 0.33700001 4279189273
0.1205222 0.039173808 0.33700001 4278926103
0.12197766 0.039290052 0.33800003 4278926103
0.12343962 0.039406296 0.33900002 4279057176
0.12490807 0.039522536 0.34 4278794004
0.12601238 0.039522536 0.34 4279451164
0.12749058 0.03963878 0.34100002 4279516957
0.12859815 0.03963878 0.34100002 4279648029
0.12970571 0.03963878 0.34100002 4279647516
0.1311969 0.03975502 0.34200001 4280107297
0.13230772 0.03975502 0.34200001 4280238883
0.13341853 0.03975502 0.34200001 4280171807
0.13452935 0.03975502 0.34200001 4280432669
0.13564017 0.03975502 0.34200001 4280958759
0.13715084 0.039871268 0.34300002 4283195721
0.13826491 0.039871268 0.34300002 4284643167
0.074078605 0.041224692 0.34500003 4281159481
0.075199164 0.041224692 0.34500003 4280239401
0.076319732 0.041224692 0.34500003 4279779361
0.077215821 0.0411052 0.34400001 4280240680
0.078333132 0.0411052 0.34400001 4279847205
0.079450443 0.0411052 0.34400001 4279649061
0.080567755 0.0411052 0.34400001 4279581471
0.081685066 0.0411052 0.34400001 4281291065
0.082802385 0.0411052 0.34400001 4280043049
0.083919697 0.0411052 0.34400001 4279845670
0.085037008 0.0411052 0.34400001 4278922771
0.086154319 0.0411052 0.34400001 4279708955
0.087271631 0.0411052 0.34400001 4280366885
0.088132001 0.040985707 0.34300002 4280367655
0.089246072 0.040985707 0.34300002 4279907106
0.09009669 0.040866215 0.34200001 4279643934
0.091207512 0.040866215 0.34200001 4280630829
0.092048392 0.040746726 0.34100002 4280236069
0.09315595 0.040746726 0.34100002 4279907104
0.094816387 0.040985707 0.34300002 4279314967
0.09565077 0.040866215 0.34200001 4279051025
0.096761592 0.040866215 0.34200001 4279315219
0.097300053 0.04062723 0.34 4279709977
0.098404378 0.04062723 0.34 4280238116
0.099508688 0.04062723 0.34 4280896559
0.10031709 0.040507741 0.33900002 4280570415
0.10141817 0.040507741 0.33900002 4280505133
0.10251924 0.040507741 0.33900002 4280241963
0.10362031 0.040507741 0.33900002 4280307756
0.10533921 0.040746726 0.34100002 4280307756
0.10644679 0.040746726 0.34100002 4280242733
0.10786975 0.040866215 0.34200001 4280111658
0.10898057 0.040866215 0.34200001 4279849256
0.11009139 0.040866215 0.34200001 4279914279
0.11087705 0.040746726 0.34100002 4279519521
0.11198463 0.040746726 0.34100002 4279256351
0.1130922 0.040746726 0.34100002 4278993179
0.11419976 0.040746726 0.34100002 4279387937
0.11530732 0.040746726 0.34100002 4279453730
0.1160735 0.04062723 0.34 4280177453
0.11717782 0.04062723 0.34 4279651107
0.11758637 0.040388249 0.33800003 4279585312
0.1186842 0.040388249 0.33800003 4279255834
0.11978202 0.040388249 0.33800003 4279255836
0.12123747 0.040507741 0.33900002 4279124250
0.12233854 0.040507741 0.33900002 4279058457
0.12380374 0.04062723 0.34 4278992664
0.12527545 0.040746726 0.34100002 4279058457
0.12638302 0.040746726 0.34100002 4279189273
0.12749058 0.040746726 0.34100002 4278926101
0.12859815 0.040746726 0.34100002 4278794004
0.13008608 0.040866215 0.34200001 4279385371
0.1311969 0.040866215 0.34200001 4279319578
0.13230772 0.040866215 0.34200001 4279516957
0.13341853 0.040866215 0.34200001 4279516957
0.13492273 0.040985707 0.34300002 4279582236
0.13603678 0.040985707 0.34300002 4279779102
0.13715084 0.040985707 0.34300002 4279909401
0.13826491 0.040985707 0.34300002 4279909401
0.13937898 0.040985707 0.34300002 4280171291
0.14049304 0.040985707 0.34300002 4280565538
0.14160711 0.040985707 0.34300002 4281221681
0.078560852 0.042345632 0.34500003 4284644713
0.079681411 0.042345632 0.34500003 4283920990
0.080567755 0.042222891 0.34400001 4282802509
0.081685066 0.042222891 0.34400001 4280698415
0.082802385 0.042222891 0.34400001 4279712033
0.083919697 0.042222891 0.34400001 4280042535
0.085037008 0.042222891 0.34400001 4280108328
0.086154319 0.042222891 0.34400001 4280830768
0.087271631 0.042222891 0.34400001 4279908899
0.088388942 0.042222891 0.34400001 4279315480
0.089506261 0.042222891 0.34400001 4279052308
0.090360135 0.04210015 0.34300002 4278854418
0.091474198 0.04210015 0.34300002 4279445785
0.092588268 0.04210015 0.34300002 4279576856
0.093429133 0.041977406 0.34200001 4280234784
0.094816387 0.04210015 0.34300002 4279840280
0.095930457 0.04210015 0.34300002 4279971612
0.09704452 0.04210015 0.34300002 4280630309
0.097872406 0.041977406 0.34200001 4280498723
0.098983228 0.041977406 0.34200001 4280300577
0.099801362 0.041854668 0.34100002 4279379990
0.10090894 0.041854668 0.34100002 4280502573
0.1020165 0.041854668 0.34100002 4280701231
0.10312407 0.041854668 0.34100002 4280306473
0.10423165 0.041854668 0.34100002 4278990613
0.10564812 0.041977406 0.34200001 4280108580
0.10707111 0.04210015 0.34300002 4280437545
0.10818516 0.04210015 0.34300002 4280372012
0.10929923 0.04210015 0.34300002 4280636208
0.1104133 0.04210015 0.34300002 4280702001
0.1112022 0.041977406 0.34200001 4280372782
0.11231302 0.041977406 0.34200001 4280505135
0.11342384 0.041977406 0.34200001 4280374319
0.11453465 0.041977406 0.34200001 4280242733
0.11564547 0.041977406 0.34200001 4280242733
0.1164149 0.041854668 0.34100002 4280307243
0.11752246 0.041854668 0.34100002 4279452445
0.11828214 0.041731924 0.34 4279584801
0.11938646 0.041731924 0.34 4279453215
0.12049079 0.041731924 0.34 4279453728
0.1215951 0.041731924 0.34 4279519521
0.12306031 0.041854668 0.34100002 4279387935
0.12416787 0.041854668 0.34100002 4279584801
0.12527545 0.041854668 0.34100002 4279453215
0.12675364 0.041977406 0.34200001 4279519008
0.12786445 0.041977406 0.34200001 4279190043
0.12897527 0.041977406 0.34200001 4279255836
0.13008608 0.041977406 0.34200001 4279058457
0.1311969 0.041977406 0.34200001 4279189273
0.13269459 0.04210015 0.34300002 4278926101
0.13380866 0.04210015 0.34300002 4279189273
0.13492273 0.04210015 0.34300002 4279123480
0.13603678 0.04210015 0.34300002 4279057174
0.13715084 0.04210015 0.34300002 4279319576
0.13826491 0.04210015 0.34300002 4279319576
0.13937898 0.04210015 0.34300002 4278990097
0.14090264 0.042222891 0.34400001 4279779102
0.14201996 0.042222891 0.34400001 4279713309
0.14313726 0.042222891 0.34400001 4279647516
0.084163651 0.043466575 0.34500003 4285170542
0.085284211 0.043466575 0.34500003 4284841577
0.086404771 0.043466575 0.34500003 4284184162
0.08752533 0.043466575 0.34500003 4282605128
0.088388942 0.043340582 0.34400001 4280501290
0.089766458 0.043466575 0.34500003 4280172325
0.090623572 0.043340582 0.34400001 4280040485
0.091740884 0.043340582 0.34400001 4280501036
0.092858203 0.043340582 0.34400001 4280763438
0.093702324 0.043214593 0.34300002 4280236580
0.095092818 0.043340582 0.34400001 4279446551
0.09621013 0.043340582 0.34400001 4279314965
0.097327448 0.043340582 0.34400001 4278986000
0.09815859 0.043214593 0.34300002 4279183379
0.099272653 0.043214593 0.34300002 4279840026
0.10038671 0.043214593 0.34300002 4280302373
0.10150078 0.043214593 0.34300002 4280438575
0.10261484 0.043214593 0.34300002 4279780645
0.10372891 0.043214593 0.34300002 4279251475
0.10484298 0.043214593 0.34300002 4279381777
0.10595704 0.043214593 0.34300002 4279184398
0.10738327 0.043340582 0.34400001 4279579670
0.10850057 0.043340582 0.34400001 4281028145
0.10961788 0.043340582 0.34400001 4281621306
0.11073519 0.043340582 0.34400001 4280897583
0.11185251 0.043340582 0.34400001 4280305192
0.11264143 0.043214593 0.34300002 4279318551
0.11375549 0.043214593 0.34300002 4279648029
0.11486955 0.043214593 0.34300002 4280437543
0.11598361 0.043214593 0.34300002 4281029680
0.11675628 0.043088604 0.34200001 4280570415
0.1178671 0.043088604 0.34200001 4280570415
0.11863004 0.042962614 0.34100002 4280438827
0.1197376 0.042962614 0.34100002 4280438827
0.12084518 0.042962614 0.34100002 4280241961
0.12195273 0.042962614 0.34100002 4280044582
0.12342118 0.043088604 0.34200001 4279715617
0.124532 0.043088604 0.34200001 4280570926
0.12564282 0.043088604 0.34200001 4279453217
0.12675364 0.043088604 0.34200001 4279453730
0.12823834 0.043214593 0.34300002 4279453730
0.12935241 0.043214593 0.34300002 4279519523
0.13046646 0.043214593 0.34300002 4279585314
0.13158052 0.043214593 0.34300002 4279650596
0.13269459 0.043214593 0.34300002 4279519010
0.13380866 0.043214593 0.34300002 4279190045
0.13492273 0.043214593 0.34300002 4279124252
0.13603678 0.043214593 0.34300002 4278992666
0.13715084 0.043214593 0.34300002 4278992664
0.13866802 0.043340582 0.34400001 4279123480
0.13978532 0.043340582 0.34400001 4279189271
0.14090264 0.043340582 0.34400001 4279057172
0.14201996 0.043340582 0.34400001 4278859793
0.14313726 0.043340582 0.34400001 4278991379
0.14425458 0.043340582 0.34400001 4279647512
0.089766458 0.044587512 0.34500003 4283919707
0.090887018 0.044587512 0.34500003 4283591510
0.091740884 0.04445827 0.34400001 4281749560
0.092858203 0.04445827 0.34400001 4280499752
0.093975507 0.04445827 0.34400001 4280302889
0.095092818 0.04445827 0.34400001 4280303657
0.096489817 0.044587512 0.34500003 4280172325
0.097327448 0.04445827 0.34400001 4279843360
0.09844476 0.04445827 0.34400001 4280172325
0.099562079 0.04445827 0.34400001 4280238118
0.10067938 0.04445827 0.34400001 4280172838
0.10179669 0.04445827 0.34400001 4279055640
0.10291401 0.04445827 0.34400001 4278989593
0.10403132 0.04445827 0.34400001 4279644957
0.10514864 0.04445827 0.34400001 4280104735
0.10657487 0.044587512 0.34500003 4279907356
0.10769543 0.044587512 0.34500003 4281159220
0.10881598 0.044587512 0.34500003 4280633387
0.10993654 0.044587512 0.34500003 4280897329
0.1110571 0.044587512 0.34500003 4281094708
0.11185251 0.04445827 0.34400001 4279976227
0.11296982 0.04445827 0.34400001 4280567594
0.11408714 0.04445827 0.34400001 4280699950
0.11520445 0.04445827 0.34400001 4280699950
0.11598361 0.044329032 0.34300002 4281686075
0.11709768 0.044329032 0.34300002 4280896559
0.11821175 0.044329032 0.34300002 4280830766
0.11897792 0.044199791 0.34200001 4280238883
0.12008874 0.044199791 0.34200001 4279779102
0.12119956 0.044199791 0.34200001 4279976992
0.12231036 0.044199791 0.34200001 4280832301
0.12342118 0.044199791 0.34200001 4280569643
0.12489614 0.044329032 0.34300002 4280570413
0.12601019 0.044329032 0.34300002 4280438829
0.12712426 0.044329032 0.34300002 4280373036
0.12823834 0.044329032 0.34300002 4280636208
0.12935241 0.044329032 0.34300002 4280241963
0.13046646 0.044329032 0.34300002 4280111147
0.13158052 0.044329032 0.34300002 4280045354
0.13269459 0.044329032 0.34300002 4279584803
0.13380866 0.044329032 0.34300002 4279321631
0.13531607 0.04445827 0.34400001 4279584033
0.13643339 0.04445827 0.34400001 4279650596
0.1375507 0.04445827 0.34400001 4279584801
0.13866802 0.04445827 0.34400001 4279650594
0.13978532 0.04445827 0.34400001 4279453213
0.14090264 0.04445827 0.34400001 4279321627
0.14201996 0.04445827 0.34400001 4278991892
0.14313726 0.04445827 0.34400001 4279255064
0.14425458 0.04445827 0.34400001 4279188758
0.14537188 0.04445827 0.34400001 4279122197
0.096489817 0.045708455 0.34500003 4279709475
0.097610384 0.045708455 0.34500003 4279709988
0.09844476 0.045575965 0.34400001 4279644709
0.099562079 0.045575965 0.34400001 4279974442
0.10067938 0.045575965 0.34400001 4280172075
0.10179669 0.045575965 0.34400001 4279975207
0.10321318 0.045708455 0.34500003 4279975977
0.10433374 0.045708455 0.34500003 4280107561
0.1054543 0.045708455 0.34500003 4280107561
0.10657487 0.045708455 0.34500003 4280238631
0.10800759 0.045840941 0.34600002 4280172838
0.10913139 0.045840941 0.34600002 4280238631
0.1102552 0.045840941 0.34600002 4279976229
0.1110571 0.045708455 0.34500003 4280173608
0.11217767 0.045708455 0.34500003 4281028915
0.11329823 0.045708455 0.34500003 4281686075
0.11441879 0.045708455 0.34500003 4280698928
0.11520445 0.045575965 0.34400001 4280765745
0.11632176 0.045575965 0.34400001 4280107045
0.11743907 0.045575965 0.34400001 4281093938
0.11821175 0.045443479 0.34300002 4280436008
0.11932582 0.045443479 0.34300002 4280896813
0.12043988 0.045443479 0.34300002 4281159985
0.12119956 0.045310989 0.34200001 4281029167
0.12231036 0.045310989 0.34200001 4281225778
0.12342118 0.045310989 0.34200001 4281159985
0.12489614 0.045443479 0.34300002 4281686329
0.12601019 0.045443479 0.34300002 4279778332
0.12712426 0.045443479 0.34300002 4280567848
0.12861221 0.045575965 0.34400001 4280567848
0.12972951 0.045575965 0.34400001 4280567848
0.13084681 0.045575965 0.34400001 4281095473
0.13196413 0.045575965 0.34400001 4280898094
0.13308145 0.045575965 0.34400001 4280503850
0.13419876 0.045575965 0.34400001 4280240678
0.13531607 0.045575965 0.34400001 4280438057
0.13643339 0.045575965 0.34400001 4280373034
0.1375507 0.045575965 0.34400001 4279649824
0.13866802 0.045575965 0.34400001 4279781408
0.13978532 0.045575965 0.34400001 4279452443
0.14090264 0.045575965 0.34400001 4279453213
0.14201996 0.045575965 0.34400001 4279453213
0.14313726 0.045575965 0.34400001 4279124248
0.14425458 0.045575965 0.34400001 4279452445
0.14537188 0.045575965 0.34400001 4279188760
0.10321318 0.046829391 0.34500003 4281157183
0.10433374 0.046829391 0.34500003 4280696630
0.1054543 0.046829391 0.34500003 4280368179
0.10688378 0.04696513 0.34600002 4280171823
0.10800759 0.04696513 0.34600002 4279842856
0.10913139 0.04696513 0.34600002 4279579684
0.1102552 0.04696513 0.34600002 4279909416
0.11137901 0.04696513 0.34600002 4280304172
0.11217767 0.046829391 0.34500003 4280435245
0.11329823 0.046829391 0.34500003 4281289782
0.11441879 0.046829391 0.34500003 4281552440
0.11553934 0.046829391 0.34500003 4281684280
0.11632176 0.046693653 0.34400001 4280960557
0.11743907 0.046693653 0.34400001 4280105762
0.11855639 0.046693653 0.34400001 4280303911
0.11932582 0.046557918 0.34300002 4280632874
0.12008874 0.04642218 0.34200001 4281093679
0.12119956 0.04642218 0.34200001 4281225265
0.12231036 0.04642218 0.34200001 4280698921
0.12342118 0.04642218 0.34200001 4281552946
0.12489614 0.046557918 0.34300002 4281026348
0.12601019 0.046557918 0.34300002 4281159218
0.12712426 0.046557918 0.34300002 4280896300
0.12861221 0.046693653 0.34400001 4281225778
0.12972951 0.046693653 0.34400001 4281159985
0.13084681 0.046693653 0.34400001 4281554743
0.13196413 0.046693653 0.34400001 4281817915
0.13308145 0.046693653 0.34400001 4281422644
0.13419876 0.046693653 0.34400001 4279776029
0.13531607 0.046693653 0.34400001 4280897581
0.13643339 0.046693653 0.34400001 4281161266
0.1375507 0.046693653 0.34400001 4280964401
0.13866802 0.046693653 0.34400001 4280832815
0.13978532 0.046693653 0.34400001 4280898606
0.14131224 0.046829391 0.34500003 4280767020
0.14243281 0.046829391 0.34500003 4280373032
0.14355338 0.046829391 0.34500003 4280175653
0.14425458 0.046693653 0.34400001 4280306471
0.14537188 0.046693653 0.34400001 4280898094
0.11553934 0.047950335 0.34500003 4284642397
0.11632176 0.047811348 0.34400001 4284182616
0.11743907 0.047811348 0.34400001 4283985237
0.11855639 0.047811348 0.34400001 4282867269
0.11932582 0.047672361 0.34300002 4282013243
0.12008874 0.047533374 0.34200001 4281881657
0.12119956 0.047533374 0.34200001 4281486899
0.12231036 0.047533374 0.34200001 4280500004
0.12342118 0.047533374 0.34200001 4280236832
0.12489614 0.047672361 0.34300002 4280894762
0.12601019 0.047672361 0.34300002 4280500004
0.12712426 0.047672361 0.34300002 4281092141
0.12861221 0.047811348 0.34400001 4281224495
0.12972951 0.047811348 0.34400001 4281685816
0.13084681 0.047811348 0.34400001 4281488950
0.13196413 0.047811348 0.34400001 4281620023
0.13308145 0.047811348 0.34400001 4279710742
0.13419876 0.047811348 0.34400001 4281553460
0.13531607 0.047811348 0.34400001 4281423927
0.13643339 0.047811348 0.34400001 4281226548
0.1375507 0.047811348 0.34400001 4281292854
0.13866802 0.047811348 0.34400001 4281292854
0.14019169 0.047950335 0.34500003 4281358643
0.14131224 0.047950335 0.34500003 4281424436
0.14243281 0.047950335 0.34500003 4281621302
0.14355338 0.047950335 0.34500003 4281950267
0.14467393 0.047950335 0.34500003 4282343744
0.14579448 0.047950335 0.34500003 4282998855
0.12008874 0.048644569 0.34200001 4285365606
0.12084518 0.048502333 0.34100002 4284970848
0.12195273 0.048502333 0.34100002 4285300327
0.12306031 0.048502333 0.34100002 4285234788
0.12489614 0.048786808 0.34300002 4284642651
0.12601019 0.048786808 0.34300002 4283721295
0.12712426 0.048786808 0.34300002 4283195723
0.12861221 0.048929039 0.34400001 4282471998
0.12972951 0.048929039 0.34400001 4281880374
0.13084681 0.048929039 0.34400001 4281026348
0.13196413 0.048929039 0.34400001 4282210622
0.13308145 0.048929039 0.34400001 4281947704
0.13419876 0.048929039 0.34400001 4282014011
0.13531607 0.048929039 0.34400001 4281685816
0.13643339 0.048929039 0.34400001 4281620023
0.1375507 0.048929039 0.34400001 4281817400
0.13866802 0.048929039 0.34400001 4281685814
0.14019169 0.049071278 0.34500003 4281817400
0.14131224 0.049071278 0.34500003 4281817400
0.14243281 0.049071278 0.34500003 4282671427
0.14355338 0.049071278 0.34500003 4284182870
0.14467393 0.049071278 0.34500003 4285168741
0.14579448 0.049071278 0.34500003 4285563501
0.10075989 0.039294235 0.34134158 4294967295
0.10075989 0.039294235 0.34134158 4294901760
0.10084876 0.038804833 0.34129071 4294901760
0.10093761 0.03831543 0.34123984 4294901760
0.10102648 0.037826024 0.34118894 4294901760
0.10111533 0.037336621 0.34113806 4294901760
0.10120419 0.036847219 0.34108719 4294901760
0.10129305 0.036357816 0.34103632 4294901760
0.10138191 0.035868414 0.34098545 4294901760
0.10147077 0.035379011 0.34093457 4294901760
0.10155963 0.034889605 0.34088367 4294901760
0.10164849 0.034400202 0.3408328 4294901760
0.10173735 0.0339108 0.34078193 4294901760
0.10182621 0.033421397 0.34073105 4294901760
0.10191507 0.032931995 0.34068018 4294901760
0.10200392 0.032442592 0.34062931 4294901760
0.10209279 0.031953186 0.34057841 4294901760
0.10218164 0.031463783 0.34052753 4294901760
0.10227051 0.030974381 0.34047666 4294901760
0.10235936 0.030484978 0.34042579 4294901760
0.10244823 0.029995576 0.34037492 4294901760
0.10253708 0.029506171 0.34032404 4294901760
0.10262594 0.029016769 0.34027314 4294901760
0.1027148 0.028527364 0.34022227 4294901760
0.10280366 0.028037962 0.3401714 4294901760
0.10289252 0.027548559 0.34012052 4294901760
0.10298138 0.027059156 0.34006965 4294901760
0.10307024 0.026569754 0.34001878 4294901760
0.1031591 0.026080348 0.33996788 4294901760
0.10324796 0.025590945 0.339917 4294901760
0.10333682 0.025101542 0.33986613 4294901760
0.10342567 0.02461214 0.33981526 4294901760
0.10351454 0.024122737 0.33976439 4294901760
0.10360339 0.023633333 0.33971351 4294901760
0.10369226 0.023143928 0.33966261 4294901760
0.10378111 0.022654526 0.33961174 4294901760
0.10386997 0.022165123 0.33956087 4294901760
0.10395883 0.021675719 0.33950999 4294901760
0.10404769 0.021186316 0.33945912 4294901760
0.10413655 0.020696914 0.33940825 4294901760
0.10422541 0.020207511 0.33935735 4294901760
0.10431427 0.019718107 0.33930647 4294901760
0.10440313 0.019228704 0.3392556 4294901760
0.10449199 0.018739302 0.33920473 4294901760
0.10458085 0.018249897 0.33915386 4294901760
0.10466971 0.017760495 0.33910298 4294901760
0.10475857 0.017271092 0.33905208 4294901760
0.10484743 0.016781688 0.33900121 4294901760
0.10493629 0.016292285 0.33895034 4294901760
0.10502514 0.015802883 0.33889946 4294901760
0.10511401 0.015313478 0.33884859 4294901760
0.10520287 0.014824076 0.33879769 4294901760
0.10529172 0.014334673 0.33874682 4294901760
0.10538058 0.01384527 0.33869594 4294901760
0.10546944 0.013355868 0.33864507 4294901760
0.10555831 0.012866462 0.3385942 4294901760
0.10564716 0.012377059 0.33854333 4294901760
0.10573602 0.011887657 0.33849242 4294901760
0.10582488 0.011398254 0.33844155 4294901760
0.10591374 0.010908851 0.33839068 4294901760
0.1060026 0.010419449 0.33833981 4294901760
0.10609146 0.0099300425 0.33828893 4294901760
0.10618032 0.00944064 0.33823806 4294901760
0.10626918 0.0089512374 0.33818716 4294901760
0.10635804 0.0084618349 0.33813629 4294901760
0.1064469 0.0079724304 0.33808541 4294901760
0.10653576 0.0074830279 0.33803454 4294901760
0.10662462 0.0069936216 0.33798367 4294901760
0.10671347 0.006504219 0.3379328 4294901760
0.10680234 0.0060148165 0.33788189 4294901760
0.10689119 0.0055254139 0.33783102 4294901760
0.10698006 0.0050360113 0.33778015 4294901760
0.10706891 0.0045466088 0.33772928 4294901760
0.10715777 0.0040572025 0.3376784 4294901760
0.10724663 0.0035677999 0.33762753 4294901760
0.10733549 0.0030783974 0.33757663 4294901760
0.10742435 0.0025889948 0.33752576 4294901760
0.10751321 0.0020995922 0.33747488 4294901760
0.10760207 0.0016101897 0.33742401 4294901760
0.10769093 0.0011207871 0.33737314 4294901760
0.10777979 0.00063138083 0.33732226 4294901760
0.10786865 0.00014197826 0.33727136 4294901760
0.1079575 -0.0003474243 0.33722049 4294901760
0.10804637 -0.00083682686 0.33716962 4294901760
0.10813522 -0.0013262294 0.33711874 4294901760
0.10822409 -0.001815632 0.33706787 4294901760
0.10831294 -0.0023050383 0.337017 4294901760
0.10840181 -0.0027944408 0.3369661 4294901760
0.10849066 -0.0032838434 0.33691522 4294901760
0.10857952 -0.003773246 0.33686435 4294901760
0.10866838 -0.0042626485 0.33681348 4294901760
0.10875724 -0.0047520511 0.33676261 4294901760
0.1088461 -0.0052414574 0.33671173 4294901760
0.10893496 -0.0057308599 0.33666083 4294901760
0.10902382 -0.0062202625 0.33660996 4294901760
0.10911268 -0.0067096651 0.33655909 4294901760
0.10920154 -0.0071990676 0.33650821 4294901760
0.1092904 -0.0076884702 0.33645734 4294901760
0.10937926 -0.0081778765 0.33640647 4294901760
0.10946812 -0.008667279 0.33635557 4294901760
0.10955697 -0.0091566816 0.33630469 4294901760
0.10964584 -0.0096460842 0.33625382 4294901760
0.10075989 0.039294235 0.34134158 4278255360
0.1012517 0.039384164 0.34133551 4278255360
0.10174351 0.039474092 0.34132943 4278255360
0.10223532 0.039564021 0.34132335 4278255360
0.10272713 0.039653949 0.34131727 4278255360
0.10321894 0.039743878 0.34131116 4278255360
0.10371075 0.039833806 0.34130508 4278255360
0.10420255 0.039923735 0.341299 4278255360
0.10469437 0.040013663 0.34129292 4278255360
0.10518617 0.040103592 0.34128684 4278255360
0.10567798 0.04019352 0.34128076 4278255360
0.10616979 0.040283449 0.34127468 4278255360
0.1066616 0.040373378 0.3412686 4278255360
0.10715341 0.040463306 0.34126252 4278255360
0.10764521 0.040553235 0.34125641 4278255360
0.10813703 0.040643163 0.34125033 4278255360
0.10862883 0.040733092 0.34124425 4278255360
0.10912064 0.04082302 0.34123817 4278255360
0.10961245 0.040912949 0.34123209 4278255360
0.11010426 0.041002877 0.34122601 4278255360
0.11059607 0.041092806 0.34121993 4278255360
0.11108788 0.041182734 0.34121385 4278255360
0.11157969 0.041272663 0.34120777 4278255360
0.1120715 0.041362591 0.34120166 4278255360
0.1125633 0.04145252 0.34119558 4278255360
0.11305511 0.041542448 0.3411895 4278255360
0.11354692 0.041632377 0.34118342 4278255360
0.11403874 0.041722309 0.34117734 4278255360
0.11453054 0.041812237 0.34117126 4278255360
0.11502235 0.041902166 0.34116518 4278255360
0.11551416 0.041992094 0.34115911 4278255360
0.11600596 0.042082023 0.34115303 4278255360
0.11649778 0.042171951 0.34114692 4278255360
0.11698958 0.04226188 0.34114084 4278255360
0.1174814 0.042351808 0.34113476 4278255360
0.1179732 0.042441737 0.34112868 4278255360
0.11846501 0.042531665 0.3411226 4278255360
0.11895682 0.042621594 0.34111652 4278255360
0.11944863 0.042711522 0.34111044 4278255360
0.11994044 0.042801451 0.34110436 4278255360
0.12043224 0.042891379 0.34109828 4278255360
0.12092406 0.042981308 0.34109217 4278255360
0.12141586 0.043071236 0.34108609 4278255360
0.12190767 0.043161165 0.34108001 4278255360
0.12239948 0.043251093 0.34107393 4278255360
0.12289129 0.043341022 0.34106785 4278255360
0.1233831 0.04343095 0.34106177 4278255360
0.1238749 0.043520879 0.34105569 4278255360
0.12436672 0.043610808 0.34104961 4278255360
0.12485853 0.043700736 0.34104353 4278255360
0.12535033 0.043790665 0.34103745 4278255360
0.12584214 0.043880593 0.34103134 4278255360
0.12633395 0.043970522 0.34102526 4278255360
0.12682576 0.04406045 0.34101918 4278255360
0.12731758 0.044150379 0.3410131 4278255360
0.12780938 0.044240307 0.34100702 4278255360
0.12830119 0.044330236 0.34100094 4278255360
0.128793 0.044420164 0.34099486 4278255360
0.1292848 0.044510093 0.34098879 4278255360
0.12977661 0.044600021 0.34098271 4278255360
0.13026842 0.04468995 0.3409766 4278255360
0.13076024 0.044779878 0.34097052 4278255360
0.13125204 0.044869807 0.34096444 4278255360
0.13174385 0.044959735 0.34095836 4278255360
0.13223566 0.045049664 0.34095228 4278255360
0.13272746 0.045139592 0.3409462 4278255360
0.13321927 0.045229521 0.34094012 4278255360
0.13371108 0.045319449 0.34093404 4278255360
0.1342029 0.045409378 0.34092796 4278255360
0.1346947 0.045499306 0.34092185 4278255360
0.13518651 0.045589235 0.34091577 4278255360
0.13567832 0.045679163 0.34090969 4278255360
0.13617013 0.045769095 0.34090361 4278255360
0.13666193 0.045859024 0.34089753 4278255360
0.13715374 0.045948952 0.34089145 4278255360
0.13764556 0.046038881 0.34088537 4278255360
0.13813737 0.046128809 0.34087929 4278255360
0.13862917 0.046218738 0.34087321 4278255360
0.13912098 0.046308666 0.3408671 4278255360
0.13961279 0.046398595 0.34086102 4278255360
0.14010459 0.046488523 0.34085494 4278255360
0.1405964 0.046578452 0.34084886 4278255360
0.14108822 0.04666838 0.34084278 4278255360
0.14158002 0.046758309 0.3408367 4278255360
0.14207183 0.046848238 0.34083062 4278255360
0.14256364 0.046938166 0.34082454 4278255360
0.14305545 0.047028095 0.34081846 4278255360
0.14354727 0.047118023 0.34081236 4278255360
0.14403906 0.047207952 0.34080628 4278255360
0.14453088 0.04729788 0.3408002 4278255360
0.14502269 0.047387809 0.34079412 4278255360
0.14551449 0.047477737 0.34078804 4278255360
0.1460063 0.047567666 0.34078196 4278255360
0.14649811 0.047657594 0.34077588 4278255360
0.14698991 0.047747523 0.3407698 4278255360
0.14748172 0.047837451 0.34076372 4278255360
0.14797354 0.04792738 0.34075761 4278255360
0.14846535 0.048017308 0.34075153 4278255360
0.14895716 0.048107237 0.34074545 4278255360
0.14944896 0.048197165 0.34073937 4278255360
0.14994077 0.048287094 0.34073329 4278255360
0.10075989 0.039294235 0.34134158 4278190335
0.10076887 0.039244156 0.34183899 4278190335
0.10077785 0.039194077 0.34233639 4278190335
0.10078683 0.039143998 0.34283379 4278190335
0.10079581 0.039093919 0.34333122 4278190335
0.10080479 0.03904384 0.34382862 4278190335
0.10081377 0.038993761 0.34432602 4278190335
0.10082275 0.038943682 0.34482342 4278190335
0.10083172 0.038893603 0.34532082 4278190335
0.1008407 0.038843524 0.34581822 4278190335
0.10084969 0.038793445 0.34631562 4278190335
0.10085867 0.038743366 0.34681302 4278190335
0.10086764 0.038693286 0.34731045 4278190335
0.10087662 0.038643207 0.34780785 4278190335
0.1008856 0.038593128 0.34830526 4278190335
0.10089458 0.038543049 0.34880266 4278190335
0.10090356 0.03849297 0.34930006 4278190335
0.10091254 0.038442891 0.34979746 4278190335
0.10092152 0.038392812 0.35029486 4278190335
0.1009305 0.038342733 0.35079226 4278190335
0.10093947 0.038292654 0.35128969 4278190335
0.10094845 0.038242575 0.35178709 4278190335
0.10095744 0.038192496 0.35228449 4278190335
0.10096642 0.038142417 0.35278189 4278190335
0.10097539 0.038092338 0.35327929 4278190335
0.10098437 0.038042258 0.35377669 4278190335
0.10099335 0.037992179 0.35427409 4278190335
0.10100233 0.0379421 0.35477152 4278190335
0.10101131 0.037892021 0.35526893 4278190335
0.10102029 0.037841942 0.35576633 4278190335
0.10102927 0.037791863 0.35626373 4278190335
0.10103825 0.037741784 0.35676113 4278190335
0.10104723 0.037691705 0.35725853 4278190335
0.1010562 0.037641626 0.35775593 4278190335
0.10106518 0.037591547 0.35825333 4278190335
0.10107417 0.037541468 0.35875076 4278190335
0.10108314 0.037491389 0.35924816 4278190335
0.10109212 0.03744131 0.35974556 4278190335
0.1011011 0.03739123 0.36024296 4278190335
0.10111008 0.037341151 0.36074036 4278190335
0.10111906 0.037291072 0.36123776 4278190335
0.10112804 0.037240993 0.36173517 4278190335
0.10113702 0.037190914 0.36223257 4278190335
0.101146 0.037140835 0.36273 4278190335
0.10115498 0.037090756 0.3632274 4278190335
0.10116395 0.037040677 0.3637248 4278190335
0.10117293 0.036990598 0.3642222 4278190335
0.10118192 0.036940522 0.3647196 4278190335
0.10119089 0.03689044 0.365217 4278190335
0.10119987 0.036840364 0.3657144 4278190335
0.10120885 0.036790282 0.36621183 4278190335
0.10121783 0.036740206 0.36670923 4278190335
0.10122681 0.036690127 0.36720663 4278190335
0.10123578 0.036640048 0.36770403 4278190335
0.10124477 0.036589965 0.36820143 4278190335
0.10125375 0.03653989 0.36869884 4278190335
0.10126273 0.036489811 0.36919624 4278190335
0.1012717 0.036439732 0.36969364 4278190335
0.10128068 0.036389653 0.37019104 4278190335
0.10128966 0.036339574 0.37068847 4278190335
0.10129865 0.036289494 0.37118587 4278190335
0.10130762 0.036239415 0.37168327 4278190335
0.1013166 0.036189336 0.37218067 4278190335
0.10132558 0.036139257 0.37267807 4278190335
0.10133456 0.036089178 0.37317547 4278190335
0.10134353 0.036039099 0.37367287 4278190335
0.10135252 0.03598902 0.3741703 4278190335
0.1013615 0.035938941 0.3746677 4278190335
0.10137048 0.035888862 0.3751651 4278190335
0.10137945 0.035838783 0.37566251 4278190335
0.10138843 0.035788704 0.37615991 4278190335
0.10139741 0.035738625 0.37665731 4278190335
0.1014064 0.035688546 0.37715471 4278190335
0.10141537 0.035638466 0.37765211 4278190335
0.10142435 0.035588387 0.37814954 4278190335
0.10143333 0.035538308 0.37864694 4278190335
0.10144231 0.035488229 0.37914434 4278190335
0.10145129 0.03543815 0.37964174 4278190335
0.10146026 0.035388071 0.38013914 4278190335
0.10146925 0.035337992 0.38063654 4278190335
0.10147823 0.035287913 0.38113394 4278190335
0.1014872 0.035237834 0.38163137 4278190335
0.10149618 0.035187755 0.38212878 4278190335
0.10150516 0.035137676 0.38262618 4278190335
0.10151414 0.035087597 0.38312358 4278190335
0.10152312 0.035037518 0.38362098 4278190335
0.1015321 0.034987438 0.38411838 4278190335
0.10154108 0.034937359 0.38461578 4278190335
0.10155006 0.03488728 0.38511318 4278190335
0.10155904 0.034837201 0.38561058 4278190335
0.10156801 0.034787122 0.38610801 4278190335
0.101577 0.034737043 0.38660541 4278190335
0.10158598 0.034686964 0.38710281 4278190335
0.10159495 0.034636885 0.38760021 4278190335
0.10160393 0.034586806 0.38809761 4278190335
0.10161291 0.034536727 0.38859501 4278190335
0.10162189 0.034486648 0.38909245 4278190335
0.10163087 0.034436569 0.38958985 4278190335
0.10163985 0.03438649 0.39008725 4278190335
0.10164883 0.03433641 0.39058465 4278190335
0.10165781 0.034286331 0.39108205 4278190335
0.10075989 0.039294235 0.34134158 4294967295
0.10070602 0.03959471 0.33835715 4294967295
0.10065214 0.039895184 0.33537272 4294967295
0.10059827 0.040195659 0.33238831 4294967295
0.10054439 0.040496133 0.32940388 4294967295
0.10049052 0.040796608 0.32641944 4294967295
0.10043664 0.041097082 0.32343501 4294967295
0.10038277 0.041397553 0.32045057 4294967295
0.10032889 0.041698027 0.31746617 4294967295
0.10027502 0.041998502 0.31448174 4294967295
0.10022114 0.042298976 0.3114973 4294967295
0.10016727 0.042599451 0.30851287 4294967295
0.10011339 0.042899925 0.30552843 4294967295
0.10005952 0.0432004 0.30254403 4294967295
0.10000564 0.043500874 0.29955959 4294967295
0.099951766 0.043801349 0.29657516 4294967295
0.099897891 0.044101823 0.29359072 4294967295
0.099844024 0.044402298 0.29060629 4294967295
0.099790148 0.044702772 0.28762186 4294967295
0.099736273 0.045003243 0.28463745 4294967295
0.099682398 0.045303717 0.28165302 4294967295
0.099628523 0.045604192 0.27866858 4294967295
0.099574648 0.045904666 0.27568418 4294967295
0.099520773 0.046205141 0.27269971 4294967295
0.099466898 0.046505615 0.26971531 4294967295
0.099413022 0.04680609 0.26673087 4294967295
0.099359147 0.047106564 0.26374644 4294967295
0.099305272 0.047407039 0.26076201 4294967295
0.099251397 0.047707513 0.25777757 4294967295
0.099197522 0.048007987 0.25479317 4294967295
0.099143647 0.048308462 0.25180873 4294967295
0.099089772 0.048608936 0.2488243 4294967295
0.099035896 0.048909411 0.24583988 4294967295
0.098982021 0.049209885 0.24285544 4294967295
0.098928146 0.049510356 0.23987103 4294967295
0.098874271 0.049810831 0.23688659 4294967295
0.098820396 0.050111305 0.23390216 4294967295
0.098766521 0.050411779 0.23091772 4294967295
0.098712645 0.050712254 0.22793332 4294967295
0.09865877 0.051012728 0.22494888 4294967295
0.098604895 0.051313203 0.22196445 4294967295
0.09855102 0.051613677 0.21898001 4294967295
0.098497145 0.051914148 0.21599559 4294967295
0.09844327 0.052214622 0.21301116 4294967295
0.098389395 0.052515097 0.21002674 4294967295
0.098335519 0.052815571 0.20704231 4294967295
0.098281644 0.053116046 0.20405787 4294967295
0.098227769 0.05341652 0.20107345 4294967295
0.098173894 0.053716995 0.19808902 4294967295
0.098120019 0.054017469 0.19510458 4294967295
0.098066151 0.054317944 0.19212016 4294967295
0.098012276 0.054618418 0.18913575 4294967295
0.097958401 0.054918893 0.18615131 4294967295
0.097904526 0.055219367 0.18316689 4294967295
0.097850651 0.055519842 0.18018244 4294967295
0.097796775 0.055820316 0.17719802 4294967295
0.0977429 0.056120791 0.17421359 4294967295
0.097689025 0.056421265 0.17122917 4294967295
0.09763515 0.056721736 0.16824475 4294967295
