# .PCD v0.7 - Point Cloud Data file format
VERSION 0.7
FIELDS x y z rgb
SIZE 4 4 4 4
TYPE F F F U
COUNT 1 1 1 1
WIDTH 1047
HEIGHT 1
VIEWPOINT 0 0 0 1 0 0 0
POINTS 1047
DATA ascii
0.028296303 0.021775112 0.377 4278532626
0.031800196 0.021659596 0.37500003 4278466833
0.033018198 0.021659596 0.37500003 4278532626
0.034236196 0.021659596 0.37500003 4278598419
0.035454199 0.021659596 0.37500003 4278336017
0.036672197 0.021659596 0.37500003 4278533396
0.0378902 0.021659596 0.37500003 4278468117
0.039108202 0.021659596 0.37500003 4278468117
0.0403262 0.021659596 0.37500003 4278533910
0.041544203 0.021659596 0.37500003 4278665496
0.042762201 0.021659596 0.37500003 4278665496
0.043980204 0.021659596 0.37500003 4278731289
0.045198202 0.021659596 0.37500003 4278731802
0.046539977 0.021717353 0.37600002 4278666009
0.047761224 0.021717353 0.37600002 4278797595
0.048982475 0.021717353 0.37600002 4278797595
0.050203726 0.021717353 0.37600002 4278994463
0.051424973 0.021717353 0.37600002 4279388707
0.052646223 0.021717353 0.37600002 4279124511
0.05386747 0.021717353 0.37600002 4279453478
-0.013513459 0.023305064 0.38200003 4278792466
-0.012240593 0.023244055 0.38100001 4278926103
-0.011003105 0.023244055 0.38100001 4278532628
-0.0097399848 0.023183048 0.38000003 4278598421
-0.0085057449 0.023183048 0.38000003 4278467605
-0.0072715036 0.023183048 0.38000003 4278467605
-0.0060213748 0.023122039 0.37900001 4278401810
-0.0047903825 0.023122039 0.37900001 4278336017
-0.0035593901 0.023122039 0.37900001 4278335247
-0.002322254 0.023061031 0.37800002 4278400527
-0.0010945091 0.023061031 0.37800002 4278795285
0.00013323547 0.023061031 0.37800002 4278597906
0.0013609801 0.023061031 0.37800002 4278400529
0.0025887247 0.023061031 0.37800002 4278532115
0.0038063726 0.023000022 0.377 4278924566
0.0050308695 0.023000022 0.377 4278264841
0.0062553659 0.023000022 0.377 4278924568
0.0074798628 0.023000022 0.377 4278596373
0.0087043596 0.023000022 0.377 4278198789
0.009928856 0.023000022 0.377 4278195712
0.011153352 0.023000022 0.377 4278196482
0.01237785 0.023000022 0.377 4278195712
0.013602345 0.023000022 0.377 4278196996
0.014826842 0.023000022 0.377 4278198282
0.016051339 0.023000022 0.377 4278660369
0.017275836 0.023000022 0.377 4278857748
0.018500334 0.023000022 0.377 4278989845
0.019724829 0.023000022 0.377 4278924566
0.020949325 0.023000022 0.377 4278727957
0.022173822 0.023000022 0.377 4278596371
0.023398319 0.023000022 0.377 4278465552
0.024622815 0.023000022 0.377 4278400529
0.025847312 0.023000022 0.377 4278268943
0.027071808 0.023000022 0.377 4278532115
0.028296303 0.023000022 0.377 4278532115
0.029520802 0.023000022 0.377 4278334736
0.030663745 0.022939015 0.37600002 4278400529
0.031884998 0.022939015 0.37600002 4278400529
0.033106245 0.022939015 0.37600002 4278532113
0.034327492 0.022939015 0.37600002 4278202634
0.035548743 0.022939015 0.37600002 4278400527
0.03676999 0.022939015 0.37600002 4278334734
0.037991241 0.022939015 0.37600002 4278730005
0.039212488 0.022939015 0.37600002 4278532626
0.040433735 0.022939015 0.37600002 4278598419
0.041654985 0.022939015 0.37600002 4278598419
0.042876232 0.022939015 0.37600002 4278599189
0.044097483 0.022939015 0.37600002 4278533396
0.04531873 0.022939015 0.37600002 4278533910
0.046539977 0.022939015 0.37600002 4278533910
0.047761224 0.022939015 0.37600002 4278862875
0.049112748 0.023000022 0.377 4278731289
0.050337244 0.023000022 0.377 4278862875
0.051561739 0.023000022 0.377 4278797082
0.052786235 0.023000022 0.377 4278994461
0.054010734 0.023000022 0.377 4278797082
0.055235233 0.023000022 0.377 4278862877
0.056459725 0.023000022 0.377 4278994463
0.057684224 0.023000022 0.377 4278928670
0.058908723 0.023000022 0.377 4279322914
0.060133215 0.023000022 0.377 4279257121
-0.013478083 0.024481965 0.38100001 4279055638
-0.012240593 0.024481965 0.38100001 4278925590
-0.010974226 0.024417708 0.38000003 4278597908
-0.0097399848 0.024417708 0.38000003 4278730007
-0.0085057449 0.024417708 0.38000003 4278467603
-0.0072523677 0.02435345 0.37900001 4278467603
-0.0060213748 0.02435345 0.37900001 4278532626
-0.0047903825 0.02435345 0.37900001 4278335247
-0.0035499986 0.024289194 0.37800002 4278532626
-0.002322254 0.024289194 0.37800002 4278663699
-0.0010945091 0.024289194 0.37800002 4278532113
0.00013323547 0.024289194 0.37800002 4278400527
0.0013609801 0.024289194 0.37800002 4278729494
0.0025887247 0.024289194 0.37800002 4278400529
0.0038063726 0.024224935 0.377 4278592271
0.0050308695 0.024224935 0.377 4278458377
0.0062553659 0.024224935 0.377 4278397197
0.0074997037 0.024289194 0.37800002 4278660882
0.0087274481 0.024289194 0.37800002 4278262279
0.0099551929 0.024289194 0.37800002 4278391814
0.011182938 0.024289194 0.37800002 4278522632
0.012410683 0.024289194 0.37800002 4278719498
0.013602345 0.024224935 0.377 4278522632
0.014826842 0.024224935 0.377 4278720011
0.016051339 0.024224935 0.377 4278654218
0.017275836 0.024224935 0.377 4278523146
0.018500334 0.024224935 0.377 4278523400
0.019724829 0.024224935 0.377 4278260998
0.020949325 0.024224935 0.377 4278195718
0.022232641 0.024289194 0.37800002 4278195464
0.023460384 0.024289194 0.37800002 4278196738
0.024688128 0.024289194 0.37800002 4278199303
0.025915874 0.024289194 0.37800002 4278196736
0.027143618 0.024289194 0.37800002 4278196738
0.028296303 0.024224935 0.377 4278199307
0.029520802 0.024224935 0.377 4278397456
0.030745298 0.024224935 0.377 4278594835
0.031884998 0.024160679 0.37600002 4279055640
0.033106245 0.024160679 0.37600002 4278858773
0.034327492 0.024160679 0.37600002 4278924566
0.035548743 0.024160679 0.37600002 4278595855
0.03676999 0.024160679 0.37600002 4278661648
0.037991241 0.024160679 0.37600002 4278728724
0.039212488 0.024160679 0.37600002 4278400529
0.040433735 0.024160679 0.37600002 4278400529
0.041654985 0.024160679 0.37600002 4278597908
0.042876232 0.024160679 0.37600002 4278400529
0.044097483 0.024160679 0.37600002 4278532115
0.045439258 0.024224935 0.377 4278532115
0.046663754 0.024224935 0.377 4278400529
0.047888249 0.024224935 0.377 4278532628
0.049112748 0.024224935 0.377 4278532628
0.050470769 0.024289194 0.37800002 4278730007
0.05169851 0.024289194 0.37800002 4278927386
0.052926257 0.024289194 0.37800002 4278599189
0.054154001 0.024289194 0.37800002 4278664982
0.055381749 0.024289194 0.37800002 4278862875
0.056609489 0.024289194 0.37800002 4278797082
0.057837237 0.024289194 0.37800002 4278797082
0.059064981 0.024289194 0.37800002 4278862875
0.060292721 0.024289194 0.37800002 4278797082
0.061683219 0.02435345 0.37900001 4278928668
0.063080214 0.024417708 0.38000003 4279256099
-0.013478083 0.025719872 0.38100001 4278792720
-0.012240593 0.025719872 0.38100001 4278333966
-0.010974226 0.025652368 0.38000003 4278795800
-0.0097399848 0.025652368 0.38000003 4278795800
-0.0084833605 0.02558486 0.37900001 4278664212
-0.0072523677 0.02558486 0.37900001 4278401810
-0.0060213748 0.02558486 0.37900001 4278532626
-0.0047903825 0.02558486 0.37900001 4278269456
-0.0035499986 0.025517354 0.37800002 4278532115
-0.002322254 0.025517354 0.37800002 4278400529
-0.0010945091 0.025517354 0.37800002 4278532115
0.00013323547 0.025517354 0.37800002 4278532115
0.0013609801 0.025517354 0.37800002 4278532115
0.0025887247 0.025517354 0.37800002 4278663701
0.0038164693 0.025517354 0.37800002 4279053590
0.0050442144 0.025517354 0.37800002 4278853133
0.0062719584 0.025517354 0.37800002 4278989847
0.0074997037 0.025517354 0.37800002 4279187226
0.0087274481 0.025517354 0.37800002 4278523916
0.0099551929 0.025517354 0.37800002 4278851597
0.011182938 0.025517354 0.37800002 4278522632
0.012410683 0.025517354 0.37800002 4278720011
0.013638427 0.025517354 0.37800002 4278719498
0.014866171 0.025517354 0.37800002 4278719498
0.016093915 0.025517354 0.37800002 4278720011
0.017321661 0.025517354 0.37800002 4278720011
0.018549407 0.025517354 0.37800002 4278654218
0.019777149 0.025517354 0.37800002 4278522634
0.021004895 0.025517354 0.37800002 4278587914
0.022232641 0.025517354 0.37800002 4278587914
0.023460384 0.025517354 0.37800002 4278194432
0.024688128 0.025517354 0.37800002 4278858007
0.025915874 0.025517354 0.37800002 4278858521
0.027143618 0.025517354 0.37800002 4278858261
0.028371362 0.025517354 0.37800002 4279186459
0.029599108 0.025517354 0.37800002 4278790931
0.030826852 0.025517354 0.37800002 4279054103
0.031969797 0.025449846 0.377 4279119383
0.033194292 0.025449846 0.377 4278395660
0.034418788 0.025449846 0.377 4278195714
0.035643287 0.025449846 0.377 4278195457
0.036867782 0.025449846 0.377 4278195200
0.038092278 0.025449846 0.377 4278194176
0.039316773 0.025449846 0.377 4278196227
0.040541269 0.025449846 0.377 4278197512
0.041765768 0.025449846 0.377 4278198023
0.042990264 0.025449846 0.377 4278331150
0.044214763 0.025449846 0.377 4278595089
0.045439258 0.025449846 0.377 4278726675
0.04678753 0.025517354 0.37800002 4278990361
0.048015274 0.025517354 0.37800002 4278661394
0.049243022 0.025517354 0.37800002 4278464785
0.050604288 0.02558486 0.37900001 4278530578
0.051835276 0.02558486 0.37900001 4278399505
0.053066269 0.02558486 0.37900001 4278597654
0.054297265 0.02558486 0.37900001 4278597654
0.055528257 0.02558486 0.37900001 4278664212
0.056759246 0.02558486 0.37900001 4278336017
0.057990242 0.02558486 0.37900001 4278204431
0.059221238 0.02558486 0.37900001 4278664982
0.060611732 0.025652368 0.38000003 4278862361
0.061845973 0.025652368 0.38000003 4278862875
0.063246213 0.025719872 0.38100001 4278862363
0.06465295 0.02578738 0.38200003 4278663960
-0.013478083 0.02695778 0.38100001 4278990361
-0.012208466 0.026887026 0.38000003 4278794263
-0.010974226 0.026887026 0.38000003 4278268943
-0.0097399848 0.026887026 0.38000003 4278730005
-0.0084833605 0.026816269 0.37900001 4278795798
-0.0072523677 0.026816269 0.37900001 4278203661
-0.0060213748 0.026816269 0.37900001 4278466833
-0.0047777435 0.026745515 0.37800002 4278598419
-0.0035499986 0.026745515 0.37800002 4278269456
-0.002322254 0.026745515 0.37800002 4278269456
-0.0010945091 0.026745515 0.37800002 4278532115
0.00013323547 0.026745515 0.37800002 4278532115
0.0013609801 0.026745515 0.37800002 4278597908
0.0025887247 0.026745515 0.37800002 4278400529
0.0038164693 0.026745515 0.37800002 4278461453
0.0050442144 0.026745515 0.37800002 4279051025
0.0062719584 0.026745515 0.37800002 4278727189
0.0074997037 0.026745515 0.37800002 4279121433
0.0087274481 0.026745515 0.37800002 4278654732
0.0099551929 0.026745515 0.37800002 4279970592
0.011182938 0.026745515 0.37800002 4278853135
0.012410683 0.026745515 0.37800002 4278853135
0.013638427 0.026745515 0.37800002 4279576858
0.014866171 0.026745515 0.37800002 4278853135
0.016093915 0.026745515 0.37800002 4278985234
0.017321661 0.026745515 0.37800002 4279445785
0.018549407 0.026745515 0.37800002 4278853135
0.019829469 0.026816269 0.37900001 4279576088
0.021060463 0.026816269 0.37900001 4279444248
0.022291455 0.026816269 0.37900001 4278654218
0.023522448 0.026816269 0.37900001 4278723343
0.02475344 0.026816269 0.37900001 4278923287
0.025984434 0.026816269 0.37900001 4278727189
0.027215425 0.026816269 0.37900001 4278398222
0.028446417 0.026816269 0.37900001 4278858259
0.029677412 0.026816269 0.37900001 4278727187
0.030826852 0.026745515 0.37800002 4278858773
0.032054599 0.026745515 0.37800002 4278727187
0.033282343 0.026745515 0.37800002 4278989845
0.034510083 0.026745515 0.37800002 4278989847
0.035737831 0.026745515 0.37800002 4278989847
0.036965575 0.026745515 0.37800002 4278858261
0.038193323 0.026745515 0.37800002 4278989847
0.039421067 0.026745515 0.37800002 4278989847
0.040648807 0.026745515 0.37800002 4279383838
0.041876554 0.026745515 0.37800002 4279120666
0.043104298 0.026745515 0.37800002 4279120666
0.044332046 0.026745515 0.37800002 4278922517
0.04555979 0.026745515 0.37800002 4278922004
0.046911307 0.026816269 0.37900001 4278329099
0.048142299 0.026816269 0.37900001 4278329099
0.049373291 0.026816269 0.37900001 4278195712
0.050737809 0.026887026 0.38000003 4278195712
0.051972046 0.026887026 0.38000003 4278195200
0.053206287 0.026887026 0.38000003 4278195200
0.054440532 0.026887026 0.38000003 4278330382
0.055674773 0.026887026 0.38000003 4278334482
0.05690901 0.026887026 0.38000003 4278400529
0.058143254 0.026887026 0.38000003 4278532626
0.059533749 0.02695778 0.38100001 4278466833
0.060771234 0.02695778 0.38100001 4278466833
0.062008724 0.02695778 0.38100001 4278664982
0.063412219 0.027028536 0.38200003 4278862361
0.064822197 0.027099291 0.38300002 4278795800
0.066238679 0.027170045 0.384 4280108078
-0.017235668 0.028269693 0.38200003 4279903772
-0.013478083 0.028195687 0.38100001 4279121945
-0.012208466 0.028121684 0.38000003 4278662931
-0.010974226 0.028121684 0.38000003 4278729492
-0.0097143529 0.028047679 0.37900001 4278861078
-0.0084833605 0.028047679 0.37900001 4278203661
-0.0072523677 0.028047679 0.37900001 4278598419
-0.0060213748 0.028047679 0.37900001 4278466833
-0.0047777435 0.027973674 0.37800002 4278269454
-0.0035499986 0.027973674 0.37800002 4278532626
-0.002322254 0.027973674 0.37800002 4278466835
-0.0010945091 0.027973674 0.37800002 4278598421
0.00013323547 0.027973674 0.37800002 4278598421
0.0013609801 0.027973674 0.37800002 4278466835
0.0025887247 0.027973674 0.37800002 4278400529
0.0038164693 0.027973674 0.37800002 4278329099
0.0050442144 0.027973674 0.37800002 4279249174
0.0062719584 0.027973674 0.37800002 4278595087
0.0074997037 0.027973674 0.37800002 4279186713
0.0087274481 0.027973674 0.37800002 4278458377
0.0099551929 0.027973674 0.37800002 4280037409
0.011182938 0.027973674 0.37800002 4278853646
0.012410683 0.027973674 0.37800002 4278853646
0.013638427 0.027973674 0.37800002 4280037922
0.014905499 0.028047679 0.37900001 4278392584
0.016136492 0.028047679 0.37900001 4279051027
0.017367486 0.028047679 0.37900001 4278195718
0.018598478 0.028047679 0.37900001 4278458123
0.019829469 0.028047679 0.37900001 4279182100
0.021060463 0.028047679 0.37900001 4278919441
0.022291455 0.028047679 0.37900001 4278260744
0.023522448 0.028047679 0.37900001 4279118101
0.02475344 0.028047679 0.37900001 4278857748
0.026052997 0.028121684 0.38000003 4278660882
0.027215425 0.028047679 0.37900001 4278196999
0.028446417 0.028047679 0.37900001 4278327304
0.029677412 0.028047679 0.37900001 4278195201
0.030908404 0.028047679 0.37900001 4278397197
0.032139398 0.028047679 0.37900001 4278198533
0.033370391 0.028047679 0.37900001 4278198277
0.034601379 0.028047679 0.37900001 4278923541
0.035832375 0.028047679 0.37900001 4278397710
0.037063368 0.028047679 0.37900001 4278196993
0.03829436 0.028047679 0.37900001 4278529556
0.039525352 0.028047679 0.37900001 4278596119
0.040756345 0.028047679 0.37900001 4278596119
0.041987337 0.028047679 0.37900001 4278727959
0.04321833 0.028047679 0.37900001 4278662679
0.044449326 0.028047679 0.37900001 4278531093
0.045680314 0.028047679 0.37900001 4278727959
0.047035087 0.028121684 0.38000003 4278858775
0.048269324 0.028121684 0.38000003 4278661396
0.049503569 0.028121684 0.38000003 4278727189
0.050871328 0.028195687 0.38100001 4279121947
0.052108813 0.028195687 0.38100001 4278989847
0.053346302 0.028195687 0.38100001 4278923541
0.054583795 0.028195687 0.38100001 4278198023
0.055821285 0.028195687 0.38100001 4279055640
0.057208531 0.028269693 0.38200003 4278531861
0.058449272 0.028269693 0.38200003 4278532115
0.05969001 0.028269693 0.38200003 4278532115
0.06093074 0.028269693 0.38200003 4278597906
0.062171482 0.028269693 0.38200003 4278532113
0.063578218 0.028343696 0.38300002 4278664214
0.064991444 0.028417701 0.384 4278466581
0.066238679 0.028417701 0.384 4278594326
-0.017235668 0.02951085 0.38200003 4280166944
-0.013478083 0.029433595 0.38100001 4279450650
-0.012208466 0.029356342 0.38000003 4278794004
-0.010974226 0.029356342 0.38000003 4278597908
-0.0097143529 0.029279089 0.37900001 4278861078
-0.0084833605 0.029279089 0.37900001 4278664212
-0.0072523677 0.029279089 0.37900001 4278532628
-0.0060213748 0.029279089 0.37900001 4278466833
-0.0047777435 0.029201835 0.37800002 4278598419
-0.0035499986 0.029201835 0.37800002 4278532626
-0.002322254 0.029201835 0.37800002 4278532626
-0.0010945091 0.029201835 0.37800002 4278532628
0.00013323547 0.029201835 0.37800002 4278466835
0.0013609801 0.029201835 0.37800002 4278532628
0.0025887247 0.029201835 0.37800002 4278333966
0.0038164693 0.029201835 0.37800002 4278262794
0.0050442144 0.029201835 0.37800002 4278195718
0.0062719584 0.029201835 0.37800002 4278989845
0.0074997037 0.029201835 0.37800002 4278594576
0.0087274481 0.029201835 0.37800002 4278588939
0.0099551929 0.029201835 0.37800002 4278588939
0.011182938 0.029201835 0.37800002 4278522632
0.012443515 0.029279089 0.37900001 4278654218
0.013674506 0.029279089 0.37900001 4278523146
0.014905499 0.029279089 0.37900001 4278523146
0.016136492 0.029279089 0.37900001 4278588939
0.017367486 0.029279089 0.37900001 4278522632
0.018598478 0.029279089 0.37900001 4279182100
0.019829469 0.029279089 0.37900001 4279380760
0.021116031 0.029356342 0.38000003 4279775518
0.022350272 0.029356342 0.38000003 4278260744
0.023584513 0.029356342 0.38000003 4278723855
0.024818754 0.029356342 0.38000003 4278792468
0.026052997 0.029356342 0.38000003 4278195714
0.027287235 0.029356342 0.38000003 4278523400
0.028521474 0.029356342 0.38000003 4278785804
0.029755717 0.029356342 0.38000003 4278456839
0.030989956 0.029356342 0.38000003 4278196225
0.032139398 0.029279089 0.37900001 4278923287
0.033370391 0.029279089 0.37900001 4279514908
0.034601379 0.029279089 0.37900001 4278462220
0.035832375 0.029279089 0.37900001 4278331404
0.03716116 0.029356342 0.38000003 4279120920
0.038395401 0.029356342 0.38000003 4278397456
0.039629642 0.029356342 0.38000003 4279318045
0.040863883 0.029356342 0.38000003 4278529044
0.042098124 0.029356342 0.38000003 4278199820
0.043332364 0.029356342 0.38000003 4278727189
0.044566605 0.029356342 0.38000003 4278464017
0.045800846 0.029356342 0.38000003 4278398224
0.04715886 0.029433595 0.38100001 4278529042
0.048396349 0.029433595 0.38100001 4278595603
0.049633838 0.029433595 0.38100001 4278595603
0.051004853 0.02951085 0.38200003 4278530580
0.052245583 0.02951085 0.38200003 4278596371
0.053486321 0.02951085 0.38200003 4278727957
0.054727063 0.02951085 0.38200003 4278197508
0.0559678 0.02951085 0.38200003 4279121179
0.057208531 0.02951085 0.38200003 4278596371
0.058602277 0.029588103 0.38300002 4278794517
0.059846263 0.029588103 0.38300002 4278531345
0.061090246 0.029588103 0.38300002 4278532115
0.062334232 0.029588103 0.38300002 4278597908
0.063744217 0.029665355 0.384 4278531861
0.064991444 0.029665355 0.384 4278531861
0.066411175 0.02974261 0.38500002 4278397460
-0.017235668 0.030752007 0.38200003 4279706393
-0.013478083 0.030671503 0.38100001 4279319578
-0.012208466 0.030591002 0.38000003 4278925588
-0.010974226 0.030591002 0.38000003 4278861078
-0.0097399848 0.030591002 0.38000003 4278861078
-0.0084833605 0.030510496 0.37900001 4278861078
-0.0072523677 0.030510496 0.37900001 4278795285
-0.0060213748 0.030510496 0.37900001 4278532626
-0.0047777435 0.030429995 0.37800002 4278466833
-0.0035499986 0.030429995 0.37800002 4278664212
-0.002322254 0.030429995 0.37800002 4278335247
-0.0010945091 0.030429995 0.37800002 4278532626
0.00013323547 0.030429995 0.37800002 4278532628
0.0013609801 0.030429995 0.37800002 4278335249
0.0025887247 0.030429995 0.37800002 4278597908
0.0038164693 0.030429995 0.37800002 4278593041
0.0050442144 0.030429995 0.37800002 4279184408
0.0062719584 0.030429995 0.37800002 4278858773
0.0074997037 0.030429995 0.37800002 4278791955
0.0087274481 0.030429995 0.37800002 4278588688
0.0099815289 0.030510496 0.37900001 4278785806
0.011212522 0.030510496 0.37900001 4278851086
0.012443515 0.030510496 0.37900001 4278719500
0.013674506 0.030510496 0.37900001 4278654220
0.014905499 0.030510496 0.37900001 4278653967
0.016136492 0.030510496 0.37900001 4278522381
0.017367486 0.030510496 0.37900001 4278654220
0.018598478 0.030510496 0.37900001 4278654218
0.019881791 0.030591002 0.38000003 4278522632
0.021116031 0.030591002 0.38000003 4278325769
0.022350272 0.030591002 0.38000003 4278523146
0.023584513 0.030591002 0.38000003 4279054103
0.024818754 0.030591002 0.38000003 4278858259
0.026052997 0.030591002 0.38000003 4278195715
0.027287235 0.030591002 0.38000003 4278589193
0.028521474 0.030591002 0.38000003 4278785804
0.029755717 0.030591002 0.38000003 4278983697
0.030989956 0.030591002 0.38000003 4278790420
0.032224201 0.030591002 0.38000003 4279054105
0.033458438 0.030591002 0.38000003 4278199307
0.034692679 0.030591002 0.38000003 4278725908
0.035926919 0.030591002 0.38000003 4278527759
0.03716116 0.030591002 0.38000003 4279187226
0.038395401 0.030591002 0.38000003 4278200074
0.039629642 0.030591002 0.38000003 4279055386
0.040863883 0.030591002 0.38000003 4278396175
0.042098124 0.030591002 0.38000003 4278329101
0.043332364 0.030591002 0.38000003 4278395660
0.044683885 0.030671503 0.38100001 4278658832
0.045921374 0.030671503 0.38100001 4279120666
0.04715886 0.030671503 0.38100001 4278725908
0.048523374 0.030752007 0.38200003 4278922517
0.049764112 0.030752007 0.38200003 4278330380
0.051004853 0.030752007 0.38200003 4278199564
0.052245583 0.030752007 0.38200003 4278530578
0.053626336 0.030832509 0.38300002 4278531091
0.054870322 0.030832509 0.38300002 4278198279
0.056114309 0.030832509 0.38300002 4278660882
0.057358291 0.030832509 0.38300002 4278858773
0.058602277 0.030832509 0.38300002 4278662931
0.060002517 0.03091301 0.384 4278532115
0.061249748 0.03091301 0.384 4278597908
0.062496983 0.03091301 0.384 4278400529
0.063910216 0.030993514 0.38500002 4278531861
0.065160699 0.030993514 0.38500002 4278728470
0.066411175 0.030993514 0.38500002 4278792216
-0.017235668 0.031993162 0.38200003 4282999123
-0.013478083 0.03190941 0.38100001 4279188508
-0.012208466 0.031825658 0.38000003 4278728211
-0.010974226 0.031825658 0.38000003 4278927384
-0.0097399848 0.031825658 0.38000003 4278927384
-0.0084833605 0.031741906 0.37900001 4278598419
-0.0072523677 0.031741906 0.37900001 4278532626
-0.0060213748 0.031741906 0.37900001 4278532626
-0.0047777435 0.031658158 0.37800002 4278532626
-0.0035499986 0.031658158 0.37800002 4278466833
-0.002322254 0.031658158 0.37800002 4278532626
-0.0010945091 0.031658158 0.37800002 4278335247
0.00013323547 0.031658158 0.37800002 4278532626
0.0013609801 0.031658158 0.37800002 4278400529
0.0025887247 0.031658158 0.37800002 4278199043
0.0038164693 0.031658158 0.37800002 4278264587
0.0050442144 0.031658158 0.37800002 4278396173
0.0062719584 0.031658158 0.37800002 4278727187
0.0075195436 0.031741906 0.37900001 4278727957
0.0087505365 0.031741906 0.37900001 4278790931
0.0099815289 0.031741906 0.37900001 4279118615
0.011212522 0.031741906 0.37900001 4278920211
0.012443515 0.031741906 0.37900001 4278458636
0.013674506 0.031741906 0.37900001 4278720525
0.014905499 0.031741906 0.37900001 4278523148
0.016136492 0.031741906 0.37900001 4278456841
0.017413311 0.031825658 0.38000003 4278720013
0.018647552 0.031825658 0.38000003 4278720013
0.019881791 0.031825658 0.38000003 4278654218
0.021116031 0.031825658 0.38000003 4278785291
0.022350272 0.031825658 0.38000003 4278720013
0.023584513 0.031825658 0.38000003 4279250969
0.024818754 0.031825658 0.38000003 4279055127
0.026052997 0.031825658 0.38000003 4279382809
0.027287235 0.031825658 0.38000003 4279512857
0.028521474 0.031825658 0.38000003 4279379990
0.029755717 0.031825658 0.38000003 4279381787
0.030989956 0.031825658 0.38000003 4279054103
0.032224201 0.031825658 0.38000003 4279383838
0.033458438 0.031825658 0.38000003 4278792214
0.034692679 0.031825658 0.38000003 4278726935
0.035926919 0.031825658 0.38000003 4278661142
0.03716116 0.031825658 0.38000003 4278529042
0.038496442 0.03190941 0.38100001 4278661142
0.039733931 0.03190941 0.38100001 4278990361
0.040971417 0.03190941 0.38100001 4278594835
0.042208906 0.03190941 0.38100001 4278857496
0.043446396 0.03190941 0.38100001 4278725140
0.044683885 0.03190941 0.38100001 4278988312
0.045921374 0.03190941 0.38100001 4278197511
0.04728264 0.031993162 0.38200003 4278198025
0.048523374 0.031993162 0.38200003 4278856726
0.049764112 0.031993162 0.38200003 4278725138
0.051138371 0.032076914 0.38300002 4278264587
0.05238235 0.032076914 0.38300002 4278726675
0.053626336 0.032076914 0.38300002 4279056154
0.054870322 0.032076914 0.38300002 4278196224
0.05626082 0.032160666 0.384 4278924568
0.057508048 0.032160666 0.384 4278793750
0.058755282 0.032160666 0.384 4278399759
0.060002517 0.032160666 0.384 4278663701
0.061249748 0.032160666 0.384 4278532115
0.062659733 0.032244418 0.38500002 4278532115
0.063910216 0.032244418 0.38500002 4278400275
0.065160699 0.032244418 0.38500002 4278597654
0.066411175 0.032244418 0.38500002 4279581730
0.067837402 0.03232817 0.38600001 4284646512
-0.01595306 0.033147316 0.38100001 4280038953
-0.014715571 0.033147316 0.38100001 4279513123
-0.013478083 0.033147316 0.38100001 4279188771
-0.012240593 0.033147316 0.38100001 4279123230
-0.010974226 0.03306032 0.38000003 4278795800
-0.0097399848 0.03306032 0.38000003 4278927386
-0.0084833605 0.032973316 0.37900001 4278664214
-0.0072523677 0.032973316 0.37900001 4278598421
-0.0060213748 0.032973316 0.37900001 4278400527
-0.0047777435 0.032886315 0.37800002 4278532113
-0.0035499986 0.032886315 0.37800002 4278532626
-0.002322254 0.032886315 0.37800002 4278466833
-0.0010945091 0.032886315 0.37800002 4278532113
0.00013323547 0.032886315 0.37800002 4278597906
0.0013609801 0.032886315 0.37800002 4278597906
0.0025887247 0.032886315 0.37800002 4278530832
0.0038164693 0.032886315 0.37800002 4278858261
0.0050575584 0.032973316 0.37900001 4278529296
0.0062885508 0.032973316 0.37900001 4278530578
0.0075195436 0.032973316 0.37900001 4278727957
0.0087505365 0.032973316 0.37900001 4278925336
0.0099815289 0.032973316 0.37900001 4278793750
0.011212522 0.032973316 0.37900001 4278924566
0.012443515 0.032973316 0.37900001 4278858773
0.013674506 0.032973316 0.37900001 4278858259
0.014905499 0.032973316 0.37900001 4278989845
0.01617907 0.03306032 0.38000003 4278792468
0.017413311 0.03306032 0.38000003 4278989847
0.018647552 0.03306032 0.38000003 4278923287
0.019881791 0.03306032 0.38000003 4279646240
0.021116031 0.03306032 0.38000003 4279381785
0.022350272 0.03306032 0.38000003 4279381787
0.023584513 0.03306032 0.38000003 4278922517
0.024884066 0.033147316 0.38100001 4278396173
0.026121555 0.033147316 0.38100001 4278262281
0.027359042 0.033147316 0.38100001 4278459660
0.02859653 0.033147316 0.38100001 4278196230
0.029834021 0.033147316 0.38100001 4278194944
0.031071508 0.033147316 0.38100001 4278194944
0.032308999 0.033147316 0.38100001 4278194432
0.033546485 0.033147316 0.38100001 4278196482
0.034783974 0.033147316 0.38100001 4278197253
0.036021464 0.033147316 0.38100001 4278199564
0.037258953 0.033147316 0.38100001 4278331150
0.038496442 0.033147316 0.38100001 4279054873
0.039733931 0.033147316 0.38100001 4278726675
0.040971417 0.033147316 0.38100001 4278989845
0.042208906 0.033147316 0.38100001 4279253017
0.043446396 0.033147316 0.38100001 4278989845
0.044801168 0.033234321 0.38200003 4279055638
0.046041902 0.033234321 0.38200003 4278792466
0.04728264 0.033234321 0.38200003 4278858259
0.048523374 0.033234321 0.38200003 4278924568
0.049894385 0.033321321 0.38300002 4278595603
0.051138371 0.033321321 0.38300002 4279055640
0.05238235 0.033321321 0.38300002 4278924568
0.053766351 0.033408321 0.384 4279187226
0.055013586 0.033408321 0.384 4278194432
0.05626082 0.033408321 0.384 4278925338
0.057508048 0.033408321 0.384 4278925338
0.058755282 0.033408321 0.384 4278465298
0.060158778 0.033495322 0.38500002 4278597654
0.061409254 0.033495322 0.38500002 4278532115
0.062659733 0.033495322 0.38500002 4278531861
0.063910216 0.033495322 0.38500002 4278663447
0.065160699 0.033495322 0.38500002 4278662677
0.066583671 0.033582322 0.38600001 4278594324
0.067837402 0.033582322 0.38600001 4285302905
-0.015994933 0.034475479 0.38200003 4284183910
-0.014715571 0.034385227 0.38100001 4282868050
-0.013478083 0.034385227 0.38100001 4278791451
-0.012240593 0.034385227 0.38100001 4278990111
-0.010974226 0.034294982 0.38000003 4278925597
-0.0097399848 0.034294982 0.38000003 4279058207
-0.0084833605 0.034204729 0.37900001 4278992414
-0.0072523677 0.034204729 0.37900001 4279058207
-0.0060213748 0.034204729 0.37900001 4278729242
-0.0047777435 0.03411448 0.37800002 4278795035
-0.0035499986 0.03411448 0.37800002 4278795035
-0.002322254 0.03411448 0.37800002 4278531861
-0.0010945091 0.03411448 0.37800002 4278663447
0.00013323547 0.03411448 0.37800002 4278597654
0.0013609801 0.03411448 0.37800002 4278531861
0.0025887247 0.03411448 0.37800002 4278729494
0.0038265658 0.034204729 0.37900001 4278794517
0.0050575584 0.034204729 0.37900001 4278728724
0.0062885508 0.034204729 0.37900001 4278728724
0.0075195436 0.034204729 0.37900001 4278728724
0.0087505365 0.034204729 0.37900001 4278465552
0.0099815289 0.034204729 0.37900001 4278662931
0.011212522 0.034204729 0.37900001 4278662931
0.012443515 0.034204729 0.37900001 4278662931
0.013710587 0.034294982 0.38000003 4278728724
0.014944828 0.034294982 0.38000003 4278728724
0.01617907 0.034294982 0.38000003 4278728724
0.017413311 0.034294982 0.38000003 4278662931
0.018647552 0.034294982 0.38000003 4278662677
0.019881791 0.034294982 0.38000003 4278991642
0.021116031 0.034294982 0.38000003 4278596371
0.022350272 0.034294982 0.38000003 4278727187
0.023646578 0.034385227 0.38100001 4278924566
0.024884066 0.034385227 0.38100001 4278924566
0.026121555 0.034385227 0.38100001 4279056152
0.027359042 0.034385227 0.38100001 4279055638
0.02859653 0.034385227 0.38100001 4278858259
0.029834021 0.034385227 0.38100001 4279121431
0.031071508 0.034385227 0.38100001 4278923541
0.032308999 0.034385227 0.38100001 4279318299
0.033546485 0.034385227 0.38100001 4279055127
0.034783974 0.034385227 0.38100001 4279120666
0.036021464 0.034385227 0.38100001 4279120666
0.037258953 0.034385227 0.38100001 4278857494
0.038496442 0.034385227 0.38100001 4278198537
0.039733931 0.034385227 0.38100001 4278395660
0.040971417 0.034385227 0.38100001 4278196742
0.042208906 0.034385227 0.38100001 4278196228
0.04356043 0.034475479 0.38200003 4278195457
0.044801168 0.034475479 0.38200003 4278194432
0.046041902 0.034475479 0.38200003 4278195200
0.04728264 0.034475479 0.38200003 4278195712
0.048650399 0.034565728 0.38300002 4278196225
0.049894385 0.034565728 0.38300002 4278198024
0.051138371 0.034565728 0.38300002 4278396175
0.052519117 0.034655977 0.384 4278396943
0.053766351 0.034655977 0.384 4278856724
0.055013586 0.034655977 0.384 4278198024
0.05626082 0.034655977 0.384 4278727957
0.057508048 0.034655977 0.384 4278662677
0.058908295 0.03474623 0.38500002 4278662677
0.060158778 0.03474623 0.38500002 4278531861
0.061409254 0.03474623 0.38500002 4278400275
0.062659733 0.03474623 0.38500002 4278729240
0.063910216 0.03474623 0.38500002 4278597654
0.065329939 0.034836479 0.38600001 4278925849
0.066583671 0.034836479 0.38600001 4282475089
-0.013478083 0.035623137 0.38100001 4284249703
-0.012240593 0.035623137 0.38100001 4284579182
-0.010974226 0.03552964 0.38000003 4282410068
-0.0097399848 0.03552964 0.38000003 4279317795
-0.0084833605 0.035436139 0.37900001 4278660628
-0.0072523677 0.035436139 0.37900001 4279186972
-0.0060054874 0.035342641 0.37800002 4278925088
-0.0047777435 0.035342641 0.37800002 4279254053
-0.0035499986 0.035342641 0.37800002 4279122978
-0.002322254 0.035342641 0.37800002 4279056670
-0.0010945091 0.035342641 0.37800002 4279188510
0.00013323547 0.035342641 0.37800002 4279254303
0.0013609801 0.035342641 0.37800002 4278925338
0.0025887247 0.035342641 0.37800002 4278991642
0.0038265658 0.035436139 0.37900001 4278794263
0.0050575584 0.035436139 0.37900001 4279189021
0.0062885508 0.035436139 0.37900001 4278464785
0.0075195436 0.035436139 0.37900001 4278859543
0.0087505365 0.035436139 0.37900001 4278794004
0.010007866 0.03552964 0.38000003 4278794517
0.011242107 0.03552964 0.38000003 4278794517
0.012476347 0.03552964 0.38000003 4278794517
0.013710587 0.03552964 0.38000003 4278728724
0.014944828 0.03552964 0.38000003 4278728724
0.01617907 0.03552964 0.38000003 4278860310
0.017413311 0.03552964 0.38000003 4278531345
0.018647552 0.03552964 0.38000003 4278728724
0.019881791 0.03552964 0.38000003 4278662931
0.021116031 0.03552964 0.38000003 4278662931
0.022409089 0.035623137 0.38100001 4278662931
0.023646578 0.035623137 0.38100001 4278728724
0.024884066 0.035623137 0.38100001 4278662931
0.026121555 0.035623137 0.38100001 4278531091
0.027359042 0.035623137 0.38100001 4278531091
0.02859653 0.035623137 0.38100001 4278531091
0.029834021 0.035623137 0.38100001 4278465298
0.031071508 0.035623137 0.38100001 4278531091
0.032308999 0.035623137 0.38100001 4278860056
0.033546485 0.035623137 0.38100001 4278662677
0.034783974 0.035623137 0.38100001 4278531091
0.036021464 0.035623137 0.38100001 4278728470
0.037258953 0.035623137 0.38100001 4278728470
0.038496442 0.035623137 0.38100001 4278596371
0.039838221 0.035716638 0.38200003 4278859543
0.041078955 0.035716638 0.38200003 4278793750
0.042319693 0.035716638 0.38200003 4278793750
0.04356043 0.035716638 0.38200003 4278793752
0.044801168 0.035716638 0.38200003 4278858775
0.046041902 0.035716638 0.38200003 4278989847
0.047406413 0.035810135 0.38300002 4278792468
0.048650399 0.035810135 0.38300002 4278858007
0.049894385 0.035810135 0.38300002 4279186459
0.051138371 0.035810135 0.38300002 4279186459
0.052519117 0.035903633 0.384 4278660115
0.053766351 0.035903633 0.384 4278988310
0.055013586 0.035903633 0.384 4279120666
0.05626082 0.035903633 0.384 4278663447
0.057508048 0.035903633 0.384 4278531861
0.058908295 0.035997134 0.38500002 4278795033
0.060158778 0.035997134 0.38500002 4278531861
0.061409254 0.035997134 0.38500002 4278531861
0.062659733 0.035997134 0.38500002 4278663447
0.063910216 0.035997134 0.38500002 4278663447
0.065329939 0.036090631 0.38600001 4278464787
0.066583671 0.036090631 0.38600001 4285172091
-0.013478083 0.036861043 0.38100001 4284315496
-0.012240593 0.036861043 0.38100001 4284381289
-0.010974226 0.036764298 0.38000003 4284381803
-0.0097399848 0.036764298 0.38000003 4284513389
-0.0084833605 0.036667548 0.37900001 4284776561
-0.0072523677 0.036667548 0.37900001 4285039733
-0.0060054874 0.036570799 0.37800002 4285171321
-0.0047777435 0.036570799 0.37800002 4285434491
-0.0035499986 0.036570799 0.37800002 4284908917
-0.002322254 0.036570799 0.37800002 4283724643
-0.0010945091 0.036570799 0.37800002 4282475089
0.00013323547 0.036570799 0.37800002 4281488194
0.0013609801 0.036570799 0.37800002 4279712555
0.0025887247 0.036570799 0.37800002 4278923039
0.0038265658 0.036667548 0.37900001 4278725912
0.0050575584 0.036667548 0.37900001 4278265361
0.0062885508 0.036667548 0.37900001 4278660119
0.0075195436 0.036667548 0.37900001 4278331667
0.0087736258 0.036764298 0.38000003 4279121181
0.010007866 0.036764298 0.38000003 4279055900
0.011242107 0.036764298 0.38000003 4278925084
0.012476347 0.036764298 0.38000003 4278925597
0.013710587 0.036764298 0.38000003 4278860058
0.014944828 0.036764298 0.38000003 4278728470
0.01617907 0.036764298 0.38000003 4278794263
0.017413311 0.036764298 0.38000003 4278925336
0.018647552 0.036764298 0.38000003 4278859543
0.01993411 0.036861043 0.38100001 4278925849
0.0211716 0.036861043 0.38100001 4278860056
0.022409089 0.036861043 0.38100001 4278794263
0.023646578 0.036861043 0.38100001 4278662677
0.024884066 0.036861043 0.38100001 4278794263
0.026121555 0.036861043 0.38100001 4278728470
0.027359042 0.036861043 0.38100001 4278662677
0.028671589 0.036957793 0.38200003 4278662677
0.029912326 0.036957793 0.38200003 4278662677
0.031153062 0.036957793 0.38200003 4278662677
0.032393802 0.036957793 0.38200003 4278728470
0.033634536 0.036957793 0.38200003 4278662677
0.034875274 0.036957793 0.38200003 4278728470
0.036116011 0.036957793 0.38200003 4278728470
0.037356745 0.036957793 0.38200003 4278728470
0.038597483 0.036957793 0.38200003 4278728470
0.039838221 0.036957793 0.38200003 4278794263
0.041078955 0.036957793 0.38200003 4278728470
0.042319693 0.036957793 0.38200003 4278728470
0.04356043 0.036957793 0.38200003 4278662677
0.044801168 0.036957793 0.38200003 4278662677
0.04616243 0.037054539 0.38300002 4278662677
0.047406413 0.037054539 0.38300002 4278662677
0.048650399 0.037054539 0.38300002 4278662677
0.049894385 0.037054539 0.38300002 4278860056
0.051271889 0.037151288 0.384 4278793752
0.052519117 0.037151288 0.384 4278859545
0.053766351 0.037151288 0.384 4278793752
0.055013586 0.037151288 0.384 4278727959
0.05626082 0.037151288 0.384 4278662679
0.057657812 0.037248038 0.38500002 4278662677
0.058908295 0.037248038 0.38500002 4278728470
0.060158778 0.037248038 0.38500002 4278531091
0.061409254 0.037248038 0.38500002 4278794263
0.062659733 0.037248038 0.38500002 4278925849
0.063910216 0.037248038 0.38500002 4278925338
0.065329939 0.037344784 0.38600001 4281489218
-0.0097143529 0.037898958 0.37900001 4284710254
-0.0084833605 0.037898958 0.37900001 4284973426
-0.0072523677 0.037898958 0.37900001 4285105012
-0.0060054874 0.03779896 0.37800002 4285105012
-0.0047777435 0.03779896 0.37800002 4284841840
-0.0035499986 0.03779896 0.37800002 4284907633
-0.0010916137 0.037698962 0.377 4284448368
0.00013323547 0.03779896 0.37800002 4284250989
0.0013609801 0.03779896 0.37800002 4284185196
0.0025887247 0.03779896 0.37800002 4283987817
0.0038265658 0.037898958 0.37900001 4283329887
0.0050575584 0.037898958 0.37900001 4283593059
0.0062885508 0.037898958 0.37900001 4283394910
0.0075195436 0.037898958 0.37900001 4283264605
0.0087736258 0.037998956 0.38000003 4281817159
0.010007866 0.037998956 0.38000003 4283461984
0.011242107 0.037998956 0.38000003 4283396193
0.012476347 0.037998956 0.38000003 4281685573
0.013710587 0.037998956 0.38000003 4280962874
0.014944828 0.037998956 0.38000003 4279975979
0.01617907 0.037998956 0.38000003 4278989595
0.017413311 0.037998956 0.38000003 4278594837
0.018696623 0.03809895 0.38100001 4278529046
0.01993411 0.03809895 0.38100001 4278397460
0.0211716 0.03809895 0.38100001 4278989597
0.022409089 0.03809895 0.38100001 4279054875
0.023646578 0.03809895 0.38100001 4279055388
0.024884066 0.03809895 0.38100001 4279121695
0.026121555 0.03809895 0.38100001 4279056672
0.027430853 0.038198952 0.38200003 4278990877
0.028671589 0.038198952 0.38200003 4278925084
0.029912326 0.038198952 0.38200003 4278859291
0.031153062 0.038198952 0.38200003 4278859545
0.032393802 0.038198952 0.38200003 4278991131
0.033634536 0.038198952 0.38200003 4279056922
0.034875274 0.038198952 0.38200003 4278991129
0.036116011 0.038198952 0.38200003 4278925336
0.037356745 0.038198952 0.38200003 4278925336
0.038597483 0.038198952 0.38200003 4278925336
0.039838221 0.038198952 0.38200003 4278925338
0.041078955 0.038198952 0.38200003 4278991129
0.042319693 0.038198952 0.38200003 4278991642
0.04356043 0.038198952 0.38200003 4278860056
0.044918448 0.038298946 0.38300002 4278925849
0.04616243 0.038298946 0.38300002 4278991129
0.047406413 0.038298946 0.38300002 4279188508
0.048650399 0.038298946 0.38300002 4278991129
0.049894385 0.038298946 0.38300002 4278925336
0.051271889 0.038398944 0.384 4278860056
0.052519117 0.038398944 0.384 4279254816
0.053766351 0.038398944 0.384 4278925851
0.055013586 0.038398944 0.384 4278794265
0.05626082 0.038398944 0.384 4278794265
0.057657812 0.038498942 0.38500002 4278728472
0.058908295 0.038498942 0.38500002 4279320096
0.060158778 0.038498942 0.38500002 4278991131
0.061409254 0.038498942 0.38500002 4279254303
0.062659733 0.038498942 0.38500002 4279320096
0.063910216 0.038498942 0.38500002 4280632372
0.066411175 0.038498942 0.38500002 4284776563
0.067661658 0.038498942 0.38500002 4284907635
0.024949379 0.039440107 0.38200003 4284383086
0.026190117 0.039440107 0.38200003 4283198299
0.027430853 0.039440107 0.38200003 4282277197
0.028671589 0.039440107 0.38200003 4281816646
0.029912326 0.039440107 0.38200003 4280698680
0.031153062 0.039440107 0.38200003 4279975727
0.032393802 0.039440107 0.38200003 4279778348
0.033634536 0.039440107 0.38200003 4279712555
0.034875274 0.039440107 0.38200003 4279054625
0.036116011 0.039440107 0.38200003 4279120929
0.037356745 0.039440107 0.38200003 4279120929
0.038597483 0.039440107 0.38200003 4278857498
0.039838221 0.039440107 0.38200003 4279120416
0.041078955 0.039440107 0.38200003 4278659865
0.042319693 0.039440107 0.38200003 4278725912
0.04356043 0.039440107 0.38200003 4278660117
0.044918448 0.039543353 0.38300002 4278725910
0.04616243 0.039543353 0.38300002 4278857496
0.047406413 0.039543353 0.38300002 4278660119
0.048650399 0.039543353 0.38300002 4278660117
0.049894385 0.039543353 0.38300002 4278725910
0.051271889 0.039646596 0.384 4278725910
0.052519117 0.039646596 0.384 4278660117
0.053766351 0.039646596 0.384 4278594326
0.055013586 0.039646596 0.384 4278396947
0.05626082 0.039646596 0.384 4278923289
0.057657812 0.039749846 0.38500002 4278594324
0.058908295 0.039749846 0.38500002 4278791703
0.060158778 0.039749846 0.38500002 4279120668
0.061409254 0.039749846 0.38500002 4281159483
0.062659733 0.039749846 0.38500002 4284185194
0.063910216 0.039749846 0.38500002 4284841842
0.065160699 0.039749846 0.38500002 4284776049
0.066411175 0.039749846 0.38500002 4284841842
0.04616243 0.040787756 0.38300002 4284514159
0.047406413 0.040787756 0.38300002 4284843124
0.048650399 0.040787756 0.38300002 4284646258
0.049894385 0.040787756 0.38300002 4284580206
0.051271889 0.040894251 0.384 4284514413
0.052519117 0.040894251 0.384 4284908917
0.053766351 0.040894251 0.384 4284514672
0.055013586 0.040894251 0.384 4284777844
0.056407336 0.04100075 0.38500002 4284449133
0.057657812 0.04100075 0.38500002 4284711792
0.058908295 0.04100075 0.38500002 4284711792
0.060158778 0.04100075 0.38500002 4284645229
0.061409254 0.04100075 0.38500002 4284513643
0.062659733 0.04100075 0.38500002 4284644975
0.063910216 0.04100075 0.38500002 4284776561
0.065160699 0.04100075 0.38500002 4284710768
0.053766351 0.042141907 0.384 4284842356
0.055013586 0.042141907 0.384 4284710770
0.056407336 0.042251654 0.38500002 4284907633
0.057657812 0.042251654 0.38500002 4284907633
0.058908295 0.042251654 0.38500002 4284841840
0.060158778 0.042251654 0.38500002 4284907633
0.061409254 0.042251654 0.38500002 4284841840
0.062659733 0.042251654 0.38500002 4284776047
0.024956288 0.029919477 0.38002014 4294967295
0.024956288 0.029919477 0.38002014 4294901760
0.024956288 0.029919477 0.38052014 4294901760
0.024956288 0.029919477 0.38102013 4294901760
0.024956288 0.029919477 0.38152015 4294901760
0.024956288 0.029919477 0.38202015 4294901760
0.024956288 0.029919477 0.38252014 4294901760
0.024956288 0.029919477 0.38302013 4294901760
0.024956288 0.029919477 0.38352016 4294901760
0.024956288 0.029919477 0.38402015 4294901760
0.024956288 0.029919477 0.38452014 4294901760
0.024956288 0.029919477 0.38502014 4294901760
0.024956288 0.029919477 0.38552013 4294901760
0.024956288 0.029919477 0.38602015 4294901760
0.024956288 0.029919477 0.38652015 4294901760
0.024956288 0.029919477 0.38702014 4294901760
0.024956288 0.029919477 0.38752013 4294901760
0.024956288 0.029919477 0.38802016 4294901760
0.024956288 0.029919477 0.38852015 4294901760
0.024956288 0.029919477 0.38902014 4294901760
0.024956288 0.029919477 0.38952014 4294901760
0.024956288 0.029919477 0.39002013 4294901760
0.024956288 0.029919477 0.39052016 4294901760
0.024956288 0.029919477 0.39102015 4294901760
0.024956288 0.029919477 0.39152014 4294901760
0.024956288 0.029919477 0.39202014 4294901760
0.024956288 0.029919477 0.39252013 4294901760
0.024956288 0.029919477 0.39302015 4294901760
0.024956288 0.029919477 0.39352015 4294901760
0.024956288 0.029919477 0.39402014 4294901760
0.024956288 0.029919477 0.39452013 4294901760
0.024956288 0.029919477 0.39502016 4294901760
0.024956288 0.029919477 0.39552015 4294901760
0.024956288 0.029919477 0.39602014 4294901760
0.024956288 0.029919477 0.39652014 4294901760
0.024956288 0.029919477 0.39702016 4294901760
0.024956288 0.029919477 0.39752015 4294901760
0.024956288 0.029919477 0.39802015 4294901760
0.024956288 0.029919477 0.39852014 4294901760
0.024956288 0.029919477 0.39902014 4294901760
0.024956288 0.029919477 0.39952016 4294901760
0.024956288 0.029919477 0.40002015 4294901760
0.024956288 0.029919477 0.40052015 4294901760
0.024956288 0.029919477 0.40102014 4294901760
0.024956288 0.029919477 0.40152013 4294901760
0.024956288 0.029919477 0.40202016 4294901760
0.024956288 0.029919477 0.40252015 4294901760
0.024956288 0.029919477 0.40302014 4294901760
0.024956288 0.029919477 0.40352014 4294901760
0.024956288 0.029919477 0.40402016 4294901760
0.024956288 0.029919477 0.40452015 4294901760
0.024956288 0.029919477 0.40502015 4294901760
0.024956288 0.029919477 0.40552014 4294901760
0.024956288 0.029919477 0.40602013 4294901760
0.024956288 0.029919477 0.40652016 4294901760
0.024956288 0.029919477 0.40702015 4294901760
0.024956288 0.029919477 0.40752015 4294901760
0.024956288 0.029919477 0.40802014 4294901760
0.024956288 0.029919477 0.40852016 4294901760
0.024956288 0.029919477 0.40902016 4294901760
0.024956288 0.029919477 0.40952015 4294901760
0.024956288 0.029919477 0.41002014 4294901760
0.024956288 0.029919477 0.41052014 4294901760
0.024956288 0.029919477 0.41102016 4294901760
0.024956288 0.029919477 0.41152015 4294901760
0.024956288 0.029919477 0.41202015 4294901760
0.024956288 0.029919477 0.41252014 4294901760
0.024956288 0.029919477 0.41302016 4294901760
0.024956288 0.029919477 0.41352016 4294901760
0.024956288 0.029919477 0.41402015 4294901760
0.024956288 0.029919477 0.41452014 4294901760
0.024956288 0.029919477 0.41502014 4294901760
0.024956288 0.029919477 0.41552016 4294901760
0.024956288 0.029919477 0.41602015 4294901760
0.024956288 0.029919477 0.41652015 4294901760
0.024956288 0.029919477 0.41702014 4294901760
0.024956288 0.029919477 0.41752017 4294901760
0.024956288 0.029919477 0.41802016 4294901760
0.024956288 0.029919477 0.41852015 4294901760
0.024956288 0.029919477 0.41902015 4294901760
0.024956288 0.029919477 0.41952014 4294901760
0.024956288 0.029919477 0.42002016 4294901760
0.024956288 0.029919477 0.42052016 4294901760
0.024956288 0.029919477 0.42102015 4294901760
0.024956288 0.029919477 0.42152014 4294901760
0.024956288 0.029919477 0.42202014 4294901760
0.024956288 0.029919477 0.42252016 4294901760
0.024956288 0.029919477 0.42302015 4294901760
0.024956288 0.029919477 0.42352015 4294901760
0.024956288 0.029919477 0.42402014 4294901760
0.024956288 0.029919477 0.42452013 4294901760
0.024956288 0.029919477 0.42502016 4294901760
0.024956288 0.029919477 0.42552015 4294901760
0.024956288 0.029919477 0.42602015 4294901760
0.024956288 0.029919477 0.42652017 4294901760
0.024956288 0.029919477 0.42702016 4294901760
0.024956288 0.029919477 0.42752016 4294901760
0.024956288 0.029919477 0.42802015 4294901760
0.024956288 0.029919477 0.42852014 4294901760
0.024956288 0.029919477 0.42902017 4294901760
0.024956288 0.029919477 0.42952016 4294901760
0.024956288 0.029919477 0.43002015 4294901760
0.024956288 0.029919477 0.38002014 4278255360
0.024916546 0.029835578 0.38051143 4278255360
0.024876807 0.029751679 0.38100275 4278255360
0.024837065 0.02966778 0.38149405 4278255360
0.024797324 0.029583881 0.38198537 4278255360
0.024757583 0.029499982 0.38247666 4278255360
0.024717843 0.029416082 0.38296798 4278255360
0.024678102 0.029332183 0.38345927 4278255360
0.02463836 0.029248286 0.38395059 4278255360
0.024598621 0.029164387 0.38444188 4278255360
0.024558879 0.029080488 0.3849332 4278255360
0.024519138 0.028996589 0.38542449 4278255360
0.024479399 0.02891269 0.38591582 4278255360
0.024439657 0.02882879 0.38640711 4278255360
0.024399916 0.028744891 0.38689843 4278255360
0.024360176 0.028660992 0.38738972 4278255360
0.024320435 0.028577093 0.38788104 4278255360
0.024280693 0.028493194 0.38837233 4278255360
0.024240952 0.028409295 0.38886365 4278255360
0.024201212 0.028325396 0.38935494 4278255360
0.024161471 0.028241497 0.38984627 4278255360
0.02412173 0.028157599 0.39033756 4278255360
0.02408199 0.0280737 0.39082888 4278255360
0.024042249 0.027989801 0.39132017 4278255360
