# .PCD v0.7 - Point Cloud Data file format
VERSION 0.7
FIELDS x y z rgb
SIZE 4 4 4 4
TYPE F F F U
COUNT 1 1 1 1
WIDTH 655
HEIGHT 1
VIEWPOINT 0 0 0 1 0 0 0
POINTS 655
DATA ascii
-0.02824665 0.031833734 0.58400005 4279716648
-0.026304696 0.031779222 0.583 4279257121
-0.024369242 0.031724714 0.58200002 4279849520
-0.022440281 0.031670205 0.58100003 4284256367
-0.020517817 0.031615693 0.58000004 4279913264
-0.018601848 0.031561185 0.57900006 4279453996
-0.016721256 0.031561185 0.57900006 4280243510
-0.028198281 0.033673447 0.583 4279256349
-0.026259577 0.03361569 0.58200002 4278994461
-0.024327371 0.033557933 0.58100003 4279060769
-0.022401659 0.033500172 0.58000004 4278534941
-0.020517817 0.033500172 0.58000004 4278600736
-0.018601848 0.033442415 0.57900006 4278798113
-0.016692374 0.033384655 0.57800001 4278732320
-0.014789398 0.033326894 0.57700002 4279127078
-0.028198281 0.035567675 0.583 4279320861
-0.026259577 0.035506666 0.58200002 4279124763
-0.024327371 0.03544566 0.58100003 4278862875
-0.022401659 0.035384651 0.58000004 4278731289
-0.020482441 0.035323646 0.57900006 4278600216
-0.018569719 0.035262633 0.57800001 4278666009
-0.016663495 0.035201628 0.57700002 4278666009
-0.014789398 0.035201628 0.57700002 4278666009
-0.012870535 0.035079613 0.57500005 4278535193
-0.011002934 0.035079613 0.57500005 4278929951
-0.009135332 0.035079613 0.57500005 4278469400
-0.0072550913 0.035018601 0.574 4278666779
-0.0053907386 0.035018601 0.574 4278667292
-0.028149914 0.037397645 0.58200002 4279320346
-0.026214458 0.037333392 0.58100003 4279058457
-0.024285499 0.037269134 0.58000004 4279059740
-0.022363035 0.037204877 0.57900006 4278993947
-0.020482441 0.037204877 0.57900006 4278797082
-0.018569719 0.037140619 0.57800001 4278731289
-0.016663495 0.037076361 0.57700002 4278797082
-0.014763767 0.037012104 0.57600003 4278731289
-0.012870535 0.03694785 0.57500005 4278928668
-0.011002934 0.03694785 0.57500005 4278203149
-0.009135332 0.03694785 0.57500005 4278664214
-0.0072677312 0.03694785 0.57500005 4278533912
-0.0054001305 0.03694785 0.57500005 4278533912
-0.028149914 0.039288625 0.58200002 4279386139
-0.026214458 0.039221119 0.58100003 4279124250
-0.024285499 0.039153613 0.58000004 4278993947
-0.022363035 0.039086107 0.57900006 4278928154
-0.020447064 0.039018597 0.57800001 4278993947
-0.018569719 0.039018597 0.57800001 4278796568
-0.016663495 0.038951091 0.57700002 4278665496
-0.014763767 0.038883585 0.57600003 4278665496
-0.012870535 0.038816083 0.57500005 4278599189
-0.011002934 0.038816083 0.57500005 4278531345
-0.009135332 0.038816083 0.57500005 4279255068
-0.0072677312 0.038816083 0.57500005 4278795800
-0.0054001305 0.038816083 0.57500005 4279321631
-0.0035325291 0.038816083 0.57500005 4279124252
-0.001664928 0.038816083 0.57500005 4278992664
0.00020302548 0.038883585 0.57600003 4278927384
0.0020738745 0.038883585 0.57600003 4278664982
0.0039447234 0.038883585 0.57600003 4278664982
0.0058155726 0.038883585 0.57600003 4278797080
0.0076864217 0.038883585 0.57600003 4278533908
0.0095572704 0.038883585 0.57600003 4278600216
0.01140828 0.038816083 0.57500005 4278666009
0.013275881 0.038816083 0.57500005 4278666009
0.015143481 0.038816083 0.57500005 4278666007
0.017011084 0.038816083 0.57500005 4278468628
0.018845851 0.038748574 0.574 4278600214
0.020710202 0.038748574 0.574 4278797593
0.022574555 0.038748574 0.574 4278863386
0.024396332 0.038681068 0.57300001 4279060767
0.026257439 0.038681068 0.57300001 4279192353
0.028118543 0.038681068 0.57300001 4279061537
0.031840753 0.038681068 0.57300001 4279061285
0.033760674 0.038748574 0.574 4279586859
0.035625026 0.038748574 0.574 4279323174
-0.028149914 0.041179601 0.58200002 4279255066
-0.026214458 0.041108847 0.58100003 4279058970
-0.024285499 0.041038092 0.58000004 4279059740
-0.022363035 0.040967338 0.57900006 4278928154
-0.020447064 0.04089658 0.57800001 4278862359
-0.018537592 0.040825825 0.57700002 4278796566
-0.016663495 0.040825825 0.57700002 4278928152
-0.014763767 0.040755071 0.57600003 4278862359
-0.012892918 0.040755071 0.57600003 4279256349
-0.011002934 0.040684316 0.57500005 4278198532
-0.009135332 0.040684316 0.57500005 4279386141
-0.0072677312 0.040684316 0.57500005 4278198784
-0.0054001305 0.040684316 0.57500005 4278459660
-0.0035325291 0.040684316 0.57500005 4278524429
-0.001664928 0.040684316 0.57500005 4278524429
0.00020302548 0.040755071 0.57600003 4278524683
0.0020738745 0.040755071 0.57600003 4278196486
0.0039447234 0.040755071 0.57600003 4278328583
0.0058155726 0.040755071 0.57600003 4278197253
0.0076864217 0.040755071 0.57600003 4278199045
0.0095572704 0.040755071 0.57600003 4278267660
0.01140828 0.040684316 0.57500005 4278465552
0.013275881 0.040684316 0.57500005 4279058459
0.015143481 0.040684316 0.57500005 4279256351
0.017011084 0.040684316 0.57500005 4279058970
0.018878685 0.040684316 0.57500005 4278927384
0.020710202 0.040613558 0.574 4278599187
0.022574555 0.040613558 0.574 4278664980
0.024438908 0.040613558 0.574 4278862359
0.026257439 0.040542804 0.57300001 4278665494
0.028118543 0.040542804 0.57300001 4278533908
0.030031966 0.040613558 0.574 4278731800
0.031896319 0.040613558 0.574 4278666007
0.033760674 0.040613558 0.574 4278731800
0.035625026 0.040613558 0.574 4278863388
0.037554692 0.040684316 0.57500005 4278995746
0.039490856 0.040755071 0.57600003 4279127078
0.041361704 0.040755071 0.57600003 4279323687
0.043307606 0.040825825 0.57700002 4279388969
0.045181707 0.040825825 0.57700002 4279388969
-0.028101547 0.042996574 0.58100003 4279058972
-0.026169339 0.042922571 0.58000004 4278993947
-0.024285499 0.042922571 0.58000004 4278928154
-0.022363035 0.042848568 0.57900006 4278862361
-0.020447064 0.042774558 0.57800001 4278862359
-0.018569719 0.042774558 0.57800001 4278862359
-0.016663495 0.042700555 0.57700002 4278928152
-0.014763767 0.042626552 0.57600003 4278862359
-0.012892918 0.042626552 0.57600003 4279058970
-0.011002934 0.042552549 0.57500005 4278196992
-0.009135332 0.042552549 0.57500005 4279451164
-0.0072677312 0.042552549 0.57500005 4278196736
-0.0054001305 0.042552549 0.57500005 4279708957
-0.0035325291 0.042552549 0.57500005 4279116053
-0.001664928 0.042552549 0.57500005 4279116053
0.00020267301 0.042552549 0.57500005 4279050260
0.0020738745 0.042626552 0.57600003 4278655502
0.0039447234 0.042626552 0.57600003 4278522632
0.0058155726 0.042626552 0.57600003 4278589709
0.0076864217 0.042626552 0.57600003 4278392584
0.0095572704 0.042626552 0.57600003 4279188508
0.01140828 0.042552549 0.57500005 4278991129
0.013275881 0.042552549 0.57500005 4279714854
0.015143481 0.042552549 0.57500005 4279517473
0.017011084 0.042552549 0.57500005 4278793750
0.018878685 0.042552549 0.57500005 4278199044
0.020710202 0.042478543 0.574 4278198016
0.022574555 0.042478543 0.574 4278196992
0.024438908 0.042478543 0.574 4278196992
0.026303262 0.042478543 0.574 4278199044
0.028167615 0.042478543 0.574 4278333199
0.030031966 0.042478543 0.574 4279320607
0.031896319 0.042478543 0.574 4278992666
0.033760674 0.042478543 0.574 4279058459
0.035687093 0.042552549 0.57500005 4279124763
0.037554692 0.042552549 0.57500005 4278664982
0.039490856 0.042626552 0.57600003 4278731289
0.041361704 0.042626552 0.57600003 4278731802
0.043307606 0.042700555 0.57700002 4278600218
0.045181707 0.042700555 0.57700002 4279192355
0.047137354 0.042774558 0.57800001 4279389221
0.049014702 0.042774558 0.57800001 4278598939
-0.028101547 0.044884302 0.58100003 4279058718
-0.026169339 0.04480705 0.58000004 4278993695
-0.024285499 0.04480705 0.58000004 4278862623
-0.022363035 0.044729795 0.57900006 4278731037
-0.020447064 0.04465254 0.57800001 4278731291
-0.018569719 0.04465254 0.57800001 4278731291
-0.016663495 0.044575289 0.57700002 4278797082
-0.014763767 0.044498034 0.57600003 4278731289
-0.012892918 0.044498034 0.57600003 4279124765
-0.011022069 0.044498034 0.57600003 4278199563
-0.009135332 0.044420782 0.57500005 4279385371
-0.0072677312 0.044420782 0.57500005 4278197510
-0.0054001305 0.044420782 0.57500005 4279446555
-0.0035325291 0.044420782 0.57500005 4279446553
-0.001664928 0.044420782 0.57500005 4280301864
0.00020267301 0.044420782 0.57500005 4278657039
0.002070274 0.044420782 0.57500005 4278525451
0.0039447234 0.044498034 0.57600003 4278920211
0.0058155726 0.044498034 0.57600003 4279708957
0.0076864217 0.044498034 0.57600003 4278854418
0.0095572704 0.044498034 0.57600003 4278991642
0.01140828 0.044420782 0.57500005 4278200328
0.013275881 0.044420782 0.57500005 4278196224
0.015143481 0.044420782 0.57500005 4279581982
0.017011084 0.044420782 0.57500005 4278199301
0.018878685 0.044420782 0.57500005 4279254555
0.020746283 0.044420782 0.57500005 4279254555
0.022574555 0.044343524 0.574 4279057176
0.024438908 0.044343524 0.574 4278991896
0.026303262 0.044343524 0.574 4279452447
0.028167615 0.044343524 0.574 4279255068
0.030031966 0.044343524 0.574 4279189021
0.031896319 0.044343524 0.574 4279254303
0.033819493 0.044420782 0.57500005 4278925338
0.035687093 0.044420782 0.57500005 4278989847
0.037620004 0.044498034 0.57600003 4278198789
0.039490856 0.044498034 0.57600003 4278200329
0.041433513 0.044575289 0.57700002 4278796570
0.043307606 0.044575289 0.57700002 4278665498
0.045260008 0.04465254 0.57800001 4278731291
0.047137354 0.04465254 0.57800001 4278862877
0.049014702 0.04465254 0.57800001 4279059742
-0.028149914 0.046852533 0.58200002 4279124511
-0.026214458 0.046772029 0.58100003 4278928416
-0.024285499 0.046691529 0.58000004 4278862623
-0.022363035 0.046611026 0.57900006 4278862623
-0.020447064 0.046530519 0.57800001 4278533658
-0.018569719 0.046530519 0.57800001 4278797084
-0.016663495 0.046450019 0.57700002 4278797084
-0.014763767 0.046369519 0.57600003 4278731291
-0.012892918 0.046369519 0.57600003 4278860058
-0.011022069 0.046369519 0.57600003 4278199563
-0.009135332 0.046289016 0.57500005 4279319578
-0.0072677312 0.046289016 0.57500005 4278197509
-0.0054001305 0.046289016 0.57500005 4278721549
-0.0035325291 0.046289016 0.57500005 4278655502
-0.001664928 0.046289016 0.57500005 4278523916
0.00020267301 0.046289016 0.57500005 4278655502
0.002070274 0.046289016 0.57500005 4278524683
0.0039378749 0.046289016 0.57500005 4279578139
0.0058155726 0.046369519 0.57600003 4279381271
0.0076864217 0.046369519 0.57600003 4279315480
0.0095572704 0.046369519 0.57600003 4279779875
0.01140828 0.046289016 0.57500005 4278460169
0.013275881 0.046289016 0.57500005 4278853646
0.015143481 0.046289016 0.57500005 4278328583
0.017011084 0.046289016 0.57500005 4279647775
0.018878685 0.046289016 0.57500005 4278331915
0.020746283 0.046289016 0.57500005 4278990361
0.022613885 0.046289016 0.57500005 4278990361
0.024481487 0.046289016 0.57500005 4278530062
0.026303262 0.046208508 0.574 4278333453
0.028167615 0.046208508 0.574 4278794004
0.03008429 0.046289016 0.57500005 4278991383
0.031951889 0.046289016 0.57500005 4279189021
0.033819493 0.046289016 0.57500005 4279386400
0.035749156 0.046369519 0.57600003 4278991642
0.037620004 0.046369519 0.57600003 4279123228
0.039490856 0.046369519 0.57600003 4278197248
0.041433513 0.046450019 0.57700002 4278992666
0.043307606 0.046450019 0.57700002 4278665498
0.045260008 0.046530519 0.57800001 4278665498
0.047137354 0.046530519 0.57800001 4278862877
0.049014702 0.046530519 0.57800001 4278993949
0.050980095 0.046611026 0.57900006 4279516455
-0.03620214 0.049413525 0.59000003 4285365618
-0.034169592 0.049246017 0.588 4285366388
-0.028149914 0.048743509 0.58200002 4279190304
-0.026214458 0.048659757 0.58100003 4279125795
-0.024285499 0.048576009 0.58000004 4278994209
-0.022363035 0.048492257 0.57900006 4278796830
-0.020447064 0.048408501 0.57800001 4278731291
-0.018569719 0.048408501 0.57800001 4278993949
-0.016663495 0.048324749 0.57700002 4278797084
-0.014789398 0.048324749 0.57700002 4278797084
-0.012892918 0.048241001 0.57600003 4278200328
-0.011022069 0.048241001 0.57600003 4278199044
-0.009135332 0.048157249 0.57500005 4279189021
-0.0072677312 0.048157249 0.57500005 4279451680
-0.0054001305 0.048157249 0.57500005 4278789648
-0.0035325291 0.048157249 0.57500005 4278328072
-0.001664928 0.048157249 0.57500005 4278393097
0.00020267301 0.048157249 0.57500005 4278458890
0.002070274 0.048157249 0.57500005 4278524683
0.0039378749 0.048157249 0.57500005 4278589709
0.0058054761 0.048157249 0.57500005 4278590476
0.0076730778 0.048157249 0.57500005 4280039203
0.0095572704 0.048241001 0.57600003 4279516189
0.01142812 0.048241001 0.57600003 4278461707
0.013275881 0.048157249 0.57500005 4279249687
0.015143481 0.048157249 0.57500005 4280040485
0.017011084 0.048157249 0.57500005 4278595089
0.018878685 0.048157249 0.57500005 4279253019
0.020746283 0.048157249 0.57500005 4278200331
0.022613885 0.048157249 0.57500005 4278200330
0.024481487 0.048157249 0.57500005 4279450910
0.026349088 0.048157249 0.57500005 4279187224
0.02821669 0.048157249 0.57500005 4279120920
0.03008429 0.048157249 0.57500005 4279253019
0.031951889 0.048157249 0.57500005 4278331917
0.033878308 0.048241001 0.57600003 4278529296
0.035749156 0.048241001 0.57600003 4278464015
0.037620004 0.048241001 0.57600003 4279254814
0.039559416 0.048324749 0.57700002 4278197504
0.041433513 0.048324749 0.57700002 4278992666
0.043307606 0.048324749 0.57700002 4278664984
0.045260008 0.048408501 0.57800001 4278796570
0.047137354 0.048408501 0.57800001 4278665498
0.049014702 0.048408501 0.57800001 4278862363
0.050980095 0.048492257 0.57900006 4278530328
-0.036324855 0.051504493 0.59200001 4285564021
-0.034227706 0.051243495 0.58900005 4285038958
-0.032204907 0.051069491 0.58700001 4284842608
-0.028198281 0.050721485 0.583 4279386152
-0.026259577 0.050634485 0.58200002 4279452711
-0.024285499 0.050460488 0.58000004 4278862371
-0.022363035 0.050373487 0.57900006 4278862371
-0.020482441 0.050373487 0.57900006 4278928416
-0.018569719 0.050286483 0.57800001 4278796830
-0.016663495 0.050199483 0.57700002 4278796830
-0.014789398 0.050199483 0.57700002 4278796830
-0.012892918 0.050112482 0.57600003 4278796316
-0.011022069 0.050112482 0.57600003 4279058205
-0.009135332 0.050025482 0.57500005 4278992925
-0.0072677312 0.050025482 0.57500005 4278992925
-0.0054001305 0.050025482 0.57500005 4279123998
-0.0035325291 0.050025482 0.57500005 4279123482
-0.001664928 0.050025482 0.57500005 4279123482
0.00020267301 0.050025482 0.57500005 4279189275
0.002070274 0.050025482 0.57500005 4279254814
0.0039378749 0.050025482 0.57500005 4279385887
0.0058054761 0.050025482 0.57500005 4279779875
0.0076730778 0.050025482 0.57500005 4279516703
0.0095572704 0.050112482 0.57600003 4279187224
0.01142812 0.050112482 0.57600003 4278989845
0.013298969 0.050112482 0.57600003 4278198790
0.015143481 0.050025482 0.57500005 4278196992
0.017011084 0.050025482 0.57500005 4278196736
0.018878685 0.050025482 0.57500005 4278195712
0.020746283 0.050025482 0.57500005 4278529296
0.022613885 0.050025482 0.57500005 4278858261
0.024481487 0.050025482 0.57500005 4279582498
0.026349088 0.050025482 0.57500005 4279845668
0.02821669 0.050025482 0.57500005 4279648289
0.03008429 0.050025482 0.57500005 4279779875
0.03200746 0.050112482 0.57600003 4279188508
0.033878308 0.050112482 0.57600003 4278925336
0.035749156 0.050112482 0.57600003 4278793750
0.037620004 0.050112482 0.57600003 4279254814
0.039559416 0.050199483 0.57700002 4278267406
0.041433513 0.050199483 0.57700002 4278861080
0.043307606 0.050199483 0.57700002 4278796570
0.045181707 0.050199483 0.57700002 4278928156
0.047137354 0.050286483 0.57800001 4279059742
0.049014702 0.050286483 0.57800001 4278862363
0.050980095 0.050373487 0.57900006 4279186974
-0.036447577 0.05360847 0.59400004 4285498487
-0.034343928 0.053337716 0.59100002 4284907374
-0.032314636 0.053157218 0.58900005 4284907374
-0.030246714 0.052886467 0.58600003 4285367925
-0.02824665 0.05270597 0.58400005 4285828222
-0.026259577 0.052525468 0.58200002 4283329115
-0.024285499 0.05234497 0.58000004 4280831801
-0.022363035 0.052254722 0.57900006 4279254053
-0.020482441 0.052254722 0.57900006 4278925349
-0.018569719 0.052164465 0.57800001 4279319594
-0.016663495 0.052074216 0.57700002 4279253799
-0.014789398 0.052074216 0.57700002 4279583531
-0.012892918 0.051983967 0.57600003 4279452711
-0.011022069 0.051983967 0.57600003 4279321125
-0.009135332 0.051893719 0.57500005 4279190052
-0.0072677312 0.051893719 0.57500005 4279058466
-0.0054001305 0.051893719 0.57500005 4279124511
-0.0035325291 0.051893719 0.57500005 4278992925
-0.001664928 0.051893719 0.57500005 4278927132
0.00020267301 0.051893719 0.57500005 4279058718
0.002070274 0.051893719 0.57500005 4278992925
0.0039378749 0.051893719 0.57500005 4278927132
0.0058054761 0.051893719 0.57500005 4279058972
0.0076730778 0.051893719 0.57500005 4279058972
0.0095572704 0.051983967 0.57600003 4279058972
0.01142812 0.051983967 0.57600003 4279124252
0.013298969 0.051983967 0.57600003 4279058459
0.015169818 0.051983967 0.57600003 4279190045
0.017040668 0.051983967 0.57600003 4279255068
0.018878685 0.051893719 0.57500005 4279189275
0.020746283 0.051893719 0.57500005 4279583779
0.022613885 0.051893719 0.57500005 4279385887
0.024481487 0.051893719 0.57500005 4279714852
0.026349088 0.051893719 0.57500005 4279385889
0.02821669 0.051893719 0.57500005 4279121947
0.030136609 0.051983967 0.57600003 4278464017
0.03200746 0.051983967 0.57600003 4278199563
0.033878308 0.051983967 0.57600003 4278195456
0.035749156 0.051983967 0.57600003 4278196736
0.037620004 0.051983967 0.57600003 4278198021
0.039559416 0.052074216 0.57700002 4278926103
0.041433513 0.052074216 0.57700002 4279058972
0.043307606 0.052074216 0.57700002 4278928156
0.045181707 0.052074216 0.57700002 4278993949
0.047137354 0.052164465 0.57800001 4278993949
0.049014702 0.052164465 0.57800001 4278862363
0.050980095 0.052254722 0.57900006 4284449649
-0.036570296 0.055725429 0.59600002 4285498228
-0.034460153 0.055444937 0.59300005 4284775788
-0.032424361 0.055257935 0.59100002 4284907374
-0.030349944 0.054977436 0.588 4285170546
-0.028343385 0.054790441 0.58600003 4285236339
-0.026304696 0.054509941 0.583 4285433718
-0.024327371 0.054322947 0.58100003 4285565817
-0.022401659 0.054229449 0.58000004 4285697403
-0.020482441 0.054135952 0.57900006 4285369470
-0.018569719 0.054042447 0.57800001 4285764228
-0.016663495 0.05394895 0.57700002 4286224779
-0.014789398 0.05394895 0.57700002 4285303675
-0.012892918 0.053855453 0.57600003 4284843378
-0.011022069 0.053855453 0.57600003 4282935892
-0.009135332 0.053761955 0.57500005 4280700213
-0.0072677312 0.053761955 0.57500005 4279187488
-0.0054001305 0.053761955 0.57500005 4278662429
-0.0035325291 0.053761955 0.57500005 4278859293
-0.001664928 0.053761955 0.57500005 4279254051
0.00020267301 0.053761955 0.57500005 4279122978
0.002070274 0.053761955 0.57500005 4278992675
0.0039378749 0.053761955 0.57500005 4279190054
0.0058054761 0.053761955 0.57500005 4279321125
0.0076730778 0.053761955 0.57500005 4279255586
0.0095572704 0.053855453 0.57600003 4279058720
0.01142812 0.053855453 0.57600003 4278992927
0.013298969 0.053855453 0.57600003 4279058720
0.015169818 0.053855453 0.57600003 4279124513
0.017040668 0.053855453 0.57600003 4278927134
0.018911516 0.053855453 0.57600003 4279058720
0.020746283 0.053761955 0.57500005 4279124513
0.022613885 0.053761955 0.57500005 4279124513
0.024481487 0.053761955 0.57500005 4278992927
0.026349088 0.053761955 0.57500005 4279124511
0.02821669 0.053761955 0.57500005 4279058205
0.030136609 0.053855453 0.57600003 4279189791
0.03200746 0.053855453 0.57600003 4279058207
0.033878308 0.053855453 0.57600003 4279189793
0.035749156 0.053855453 0.57600003 4279124000
0.037620004 0.053855453 0.57600003 4279255586
0.039490856 0.053855453 0.57600003 4279518756
0.041433513 0.05394895 0.57700002 4279124252
0.043307606 0.05394895 0.57700002 4278993179
0.045181707 0.05394895 0.57700002 4279058972
0.047055803 0.05394895 0.57700002 4279190558
0.049014702 0.054042447 0.57800001 4278596119
0.0095572704 0.055726934 0.57600003 4280503096
0.01142812 0.055726934 0.57600003 4279450408
0.013298969 0.055726934 0.57600003 4278924318
0.015169818 0.055726934 0.57600003 4278726939
0.017040668 0.055726934 0.57600003 4279056674
0.018911516 0.055726934 0.57600003 4278925088
0.020782365 0.055726934 0.57600003 4278728738
0.022613885 0.055630188 0.57500005 4278991910
0.024481487 0.055630188 0.57500005 4279057703
0.026349088 0.055630188 0.57500005 4279057703
0.028265761 0.055726934 0.57600003 4278992164
0.030136609 0.055726934 0.57600003 4279057957
0.03200746 0.055726934 0.57600003 4279189541
0.033878308 0.055726934 0.57600003 4279451943
0.035749156 0.055726934 0.57600003 4279451941
0.037620004 0.055726934 0.57600003 4279451941
0.039490856 0.055726934 0.57600003 4279254816
0.041433513 0.05582368 0.57700002 4279386402
0.043307606 0.05582368 0.57700002 4279583781
0.045181707 0.05582368 0.57700002 4279386402
0.047055803 0.05582368 0.57700002 4279581996
0.049014702 0.05592043 0.57800001 4285041016
0.039490856 0.057598416 0.57600003 4285370235
0.041433513 0.057698414 0.57700002 4285238395
0.043307606 0.057698414 0.57700002 4285107579
0.045181707 0.057698414 0.57700002 4285699200
0.0073879915 0.04626726 0.57682681 4294967295
0.0073879915 0.04626726 0.57682681 4294901760
0.0073879915 0.04626726 0.57732683 4294901760
0.0073879915 0.04626726 0.5778268 4294901760
0.0073879915 0.04626726 0.57832682 4294901760
0.0073879915 0.04626726 0.57882679 4294901760
0.0073879915 0.04626726 0.57932681 4294901760
0.0073879915 0.04626726 0.57982683 4294901760
0.0073879915 0.04626726 0.5803268 4294901760
0.0073879915 0.04626726 0.58082682 4294901760
0.0073879915 0.04626726 0.58132678 4294901760
0.0073879915 0.04626726 0.58182681 4294901760
0.0073879915 0.04626726 0.58232683 4294901760
0.0073879915 0.04626726 0.58282679 4294901760
0.0073879915 0.04626726 0.58332682 4294901760
0.0073879915 0.04626726 0.58382684 4294901760
0.0073879915 0.04626726 0.5843268 4294901760
0.0073879915 0.04626726 0.58482683 4294901760
0.0073879915 0.04626726 0.58532679 4294901760
0.0073879915 0.04626726 0.58582681 4294901760
0.0073879915 0.04626726 0.58632684 4294901760
0.0073879915 0.04626726 0.5868268 4294901760
0.0073879915 0.04626726 0.58732682 4294901760
0.0073879915 0.04626726 0.58782679 4294901760
0.0073879915 0.04626726 0.58832681 4294901760
0.0073879915 0.04626726 0.58882684 4294901760
0.0073879915 0.04626726 0.5893268 4294901760
0.0073879915 0.04626726 0.58982682 4294901760
0.0073879915 0.04626726 0.59032679 4294901760
0.0073879915 0.04626726 0.59082681 4294901760
0.0073879915 0.04626726 0.59132683 4294901760
0.0073879915 0.04626726 0.5918268 4294901760
0.0073879915 0.04626726 0.59232682 4294901760
0.0073879915 0.04626726 0.59282684 4294901760
0.0073879915 0.04626726 0.59332681 4294901760
0.0073879915 0.04626726 0.59382683 4294901760
0.0073879915 0.04626726 0.59432679 4294901760
0.0073879915 0.04626726 0.59482682 4294901760
0.0073879915 0.04626726 0.59532684 4294901760
0.0073879915 0.04626726 0.5958268 4294901760
0.0073879915 0.04626726 0.59632683 4294901760
0.0073879915 0.04626726 0.59682679 4294901760
0.0073879915 0.04626726 0.59732682 4294901760
0.0073879915 0.04626726 0.59782684 4294901760
0.0073879915 0.04626726 0.5983268 4294901760
0.0073879915 0.04626726 0.59882683 4294901760
0.0073879915 0.04626726 0.59932679 4294901760
0.0073879915 0.04626726 0.59982681 4294901760
0.0073879915 0.04626726 0.60032684 4294901760
0.0073879915 0.04626726 0.6008268 4294901760
0.0073879915 0.04626726 0.60132682 4294901760
0.0073879915 0.04626726 0.60182679 4294901760
0.0073879915 0.04626726 0.60232681 4294901760
0.0073879915 0.04626726 0.60282683 4294901760
0.0073879915 0.04626726 0.6033268 4294901760
0.0073879915 0.04626726 0.60382682 4294901760
0.0073879915 0.04626726 0.60432684 4294901760
0.0073879915 0.04626726 0.60482681 4294901760
0.0073879915 0.04626726 0.60532683 4294901760
0.0073879915 0.04626726 0.6058268 4294901760
0.0073879915 0.04626726 0.60632682 4294901760
0.0073879915 0.04626726 0.60682684 4294901760
0.0073879915 0.04626726 0.60732681 4294901760
0.0073879915 0.04626726 0.60782683 4294901760
0.0073879915 0.04626726 0.60832679 4294901760
0.0073879915 0.04626726 0.60882682 4294901760
0.0073879915 0.04626726 0.60932684 4294901760
0.0073879915 0.04626726 0.6098268 4294901760
0.0073879915 0.04626726 0.61032683 4294901760
0.0073879915 0.04626726 0.61082685 4294901760
0.0073879915 0.04626726 0.61132681 4294901760
0.0073879915 0.04626726 0.61182684 4294901760
0.0073879915 0.04626726 0.6123268 4294901760
0.0073879915 0.04626726 0.61282682 4294901760
0.0073879915 0.04626726 0.61332685 4294901760
0.0073879915 0.04626726 0.61382681 4294901760
0.0073879915 0.04626726 0.61432683 4294901760
0.0073879915 0.04626726 0.6148268 4294901760
0.0073879915 0.04626726 0.61532682 4294901760
0.0073879915 0.04626726 0.61582685 4294901760
0.0073879915 0.04626726 0.61632681 4294901760
0.0073879915 0.04626726 0.61682683 4294901760
0.0073879915 0.04626726 0.6173268 4294901760
0.0073879915 0.04626726 0.61782682 4294901760
0.0073879915 0.04626726 0.61832684 4294901760
0.0073879915 0.04626726 0.61882681 4294901760
0.0073879915 0.04626726 0.61932683 4294901760
0.0073879915 0.04626726 0.61982679 4294901760
0.0073879915 0.04626726 0.62032682 4294901760
0.0073879915 0.04626726 0.62082684 4294901760
0.0073879915 0.04626726 0.6213268 4294901760
0.0073879915 0.04626726 0.62182683 4294901760
0.0073879915 0.04626726 0.62232685 4294901760
0.0073879915 0.04626726 0.62282681 4294901760
0.0073879915 0.04626726 0.62332684 4294901760
0.0073879915 0.04626726 0.6238268 4294901760
0.0073879915 0.04626726 0.62432683 4294901760
0.0073879915 0.04626726 0.62482685 4294901760
0.0073879915 0.04626726 0.62532681 4294901760
0.0073879915 0.04626726 0.62582684 4294901760
0.0073879915 0.04626726 0.6263268 4294901760
0.0073879915 0.04626726 0.62682682 4294901760
0.0073879915 0.04626726 0.57682681 4278255360
0.0073752725 0.046266101 0.57732666 4278255360
0.0073625529 0.046264946 0.5778265 4278255360
0.0073498338 0.046263788 0.57832634 4278255360
0.0073371143 0.046262629 0.57882613 4278255360
0.0073243952 0.046261474 0.57932597 4278255360
0.0073116757 0.046260316 0.57982582 4278255360
0.0072989566 0.046259157 0.58032566 4278255360
0.0072862371 0.046258003 0.58082551 4278255360
0.007273518 0.046256844 0.58132535 4278255360
0.0072607985 0.046255685 0.5818252 4278255360
0.0072480794 0.046254531 0.58232504 4278255360
0.0072353603 0.046253372 0.58282483 4278255360
0.0072226408 0.046252217 0.58332467 4278255360
0.0072099217 0.046251059 0.58382452 4278255360
0.0071972022 0.0462499 0.58432436 4278255360
0.0071844831 0.046248745 0.5848242 4278255360
0.0071717636 0.046247587 0.58532405 4278255360
0.0071590445 0.046246428 0.58582389 4278255360
0.007146325 0.046245273 0.58632374 4278255360
0.0071336059 0.046244115 0.58682352 4278255360
0.0071208868 0.046242956 0.58732337 4278255360
0.0071081673 0.046241801 0.58782321 4278255360
0.0070954482 0.046240643 0.58832306 4278255360
0.0070827287 0.046239484 0.5888229 4278255360
0.0070700096 0.046238329 0.58932275 4278255360
0.0070572901 0.046237171 0.58982259 4278255360
0.007044571 0.046236012 0.59032238 4278255360
0.0070318514 0.046234857 0.59082222 4278255360
0.0070191324 0.046233699 0.59132206 4278255360
0.0070064128 0.046232544 0.59182191 4278255360
0.0069936938 0.046231385 0.59232175 4278255360
0.0069809747 0.046230227 0.5928216 4278255360
0.0069682552 0.046229072 0.59332144 4278255360
0.0069555361 0.046227913 0.59382129 4278255360
0.0069428165 0.046226755 0.59432107 4278255360
0.0069300975 0.0462256 0.59482092 4278255360
0.0069173779 0.046224441 0.59532076 4278255360
0.0069046589 0.046223283 0.59582061 4278255360
0.0068919398 0.046222128 0.59632045 4278255360
0.0068792203 0.046220969 0.59682029 4278255360
0.0068665007 0.046219811 0.59732014 4278255360
0.0068537816 0.046218656 0.59781998 4278255360
0.0068410626 0.046217497 0.59831977 4278255360
0.006828343 0.046216339 0.59881961 4278255360
0.006815624 0.046215184 0.59931946 4278255360
0.0068029044 0.046214025 0.5998193 4278255360
0.0067901853 0.046212867 0.60031915 4278255360
0.0067774658 0.046211712 0.60081899 4278255360
0.0067647467 0.046210553 0.60131884 4278255360
0.0067520272 0.046209395 0.60181868 4278255360
0.0067393081 0.04620824 0.60231847 4278255360
0.0067265891 0.046207082 0.60281831 4278255360
0.0067138695 0.046205927 0.60331815 4278255360
0.0067011504 0.046204768 0.603818 4278255360
0.0066884309 0.04620361 0.60431784 4278255360
0.0066757118 0.046202455 0.60481769 4278255360
0.0066629923 0.046201296 0.60531753 4278255360
0.0066502732 0.046200138 0.60581732 4278255360
0.0066375537 0.046198983 0.60631716 4278255360
0.0066248346 0.046197824 0.60681701 4278255360
0.0066121155 0.046196666 0.60731685 4278255360
0.006599396 0.046195511 0.6078167 4278255360
0.0065866769 0.046194352 0.60831654 4278255360
0.0065739574 0.046193194 0.60881639 4278255360
0.0065612383 0.046192039 0.60931623 4278255360
0.0065485188 0.04619088 0.60981601 4278255360
0.0065357997 0.046189722 0.61031586 4278255360
0.0065230802 0.046188567 0.6108157 4278255360
0.0065103611 0.046187408 0.61131555 4278255360
0.006497642 0.046186253 0.61181539 4278255360
0.0064849225 0.046185095 0.61231524 4278255360
0.0064722029 0.046183936 0.61281508 4278255360
0.0064594839 0.046182781 0.61331487 4278255360
0.0064467648 0.046181623 0.61381471 4278255360
0.0064340453 0.046180464 0.61431456 4278255360
0.0064213262 0.046179309 0.6148144 4278255360
0.0064086067 0.046178151 0.61531425 4278255360
0.0063958876 0.046176992 0.61581409 4278255360
0.0063831685 0.046175838 0.61631393 4278255360
0.006370449 0.046174679 0.61681378 4278255360
0.0063577294 0.04617352 0.61731362 4278255360
0.0063450104 0.046172366 0.61781341 4278255360
0.0063322913 0.046171207 0.61831325 4278255360
0.0063195718 0.046170048 0.6188131 4278255360
0.0063068527 0.046168894 0.61931294 4278255360
0.0062941331 0.046167735 0.61981279 4278255360
0.0062814141 0.046166576 0.62031263 4278255360
0.006268695 0.046165422 0.62081248 4278255360
0.0062559755 0.046164263 0.62131226 4278255360
0.0062432559 0.046163104 0.62181211 4278255360
0.0062305368 0.04616195 0.62231195 4278255360
0.0062178178 0.046160791 0.62281179 4278255360
0.0062050982 0.046159636 0.62331164 4278255360
0.0061923792 0.046158478 0.62381148 4278255360
0.0061796596 0.046157319 0.62431133 4278255360
0.0061669406 0.046156164 0.62481117 4278255360
0.006154221 0.046155006 0.62531096 4278255360
0.0061415019 0.046153847 0.6258108 4278255360
0.0061287824 0.046152692 0.62631065 4278255360
0.0061160633 0.046151534 0.62681049 4278255360
