# .PCD v0.7 - Point Cloud Data file format
VERSION 0.7
FIELDS x y z rgb
SIZE 4 4 4 4
TYPE F F F U
COUNT 1 1 1 1
WIDTH 1029
HEIGHT 1
VIEWPOINT 0 0 0 1 0 0 0
POINTS 1029
DATA ascii
0.080045357 -0.00029721731 0.41000003 4278535704
0.081377044 -0.00029721731 0.41000003 4278667544
0.082910441 -0.0002979422 0.41100001 4278601751
0.084245376 -0.0002979422 0.41100001 4278535958
0.085788533 -0.00029866715 0.41200003 4278733337
0.087338179 -0.00029939206 0.41300002 4278995996
0.08889433 -0.00030011698 0.41400003 4278930203
0.09045697 -0.0003008419 0.41500002 4278929949
0.0920261 -0.00030156682 0.41600001 4279060765
0.093601733 -0.00030229174 0.41700003 4279126045
0.095183864 -0.00030301666 0.41800001 4278928920
0.096772492 -0.00030374157 0.41900003 4279454750
0.098367609 -0.00030446649 0.42000002 4279519519
0.099969231 -0.00030519141 0.42100003 4278728724
0.10157734 -0.00030591633 0.42200002 4278199043
0.102948 -0.00030591633 0.42200002 4278201099
0.10456585 -0.00030664125 0.42300001 4279846438
0.1061902 -0.00030736616 0.42400002 4279714852
0.10756736 -0.00030736616 0.42400002 4280240680
0.10894451 -0.00030736616 0.42400002 4279649826
0.11058186 -0.00030809108 0.42500001 4280373549
0.11196226 -0.00030809108 0.42500001 4278464785
0.11360936 -0.00030881603 0.42600003 4279716389
0.11526294 -0.00030954092 0.42700002 4279388707
0.11664983 -0.00030954092 0.42700002 4279454500
0.11803672 -0.00030954092 0.42700002 4279453730
0.11970331 -0.00031026587 0.42800003 4280372532
0.12109346 -0.00031026587 0.42800003 4286092421
0.034867216 0.00099957618 0.39600003 4280298012
0.036062125 0.00099705195 0.39500001 4280165913
0.037250545 0.00099452771 0.39400002 4279968534
0.03843246 0.00099200348 0.39300001 4280363807
0.03960789 0.00098947936 0.39200002 4280561956
0.040776815 0.00098695525 0.39100003 4280627495
0.042046785 0.00098695525 0.39100003 4280693542
0.043316755 0.00098695525 0.39100003 4280497186
0.044586722 0.00098695525 0.39100003 4278859027
0.045856692 0.00098695525 0.39100003 4278993177
0.047247186 0.00098947936 0.39200002 4278601497
0.048520405 0.00098947936 0.39200002 4278733853
0.04979362 0.00098947936 0.39200002 4278339095
0.051327381 0.00099452771 0.39400002 4279193636
0.052607097 0.00099452771 0.39400002 4279257635
0.054023571 0.00099705195 0.39500001 4279323174
0.055446554 0.00099957618 0.39600003 4279850031
0.056876026 0.0010021003 0.39700001 4280047410
0.058312003 0.0010046245 0.39800003 4279390504
0.059904218 0.0010096728 0.40000001 4279127845
0.061356433 0.001012197 0.40100002 4279127843
0.062658884 0.001012197 0.40100002 4279193636
0.064120829 0.0010147212 0.40200001 4279193634
0.065589286 0.0010172453 0.40300003 4279325220
0.066898227 0.0010172453 0.40300003 4279325220
0.068376414 0.0010197696 0.40400001 4279325990
0.069861114 0.0010222938 0.40500003 4279063072
0.071176551 0.0010222938 0.40500003 4279063072
0.072670989 0.0010248179 0.40600002 4278734107
0.073989674 0.0010248179 0.40600002 4278470935
0.07549385 0.001027342 0.40700001 4278602521
0.07700453 0.0010298663 0.40800002 4278602521
0.078329705 0.0010298663 0.40800002 4278798617
0.079850122 0.0010323904 0.40900001 4278798617
0.081178561 0.0010323904 0.40900001 4278732824
0.082708716 0.0010349146 0.41000003 4278798363
0.084245376 0.0010374389 0.41100001 4278995742
0.085580304 0.0010374389 0.41100001 4279060765
0.08712671 0.0010399631 0.41200003 4279389984
0.088679604 0.0010424872 0.41300002 4279060765
0.090239003 0.0010450114 0.41400003 4279387933
0.091804892 0.0010475356 0.41500002 4279584799
0.09337727 0.0010500597 0.41600001 4278199296
0.094956152 0.0010525839 0.41700003 4278198784
0.096541531 0.0010551082 0.41800001 4278727441
0.0981334 0.0010576323 0.41900003 4280043299
0.099731773 0.0010601565 0.42000002 4279912483
0.10133664 0.0010626807 0.42100003 4279649824
0.10270405 0.0010626807 0.42100003 4279649824
0.10431866 0.0010652049 0.42200002 4280044582
0.10593975 0.001067729 0.42300001 4279584033
0.10731366 0.001067729 0.42300001 4278596625
0.10894451 0.0010702532 0.42400002 4279451930
0.11032167 0.0010702532 0.42400002 4278991379
0.11196226 0.0010727773 0.42500001 4280570928
0.11334267 0.0010727773 0.42500001 4279651109
0.11499301 0.0010753016 0.42600003 4279585314
0.11637665 0.0010753016 0.42600003 4279585314
0.11803672 0.0010778258 0.42700002 4279583527
0.11942363 0.0010778258 0.42700002 4286488462
0.034867216 0.0022862207 0.39600003 4280232989
0.036153425 0.0022862207 0.39600003 4280034842
0.037345089 0.0022804472 0.39500001 4280165915
0.03960789 0.0022631274 0.39200002 4282931015
0.040776815 0.0022573543 0.39100003 4282602050
0.042046785 0.0022573543 0.39100003 4282470462
0.043427538 0.0022631274 0.39200002 4280761382
0.044700753 0.0022631274 0.39200002 4278989845
0.045973971 0.0022631274 0.39200002 4278861080
0.047367714 0.0022689006 0.39300001 4278600216
0.048644178 0.0022689006 0.39300001 4278469911
0.049920641 0.0022689006 0.39300001 4278602781
0.051327381 0.0022746741 0.39400002 4281497673
0.052740615 0.0022804472 0.39500001 4282351189
0.054023571 0.0022804472 0.39500001 4280047664
0.055446554 0.0022862207 0.39600003 4279127841
0.056876026 0.0022919939 0.39700001 4279062818
0.058312003 0.0022977672 0.39800003 4278931746
0.059754461 0.0023035405 0.39900002 4278998052
0.06120342 0.0023093137 0.40000001 4278800673
0.062658884 0.002315087 0.40100002 4278866466
0.063961327 0.002315087 0.40100002 4278734367
0.065426528 0.0023208603 0.40200001 4278405402
0.066898227 0.0023266335 0.40300003 4278471195
0.068207167 0.0023266335 0.40300003 4278536474
0.069688611 0.0023324068 0.40400001 4278733337
0.071176551 0.0023381801 0.40500003 4278733337
0.072491996 0.0023381801 0.40500003 4278667544
0.073989674 0.0023439534 0.40600002 4278864923
0.07549385 0.0023497266 0.40700001 4278930203
0.076815784 0.0023497266 0.40700001 4278798617
0.078329705 0.0023554999 0.40800002 4278798617
0.079654895 0.0023554999 0.40800002 4279061019
0.081178561 0.0023612732 0.40900001 4278994713
0.082708716 0.0023670467 0.41000003 4279323678
0.084040403 0.0023670467 0.41000003 4278993947
0.085580304 0.0023728197 0.41100001 4278268941
0.08712671 0.0023785932 0.41200003 4278200325
0.088679604 0.0023843665 0.41300002 4278595601
0.090239003 0.0023901397 0.41400003 4279845922
0.091583677 0.0023901397 0.41400003 4280043301
0.093152806 0.002395913 0.41500002 4279715106
0.09472844 0.0024016863 0.41600001 4279912485
0.096310571 0.0024074595 0.41700003 4279715106
0.097899191 0.0024132328 0.41800001 4279649311
0.099494316 0.0024190061 0.41900003 4279452445
0.10109594 0.0024247793 0.42000002 4278926101
0.10270405 0.0024305528 0.42100003 4278925588
0.10431866 0.0024363259 0.42200002 4278595855
0.10568931 0.0024363259 0.42200002 4278397708
0.10731366 0.0024420992 0.42300001 4278266122
0.10868756 0.0024420992 0.42300001 4279649313
0.11032167 0.0024478727 0.42400002 4278199555
0.11169882 0.0024478727 0.42400002 4279650594
0.11334267 0.0024536457 0.42500001 4279651107
0.11472306 0.0024536457 0.42500001 4279651107
0.11637665 0.0024594192 0.42600003 4279585314
0.11803672 0.0024651925 0.42700002 4282672720
0.11942363 0.0024651925 0.42700002 4286157700
0.034955263 0.0035818873 0.39700001 4280298784
0.036244716 0.0035818873 0.39700001 4280232219
0.037439633 0.0035728649 0.39600003 4280429087
0.038725842 0.0035728649 0.39600003 4280890149
0.040214133 0.0035909098 0.39800003 4282536255
0.041506838 0.0035909098 0.39800003 4282996806
0.04279954 0.0035909098 0.39800003 4282536769
0.043538321 0.0035457977 0.39300001 4280761382
0.044814784 0.0035457977 0.39300001 4279319064
0.046091251 0.0035457977 0.39300001 4278728724
0.047488246 0.0035548203 0.39400002 4278599189
0.048767958 0.0035548203 0.39400002 4278402837
0.05004767 0.0035548203 0.39400002 4278930464
0.051327381 0.0035548203 0.39400002 4278536476
0.052740615 0.0035638425 0.39500001 4278603296
0.054023571 0.0035638425 0.39500001 4278800162
0.055446554 0.0035728649 0.39600003 4278734367
0.056876026 0.0035818873 0.39700001 4278340122
0.058312003 0.0035909098 0.39800003 4278603294
0.059754461 0.0035999322 0.39900002 4278208536
0.06120342 0.0036089544 0.40000001 4278537501
0.062502623 0.0036089544 0.40000001 4278405402
0.063961327 0.003617977 0.40100002 4278339609
0.065263778 0.003617977 0.40100002 4278536474
0.066732228 0.0036269992 0.40200001 4278666777
0.068207167 0.0036360216 0.40300003 4278929949
0.069516115 0.0036360216 0.40300003 4278798363
0.071000807 0.0036450441 0.40400001 4278995742
0.072491996 0.0036540665 0.40500003 4278929433
0.073989674 0.0036630889 0.40600002 4279061019
0.07530836 0.0036630889 0.40600002 4279455010
0.076815784 0.0036721111 0.40700001 4279586082
0.078329705 0.0036811335 0.40800002 4278400529
0.079654895 0.0036811335 0.40800002 4278200325
0.081178561 0.0036901559 0.40900001 4278196736
0.082506984 0.0036901559 0.40900001 4278196736
0.084040403 0.0036991783 0.41000003 4280109862
0.085580304 0.0037082008 0.41100001 4279715104
0.086915232 0.0037082008 0.41100001 4280240680
0.088464886 0.0037172232 0.41200003 4279911715
0.090021029 0.0037262456 0.41300002 4278925590
0.091583677 0.003735268 0.41400003 4278200582
0.093152806 0.0037442902 0.41500002 4279188762
0.09472844 0.0037533126 0.41600001 4279451934
0.096310571 0.0037623351 0.41700003 4278200329
0.097899191 0.0037713575 0.41800001 4278727187
0.099494316 0.0037803799 0.41900003 4278858775
0.10109594 0.0037894021 0.42000002 4279976740
0.10246009 0.0037894021 0.42000002 4278200326
0.10407146 0.0037984247 0.42100003 4280042787
0.10568931 0.0038074469 0.42200002 4280372012
0.10731366 0.0038164693 0.42300001 4279977254
0.10868756 0.0038164693 0.42300001 4279911461
0.11032167 0.0038254918 0.42400002 4279385117
0.11169882 0.0038254918 0.42400002 4279848488
0.11334267 0.0038345142 0.42500001 4279586086
0.11472306 0.0038345142 0.42500001 4279979820
0.11637665 0.0038435366 0.42600003 4281687360
0.033750609 0.0048840526 0.39800003 4280167711
0.035043314 0.0048840526 0.39800003 4280429598
0.036336016 0.0048840526 0.39800003 4280298012
0.037628721 0.0048840526 0.39800003 4280429598
0.040315174 0.0048963241 0.39900002 4282470462
0.041611124 0.0048963241 0.39900002 4282865220
0.042907074 0.0048963241 0.39900002 4282669125
0.043649107 0.0048349667 0.39400002 4278986000
0.044928819 0.0048349667 0.39400002 4279318297
0.046208534 0.0048349667 0.39400002 4278991383
0.04760877 0.0048472378 0.39500001 4278729492
0.048891731 0.0048472378 0.39500001 4278795798
0.050174691 0.0048472378 0.39500001 4278731802
0.051457655 0.0048472378 0.39500001 4278732572
0.052740615 0.0048472378 0.39500001 4278601499
0.054160345 0.0048595094 0.39600003 4278601499
0.055446554 0.0048595094 0.39600003 4278667290
0.056876026 0.004871781 0.39700001 4278601497
0.058312003 0.0048840526 0.39800003 4278733083
0.059754461 0.0048963241 0.39900002 4278864669
0.061050415 0.0048963241 0.39900002 4278864671
0.062502623 0.0049085952 0.40000001 4278733085
0.063801818 0.0049085952 0.40000001 4278732572
0.065263778 0.0049208668 0.40100002 4278402837
0.066732228 0.0049331384 0.40200001 4279058972
0.06803792 0.0049331384 0.40200001 4279454500
0.069516115 0.0049454099 0.40300003 4279323428
0.071000807 0.0049576815 0.40400001 4278993949
0.072491996 0.0049699531 0.40500003 4278201097
0.073989674 0.0049822242 0.40600002 4278197248
0.07530836 0.0049822242 0.40600002 4278393863
0.076815784 0.0049944958 0.40700001 4278787855
0.078137718 0.0049944958 0.40700001 4278853648
0.079654895 0.0050067673 0.40800002 4278721549
0.081178561 0.0050190389 0.40900001 4278918928
0.082506984 0.0050190389 0.40900001 4279643930
0.084040403 0.0050313105 0.41000003 4279584031
0.085580304 0.0050435816 0.41100001 4278399246
0.086915232 0.0050435816 0.41100001 4278461707
0.088464886 0.0050558536 0.41200003 4280107045
0.090021029 0.0050681247 0.41300002 4279780899
0.091583677 0.0050803963 0.41400003 4278530832
0.093152806 0.0050926679 0.41500002 4278399246
0.09472844 0.005104939 0.41600001 4279451934
0.09607961 0.005104939 0.41600001 4279912231
0.097664982 0.005117211 0.41700003 4279649059
0.099256858 0.0051294821 0.41800001 4279845922
0.10085523 0.0051417537 0.41900003 4279977508
0.10246009 0.0051540253 0.42000002 4279976994
0.10407146 0.0051662968 0.42100003 4278397962
0.10568931 0.0051785684 0.42200002 4278198532
0.10705996 0.0051785684 0.42200002 4279516191
0.10868756 0.0051908395 0.42300001 4280108840
0.11006147 0.0051908395 0.42300001 4280306989
0.11169882 0.0052031111 0.42400002 4279781158
0.11307598 0.0052031111 0.42400002 4280240426
0.11472306 0.0052153827 0.42500001 4283790688
0.03392021 0.0062082363 0.40000001 4280167196
0.036518607 0.0062082363 0.40000001 4280429085
0.03901922 0.0061927158 0.39900002 4282931015
0.040416211 0.0062082363 0.40000001 4282865220
0.04171541 0.0062082363 0.40000001 4283062599
0.043014612 0.0062082363 0.40000001 4282866504
0.043870676 0.0061461544 0.39600003 4279644184
0.045156885 0.0061461544 0.39600003 4279516443
0.046443094 0.0061461544 0.39600003 4279385369
0.04760877 0.0061306334 0.39500001 4278597906
0.048891731 0.0061306334 0.39500001 4278598419
0.050174691 0.0061306334 0.39500001 4278862875
0.051457655 0.0061306334 0.39500001 4279060767
0.05287414 0.0061461544 0.39600003 4278600986
0.054160345 0.0061461544 0.39600003 4279061537
0.055446554 0.0061461544 0.39600003 4278930464
0.056876026 0.0061616744 0.39700001 4278864671
0.058312003 0.0061771953 0.39800003 4278995742
0.059604701 0.0061771953 0.39800003 4278732570
0.061050415 0.0061927158 0.39900002 4278798363
0.062502623 0.0062082363 0.40000001 4278798363
0.063801818 0.0062082363 0.40000001 4279060765
0.065263778 0.0062237573 0.40100002 4278730005
0.066566229 0.0062237573 0.40100002 4279321631
0.06803792 0.0062392773 0.40200001 4279256351
0.069516115 0.0062547983 0.40300003 4278198536
0.071000807 0.0062703188 0.40400001 4278459660
0.072491996 0.0062858397 0.40500003 4278655502
0.073807433 0.0062858397 0.40500003 4278852881
0.07530836 0.0063013597 0.40600002 4278589709
0.076815784 0.0063168802 0.40700001 4279839776
0.078137718 0.0063168802 0.40700001 4279446301
0.079654895 0.0063324012 0.40800002 4279709727
0.081178561 0.0063479217 0.40900001 4278986004
0.082506984 0.0063479217 0.40900001 4280698669
0.084040403 0.0063634426 0.41000003 4279319064
0.085580304 0.0063789627 0.41100001 4278657802
0.086915232 0.0063789627 0.41100001 4278854414
0.088464886 0.0063944836 0.41200003 4280172325
0.090021029 0.0064100041 0.41300002 4278200328
0.091583677 0.0064255251 0.41400003 4279517727
0.093152806 0.0064410456 0.41500002 4279912485
0.094500728 0.0064410456 0.41500002 4279978278
0.09607961 0.0064565656 0.41600001 4278860058
0.097664982 0.0064720865 0.41700003 4278199044
0.099256858 0.006487607 0.41800001 4278199045
0.10085523 0.006503128 0.41900003 4280240428
0.10246009 0.006518648 0.42000002 4280766772
0.10407146 0.006534169 0.42100003 4279649059
0.10568931 0.0065496895 0.42200002 4279978024
0.10705996 0.0065496895 0.42200002 4279780645
0.10868756 0.0065652099 0.42300001 4280043049
0.036609907 0.0075266473 0.40100002 4280429083
0.037912354 0.0075266473 0.40100002 4281284905
0.039117008 0.007507877 0.40000001 4282469951
0.040517252 0.0075266473 0.40100002 4282667841
0.041819703 0.0075266473 0.40100002 4283128392
0.04279954 0.0074703381 0.39800003 4283261775
0.043981459 0.0074515683 0.39700001 4280039455
0.045270916 0.0074515683 0.39700001 4279450910
0.046560373 0.0074515683 0.39700001 4278991383
0.047729302 0.0074327989 0.39600003 4278268943
0.049015511 0.0074327989 0.39600003 4278927386
0.050301719 0.0074327989 0.39600003 4278928668
0.051587928 0.0074327989 0.39600003 4278929181
0.05287414 0.0074327989 0.39600003 4279193123
0.054160345 0.0074327989 0.39600003 4279061537
0.055586569 0.0074515683 0.39700001 4278929951
0.056876026 0.0074515683 0.39700001 4278929949
0.058312003 0.0074703381 0.39800003 4279060765
0.059604701 0.0074703381 0.39800003 4279126558
0.061050415 0.0074891075 0.39900002 4279126558
0.062346369 0.0074891075 0.39900002 4279060765
0.063801818 0.007507877 0.40000001 4278797082
0.065263778 0.0075266473 0.40100002 4278199300
0.066566229 0.0075266473 0.40100002 4278267406
0.06803792 0.0075454167 0.40200001 4279912744
0.069516115 0.0075641866 0.40300003 4278722830
0.071000807 0.007582956 0.40400001 4278524683
0.072491996 0.0076017259 0.40500003 4280037155
0.073807433 0.0076017259 0.40500003 4280499243
0.07530836 0.0076204957 0.40600002 4279380762
0.076815784 0.0076392652 0.40700001 4278525453
0.078137718 0.0076392652 0.40700001 4279513375
0.079654895 0.007658035 0.40800002 4279908901
0.081178561 0.0076768044 0.40900001 4278262792
0.082506984 0.0076768044 0.40900001 4279844641
0.084040403 0.0076955743 0.41000003 4279055127
0.085580304 0.0077143437 0.41100001 4278920720
0.086915232 0.0077143437 0.41100001 4280369704
0.088464886 0.0077331141 0.41200003 4280042022
0.090021029 0.0077518835 0.41300002 4278989847
0.091583677 0.0077706533 0.41400003 4278198787
0.093152806 0.0077894228 0.41500002 4278660880
0.094500728 0.0077894228 0.41500002 4280108840
0.09607961 0.0078081922 0.41600001 4280306219
0.097664982 0.0078269625 0.41700003 4280108840
0.099256858 0.0078457315 0.41800001 4279912744
0.10085523 0.0078645013 0.41900003 4279912744
0.10246009 0.0078832712 0.42000002 4279846951
0.030022604 0.0088075176 0.40000001 4286223743
0.031400111 0.0088295368 0.40100002 4285894780
0.032784112 0.0088515552 0.40200001 4285697403
0.035395507 0.0088515552 0.40200001 4279969049
0.039214805 0.0088295368 0.40100002 4282996293
0.040517252 0.0088295368 0.40100002 4282667841
0.041819703 0.0088295368 0.40100002 4282997060
0.042907074 0.0087854993 0.39900002 4282011960
0.044092245 0.0087634809 0.39800003 4279711002
0.045384951 0.0087634809 0.39800003 4279319578
0.046560373 0.0087414617 0.39700001 4279057176
0.04784983 0.0087414617 0.39700001 4278598421
0.049139284 0.0087414617 0.39700001 4278796570
0.050428741 0.0087414617 0.39700001 4279060767
0.051718198 0.0087414617 0.39700001 4278863388
0.053007659 0.0087414617 0.39700001 4279060767
0.054297112 0.0087414617 0.39700001 4279126560
0.055586569 0.0087414617 0.39700001 4278731802
0.057019293 0.0087634809 0.39800003 4279060765
0.058312003 0.0087634809 0.39800003 4279126558
0.059754461 0.0087854993 0.39900002 4279126558
0.061050415 0.0087854993 0.39900002 4279060765
0.062502623 0.0088075176 0.40000001 4279126558
0.063801818 0.0088075176 0.40000001 4279322912
0.065263778 0.0088295368 0.40100002 4278196992
0.066566229 0.0088295368 0.40100002 4279452447
0.06803792 0.0088515552 0.40200001 4278728211
0.069516115 0.0088735744 0.40300003 4279314969
0.071000807 0.0088955928 0.40400001 4280104483
0.072491996 0.008917612 0.40500003 4278854414
0.073807433 0.008917612 0.40500003 4278920209
0.07530836 0.0089396304 0.40600002 4279445783
0.076815784 0.0089616496 0.40700001 4278787855
0.078137718 0.0089616496 0.40700001 4278195718
0.079654895 0.0089836689 0.40800002 4278657039
0.081178561 0.0090056872 0.40900001 4278197767
0.082506984 0.0090056872 0.40900001 4279713570
0.084040403 0.0090277065 0.41000003 4278660882
0.085580304 0.0090497248 0.41100001 4278199047
0.086915232 0.0090497248 0.41100001 4279449115
0.088464886 0.009071744 0.41200003 4280634672
0.090021029 0.0090937624 0.41300002 4279911713
0.091583677 0.0091157816 0.41400003 4279780897
0.093152806 0.0091378 0.41500002 4280109864
0.094500728 0.0091378 0.41500002 4280044584
0.09607961 0.0091598183 0.41600001 4279912998
0.097664982 0.0091818376 0.41700003 4279715619
0.099256858 0.0092038559 0.41800001 4280108328
0.028723404 0.010107159 0.40000001 4285631097
0.030097662 0.010132426 0.40100002 4285302905
0.031478416 0.010157694 0.40200001 4285500284
0.032865666 0.010182963 0.40300003 4285500536
0.03417461 0.010182963 0.40300003 4285500536
0.035483554 0.010182963 0.40300003 4285038960
0.036792498 0.010182963 0.40300003 4279773467
0.039508179 0.01020823 0.40400001 4282996806
0.040820375 0.01020823 0.40400001 4282865220
0.04171541 0.010107159 0.40000001 4282931781
0.042907074 0.010081891 0.39900002 4279315730
0.044203028 0.010081891 0.39900002 4279712285
0.045498982 0.010081891 0.39900002 4278991383
0.046677656 0.010056623 0.39800003 4278926103
0.047970362 0.010056623 0.39800003 4278730007
0.049263064 0.010056623 0.39800003 4278665498
0.050555769 0.010056623 0.39800003 4279060767
0.051718198 0.010031355 0.39700001 4278797595
0.053007659 0.010031355 0.39700001 4279061537
0.054297112 0.010031355 0.39700001 4279061537
0.055726588 0.010056623 0.39800003 4278929179
0.057019293 0.010056623 0.39800003 4279126045
0.058458511 0.010081891 0.39900002 4279126045
0.059754461 0.010081891 0.39900002 4279126558
0.061050415 0.010081891 0.39900002 4279126560
0.062502623 0.010107159 0.40000001 4278929181
0.063801818 0.010107159 0.40000001 4279519010
0.065263778 0.010132426 0.40100002 4278331915
0.066566229 0.010132426 0.40100002 4279649826
0.06803792 0.010157694 0.40200001 4278198787
0.069516115 0.010182963 0.40300003 4279117590
0.071000807 0.01020823 0.40400001 4278787855
0.072491996 0.010233498 0.40500003 4278787855
0.073807433 0.010233498 0.40500003 4278918928
0.07530836 0.010258766 0.40600002 4278918928
0.076815784 0.010284034 0.40700001 4278983951
0.078137718 0.010284034 0.40700001 4278458377
0.079654895 0.010309302 0.40800002 4279446553
0.081178561 0.010334569 0.40900001 4280174121
0.082506984 0.010334569 0.40900001 4280043047
0.084040403 0.010359838 0.41000003 4279846951
0.085580304 0.010385105 0.41100001 4279649826
0.086915232 0.010385105 0.41100001 4279781412
0.088464886 0.010410374 0.41200003 4279912998
0.090021029 0.010435641 0.41300002 4279584033
0.091583677 0.010460909 0.41400003 4279715619
0.093152806 0.010486177 0.41500002 4279516703
0.094500728 0.010486177 0.41500002 4281095223
0.09607961 0.010511445 0.41600001 4284120166
0.027767008 0.011549385 0.40500003 4285169522
0.028938832 0.011492351 0.40300003 4285565563
0.030247774 0.011492351 0.40300003 4285434491
0.031635024 0.011520868 0.40400001 4285302905
0.032947216 0.011520868 0.40400001 4285632122
0.034259412 0.011520868 0.40400001 4285500536
0.035571601 0.011520868 0.40400001 4285303927
0.036883794 0.011520868 0.40400001 4286355333
0.040921416 0.011549385 0.40500003 4282932551
0.041819703 0.011435317 0.40100002 4283656274
0.043014612 0.0114068 0.40000001 4279776281
0.044313814 0.0114068 0.40000001 4279646494
0.045498982 0.011378283 0.39900002 4278925336
0.046794936 0.011378283 0.39900002 4278728724
0.048090886 0.011378283 0.39900002 4278664214
0.04938684 0.011378283 0.39900002 4278797084
0.050555769 0.011349767 0.39800003 4278994461
0.051848475 0.011349767 0.39800003 4278929181
0.05314118 0.011349767 0.39800003 4279192353
0.054433882 0.011349767 0.39800003 4279060767
0.055726588 0.011349767 0.39800003 4279323424
0.057162557 0.011378283 0.39900002 4279191838
0.058458511 0.011378283 0.39900002 4279257631
0.059904218 0.0114068 0.40000001 4279192351
0.06120342 0.0114068 0.40000001 4279060765
0.062502623 0.0114068 0.40000001 4278929179
0.063961327 0.011435317 0.40100002 4279779875
0.065263778 0.011435317 0.40100002 4279055127
0.066732228 0.011463834 0.40200001 4280241450
0.06803792 0.011463834 0.40200001 4278198791
0.069516115 0.011492351 0.40300003 4278984721
0.071000807 0.011520868 0.40400001 4278853135
0.072491996 0.011549385 0.40500003 4278590476
0.073807433 0.011549385 0.40500003 4279710238
0.07530836 0.011577902 0.40600002 4280238631
0.076815784 0.011606419 0.40700001 4280436778
0.078137718 0.011606419 0.40700001 4280043301
0.079654895 0.011634936 0.40800002 4279911715
0.081178561 0.011663453 0.40900001 4279715619
0.082506984 0.011663453 0.40900001 4279716389
0.084040403 0.01169197 0.41000003 4279848488
0.085580304 0.011720487 0.41100001 4279848486
0.086915232 0.011720487 0.41100001 4279584031
0.088464886 0.011749004 0.41200003 4280042533
0.089803062 0.011749004 0.41200003 4282212171
0.025136126 0.012865272 0.40500003 4283261779
0.026451567 0.012865272 0.40500003 4285301362
0.027835568 0.012897038 0.40600002 4285565563
0.029082449 0.012865272 0.40500003 4285434491
0.030397888 0.012865272 0.40500003 4285434491
0.031713329 0.012865272 0.40500003 4285566077
0.03302877 0.012865272 0.40500003 4285434491
0.034344211 0.012865272 0.40500003 4285500538
0.035659652 0.012865272 0.40500003 4285434745
0.036975093 0.012865272 0.40500003 4285500538
0.038290534 0.012865272 0.40500003 4285763196
0.039605975 0.012865272 0.40500003 4283657307
0.041923989 0.012769973 0.40200001 4282143548
0.04312215 0.012738207 0.40100002 4279778332
0.044313814 0.012706441 0.40000001 4279319064
0.045613013 0.012706441 0.40000001 4278924820
0.046912216 0.012706441 0.40000001 4278859797
0.048211414 0.012706441 0.40000001 4278927386
0.04938684 0.012674675 0.39900002 4279059742
0.050682791 0.012674675 0.39900002 4279191840
0.051978745 0.012674675 0.39900002 4279191840
0.053274699 0.012674675 0.39900002 4279126560
0.054570649 0.012674675 0.39900002 4279192353
0.055866603 0.012674675 0.39900002 4279258146
0.057162557 0.012674675 0.39900002 4279126558
0.058605023 0.012706441 0.40000001 4279323424
0.059904218 0.012706441 0.40000001 4279191838
0.061356433 0.012738207 0.40100002 4279257631
0.062658884 0.012738207 0.40100002 4278928666
0.063961327 0.012738207 0.40100002 4278595601
0.065263778 0.012738207 0.40100002 4280503600
0.066732228 0.012769973 0.40200001 4279912744
0.06803792 0.012769973 0.40200001 4279846951
0.069516115 0.012801739 0.40300003 4280371500
0.071000807 0.012833506 0.40400001 4280108328
0.072491996 0.012865272 0.40500003 4279649826
0.073807433 0.012865272 0.40500003 4279585316
0.07530836 0.012897038 0.40600002 4279585314
0.076815784 0.012928803 0.40700001 4279651107
0.078137718 0.012928803 0.40700001 4279716900
0.079654895 0.01296057 0.40800002 4279979559
0.081178561 0.012992335 0.40900001 4279519010
0.082506984 0.012992335 0.40900001 4279254814
0.084040403 0.013024103 0.41000003 4281358395
0.085372083 0.013024103 0.41000003 4284120166
0.086915232 0.013055868 0.41100001 4285697403
0.088464886 0.013087635 0.41200003 4285302905
0.024820566 0.014776416 0.42200002 4282538822
0.025136126 0.014181159 0.40500003 4286289540
0.026516879 0.014216173 0.40600002 4285368438
0.027904129 0.014251187 0.40700001 4285434491
0.029154256 0.014216173 0.40600002 4285434491
0.030547999 0.014251187 0.40700001 4285500284
0.031869937 0.014251187 0.40700001 4285566077
0.033191875 0.014251187 0.40700001 4285566077
0.034513813 0.014251187 0.40700001 4285566077
0.035747699 0.014216173 0.40600002 4285566331
0.037066389 0.014216173 0.40600002 4285500538
0.038385078 0.014216173 0.40600002 4285566329
0.039605975 0.014181159 0.40500003 4285632122
0.041923989 0.014076112 0.40200001 4279380762
0.043229684 0.014076112 0.40200001 4279647516
0.044424601 0.014041097 0.40100002 4279253271
0.045727048 0.014041097 0.40100002 4279254553
0.046912216 0.014006081 0.40000001 4278925588
0.048211414 0.014006081 0.40000001 4278927384
0.049510613 0.014006081 0.40000001 4278928668
0.050809812 0.014006081 0.40000001 4278928668
0.052109014 0.014006081 0.40000001 4279323426
0.053408217 0.014006081 0.40000001 4279257631
0.054707415 0.014006081 0.40000001 4279323937
0.056006618 0.014006081 0.40000001 4279060765
0.05730582 0.014006081 0.40000001 4279126558
0.058605023 0.014006081 0.40000001 4279191838
0.060053982 0.014041097 0.40100002 4279323424
0.061356433 0.014041097 0.40100002 4278928666
0.062658884 0.014041097 0.40100002 4278862873
0.063961327 0.014041097 0.40100002 4278858773
0.065426528 0.014076112 0.40200001 4279517473
0.066732228 0.014076112 0.40200001 4279519523
0.068207167 0.014111128 0.40300003 4279387937
0.069516115 0.014111128 0.40300003 4279453476
0.071000807 0.014146143 0.40400001 4279716902
0.072491996 0.014181159 0.40500003 4279651109
0.073807433 0.014181159 0.40500003 4279520293
0.07530836 0.014216173 0.40600002 4279650596
0.076627053 0.014216173 0.40600002 4279452193
0.078137718 0.014251187 0.40700001 4281752386
0.07945966 0.014251187 0.40700001 4284843889
0.081178561 0.014321218 0.40900001 4285764480
0.082506984 0.014321218 0.40900001 4285895294
0.084040403 0.014356234 0.41000003 4285303159
0.085372083 0.014356234 0.41000003 4285500538
0.086915232 0.014391249 0.41100001 4285434745
0.088464886 0.014426265 0.41200003 4285434745
0.024820566 0.016147537 0.42200002 4285894782
0.026191223 0.016147537 0.42200002 4285434745
0.026516879 0.015535308 0.40600002 4285303159
0.028041249 0.015650101 0.40900001 4285500538
0.029297873 0.015611837 0.40800002 4285500538
0.030623058 0.015611837 0.40800002 4285434745
0.031948242 0.015611837 0.40800002 4285500538
0.033273429 0.015611837 0.40800002 4285632124
0.034598615 0.015611837 0.40800002 4285566331
0.035923798 0.015611837 0.40800002 4285566331
0.037157681 0.015573572 0.40700001 4285566331
0.038479622 0.015573572 0.40700001 4285566329
0.039703764 0.015535308 0.40600002 4285632122
0.040921416 0.015497045 0.40500003 4285763710
0.042028278 0.015420516 0.40300003 4282606929
0.043229684 0.015382251 0.40200001 4279581217
0.044424601 0.015343987 0.40100002 4279384090
0.045727048 0.015343987 0.40100002 4279188760
0.047029499 0.015343987 0.40100002 4278794515
0.048331946 0.015343987 0.40100002 4278927384
0.049510613 0.015305722 0.40000001 4278994461
0.050809812 0.015305722 0.40000001 4278928668
0.052109014 0.015305722 0.40000001 4279455010
0.053408217 0.015305722 0.40000001 4279323424
0.054707415 0.015305722 0.40000001 4279126045
0.056006618 0.015305722 0.40000001 4279258144
0.057449088 0.015343987 0.40100002 4279192351
0.058751538 0.015343987 0.40100002 4279257631
0.060053982 0.015343987 0.40100002 4279455010
0.061356433 0.015343987 0.40100002 4279454496
0.062815137 0.015382251 0.40200001 4279520289
0.064120829 0.015382251 0.40200001 4280110377
0.065426528 0.015382251 0.40200001 4280110377
0.066732228 0.015382251 0.40200001 4279782182
0.068207167 0.015420516 0.40300003 4279781928
0.069516115 0.015420516 0.40300003 4279846953
0.071000807 0.015458779 0.40400001 4280371760
0.072491996 0.015497045 0.40500003 4283002453
0.073807433 0.015497045 0.40500003 4285238645
0.07530836 0.015535308 0.40600002 4285896064
0.076627053 0.015535308 0.40600002 4285567101
0.078137718 0.015573572 0.40700001 4285303927
0.07945966 0.015573572 0.40700001 4285434743
0.081178561 0.015650101 0.40900001 4285500536
0.023449909 0.017518658 0.42200002 4280234016
0.024820566 0.017518658 0.42200002 4285302645
0.02612916 0.017477145 0.42100003 4285303159
0.027561879 0.017518658 0.42200002 4285303159
0.028178371 0.01706201 0.41100001 4285500538
0.029441491 0.017020497 0.41000003 4285500538
0.03077317 0.017020497 0.41000003 4285434743
0.032026548 0.016978983 0.40900001 4285566329
0.033354979 0.016978983 0.40900001 4285632122
0.034683414 0.016978983 0.40900001 4285566329
0.036011845 0.016978983 0.40900001 4285369720
0.037340276 0.016978983 0.40900001 4285501306
0.038574167 0.01693747 0.40800002 4285501306
0.039899349 0.01693747 0.40800002 4285435513
0.041123495 0.016895955 0.40700001 4285435513
0.042028278 0.016729904 0.40300003 4285501308
0.043229684 0.01668839 0.40200001 4285830532
0.044535384 0.01668839 0.40200001 4279185691
0.045727048 0.016646877 0.40100002 4279187992
0.047029499 0.016646877 0.40100002 4278860310
0.048331946 0.016646877 0.40100002 4278664982
0.049634393 0.016646877 0.40100002 4279191840
0.05093684 0.016646877 0.40100002 4279126047
0.052109014 0.016605362 0.40000001 4279389217
0.053408217 0.016605362 0.40000001 4279455010
0.054707415 0.016605362 0.40000001 4279389217
0.056146637 0.016646877 0.40100002 4279389730
0.057449088 0.016646877 0.40100002 4279258144
0.058751538 0.016646877 0.40100002 4279323937
0.060053982 0.016646877 0.40100002 4279323424
0.061509438 0.01668839 0.40200001 4279519523
0.062815137 0.01668839 0.40200001 4279651109
0.064120829 0.01668839 0.40200001 4279582244
0.065426528 0.01668839 0.40200001 4281094971
0.066732228 0.01668839 0.40200001 4284514409
0.068207167 0.016729904 0.40300003 4285830784
0.069516115 0.016729904 0.40300003 4285238395
0.071000807 0.016771417 0.40400001 4285369981
0.072491996 0.01681293 0.40500003 4285435515
0.023449909 0.018889779 0.42200002 4283392850
0.024820566 0.018889779 0.42200002 4285434231
0.02612916 0.018845016 0.42100003 4285565817
0.027300628 0.018710729 0.41800001 4285303159
0.028315492 0.018486917 0.41300002 4285500284
0.029585108 0.018442154 0.41200003 4285500538
0.030848226 0.018397391 0.41100001 4285500538
0.032183155 0.018397391 0.41100001 4285500538
0.033436533 0.01835263 0.41000003 4285632124
0.034768216 0.01835263 0.41000003 4285632124
0.036099896 0.01835263 0.41000003 4285303159
0.037431575 0.01835263 0.41000003 4285500538
0.038763255 0.01835263 0.41000003 4285434745
0.039997142 0.018307867 0.40900001 4285697917
0.041224536 0.018263103 0.40800002 4285632124
0.042028278 0.018039292 0.40300003 4285763710
0.043229684 0.017994529 0.40200001 4285567101
0.044424601 0.017949766 0.40100002 4286357130
0.045727048 0.017949766 0.40100002 4282541134
0.047029499 0.017949766 0.40100002 4279120920
0.048331946 0.017949766 0.40100002 4279189791
0.049634393 0.017949766 0.40100002 4279257121
0.05093684 0.017949766 0.40100002 4279652393
0.052239291 0.017949766 0.40100002 4279586600
0.053541742 0.017949766 0.40100002 4279718186
0.054844186 0.017949766 0.40100002 4279652393
0.056146637 0.017949766 0.40100002 4279388707
0.057449088 0.017949766 0.40100002 4279125281
0.058751538 0.017949766 0.40100002 4279649320
0.060053982 0.017949766 0.40100002 4282148173
0.061509438 0.017994529 0.40200001 4284910452
0.062815137 0.017994529 0.40200001 4285634177
0.064120829 0.017994529 0.40200001 4285107063
0.065426528 0.017994529 0.40200001 4285435515
0.066732228 0.017994529 0.40200001 4285369722
0.068207167 0.018039292 0.40300003 4285435515
0.023449909 0.020260902 0.42200002 4285432435
0.024820566 0.020260902 0.42200002 4285368438
0.02612916 0.020212891 0.42100003 4285697403
0.027300628 0.020068854 0.41800001 4285434231
0.028384054 0.01987681 0.41400003 4285500284
0.029656915 0.019828796 0.41300002 4285500284
0.030923283 0.019780785 0.41200003 4285566331
0.032261461 0.019780785 0.41200003 4285632124
0.033518083 0.019732773 0.41100001 4285566331
0.034853015 0.019732773 0.41100001 4285501308
0.036187943 0.019732773 0.41100001 4285303929
0.037522871 0.019732773 0.41100001 4285369722
0.038857799 0.019732773 0.41100001 4285632124
0.040094934 0.019684762 0.41000003 4285697917
0.041325577 0.01963675 0.40900001 4285763710
0.042654008 0.01963675 0.40900001 4285697917
0.043229684 0.019300669 0.40200001 4285764480
0.044424601 0.019252658 0.40100002 4285632894
0.045727048 0.019252658 0.40100002 4285632892
0.047029499 0.019252658 0.40100002 4286356613
0.048331946 0.019252658 0.40100002 4285697913
0.049634393 0.019252658 0.40100002 4282409033
0.05093684 0.019252658 0.40100002 4280107561
0.052239291 0.019252658 0.40100002 4280371500
0.053541742 0.019252658 0.40100002 4281358393
0.054844186 0.019252658 0.40100002 4283792482
0.023505477 0.021683281 0.42300001 4286090878
0.024879381 0.021683281 0.42300001 4285434491
0.026253287 0.021683281 0.42300001 4285302905
0.028452614 0.021273198 0.41500002 4285631870
0.029728726 0.021221938 0.41400003 4285566077
0.03099834 0.021170676 0.41300002 4285500284
0.032261461 0.021119416 0.41200003 4285500284
0.033599637 0.021119416 0.41200003 4285501054
0.034937818 0.021119416 0.41200003 4285369468
0.03627599 0.021119416 0.41200003 4285501054
0.037614167 0.021119416 0.41200003 4285435261
0.038952347 0.021119416 0.41200003 4285435261
0.023894455 0.023439221 0.43000001 4286354820
0.025291096 0.023439221 0.43000001 4285434745
0.023894455 0.024836333 0.43000001 4286092675
0.023950025 0.026294457 0.43100002 4282603595
0.02558518 0.033605289 0.43500003 4285959810
0.068494931 0.0062736534 0.40811411 4294967295
0.068494931 0.0062736534 0.40811411 4294901760
0.068416394 0.0057800119 0.40810183 4294901760
0.068337865 0.0052863704 0.40808958 4294901760
0.068259329 0.0047927285 0.4080773 4294901760
0.068180799 0.0042990874 0.40806502 4294901760
0.068102263 0.0038054455 0.40805274 4294901760
0.068023734 0.003311804 0.40804049 4294901760
0.067945197 0.0028181623 0.40802822 4294901760
0.067866668 0.0023245211 0.40801594 4294901760
0.067788132 0.0018308791 0.40800369 4294901760
0.067709602 0.0013372377 0.40799141 4294901760
0.067631066 0.00084359618 0.40797913 4294901760
0.067552537 0.0003499547 0.40796685 4294901760
0.067474 -0.00014368678 0.4079546 4294901760
0.067395464 -0.00063732872 0.40794232 4294901760
0.067316934 -0.0011309707 0.40793005 4294901760
0.067238398 -0.0016246112 0.4079178 4294901760
0.067159869 -0.0021182531 0.40790552 4294901760
0.067081332 -0.0026118951 0.40789324 4294901760
0.067002803 -0.0031055361 0.40788099 4294901760
0.066924267 -0.003599178 0.40786871 4294901760
0.066845737 -0.0040928191 0.40785643 4294901760
0.066767201 -0.004586461 0.40784416 4294901760
0.066688672 -0.0050801029 0.40783191 4294901760
0.066610135 -0.005573744 0.40781963 4294901760
0.066531599 -0.0060673859 0.40780735 4294901760
0.066453069 -0.0065610269 0.4077951 4294901760
0.066374533 -0.0070546698 0.40778282 4294901760
0.066296004 -0.0075483108 0.40777054 4294901760
0.066217467 -0.0080419518 0.40775827 4294901760
0.066138938 -0.0085355947 0.40774602 4294901760
0.066060401 -0.0090292357 0.40773374 4294901760
0.065981872 -0.0095228758 0.40772146 4294901760
0.065903336 -0.01001652 0.40770921 4294901760
0.065824807 -0.01051016 0.40769693 4294901760
0.06574627 -0.011003802 0.40768465 4294901760
0.065667741 -0.011497444 0.40767238 4294901760
0.065589204 -0.011991085 0.40766013 4294901760
0.065510675 -0.012484726 0.40764785 4294901760
0.065432139 -0.012978368 0.40763557 4294901760
0.065353602 -0.013472009 0.40762332 4294901760
0.065275073 -0.013965651 0.40761104 4294901760
0.065196536 -0.014459291 0.40759876 4294901760
0.065118007 -0.014952935 0.40758649 4294901760
0.065039471 -0.015446575 0.40757424 4294901760
0.064960942 -0.015940217 0.40756196 4294901760
0.064882405 -0.016433859 0.40754968 4294901760
0.064803876 -0.016927501 0.40753743 4294901760
0.064725339 -0.017421141 0.40752515 4294901760
0.06464681 -0.017914783 0.40751287 4294901760
0.064568274 -0.018408425 0.40750062 4294901760
0.064489737 -0.018902067 0.40748835 4294901760
0.064411208 -0.019395707 0.40747607 4294901760
0.064332671 -0.019889349 0.40746379 4294901760
0.064254142 -0.020382993 0.40745154 4294901760
0.064175606 -0.020876633 0.40743926 4294901760
0.064097077 -0.021370275 0.40742698 4294901760
0.06401854 -0.021863915 0.40741473 4294901760
0.063940011 -0.022357557 0.40740246 4294901760
0.063861474 -0.022851199 0.40739018 4294901760
0.063782945 -0.023344843 0.4073779 4294901760
0.063704409 -0.023838483 0.40736565 4294901760
0.063625872 -0.024332125 0.40735337 4294901760
0.063547343 -0.024825765 0.40734109 4294901760
0.063468806 -0.025319405 0.40732884 4294901760
0.063390277 -0.025813047 0.40731657 4294901760
0.063311741 -0.026306693 0.40730429 4294901760
0.063233212 -0.026800334 0.40729201 4294901760
0.063154675 -0.027293973 0.40727976 4294901760
0.063076146 -0.027787615 0.40726748 4294901760
0.062997609 -0.028281257 0.4072552 4294901760
0.06291908 -0.028774898 0.40724295 4294901760
0.062840544 -0.02926854 0.40723068 4294901760
0.062762015 -0.029762182 0.4072184 4294901760
0.062683478 -0.030255824 0.40720612 4294901760
0.062604949 -0.030749466 0.40719387 4294901760
0.062526412 -0.031243104 0.40718159 4294901760
0.062447879 -0.031736746 0.40716931 4294901760
0.062369347 -0.032230388 0.40715706 4294901760
0.062290814 -0.03272403 0.40714478 4294901760
0.062212281 -0.033217672 0.40713251 4294901760
0.062133744 -0.033711314 0.40712023 4294901760
0.062055215 -0.034204956 0.40710798 4294901760
0.061976679 -0.034698594 0.4070957 4294901760
0.061898146 -0.035192236 0.40708342 4294901760
0.061819613 -0.035685882 0.40707117 4294901760
0.06174108 -0.036179524 0.40705889 4294901760
0.061662547 -0.036673162 0.40704662 4294901760
0.061584014 -0.037166804 0.40703437 4294901760
0.061505482 -0.037660446 0.40702209 4294901760
0.061426949 -0.038154088 0.40700981 4294901760
0.061348416 -0.03864773 0.40699753 4294901760
0.061269883 -0.039141372 0.40698528 4294901760
0.06119135 -0.039635014 0.406973 4294901760
0.061112814 -0.040128656 0.40696073 4294901760
0.061034281 -0.040622294 0.40694848 4294901760
0.060955748 -0.041115936 0.4069362 4294901760
0.060877215 -0.041609582 0.40692392 4294901760
0.060798682 -0.04210322 0.40691164 4294901760
0.060720149 -0.042596862 0.40689939 4294901760
0.060641617 -0.043090504 0.40688711 4294901760
0.068494931 0.0062736534 0.40811411 4278255360
0.068964608 0.0061951438 0.40826654 4278255360
0.069434285 0.0061166338 0.40841901 4278255360
0.069903955 0.0060381242 0.40857145 4278255360
0.070373632 0.0059596146 0.40872392 4278255360
0.070843309 0.0058811046 0.40887636 4278255360
0.071312979 0.0058025951 0.40902883 4278255360
0.071782656 0.0057240855 0.40918127 4278255360
0.072252333 0.0056455755 0.40933371 4278255360
0.07272201 0.0055670659 0.40948617 4278255360
0.073191687 0.0054885563 0.40963861 4278255360
0.073661357 0.0054100463 0.40979108 4278255360
0.074131034 0.0053315368 0.40994352 4278255360
0.074600711 0.0052530272 0.41009599 4278255360
0.075070381 0.0051745172 0.41024843 4278255360
0.075540058 0.0050960076 0.41040087 4278255360
0.076009735 0.0050174976 0.41055334 4278255360
0.076479413 0.004938988 0.41070578 4278255360
0.07694909 0.0048604785 0.41085824 4278255360
0.077418759 0.0047819689 0.41101068 4278255360
0.077888437 0.0047034589 0.41116315 4278255360
0.078358114 0.0046249493 0.41131559 4278255360
0.078827783 0.0045464393 0.41146803 4278255360
0.079297461 0.0044679297 0.4116205 4278255360
0.079767138 0.0043894202 0.41177294 4278255360
0.080236815 0.0043109106 0.41192541 4278255360
0.080706492 0.004232401 0.41207784 4278255360
0.081176162 0.0041538905 0.41223031 4278255360
0.081645839 0.004075381 0.41238275 4278255360
0.082115516 0.0039968714 0.41253519 4278255360
0.082585193 0.0039183619 0.41268766 4278255360
0.083054863 0.0038398521 0.4128401 4278255360
0.08352454 0.0037613423 0.41299257 4278255360
0.083994217 0.0036828325 0.41314501 4278255360
0.084463894 0.0036043229 0.41329747 4278255360
0.084933564 0.0035258131 0.41344991 4278255360
0.085403241 0.0034473033 0.41360235 4278255360
0.085872918 0.0033687938 0.41375482 4278255360
0.086342588 0.003290284 0.41390726 4278255360
0.086812265 0.0032117744 0.41405973 4278255360
0.087281942 0.0031332646 0.41421217 4278255360
0.08775162 0.0030547548 0.41436464 4278255360
0.088221297 0.0029762452 0.41451707 4278255360
0.088690966 0.0028977355 0.41466951 4278255360
0.089160644 0.0028192257 0.41482198 4278255360
0.089630321 0.0027407161 0.41497442 4278255360
0.09009999 0.0026622061 0.41512689 4278255360
0.090569668 0.0025836965 0.41527933 4278255360
0.091039345 0.0025051869 0.4154318 4278255360
0.091509022 0.0024266769 0.41558424 4278255360
0.091978699 0.0023481674 0.41573668 4278255360
0.092448369 0.0022696578 0.41588914 4278255360
0.092918046 0.0021911482 0.41604158 4278255360
0.093387723 0.0021126382 0.41619405 4278255360
0.0938574 0.0020341282 0.41634649 4278255360
0.09432707 0.0019556186 0.41649896 4278255360
0.094796747 0.0018771091 0.4166514 4278255360
0.095266424 0.0017985995 0.41680384 4278255360
0.095736101 0.0017200899 0.41695631 4278255360
0.096205771 0.0016415799 0.41710874 4278255360
0.096675448 0.0015630699 0.41726121 4278255360
0.097145125 0.0014845603 0.41741365 4278255360
0.097614795 0.0014060508 0.41756612 4278255360
0.098084472 0.0013275412 0.41771856 4278255360
0.098554149 0.0012490312 0.417871 4278255360
0.099023819 0.0011705216 0.41802347 4278255360
0.099493504 0.0010920116 0.41817591 4278255360
0.099963173 0.001013502 0.41832837 4278255360
0.10043285 0.00093499245 0.41848081 4278255360
0.10090253 0.00085648289 0.41863328 4278255360
0.1013722 0.00077797286 0.41878572 4278255360
0.10184187 0.0006994633 0.41893819 4278255360
0.10231155 0.00062095327 0.41909063 4278255360
0.10278123 0.00054244371 0.41924307 4278255360
0.10325091 0.00046393415 0.41939554 4278255360
0.10372058 0.00038542412 0.41954798 4278255360
0.10419025 0.00030691456 0.41970044 4278255360
0.10465993 0.000228405 0.41985288 4278255360
0.1051296 0.00014989544 0.42000535 4278255360
0.10559928 7.138541e-05 0.42015779 4278255360
0.10606895 -7.124152e-06 0.42031023 4278255360
0.10653863 -8.5634179e-05 0.4204627 4278255360
0.10700831 -0.00016414374 0.42061514 4278255360
0.10747798 -0.0002426533 0.42076761 4278255360
0.10794766 -0.00032116286 0.42092004 4278255360
0.10841733 -0.00039967289 0.42107251 4278255360
0.108887 -0.00047818245 0.42122495 4278255360
0.10935669 -0.00055669248 0.42137739 4278255360
0.10982636 -0.00063520204 0.42152986 4278255360
0.11029603 -0.0007137116 0.4216823 4278255360
0.11076571 -0.00079222117 0.42183477 4278255360
0.11123538 -0.00087073119 0.42198721 4278255360
0.11170506 -0.00094924122 0.42213967 4278255360
0.11217473 -0.0010277508 0.42229211 4278255360
0.1126444 -0.0011062603 0.42244455 4278255360
0.11311408 -0.0011847699 0.42259702 4278255360
0.11358376 -0.0012632795 0.42274946 4278255360
0.11405344 -0.0013417895 0.42290193 4278255360
0.11452311 -0.0014202995 0.42305437 4278255360
0.11499278 -0.0014988091 0.42320684 4278255360
0.11546246 -0.0015773186 0.42335927 4278255360
0.068494931 0.0062736534 0.40811411 4278190335
0.06827902 0.0062968074 0.40856448 4278190335
0.06806311 0.0063199615 0.40901488 4278190335
0.0678472 0.0063431161 0.40946525 4278190335
0.067631289 0.0063662701 0.40991566 4278190335
0.067415379 0.0063894242 0.41036603 4278190335
0.067199469 0.0064125783 0.41081643 4278190335
0.066983558 0.0064357324 0.4112668 4278190335
0.066767655 0.0064588869 0.41171718 4278190335
0.066551745 0.006482041 0.41216758 4278190335
0.066335835 0.0065051951 0.41261795 4278190335
0.066119924 0.0065283491 0.41306835 4278190335
0.065904014 0.0065515032 0.41351873 4278190335
0.065688103 0.0065746577 0.4139691 4278190335
0.065472193 0.0065978118 0.4144195 4278190335
0.065256283 0.0066209659 0.41486987 4278190335
0.065040372 0.00664412 0.41532028 4278190335
0.064824462 0.0066672741 0.41577065 4278190335
0.064608552 0.0066904286 0.41622105 4278190335
0.064392641 0.0067135827 0.41667143 4278190335
0.064176731 0.0067367367 0.4171218 4278190335
0.06396082 0.0067598908 0.4175722 4278190335
0.063744918 0.0067830449 0.41802257 4278190335
0.063529007 0.0068061994 0.41847298 4278190335
0.063313097 0.0068293535 0.41892335 4278190335
0.063097186 0.0068525076 0.41937375 4278190335
0.062881276 0.0068756617 0.41982412 4278190335
0.062665366 0.0068988157 0.4202745 4278190335
0.062449455 0.0069219703 0.4207249 4278190335
0.062233545 0.0069451244 0.42117527 4278190335
0.062017635 0.0069682784 0.42162567 4278190335
0.061801724 0.0069914325 0.42207605 4278190335
0.061585814 0.0070145866 0.42252642 4278190335
0.061369903 0.0070377411 0.42297682 4278190335
0.061153997 0.0070608952 0.42342719 4278190335
0.060938086 0.0070840493 0.4238776 4278190335
0.060722176 0.0071072034 0.42432797 4278190335
0.060506266 0.0071303574 0.42477837 4278190335
0.060290355 0.007153512 0.42522874 4278190335
0.060074449 0.0071766661 0.42567912 4278190335
0.059858538 0.0071998201 0.42612952 4278190335
0.059642628 0.0072229742 0.42657989 4278190335
0.059426717 0.0072461283 0.4270303 4278190335
0.059210807 0.0072692828 0.42748067 4278190335
0.058994897 0.0072924369 0.42793107 4278190335
0.058778986 0.007315591 0.42838144 4278190335
0.058563076 0.0073387451 0.42883182 4278190335
0.058347166 0.0073618991 0.42928222 4278190335
0.058131259 0.0073850537 0.42973259 4278190335
0.057915349 0.0074082077 0.43018299 4278190335
0.057699438 0.0074313618 0.43063337 4278190335
0.057483528 0.0074545159 0.43108374 4278190335
0.057267621 0.00747767 0.43153414 4278190335
0.057051711 0.0075008245 0.43198451 4278190335
0.0568358 0.0075239786 0.43243492 4278190335
0.05661989 0.0075471327 0.43288529 4278190335
0.05640398 0.0075702867 0.43333566 4278190335
0.056188069 0.0075934408 0.43378606 4278190335
0.055972159 0.0076165954 0.43423644 4278190335
0.055756249 0.0076397494 0.43468684 4278190335
0.055540338 0.0076629035 0.43513721 4278190335
0.055324428 0.0076860576 0.43558761 4278190335
0.055108521 0.0077092117 0.43603799 4278190335
0.054892611 0.0077323662 0.43648836 4278190335
0.0546767 0.0077555203 0.43693876 4278190335
