# .PCD v0.7 - Point Cloud Data file format
VERSION 0.7
FIELDS x y z rgb
SIZE 4 4 4 4
TYPE F F F U
COUNT 1 1 1 1
WIDTH 781
HEIGHT 1
VIEWPOINT 0 0 0 1 0 0 0
POINTS 781
DATA ascii
-0.001659137 0.0014463563 0.57300001 4287332977
0.00020196805 0.0014463563 0.57300001 4286074432
0.002063073 0.0014463563 0.57300001 4285870375
0.003924178 0.0014463563 0.57300001 4286002733
-0.010830713 0.0032676789 0.56600004 4286947980
-0.0090082316 0.0032734522 0.56700003 4287013259
-0.0071792542 0.0032792254 0.56800002 4287604883
-0.0053437809 0.0032849987 0.56900001 4287727995
-0.003507955 0.0032965455 0.57100004 4285945676
-0.0016562414 0.0033023185 0.57200003 4286790705
0.00020196805 0.0033080918 0.57300001 4287777597
0.002063073 0.0033080918 0.57300001 4286460454
0.0039310264 0.003313865 0.574 4286854442
0.0057953792 0.003313865 0.574 4286789165
0.0076730778 0.0033196385 0.57500005 4286790707
-0.016288061 0.0050886255 0.56400001 4287539092
-0.014456187 0.0050886255 0.56400001 4285756776
-0.012624315 0.0050886255 0.56400001 4286275406
-0.010811578 0.0050976481 0.565 4286932823
-0.0089923441 0.0051066708 0.56600004 4285483326
-0.0071666148 0.005115693 0.56700003 4285809465
-0.0053437809 0.0051337378 0.56900001 4286595131
-0.0035018115 0.0051427605 0.57000005 4286200373
-0.0016562414 0.0051608048 0.57200003 4284821035
0.00020161558 0.0051608048 0.57200003 4284624171
0.002063073 0.005169827 0.57300001 4286067236
0.0039310264 0.0051788497 0.574 4286197534
0.0058054761 0.0051878723 0.57500005 4290276707
0.0076730778 0.0051878723 0.57500005 4286134317
0.0095572704 0.0051968945 0.57600003 4285412140
-0.018119933 0.0069211195 0.56400001 4287211156
-0.016288061 0.0069211195 0.56400001 4284631612
-0.014456187 0.0069211195 0.56400001 4285543724
-0.012624315 0.0069211195 0.56400001 4286526506
-0.010811578 0.0069333906 0.565 4286723885
-0.0089923441 0.0069456627 0.56600004 4287118897
-0.0071666148 0.0069579342 0.56700003 4287513655
-0.0053343894 0.0069702053 0.56800002 4287853153
-0.0035018115 0.006994749 0.57000005 4287862656
-0.0016533459 0.0070070201 0.57100004 4287011717
0.00020161558 0.0070192916 0.57200003 4287274889
0.002063073 0.0070315627 0.57300001 4287594092
0.0039310264 0.0070438343 0.574 4285346599
0.0058054761 0.0070561063 0.57500005 4286263336
0.0076864217 0.0070683775 0.57600003 4287381817
0.0095572704 0.0070683775 0.57600003 4286857270
-0.018119933 0.0087536136 0.56400001 4285629812
-0.016288061 0.0087536136 0.56400001 4285479217
-0.014456187 0.0087536136 0.56400001 4285870375
-0.012624315 0.0087536136 0.56400001 4286393637
-0.010792442 0.0087536136 0.56400001 4286853672
-0.0089764558 0.0087691331 0.565 4287380786
-0.0071539758 0.0087846546 0.56600004 4287117614
-0.0053343894 0.0088156955 0.56800002 4285613113
-0.0034956678 0.008831216 0.56900001 4287994244
-0.0016533459 0.0088622579 0.57100004 4286815619
0.00020161558 0.0088777784 0.57200003 4287472266
0.0020666735 0.0089088185 0.574 4289501062
0.0039378749 0.0089243399 0.57500005 4286070322
0.0058054761 0.0089243399 0.57500005 4285803557
0.0076864217 0.0089398604 0.57600003 4285869350
0.0095738629 0.0089553809 0.57700002 4286134317
-0.01815206 0.010604876 0.565 4281745197
-0.016288061 0.010586107 0.56400001 4285149480
-0.014456187 0.010586107 0.56400001 4285279521
-0.012601932 0.010567337 0.56300002 4285803807
-0.010792442 0.010586107 0.56400001 4286131489
-0.0089605683 0.010586107 0.56400001 4286130717
-0.0071539758 0.010623647 0.56600004 4289947996
-0.0053249979 0.010642417 0.56700003 4286461487
-0.0034956678 0.010679956 0.56900001 4288833890
-0.0016533459 0.010717495 0.57100004 4285546545
0.00020196805 0.010755034 0.57300001 4285741869
0.0020666735 0.010773804 0.574 4285805352
0.0039378749 0.010792574 0.57500005 4285805350
0.0058155726 0.010811344 0.57600003 4285936168
0.0076997662 0.010830113 0.57700002 4285476902
0.0095738629 0.010830113 0.57700002 4283705886
-0.020199437 0.012572732 0.57100004 4287735438
-0.018184189 0.012462638 0.56600004 4282201635
-0.016316939 0.012440618 0.565 4285018918
-0.014456187 0.0124186 0.56400001 4285215011
-0.012624315 0.0124186 0.56400001 4285146650
-0.010792442 0.0124186 0.56400001 4285540635
-0.0089605683 0.0124186 0.56400001 4285670936
-0.0071539758 0.012462638 0.56600004 4286393889
-0.0053249979 0.012484657 0.56700003 4286789419
-0.0034956678 0.012528694 0.56900001 4286592299
-0.0016533459 0.012572732 0.57100004 4286594350
0.00020196805 0.012616769 0.57300001 4284950554
0.0020666735 0.012638788 0.574 4283833874
0.0039447234 0.012682826 0.57600003 4285678644
0.0058256686 0.012704845 0.57700002 4283769364
0.0077131107 0.012726863 0.57800001 4284492320
0.0095904544 0.012726863 0.57800001 4284558628
0.011507482 0.012770901 0.58000004 4289765265
-0.020164061 0.014402702 0.57000005 4288060805
-0.018216316 0.014326897 0.56700003 4283446823
-0.016316939 0.014276361 0.565 4284952101
-0.014456187 0.014251093 0.56400001 4284491290
-0.012624315 0.014251093 0.56400001 4284754460
-0.010792442 0.014251093 0.56400001 4284227601
-0.0089764558 0.014276361 0.565 4285540892
-0.0071539758 0.01430163 0.56600004 4285540635
-0.0053343894 0.014352165 0.56800002 4285803807
-0.0035018115 0.014402702 0.57000005 4285937190
-0.0016562414 0.014453237 0.57200003 4283965460
0.00020232052 0.014503772 0.574 4283834390
0.002070274 0.014529041 0.57500005 4283638294
0.0039515719 0.014579576 0.57700002 4283376151
0.005835765 0.014604844 0.57800001 4283245594
0.0077131107 0.014604844 0.57800001 4283441944
0.0096070478 0.014630113 0.57900006 4285216043
0.011507482 0.014655381 0.58000004 4285612086
-0.020128684 0.016226172 0.56900001 4283188014
-0.018184189 0.016140623 0.56600004 4284364329
-0.016316939 0.016112104 0.565 4285740842
-0.014456187 0.016083587 0.56400001 4284030737
-0.012624315 0.016083587 0.56400001 4283703571
-0.010792442 0.016083587 0.56400001 4283900435
-0.0089764558 0.016112104 0.565 4284623388
-0.0071666148 0.016169138 0.56700003 4284951839
-0.0053343894 0.016197655 0.56800002 4285876023
-0.0035018115 0.016254691 0.57000005 4284165665
-0.0016562414 0.016311724 0.57200003 4284164122
0.00020232052 0.016368758 0.574 4284229402
0.0020738745 0.016425792 0.57600003 4283572501
0.0039515719 0.016454309 0.57700002 4289500296
0.005835765 0.016482826 0.57800001 4287466108
0.0077264556 0.016511343 0.57900006 4282786590
0.0096236402 0.016539861 0.58000004 4283441430
0.011527322 0.016568378 0.58100003 4285150763
0.013414412 0.016568378 0.58100003 4287200619
-0.020093309 0.018043146 0.56800002 4283512868
-0.018184189 0.017979614 0.56600004 4284756775
-0.016316939 0.017947847 0.565 4285806633
-0.014456187 0.017916081 0.56400001 4284625693
-0.012624315 0.017916081 0.56400001 4283052571
-0.010811578 0.017947847 0.565 4283642401
-0.0089923441 0.017979614 0.56600004 4283899665
-0.0071666148 0.01801138 0.56700003 4284689951
-0.0053437809 0.018074913 0.56900001 4283378202
-0.003507955 0.018138446 0.57100004 4283772708
-0.001659137 0.018201977 0.57300001 4283114780
0.00020267301 0.01826551 0.57500005 4283376669
0.002077475 0.018329041 0.57700002 4282458908
0.0039584204 0.018360807 0.57800001 4288258963
0.005845862 0.018392574 0.57900006 4287472529
0.0077398 0.01842434 0.58000004 4281807910
0.0096402327 0.018456105 0.58100003 4283506969
0.011527322 0.018456105 0.58100003 4284362017
0.013437499 0.018487873 0.58200002 4285740844
0.015354172 0.018519638 0.583 4287651928
-0.020057933 0.019853622 0.56700003 4284232482
-0.01815206 0.01978359 0.565 4284952353
-0.016316939 0.01978359 0.565 4284624156
-0.014456187 0.019748574 0.56400001 4282589451
-0.012624315 0.019748574 0.56400001 4282067221
-0.010811578 0.01978359 0.565 4283183135
-0.0089923441 0.019818606 0.56600004 4285082912
-0.0071792542 0.019888636 0.56800002 4286400569
-0.0053531728 0.019958667 0.57000005 4284433718
-0.0035140985 0.020028697 0.57200003 4280686349
-0.0016620324 0.020098727 0.574 4282598457
0.00020302548 0.020168759 0.57600003 4281480233
0.002077475 0.020203773 0.57700002 4280100120
0.0039652688 0.020273805 0.57900006 4287668627
0.0058559584 0.020308819 0.58000004 4286882191
0.007753144 0.020343835 0.58100003 4286945672
0.0096402327 0.020343835 0.58100003 4282455567
0.011547162 0.020378849 0.58200002 4283967261
0.013437499 0.020378849 0.58200002 4286265135
0.015354172 0.020413864 0.583 4286789682
0.017277343 0.02044888 0.58400005 4285284668
-0.020022558 0.021657597 0.56600004 4284887843
-0.01815206 0.021619331 0.565 4285609254
-0.016288061 0.021581069 0.56400001 4283179022
-0.014456187 0.021581069 0.56400001 4281539591
-0.012624315 0.021581069 0.56400001 4282788377
-0.010811578 0.021619331 0.565 4284494116
-0.0089923441 0.021657597 0.56600004 4285872430
-0.0071792542 0.021734126 0.56800002 4286007609
-0.0053531728 0.021810656 0.57000005 4280095755
-0.0035140985 0.021887183 0.57200003 4279899663
-0.0016620324 0.02196371 0.574 4278785293
0.00020302548 0.02204024 0.57600003 4279443223
0.0020810755 0.022116769 0.57800001 4279837211
0.0039652688 0.022155035 0.57900006 4285496690
0.0058559584 0.022193298 0.58000004 4287145363
0.007753144 0.022231562 0.58100003 4288132256
0.0096568251 0.022269826 0.58200002 4282260500
0.011547162 0.022269826 0.58200002 4283376151
0.013460588 0.022308089 0.583 4285607973
0.015354172 0.022308089 0.583 4292053890
0.017277343 0.022346355 0.58400005 4286003510
0.019174177 0.022346355 0.58400005 4289564293
-0.021860929 0.023496589 0.56600004 4282858783
-0.019987181 0.023455074 0.565 4285279519
-0.018087806 0.023372049 0.56300002 4286068004
-0.016259182 0.023372049 0.56300002 4282457865
-0.014430556 0.023372049 0.56300002 4283843884
-0.012624315 0.023413561 0.56400001 4283905059
-0.010811578 0.023455074 0.565 4284952355
-0.0089923441 0.023496589 0.56600004 4284757029
-0.0071792542 0.023579616 0.56800002 4281670927
-0.0053531728 0.023662644 0.57000005 4279505934
-0.0035140985 0.023745669 0.57200003 4286089079
-0.0016620324 0.023828695 0.574 4282801226
0.00020302548 0.023911724 0.57600003 4283984989
0.0020810755 0.023994749 0.57800001 4281810999
0.0039721173 0.024077777 0.58000004 4280035871
0.0058660549 0.02411929 0.58100003 4287014545
0.0077664885 0.024160802 0.58200002 4287672473
0.0096568251 0.024160802 0.58200002 4282195988
0.011567002 0.024202315 0.583 4283638809
0.013460588 0.024202315 0.583 4285146650
0.01538051 0.024243832 0.58400005 4285606431
0.017277343 0.024243832 0.58400005 4286856245
0.01920701 0.024285344 0.58500004 4285480248
-0.02178368 0.025246054 0.56400001 4284103974
-0.019916432 0.025201293 0.56300002 4285674018
-0.018055679 0.025156531 0.56200004 4285476639
-0.016230302 0.025156531 0.56200004 4281341184
-0.014404926 0.025156531 0.56200004 4282329877
-0.012601932 0.025201293 0.56300002 4283705368
-0.010792442 0.025246054 0.56400001 4284952353
-0.0089923441 0.02533558 0.56600004 4283640858
-0.0071792542 0.025425104 0.56800002 4283517493
-0.0053531728 0.025514631 0.57000005 4282404160
-0.0035140985 0.025604155 0.57200003 4283327059
-0.0016620324 0.025693679 0.574 4286158202
0.00020337795 0.025827968 0.57700002 4281483054
0.0020846759 0.025917495 0.57900006 4281549364
0.0039721173 0.025962256 0.58000004 4279575834
0.0058660549 0.026007017 0.58100003 4286948754
0.0077664885 0.02605178 0.58200002 4287803291
0.0096734175 0.026096541 0.583 4282130195
0.011567002 0.026096541 0.583 4284163357
0.013483677 0.026141306 0.58400005 4285476387
0.01538051 0.026141306 0.58400005 4285344799
0.017277343 0.026141306 0.58400005 4286200371
0.01920701 0.026186068 0.58500004 4287722600
-0.023615554 0.02707855 0.56400001 4283382047
-0.021706434 0.026982527 0.56200004 4284888611
-0.019845681 0.026934518 0.56100005 4285869600
-0.018023552 0.026934518 0.56100005 4285014548
-0.016201423 0.026934518 0.56100005 4281534720
-0.014404926 0.026982527 0.56200004 4282985241
-0.012601932 0.027030539 0.56300002 4284164122
-0.010792442 0.02707855 0.56400001 4285411107
-0.0089923441 0.027174575 0.56600004 4283510049
-0.0071792542 0.027270596 0.56800002 4281017624
-0.0053531728 0.027366621 0.57000005 4280758311
-0.0035140985 0.027462643 0.57200003 4281482806
-0.001664928 0.027606679 0.57500005 4285758050
0.00020337795 0.0277027 0.57700002 4285690964
0.0020846759 0.027798725 0.57900006 4281218851
0.0039789658 0.027894748 0.58100003 4280167709
0.0058761509 0.02794276 0.58200002 4287540121
0.0077798329 0.02799077 0.583 4288000156
0.0096734175 0.02799077 0.583 4282786328
0.011586844 0.028038785 0.58400005 4284294171
0.013483677 0.028038785 0.58400005 4285542180
0.01538051 0.028038785 0.58400005 4285543463
0.017277343 0.028038785 0.58400005 4283514676
-0.023531811 0.028808523 0.56200004 4284956203
-0.02166781 0.028757263 0.56100005 4285739557
-0.019810304 0.028705999 0.56 4286722084
-0.017991424 0.028705999 0.56 4286787874
-0.016172543 0.028705999 0.56 4287117096
-0.014379294 0.028757263 0.56100005 4286526758
-0.012579549 0.028808523 0.56200004 4285869603
-0.010792442 0.028911043 0.56400001 4285804580
-0.0089923441 0.029013567 0.56600004 4281667845
-0.0071792542 0.029116087 0.56800002 4281017624
-0.0053531728 0.029218609 0.57000005 4280494880
-0.0035140985 0.02932113 0.57200003 4281612591
-0.001664928 0.029474912 0.57500005 4281151511
0.00020337795 0.029577432 0.57700002 4282729766
0.0020846759 0.029679956 0.57900006 4282007081
0.0039789658 0.029782476 0.58100003 4280429598
0.0058761509 0.029833736 0.58200002 4286947216
0.0077798329 0.029884996 0.583 4288460194
0.00969001 0.02993626 0.58400005 4283902495
0.011586844 0.02993626 0.58400005 4285016351
0.013483677 0.02993626 0.58400005 4285017634
0.01538051 0.02993626 0.58400005 4288973435
-0.023489941 0.030580008 0.56100005 4285084709
-0.021629186 0.030525496 0.56 4285869346
-0.019774929 0.030470988 0.55900002 4286787620
-0.017959295 0.030470988 0.55900002 4286984483
-0.016172543 0.030525496 0.56 4288893255
-0.014379294 0.030580008 0.56100005 4286264104
-0.012579549 0.030634519 0.56200004 4287446577
-0.010792442 0.030743536 0.56400001 4286132002
-0.0089923441 0.030852558 0.56600004 4281734406
-0.0071792542 0.030961575 0.56800002 4280951831
-0.0053531728 0.031070597 0.57000005 4280033305
-0.0035140985 0.031179616 0.57200003 4283324490
-0.001664928 0.031343147 0.57500005 4283521086
0.00020337795 0.031452164 0.57700002 4282665002
0.0020846759 0.031561185 0.57900006 4281941034
0.0039789658 0.031670205 0.58100003 4284575588
0.0058761509 0.031724714 0.58200002 4287343510
0.0077798329 0.031779222 0.583 4287735186
0.00969001 0.031833734 0.58400005 4284623138
0.011586844 0.031833734 0.58400005 4285476387
0.013483677 0.031833734 0.58400005 4284100642
-0.023448067 0.032344993 0.56 4284820767
-0.021590563 0.032287236 0.55900002 4285475615
-0.019774929 0.032287236 0.55900002 4285407764
-0.017959295 0.032287236 0.55900002 4286392862
-0.016172543 0.032344993 0.56 4286656034
-0.014379294 0.032402754 0.56100005 4291790200
-0.012579549 0.032460514 0.56200004 4286657831
-0.010792442 0.032576028 0.56400001 4285999903
-0.0089923441 0.03269155 0.56600004 4281997328
-0.0071792542 0.032807067 0.56800002 4280358931
-0.0053531728 0.032922585 0.57000005 4280428317
-0.0035202419 0.033095859 0.57300001 4280625694
-0.001664928 0.03321138 0.57500005 4282336562
0.00020337795 0.033326894 0.57700002 4282336816
0.0020882764 0.033500172 0.58000004 4282007599
0.0039789658 0.033557933 0.58100003 4288523420
0.0058761509 0.03361569 0.58200002 4287211154
0.0077798329 0.033673447 0.583 4284310870
0.00969001 0.033731211 0.58400005 4285542441
0.011586844 0.033731211 0.58400005 4285870377
0.013483677 0.033731211 0.58400005 4286210642
-0.027182564 0.034286506 0.56200004 4281085975
-0.023448067 0.034164488 0.56 4283836954
-0.021629186 0.034164488 0.56 4284689181
-0.019774929 0.034103483 0.55900002 4284883478
-0.017959295 0.034103483 0.55900002 4285803553
-0.016172543 0.034164488 0.56 4286262305
-0.014379294 0.034225501 0.56100005 4286919465
-0.012579549 0.034286506 0.56200004 4287709749
-0.010792442 0.034408521 0.56400001 4285672221
-0.0089923441 0.034530539 0.56600004 4287138424
-0.0071792542 0.034652553 0.56800002 4279442451
-0.0053531728 0.034774572 0.57000005 4279639066
-0.0035202419 0.034957595 0.57300001 4279638547
-0.001664928 0.035079613 0.57500005 4280165395
0.00020373042 0.035262633 0.57800001 4280625946
0.0020882764 0.035384651 0.58000004 4282000410
0.0039789658 0.03544566 0.58100003 4288582790
0.0058862474 0.035567675 0.583 4288785561
0.0077798329 0.035567675 0.583 4283316524
0.00969001 0.035628684 0.58400005 4285870375
0.011586844 0.035628684 0.58400005 4286133547
0.013483677 0.035628684 0.58400005 4289309077
-0.027182564 0.036112506 0.56200004 4283850832
-0.025357187 0.036112506 0.56200004 4283850321
-0.023489941 0.036048248 0.56100005 4283838501
-0.021629186 0.035983987 0.56 4283902493
-0.019810304 0.035983987 0.56 4284359964
-0.017991424 0.035983987 0.56 4284688156
-0.016172543 0.035983987 0.56 4285410076
-0.014379294 0.036048248 0.56100005 4285869600
-0.012579549 0.036112506 0.56200004 4286460967
-0.010792442 0.036241017 0.56400001 4286530871
-0.0089923441 0.036369536 0.56600004 4287799949
-0.0071792542 0.036498047 0.56800002 4283260494
-0.0053625642 0.03669082 0.57100004 4279640353
-0.0035202419 0.036819331 0.57300001 4282666310
-0.0016678235 0.037012104 0.57600003 4281019684
0.00020373042 0.037140619 0.57800001 4280949269
0.0020882764 0.037269134 0.58000004 4285939250
0.0039789658 0.037333392 0.58100003 4285478183
0.0058862474 0.037461903 0.583 4288638814
0.0077798329 0.037461903 0.583 4286133545
0.00969001 0.037526164 0.58400005 4286394920
0.011586844 0.037526164 0.58400005 4285476389
-0.025402306 0.038006004 0.56300002 4288196252
-0.023489941 0.037870996 0.56100005 4284037942
-0.02166781 0.037870996 0.56100005 4284035112
-0.019810304 0.037803486 0.56 4283968288
-0.017991424 0.037803486 0.56 4284493603
-0.016201423 0.037870996 0.56100005 4284755746
-0.014379294 0.037870996 0.56100005 4284821537
-0.012601932 0.038006004 0.56300002 4285280804
-0.010792442 0.03807351 0.56400001 4284359964
-0.0089923441 0.038208526 0.56600004 4288128401
-0.0071792542 0.038343538 0.56800002 4287604883
-0.0053625642 0.038546056 0.57100004 4287078289
-0.0035202419 0.038681068 0.57300001 4282471245
-0.0016678235 0.038883585 0.57600003 4282132775
0.00020373042 0.039018597 0.57800001 4285546818
0.0020882764 0.039153613 0.58000004 4286594350
0.0039789658 0.039221119 0.58100003 4287977286
0.0058761509 0.039288625 0.58200002 4286066209
0.0077798329 0.039356127 0.583 4286985258
0.00969001 0.039423637 0.58400005 4286658092
0.011586844 0.039423637 0.58400005 4288244319
-0.025402306 0.039835248 0.56300002 4287605914
-0.023531811 0.039764494 0.56200004 4287534727
-0.02166781 0.039693739 0.56100005 4283513651
-0.019845681 0.039693739 0.56100005 4284825911
-0.018023552 0.039693739 0.56100005 4284166696
-0.016201423 0.039693739 0.56100005 4283709227
-0.014404926 0.039764494 0.56200004 4287398770
-0.012601932 0.039835248 0.56300002 4283509799
-0.010811578 0.039976757 0.565 4284099110
-0.0089923441 0.040047519 0.56600004 4289178266
-0.0071918936 0.040259782 0.56900001 4287407504
-0.0053625642 0.040401295 0.57100004 4287473812
-0.0035202419 0.040542804 0.57300001 4287934363
-0.0016678235 0.040755071 0.57600003 4284374098
0.00020373042 0.04089658 0.57800001 4283509034
0.0020882764 0.041038092 0.58000004 4286861635
0.0039789658 0.041108847 0.58100003 4290281838
0.0058761509 0.041179601 0.58200002 4286722086
0.0077798329 0.041250356 0.583 4286393637
0.0096734175 0.041250356 0.583 4288304982
0.011586844 0.041321114 0.58400005 4291075733
-0.025447425 0.041738499 0.56400001 4287540121
-0.023531811 0.041590489 0.56200004 4287539607
-0.021706434 0.041590489 0.56200004 4284838501
-0.019881057 0.041590489 0.56200004 4284235058
-0.018055679 0.041590489 0.56200004 4282852121
-0.016230302 0.041590489 0.56200004 4288849047
-0.014430556 0.041664492 0.56300002 4287472527
-0.012624315 0.041738499 0.56400001 4286810234
-0.010811578 0.041812502 0.565 4283972919
-0.0090082316 0.041960511 0.56700003 4285223751
-0.0071918936 0.042108521 0.56900001 4287997328
-0.0053625642 0.04225653 0.57100004 4287211154
-0.0035202419 0.042404536 0.57300001 4287474326
-0.0016678235 0.042626552 0.57600003 4287998871
0.00020373042 0.042774558 0.57800001 4283715653
0.0020846759 0.042848568 0.57900006 4286923831
0.0039789658 0.042996574 0.58100003 4287248428
0.0058761509 0.043070577 0.58200002 4286327844
0.0077664885 0.043070577 0.58200002 4293042593
0.0096734175 0.04314458 0.583 4286068785
0.011567002 0.04314458 0.583 4285739820
-0.023531811 0.043416485 0.56200004 4287474074
-0.021706434 0.043416485 0.56200004 4287934111
-0.019881057 0.043416485 0.56200004 4283184432
-0.018055679 0.043416485 0.56200004 4284299315
-0.016259182 0.043493737 0.56300002 4286672742
-0.014430556 0.043493737 0.56300002 4287931795
-0.012624315 0.043570992 0.56400001 4287604883
-0.010811578 0.043648243 0.565 4283389768
-0.0090082316 0.043802753 0.56700003 4284429872
-0.0071918936 0.04395726 0.56900001 4289366144
-0.0053625642 0.044111766 0.57100004 4288720020
-0.0035202419 0.044266272 0.57300001 4288851352
-0.001664928 0.044420782 0.57500005 4289172099
0.00020337795 0.044575289 0.57700002 4285677107
0.0020846759 0.044729795 0.57900006 4287181608
0.0039721173 0.04480705 0.58000004 4287576107
0.0058660549 0.044884302 0.58100003 4287247401
0.0077664885 0.044961553 0.58200002 4287116590
0.0096734175 0.045038808 0.583 4287775290
0.011567002 0.045038808 0.583 4286526508
-0.021706434 0.045242481 0.56200004 4287343258
-0.019916432 0.045322981 0.56300002 4288521624
-0.018087806 0.045322981 0.56300002 4283381041
-0.016259182 0.045322981 0.56300002 4284495665
-0.014456187 0.045403484 0.56400001 4289174927
-0.012646698 0.045483984 0.565 4287276431
-0.010830713 0.045564491 0.56600004 4287934361
-0.0090082316 0.045644995 0.56700003 4283118891
-0.0071918936 0.045805998 0.56900001 4285413683
-0.0053625642 0.045967005 0.57100004 4286596153
-0.0035202419 0.046128009 0.57300001 4285936168
-0.001664928 0.046289016 0.57500005 4287248176
0.00020337795 0.046450019 0.57700002 4287510573
0.0020810755 0.046530519 0.57800001 4287707691
0.0039721173 0.046691529 0.58000004 4287378726
0.0058660549 0.046772029 0.58100003 4286722084
0.0077664885 0.046852533 0.58200002 4286262305
0.0096568251 0.046852533 0.58200002 4286657833
0.011567002 0.046933033 0.583 4285213217
-0.021706434 0.047068477 0.56200004 4287343258
-0.019951807 0.047235977 0.56400001 4288197022
-0.018119933 0.047235977 0.56400001 4282465588
-0.016288061 0.047235977 0.56400001 4284824628
-0.014481818 0.047319729 0.565 4284034599
-0.012646698 0.047319729 0.565 4288652438
-0.010830713 0.047403485 0.56600004 4288522135
-0.0090082316 0.047487233 0.56700003 4285811523
-0.0071918936 0.047654737 0.56900001 4285477933
-0.0053625642 0.047822241 0.57100004 4287316796
-0.0035202419 0.047989741 0.57300001 4287314739
-0.001664928 0.048157249 0.57500005 4287906103
0.00020302548 0.048241001 0.57600003 4287116842
0.0020810755 0.048408501 0.57800001 4286986796
0.0039652688 0.048492257 0.57900006 4286265385
0.0058559584 0.048576009 0.58000004 4285017632
0.007753144 0.048659757 0.58100003 4285938736
0.0096568251 0.048743509 0.58200002 4285281838
0.011567002 0.048827261 0.583 4286540129
-0.019951807 0.04906847 0.56400001 4287408535
-0.01815206 0.04915547 0.565 4287602320
-0.016316939 0.04915547 0.565 4284431155
-0.014481818 0.04915547 0.565 4284823345
-0.012669083 0.049242474 0.56600004 4284558378
-0.010849848 0.049329475 0.56700003 4284492331
-0.009024119 0.049416475 0.56800002 4285935918
-0.0071918936 0.049503475 0.56900001 4286394670
-0.0053625642 0.04967748 0.57100004 4291067770
-0.0035140985 0.049764477 0.57200003 4286526506
-0.0016620324 0.049938478 0.574 4287056702
0.00020302548 0.050112482 0.57600003 4284296226
0.002077475 0.050199483 0.57700002 4284362796
0.0039652688 0.050373487 0.57900006 4284365108
0.0058559584 0.050460488 0.58000004 4284103733
0.007753144 0.050547484 0.58100003 4284105018
0.0096568251 0.050634485 0.58200002 4286811771
-0.021860929 0.051081471 0.56600004 4287277465
-0.019987181 0.050991215 0.565 4287343258
-0.018184189 0.051081471 0.56600004 4288263330
-0.016345821 0.051081471 0.56600004 4283841333
-0.014507451 0.051081471 0.56600004 4284627249
-0.012691466 0.05117172 0.56700003 4284558374
-0.010849848 0.05117172 0.56700003 4284622884
-0.009024119 0.051261969 0.56800002 4285475365
-0.0071918936 0.051352218 0.56900001 4286395951
-0.0053625642 0.051532719 0.57100004 4286461487
-0.0035140985 0.051622968 0.57200003 4286527535
-0.0016620324 0.051803466 0.574 4284564284
0.00020302548 0.051983967 0.57600003 4287465856
0.002077475 0.052074216 0.57700002 4288261532
0.0039584204 0.052164465 0.57800001 4288197022
0.0058559584 0.05234497 0.58000004 4288262043
0.007753144 0.052435219 0.58100003 4287801492
-0.020022558 0.052920461 0.56600004 4287343258
-0.018184189 0.052920461 0.56600004 4287342488
-0.016345821 0.052920461 0.56600004 4283516991
-0.014533083 0.053013958 0.56700003 4284103222
-0.012691466 0.053013958 0.56700003 4284429359
-0.010868984 0.053107459 0.56800002 4284428073
-0.0090400064 0.053200956 0.56900001 4284623906
-0.007204534 0.053294457 0.57000005 4285412652
-0.0053625642 0.053387959 0.57100004 4286004275
-0.0035140985 0.053481456 0.57200003 4285480246
-0.001659137 0.053574953 0.57300001 4287734418
0.00020267301 0.053761955 0.57500005 4287407508
0.0020738745 0.053855453 0.57600003 4287145363
0.0039584204 0.054042447 0.57800001 4287474328
0.005845862 0.054135952 0.57900006 4287474328
-0.020022558 0.054759454 0.56600004 4287474844
-0.018216316 0.0548562 0.56700003 4287343258
-0.0163747 0.0548562 0.56700003 4288392350
-0.014533083 0.0548562 0.56700003 4282794553
-0.01271385 0.054952946 0.56800002 4283972665
-0.010868984 0.054952946 0.56800002 4284103222
-0.0090400064 0.055049695 0.56900001 4284694327
-0.007204534 0.055146448 0.57000005 4284365362
-0.0053625642 0.055243194 0.57100004 4284240200
-0.0035140985 0.05533994 0.57200003 4288325530
-0.001659137 0.055436686 0.57300001 4287473560
0.00020232052 0.055533435 0.574 4287341974
0.002070274 0.055630188 0.57500005 4287474074
0.0039515719 0.05582368 0.57700002 4287605660
-0.018216316 0.056698442 0.56700003 4287474844
-0.0163747 0.056698442 0.56700003 4287540121
-0.014558714 0.056798436 0.56800002 4287802777
-0.01271385 0.056798436 0.56800002 4287932569
-0.010868984 0.056798436 0.56800002 4288063383
-0.0090400064 0.056898434 0.56900001 4288457625
-0.007204534 0.056998435 0.57000005 4288523934
-0.0053625642 0.05709843 0.57100004 4287408533
-0.0035140985 0.057198428 0.57200003 4287408535
-0.001659137 0.057298422 0.57300001 4287540121
0.00020232052 0.05739842 0.574 4287210902
0.002070274 0.057498422 0.57500005 4287539867
-0.01640358 0.058643926 0.56800002 4287408281
-0.014558714 0.058643926 0.56800002 4287474328
-0.01271385 0.058643926 0.56800002 4287474328
-0.010888119 0.058747172 0.56900001 4287474328
-0.0090400064 0.058747172 0.56900001 4287408535
-0.007204534 0.058850423 0.57000005 4287408535
-0.0053625642 0.058953669 0.57100004 4287342742
-0.0035140985 0.059056912 0.57200003 4287211926
-0.0016562414 0.059056912 0.57200003 4287343512
-0.0022057891 0.031518798 0.5718686 4294967295
-0.0022057891 0.031518798 0.5718686 4294901760
-0.0022057891 0.031518798 0.57236862 4294901760
-0.0022057891 0.031518798 0.57286859 4294901760
-0.0022057891 0.031518798 0.57336861 4294901760
-0.0022057891 0.031518798 0.57386857 4294901760
-0.0022057891 0.031518798 0.5743686 4294901760
-0.0022057891 0.031518798 0.57486862 4294901760
-0.0022057891 0.031518798 0.57536858 4294901760
-0.0022057891 0.031518798 0.57586861 4294901760
-0.0022057891 0.031518798 0.57636857 4294901760
-0.0022057891 0.031518798 0.57686859 4294901760
-0.0022057891 0.031518798 0.57736862 4294901760
-0.0022057891 0.031518798 0.57786858 4294901760
-0.0022057891 0.031518798 0.5783686 4294901760
-0.0022057891 0.031518798 0.57886863 4294901760
-0.0022057891 0.031518798 0.57936859 4294901760
-0.0022057891 0.031518798 0.57986861 4294901760
-0.0022057891 0.031518798 0.58036858 4294901760
-0.0022057891 0.031518798 0.5808686 4294901760
-0.0022057891 0.031518798 0.58136863 4294901760
-0.0022057891 0.031518798 0.58186859 4294901760
-0.0022057891 0.031518798 0.58236861 4294901760
-0.0022057891 0.031518798 0.58286858 4294901760
-0.0022057891 0.031518798 0.5833686 4294901760
-0.0022057891 0.031518798 0.58386862 4294901760
-0.0022057891 0.031518798 0.58436859 4294901760
-0.0022057891 0.031518798 0.58486861 4294901760
-0.0022057891 0.031518798 0.58536857 4294901760
-0.0022057891 0.031518798 0.5858686 4294901760
-0.0022057891 0.031518798 0.58636862 4294901760
-0.0022057891 0.031518798 0.58686858 4294901760
-0.0022057891 0.031518798 0.58736861 4294901760
-0.0022057891 0.031518798 0.58786857 4294901760
-0.0022057891 0.031518798 0.58836859 4294901760
-0.0022057891 0.031518798 0.58886862 4294901760
-0.0022057891 0.031518798 0.58936858 4294901760
-0.0022057891 0.031518798 0.58986861 4294901760
-0.0022057891 0.031518798 0.59036863 4294901760
-0.0022057891 0.031518798 0.59086859 4294901760
-0.0022057891 0.031518798 0.59136862 4294901760
-0.0022057891 0.031518798 0.59186858 4294901760
-0.0022057891 0.031518798 0.5923686 4294901760
-0.0022057891 0.031518798 0.59286863 4294901760
-0.0022057891 0.031518798 0.59336859 4294901760
-0.0022057891 0.031518798 0.59386861 4294901760
-0.0022057891 0.031518798 0.59436858 4294901760
-0.0022057891 0.031518798 0.5948686 4294901760
-0.0022057891 0.031518798 0.59536862 4294901760
-0.0022057891 0.031518798 0.59586859 4294901760
-0.0022057891 0.031518798 0.59636861 4294901760
-0.0022057891 0.031518798 0.59686863 4294901760
-0.0022057891 0.031518798 0.5973686 4294901760
-0.0022057891 0.031518798 0.59786862 4294901760
-0.0022057891 0.031518798 0.59836859 4294901760
-0.0022057891 0.031518798 0.59886861 4294901760
-0.0022057891 0.031518798 0.59936863 4294901760
-0.0022057891 0.031518798 0.5998686 4294901760
-0.0022057891 0.031518798 0.60036862 4294901760
-0.0022057891 0.031518798 0.60086858 4294901760
-0.0022057891 0.031518798 0.60136861 4294901760
-0.0022057891 0.031518798 0.60186863 4294901760
-0.0022057891 0.031518798 0.60236859 4294901760
-0.0022057891 0.031518798 0.60286862 4294901760
-0.0022057891 0.031518798 0.60336858 4294901760
-0.0022057891 0.031518798 0.6038686 4294901760
-0.0022057891 0.031518798 0.60436863 4294901760
-0.0022057891 0.031518798 0.60486859 4294901760
-0.0022057891 0.031518798 0.60536861 4294901760
-0.0022057891 0.031518798 0.60586858 4294901760
-0.0022057891 0.031518798 0.6063686 4294901760
-0.0022057891 0.031518798 0.60686862 4294901760
-0.0022057891 0.031518798 0.60736859 4294901760
-0.0022057891 0.031518798 0.60786861 4294901760
-0.0022057891 0.031518798 0.60836864 4294901760
-0.0022057891 0.031518798 0.6088686 4294901760
-0.0022057891 0.031518798 0.60936862 4294901760
-0.0022057891 0.031518798 0.60986859 4294901760
-0.0022057891 0.031518798 0.61036861 4294901760
-0.0022057891 0.031518798 0.61086863 4294901760
-0.0022057891 0.031518798 0.6113686 4294901760
-0.0022057891 0.031518798 0.61186862 4294901760
-0.0022057891 0.031518798 0.61236858 4294901760
-0.0022057891 0.031518798 0.61286861 4294901760
-0.0022057891 0.031518798 0.61336863 4294901760
-0.0022057891 0.031518798 0.61386859 4294901760
-0.0022057891 0.031518798 0.61436862 4294901760
-0.0022057891 0.031518798 0.61486864 4294901760
-0.0022057891 0.031518798 0.6153686 4294901760
-0.0022057891 0.031518798 0.61586863 4294901760
-0.0022057891 0.031518798 0.61636859 4294901760
-0.0022057891 0.031518798 0.61686862 4294901760
-0.0022057891 0.031518798 0.61736864 4294901760
-0.0022057891 0.031518798 0.6178686 4294901760
-0.0022057891 0.031518798 0.61836863 4294901760
-0.0022057891 0.031518798 0.61886859 4294901760
-0.0022057891 0.031518798 0.61936861 4294901760
-0.0022057891 0.031518798 0.61986864 4294901760
-0.0022057891 0.031518798 0.6203686 4294901760
-0.0022057891 0.031518798 0.62086862 4294901760
-0.0022057891 0.031518798 0.62136859 4294901760
-0.0022057891 0.031518798 0.62186861 4294901760
-0.0022057891 0.031518798 0.5718686 4278255360
-0.0025153316 0.031478878 0.57225925 4278255360
-0.0028248741 0.031438954 0.57264984 4278255360
-0.0031344164 0.031399034 0.57304049 4278255360
-0.0034439592 0.031359114 0.57343113 4278255360
-0.0037535015 0.031319194 0.57382172 4278255360
-0.0040630437 0.03127927 0.57421237 4278255360
-0.0043725865 0.031239349 0.57460296 4278255360
-0.0046821292 0.031199429 0.57499361 4278255360
-0.0049916715 0.031159507 0.57538426 4278255360
-0.0053012138 0.031119587 0.57577485 4278255360
-0.0056107566 0.031079665 0.5761655 4278255360
-0.0059202989 0.031039745 0.57655615 4278255360
-0.0062298412 0.030999823 0.57694674 4278255360
-0.0065393839 0.030959902 0.57733738 4278255360
-0.0068489267 0.03091998 0.57772803 4278255360
-0.0071584689 0.03088006 0.57811862 4278255360
-0.0074680117 0.030840138 0.57850927 4278255360
-0.007777554 0.030800218 0.57889992 4278255360
-0.0080870967 0.030760296 0.57929051 4278255360
-0.0083966386 0.030720375 0.57968116 4278255360
-0.0087061813 0.030680453 0.58007175 4278255360
-0.0090157241 0.030640533 0.5804624 4278255360
-0.0093252659 0.030600611 0.58085304 4278255360
-0.0096348086 0.030560691 0.58124363 4278255360
-0.0099443514 0.030520769 0.58163428 4278255360
-0.010253893 0.030480849 0.58202493 4278255360
-0.010563437 0.030440927 0.58241552 4278255360
-0.010872979 0.030401006 0.58280617 4278255360
-0.011182521 0.030361084 0.58319682 4278255360
-0.011492064 0.030321164 0.58358741 4278255360
-0.011801606 0.030281242 0.58397806 4278255360
-0.012111149 0.030241322 0.58436865 4278255360
-0.012420692 0.0302014 0.58475929 4278255360
-0.012730234 0.030161479 0.58514994 4278255360
-0.013039776 0.030121557 0.58554053 4278255360
-0.013349319 0.030081637 0.58593118 4278255360
-0.013658862 0.030041715 0.58632183 4278255360
-0.013968403 0.030001795 0.58671242 4278255360
-0.014277946 0.029961873 0.58710307 4278255360
-0.014587489 0.029921953 0.58749372 4278255360
-0.014897031 0.029882031 0.58788431 4278255360
-0.015206574 0.02984211 0.58827496 4278255360
-0.015516116 0.029802188 0.5886656 4278255360
-0.015825659 0.029762268 0.58905619 4278255360
-0.016135201 0.029722346 0.58944684 4278255360
-0.016444743 0.029682424 0.58983743 4278255360
-0.016754286 0.029642504 0.59022808 4278255360
-0.017063828 0.029602583 0.59061873 4278255360
-0.017373372 0.029562661 0.59100932 4278255360
-0.017682914 0.029522739 0.59139997 4278255360
-0.017992456 0.029482819 0.59179062 4278255360
-0.018301997 0.029442899 0.59218121 4278255360
-0.018611541 0.029402977 0.59257185 4278255360
-0.018921085 0.029363055 0.5929625 4278255360
-0.019230627 0.029323135 0.59335309 4278255360
-0.019540168 0.029283212 0.59374374 4278255360
-0.01984971 0.029243292 0.59413433 4278255360
-0.020159254 0.02920337 0.59452498 4278255360
-0.020468796 0.02916345 0.59491563 4278255360
-0.020778339 0.029123528 0.59530622 4278255360
-0.021087881 0.029083608 0.59569687 4278255360
-0.021397423 0.029043686 0.59608752 4278255360
-0.021706967 0.029003765 0.5964781 4278255360
-0.022016509 0.028963843 0.59686875 4278255360
-0.02232605 0.028923923 0.5972594 4278255360
-0.022635594 0.028884001 0.59764999 4278255360
-0.022945136 0.028844081 0.59804064 4278255360
-0.02325468 0.028804159 0.59843129 4278255360
-0.023564221 0.028764239 0.59882188 4278255360
-0.023873763 0.028724317 0.59921253 4278255360
-0.024183305 0.028684396 0.59960312 4278255360
-0.024492849 0.028644474 0.59999377 4278255360
-0.024802392 0.028604554 0.60038441 4278255360
-0.025111934 0.028564632 0.600775 4278255360
-0.025421476 0.028524712 0.60116565 4278255360
-0.025731018 0.02848479 0.6015563 4278255360
-0.02604056 0.028444869 0.60194689 4278255360
-0.026350103 0.028404947 0.60233754 4278255360
-0.026659647 0.028365027 0.60272819 4278255360
-0.026969189 0.028325105 0.60311878 4278255360
-0.027278731 0.028285185 0.60350943 4278255360
-0.027588272 0.028245263 0.60390007 4278255360
-0.027897816 0.028205343 0.60429066 4278255360
-0.028207358 0.028165421 0.60468131 4278255360
-0.028516902 0.0281255 0.6050719 4278255360
-0.028826443 0.028085578 0.60546255 4278255360
-0.029135985 0.028045658 0.6058532 4278255360
-0.029445529 0.028005736 0.60624379 4278255360
-0.029755071 0.027965816 0.60663444 4278255360
-0.030064613 0.027925894 0.60702509 4278255360
-0.030374156 0.027885973 0.60741568 4278255360
-0.030683698 0.027846051 0.60780632 4278255360
-0.030993242 0.027806129 0.60819697 4278255360
-0.031302784 0.027766209 0.60858756 4278255360
-0.031612325 0.027726289 0.60897821 4278255360
-0.031921867 0.027686367 0.6093688 4278255360
-0.032231413 0.027646445 0.60975945 4278255360
-0.032540955 0.027606525 0.6101501 4278255360
-0.032850496 0.027566604 0.61054069 4278255360
-0.033160038 0.027526682 0.61093134 4278255360
