# .PCD v0.7 - Point Cloud Data file format
VERSION 0.7
FIELDS x y z rgb
SIZE 4 4 4 4
TYPE F F F U
COUNT 1 1 1 1
WIDTH 1032
HEIGHT 1
VIEWPOINT 0 0 0 1 0 0 0
POINTS 1032
DATA ascii
0.12793052 -0.021376591 0.38200003 4279977256
0.12917125 -0.021376591 0.38200003 4280108842
0.130412 -0.021376591 0.38200003 4279913514
0.13165274 -0.021376591 0.38200003 4279388453
0.13289347 -0.021376591 0.38200003 4278994463
0.13413422 -0.021376591 0.38200003 4279191842
0.13537495 -0.021376591 0.38200003 4279586084
0.13661568 -0.021376591 0.38200003 4280045865
0.044233974 -0.019344773 0.36700001 4280235566
0.045425989 -0.019344773 0.36700001 4280038187
0.046490982 -0.019292064 0.36600003 4280761140
0.047549479 -0.019239351 0.36500001 4280958259
0.048735 -0.019239351 0.36500001 4280958259
0.049783751 -0.019186642 0.36400002 4281221431
0.050966024 -0.019186642 0.36400002 4281155638
0.05200503 -0.019133931 0.36300001 4281023799
0.053184059 -0.019133931 0.36300001 4281552455
0.11582557 -0.020188142 0.38300002 4285893749
0.11706956 -0.020188142 0.38300002 4286025335
0.11831354 -0.020188142 0.38300002 4286091898
0.11986969 -0.020240853 0.384 4284447332
0.12080151 -0.020188142 0.38300002 4281684794
0.12204549 -0.020188142 0.38300002 4280764462
0.12328948 -0.020188142 0.38300002 4280437039
0.12453347 -0.020188142 0.38300002 4280042281
0.12544906 -0.020135432 0.38200003 4279912231
0.12668979 -0.020135432 0.38200003 4279847205
0.12793052 -0.020135432 0.38200003 4279716389
0.12917125 -0.020135432 0.38200003 4279453730
0.130412 -0.020135432 0.38200003 4279125533
0.13165274 -0.020135432 0.38200003 4279454498
0.13289347 -0.020135432 0.38200003 4279389732
0.13413422 -0.020135432 0.38200003 4279323939
0.13537495 -0.020135432 0.38200003 4279258146
0.13661568 -0.020135432 0.38200003 4279652391
0.036980834 -0.018102892 0.36600003 4279442190
0.03935837 -0.018102892 0.36600003 4280758565
0.040657923 -0.018152352 0.36700001 4280430370
0.041849941 -0.018152352 0.36700001 4280364836
0.043159239 -0.018201815 0.36800003 4280365350
0.044233974 -0.018152352 0.36700001 4280431143
0.045425989 -0.018152352 0.36700001 4280497706
0.046490982 -0.018102892 0.36600003 4281155890
0.047549479 -0.018053429 0.36500001 4281221683
0.048735 -0.018053429 0.36500001 4281484085
0.049920518 -0.018053429 0.36500001 4281287222
0.050966024 -0.018003969 0.36400002 4281419062
0.052148297 -0.018003969 0.36400002 4284313950
0.053184059 -0.017954506 0.36300001 4281221429
0.054363079 -0.017954506 0.36300001 4280695347
0.11056022 -0.018894276 0.38200003 4286025335
0.11209361 -0.018943736 0.38300002 4285827956
0.1133376 -0.018943736 0.38300002 4286485886
0.11458158 -0.018943736 0.38300002 4285762679
0.11582557 -0.018943736 0.38300002 4282540873
0.11706956 -0.018943736 0.38300002 4280566313
0.11831354 -0.018943736 0.38300002 4280107045
0.11955753 -0.018943736 0.38300002 4280306221
0.12080151 -0.018943736 0.38300002 4279780645
0.12204549 -0.018943736 0.38300002 4279518756
0.12296758 -0.018894276 0.38200003 4279585062
0.12420832 -0.018894276 0.38200003 4279387683
0.12544906 -0.018894276 0.38200003 4279388453
0.12668979 -0.018894276 0.38200003 4279191842
0.12793052 -0.018894276 0.38200003 4279257635
0.12917125 -0.018894276 0.38200003 4279389219
0.130412 -0.018894276 0.38200003 4279718697
0.13165274 -0.018894276 0.38200003 4279389730
0.13289347 -0.018894276 0.38200003 4279389984
0.13413422 -0.018894276 0.38200003 4279126812
0.13537495 -0.018894276 0.38200003 4280310573
0.13661568 -0.018894276 0.38200003 4281425722
0.032137711 -0.016867507 0.36500001 4281218851
0.039465904 -0.016959934 0.36700001 4280232219
0.040657923 -0.016959934 0.36700001 4280561184
0.043159239 -0.017006146 0.36800003 4281549878
0.044233974 -0.016959934 0.36700001 4281813050
0.045425989 -0.016959934 0.36700001 4281615671
0.046490982 -0.016913721 0.36600003 4281747257
0.047679752 -0.016913721 0.36600003 4281615671
0.048735 -0.016867507 0.36500001 4282339392
0.049920518 -0.016867507 0.36500001 4282076220
0.050966024 -0.016821297 0.36400002 4281615667
0.052148297 -0.016821297 0.36400002 4280957737
0.053330574 -0.016821297 0.36400002 4280103202
0.054363079 -0.016775083 0.36300001 4281155636
0.055542104 -0.016775083 0.36300001 4280696117
0.10599896 -0.01751448 0.37900001 4285893749
0.10722995 -0.01751448 0.37900001 4285630577
0.10874712 -0.017560694 0.38000003 4286091898
0.11027078 -0.017606905 0.38100001 4284579686
0.11150827 -0.017606905 0.38100001 4281290806
0.11274575 -0.017606905 0.38100001 4280238631
0.11428242 -0.017653119 0.38200003 4279844643
0.11552316 -0.017653119 0.38200003 4279911463
0.1167639 -0.017653119 0.38200003 4279845670
0.11800463 -0.017653119 0.38200003 4279584549
0.11924537 -0.017653119 0.38200003 4279387683
0.1204861 -0.017653119 0.38200003 4279124763
0.12172684 -0.017653119 0.38200003 4279125533
0.12296758 -0.017653119 0.38200003 4279126047
0.12420832 -0.017653119 0.38200003 4279455012
0.12544906 -0.017653119 0.38200003 4279389732
0.12668979 -0.017653119 0.38200003 4279389732
0.12793052 -0.017653119 0.38200003 4279323939
0.12917125 -0.017653119 0.38200003 4279192353
0.130412 -0.017653119 0.38200003 4279389732
0.13165274 -0.017653119 0.38200003 4279915563
0.13289347 -0.017653119 0.38200003 4280572209
0.13413422 -0.017653119 0.38200003 4281361212
0.13572933 -0.017699331 0.38300002 4282015294
0.13697331 -0.017699331 0.38300002 4285499243
0.030952191 -0.015681585 0.36500001 4281220136
0.032137711 -0.015681585 0.36500001 4280891171
0.039465904 -0.015767513 0.36700001 4281812019
0.040657923 -0.015767513 0.36700001 4282010427
0.041963976 -0.015810477 0.36800003 4282012480
0.043159239 -0.015810477 0.36800003 4281420343
0.044354506 -0.015810477 0.36800003 4281748538
0.045425989 -0.015767513 0.36700001 4281616950
0.046618003 -0.015767513 0.36700001 4281353778
0.047679752 -0.015724549 0.36600003 4282076988
0.048868522 -0.015724549 0.36600003 4282076988
0.050057288 -0.015724549 0.36600003 4281615667
0.051106039 -0.015681585 0.36500001 4281549874
0.052291561 -0.015681585 0.36500001 4280891944
0.053330574 -0.015638623 0.36400002 4280628776
0.05451284 -0.015638623 0.36400002 4280497190
0.055542104 -0.01559566 0.36300001 4280892464
0.10176611 -0.016197145 0.377 4285827956
0.1029906 -0.016197145 0.377 4286222714
0.10421509 -0.016197145 0.377 4286026618
0.10571928 -0.016240109 0.37800002 4283263572
0.10694702 -0.016240109 0.37800002 4280369704
0.10846094 -0.016283071 0.37900001 4280238629
0.10998137 -0.016326034 0.38000003 4279976740
0.1112156 -0.016326034 0.38000003 4279780645
0.11244984 -0.016326034 0.38000003 4279583779
0.11368408 -0.016326034 0.38000003 4279452963
0.11522074 -0.016368998 0.38100001 4279190558
0.11645823 -0.016368998 0.38100001 4279256351
0.11769572 -0.016368998 0.38100001 4278929183
0.11893321 -0.016368998 0.38100001 4279126560
0.1204861 -0.016411962 0.38200003 4279192353
0.12172684 -0.016411962 0.38200003 4279521318
0.12296758 -0.016411962 0.38200003 4279390500
0.12420832 -0.016411962 0.38200003 4279061535
0.12544906 -0.016411962 0.38200003 4278995742
0.12668979 -0.016411962 0.38200003 4279389730
0.12793052 -0.016411962 0.38200003 4280244012
0.12917125 -0.016411962 0.38200003 4280770356
0.130412 -0.016411962 0.38200003 4281098038
0.13165274 -0.016411962 0.38200003 4281228854
0.13289347 -0.016411962 0.38200003 4281490493
0.034603298 -0.014535379 0.36600003 4280430368
0.035792064 -0.014535379 0.36600003 4281746228
0.036980834 -0.014535379 0.36600003 4280167198
0.039465904 -0.014575092 0.36700001 4279048463
0.041963976 -0.014614807 0.36800003 4280827438
0.043159239 -0.014614807 0.36800003 4280827438
0.044354506 -0.014614807 0.36800003 4280959024
0.045549769 -0.014614807 0.36800003 4281287474
0.046745032 -0.014614807 0.36800003 4281287474
0.047810022 -0.014575092 0.36700001 4281287472
0.04900204 -0.014575092 0.36700001 4282010425
0.050057288 -0.014535379 0.36600003 4281484081
0.051246058 -0.014535379 0.36600003 4280695335
0.052291561 -0.014495664 0.36500001 4280892714
0.053477082 -0.014495664 0.36500001 4281484853
0.0546626 -0.014495664 0.36500001 4280628776
0.097832426 -0.01493252 0.37600002 4285959542
0.099053673 -0.01493252 0.37600002 4286091128
0.10027492 -0.01493252 0.37600002 4285697140
0.10149617 -0.01493252 0.37600002 4283000140
0.10271741 -0.01493252 0.37600002 4280303139
0.10393866 -0.01493252 0.37600002 4280107813
0.10543959 -0.014972233 0.377 4280239912
0.10666409 -0.014972233 0.377 4279977254
0.10817477 -0.015011949 0.37800002 4279452447
0.10940251 -0.015011949 0.37800002 4279321631
0.11063025 -0.015011949 0.37800002 4279190045
0.11215391 -0.015051662 0.37900001 4278927386
0.11338491 -0.015051662 0.37900001 4279256349
0.11491832 -0.015091376 0.38000003 4279257631
0.11615257 -0.015091376 0.38000003 4279192351
0.11738681 -0.015091376 0.38000003 4279258144
0.11893321 -0.01513109 0.38100001 4279323937
0.12017069 -0.01513109 0.38100001 4279323937
0.12172684 -0.015170805 0.38200003 4279587111
0.12296758 -0.015170805 0.38200003 4279849770
0.12420832 -0.015170805 0.38200003 4280375600
0.12544906 -0.015170805 0.38200003 4280703282
0.12668979 -0.015170805 0.38200003 4280702510
0.12793052 -0.015170805 0.38200003 4279911201
0.12917125 -0.015170805 0.38200003 4281359161
0.130412 -0.015170805 0.38200003 4281359161
0.13199738 -0.015210519 0.38300002 4281687099
0.13324136 -0.015210519 0.38300002 4282079036
0.026281916 -0.013346206 0.36600003 4280888866
0.028581148 -0.01330974 0.36500001 4280824356
0.032137711 -0.01330974 0.36500001 4282997324
0.033323228 -0.01330974 0.36500001 4280234788
0.034603298 -0.013346206 0.36600003 4279312148
0.036980834 -0.013346206 0.36600003 4281878591
0.038169604 -0.013346206 0.36600003 4281550907
0.039465904 -0.01338267 0.36700001 4280628008
0.041849941 -0.01338267 0.36700001 4280563499
0.043159239 -0.013419136 0.36800003 4280958770
0.044354506 -0.013419136 0.36800003 4280958770
0.045549769 -0.013419136 0.36800003 4281221683
0.046745032 -0.013419136 0.36800003 4281748025
0.047940299 -0.013419136 0.36800003 4281353267
0.049135566 -0.013419136 0.36800003 4281549876
0.050194055 -0.01338267 0.36700001 4281352497
0.051386073 -0.01338267 0.36700001 4280695335
0.052434828 -0.013346206 0.36600003 4281024300
0.053623598 -0.013346206 0.36600003 4281748025
0.054812364 -0.013346206 0.36600003 4282076990
0.056721132 -0.01323681 0.36300001 4281023534
0.057900153 -0.01323681 0.36300001 4280630829
0.058916427 -0.013200345 0.36200002 4279053594
0.060092207 -0.013200345 0.36200002 4284909169
0.061267979 -0.013200345 0.36200002 4285040755
0.093667775 -0.013637925 0.37400001 4285959288
0.098790236 -0.013674391 0.37500003 4280303911
0.10000824 -0.013674391 0.37500003 4280107813
0.10149617 -0.013710856 0.37600002 4279977508
0.10271741 -0.013710856 0.37600002 4279517727
0.10393866 -0.013710856 0.37600002 4279124250
0.10515992 -0.013710856 0.37600002 4279255836
0.10638116 -0.013710856 0.37600002 4278993947
0.10760242 -0.013710856 0.37600002 4279454498
0.10911308 -0.013747321 0.377 4278796568
0.11033757 -0.013747321 0.377 4279191840
0.111858 -0.013783786 0.37800002 4279389219
0.11308575 -0.013783786 0.37800002 4279323426
0.1146159 -0.013820251 0.37900001 4279521318
0.11584689 -0.013820251 0.37900001 4279323939
0.11738681 -0.013856716 0.38000003 4279521318
0.11893321 -0.013893181 0.38100001 4279981869
0.12017069 -0.013893181 0.38100001 4280178221
0.12172684 -0.013929646 0.38200003 4280309037
0.12296758 -0.013929646 0.38200003 4280242733
0.12420832 -0.013929646 0.38200003 4279847205
0.12544906 -0.013929646 0.38200003 4282082368
0.12668979 -0.013929646 0.38200003 4281357362
0.12793052 -0.013929646 0.38200003 4281752640
0.1295094 -0.013966111 0.38300002 4281555772
0.13075338 -0.013966111 0.38300002 4282015294
0.13199738 -0.013966111 0.38300002 4284052826
0.029766668 -0.012123819 0.36500001 4280759846
0.032137711 -0.012123819 0.36500001 4281285938
0.033323228 -0.012123819 0.36500001 4281417524
0.03450875 -0.012123819 0.36500001 4280036385
0.035694271 -0.012123819 0.36500001 4281615417
0.036980834 -0.012157035 0.36600003 4282670158
0.038169604 -0.012157035 0.36600003 4281946950
0.03935837 -0.012157035 0.36600003 4279641115
0.041849941 -0.012190251 0.36700001 4279575583
0.043159239 -0.012223467 0.36800003 4281024052
0.044354506 -0.012223467 0.36800003 4281484601
0.045673542 -0.012256683 0.36900002 4281484601
0.046872053 -0.012256683 0.36900002 4281813818
0.048070569 -0.012256683 0.36900002 4281549876
0.049269084 -0.012256683 0.36900002 4281352497
0.050330825 -0.012223467 0.36800003 4280431395
0.051526092 -0.012223467 0.36800003 4281023530
0.052721359 -0.012223467 0.36800003 4280958507
0.05377011 -0.012190251 0.36700001 4282010425
0.054962121 -0.012190251 0.36700001 4282076218
0.05687739 -0.012090603 0.36400002 4280562979
0.057900153 -0.012057386 0.36300001 4280761643
0.058916427 -0.012024171 0.36200002 4279777315
0.060092207 -0.012024171 0.36200002 4279120668
0.061267979 -0.012024171 0.36200002 4284909684
0.062443756 -0.012024171 0.36200002 4285171571
0.094882526 -0.012422762 0.37400001 4280172073
0.096097283 -0.012422762 0.37400001 4279844389
0.097572237 -0.012455978 0.37500003 4279976742
0.098790236 -0.012455978 0.37500003 4279320607
0.10000824 -0.012455978 0.37500003 4279123998
0.10122624 -0.012455978 0.37500003 4279058972
0.10244423 -0.012455978 0.37500003 4278862361
0.10366224 -0.012455978 0.37500003 4278928152
0.10488024 -0.012455978 0.37500003 4279059738
0.10638116 -0.012489194 0.37600002 4278797082
0.10760242 -0.012489194 0.37600002 4279652391
0.10882366 -0.012489194 0.37600002 4279587111
0.1100449 -0.012489194 0.37600002 4279323939
0.11156207 -0.01252241 0.377 4279389734
0.11278657 -0.01252241 0.377 4279850283
0.11431349 -0.012555626 0.37800002 4280046635
0.11584689 -0.012588842 0.37900001 4280506416
0.11738681 -0.012622058 0.38000003 4280834870
0.11893321 -0.012655273 0.38100001 4280440112
0.12017069 -0.012655273 0.38100001 4279715619
0.12172684 -0.01268849 0.38200003 4281228345
0.12296758 -0.01268849 0.38200003 4280701231
0.12420832 -0.01268849 0.38200003 4281161782
0.12577745 -0.012721705 0.38300002 4280963122
0.12668979 -0.01268849 0.38200003 4281817663
0.12826541 -0.012721705 0.38300002 4281750587
0.1295094 -0.012721705 0.38300002 4284118108
0.027470684 -0.010967864 0.36600003 4281549360
0.030952191 -0.010937897 0.36500001 4282668875
0.032137711 -0.010937897 0.36500001 4281617219
0.033323228 -0.010937897 0.36500001 4288592824
0.03450875 -0.010937897 0.36500001 4281024052
0.035694271 -0.010937897 0.36500001 4278786320
0.036879793 -0.010937897 0.36500001 4279971364
0.038065314 -0.010937897 0.36500001 4282340425
0.03935837 -0.010967864 0.36600003 4282867539
0.04054714 -0.010967864 0.36600003 4282670158
0.041849941 -0.01099783 0.36700001 4282603849
0.043159239 -0.011027797 0.36800003 4280498473
0.044354506 -0.011027797 0.36800003 4281287735
0.045673542 -0.011057764 0.36900002 4281550907
0.046872053 -0.011057764 0.36900002 4281813820
0.048070569 -0.011057764 0.36900002 4281155888
0.049269084 -0.011057764 0.36900002 4280891946
0.050467592 -0.011057764 0.36900002 4280431395
0.051666107 -0.011057764 0.36900002 4281024300
0.052721359 -0.011027797 0.36800003 4281221679
0.053916626 -0.011027797 0.36800003 4281353265
0.054962121 -0.01099783 0.36700001 4281682484
0.056001134 -0.010967864 0.36600003 4281945656
0.05687739 -0.01090793 0.36400002 4282208828
0.057900153 -0.010877962 0.36300001 4280366370
0.059079178 -0.010877962 0.36300001 4278987027
0.060092207 -0.010847996 0.36200002 4279384865
0.061267979 -0.010847996 0.36200002 4279911981
0.062443756 -0.010847996 0.36200002 4285237364
0.063619532 -0.010847996 0.36200002 4285302643
0.085455418 -0.011087731 0.37 4285828726
0.090750366 -0.011147664 0.37200001 4279777313
0.09195862 -0.011147664 0.37200001 4280041768
0.093417332 -0.011177632 0.37300003 4279648291
0.094628833 -0.011177632 0.37300003 4279451934
0.096097283 -0.011207598 0.37400001 4279123482
0.097312033 -0.011207598 0.37400001 4278991896
0.098526791 -0.011207598 0.37400001 4279124252
0.10000824 -0.011237565 0.37500003 4278993179
0.10122624 -0.011237565 0.37500003 4278862363
0.10244423 -0.011237565 0.37500003 4278993947
0.10366224 -0.011237565 0.37500003 4279586596
0.10488024 -0.011237565 0.37500003 4279389217
0.10609824 -0.011237565 0.37500003 4279323424
0.10731624 -0.011237565 0.37500003 4279455012
0.10882366 -0.011267532 0.37600002 4280704567
0.1100449 -0.011267532 0.37600002 4280374832
0.11126615 -0.011267532 0.37600002 4280506418
0.11278657 -0.011297498 0.377 4280901176
0.11431349 -0.011327466 0.37800002 4280438829
0.11554123 -0.011327466 0.37800002 4280964403
0.11738681 -0.011387399 0.38000003 4281227321
0.11893321 -0.011417366 0.38100001 4281161528
0.12017069 -0.011417366 0.38100001 4280108326
0.12172684 -0.011447333 0.38200003 4280963376
0.12296758 -0.011447333 0.38200003 4281225778
0.020560347 -0.0098855626 0.37 4281286442
0.021703292 -0.0098588457 0.36900002 4280759844
0.02283974 -0.009832128 0.36800003 4280891946
0.023969689 -0.0098054102 0.36700001 4281944634
0.025161708 -0.0098054102 0.36700001 4281418290
0.029766668 -0.0097519746 0.36500001 4281748286
0.030952191 -0.0097519746 0.36500001 4282144068
0.032137711 -0.0097519746 0.36500001 4280958770
0.033323228 -0.0097519746 0.36500001 4279773985
0.03450875 -0.0097519746 0.36500001 4281747773
0.035694271 -0.0097519746 0.36500001 4281089073
0.036879793 -0.0097519746 0.36500001 4282208837
0.038065314 -0.0097519746 0.36500001 4282209607
0.039250832 -0.0097519746 0.36500001 4282012230
0.04054714 -0.0097786924 0.36600003 4282143814
0.041849941 -0.0098054102 0.36700001 4282012482
0.043041959 -0.0098054102 0.36700001 4282209861
0.044354506 -0.009832128 0.36800003 4280827954
0.045673542 -0.0098588457 0.36900002 4280630577
0.046999078 -0.0098855626 0.37 4281222714
0.048200838 -0.0098855626 0.37 4280828208
0.049402602 -0.0098855626 0.37 4280694565
0.050467592 -0.0098588457 0.36900002 4281352495
0.051666107 -0.0098588457 0.36900002 4281352495
0.052864619 -0.0098588457 0.36900002 4281155888
0.053916626 -0.009832128 0.36800003 4281287474
0.054962121 -0.0098054102 0.36700001 4281616439
0.056001134 -0.0097786924 0.36600003 4281813816
0.05687739 -0.0097252568 0.36400002 4282076988
0.057900153 -0.009698539 0.36300001 4281484851
0.058916427 -0.0096718213 0.36200002 4279380758
0.060092207 -0.0096718213 0.36200002 4279055386
0.061267979 -0.0096718213 0.36200002 4279450658
0.062443756 -0.0096718213 0.36200002 4281226042
0.063619532 -0.0096718213 0.36200002 4285303157
0.064795315 -0.0096718213 0.36200002 4285368436
0.083051898 -0.0098855626 0.37 4285762679
0.084253661 -0.0098855626 0.37 4284381539
0.086657174 -0.0098855626 0.37 4280040739
0.088096403 -0.0099122813 0.37100002 4279779363
0.089301407 -0.0099122813 0.37100002 4279582498
0.090506412 -0.0099122813 0.37100002 4279189023
0.09195862 -0.0099389981 0.37200001 4279124000
0.093417332 -0.0099657169 0.37300003 4278992666
0.094628833 -0.0099657169 0.37300003 4278795287
0.096097283 -0.0099924337 0.37400001 4278993177
0.097312033 -0.0099924337 0.37400001 4279124763
0.098526791 -0.0099924337 0.37400001 4279257119
0.10000824 -0.010019152 0.37500003 4279323426
0.10122624 -0.010019152 0.37500003 4279323426
0.10244423 -0.010019152 0.37500003 4279388707
0.10366224 -0.010019152 0.37500003 4279389221
0.10488024 -0.010019152 0.37500003 4279849772
0.10609824 -0.010019152 0.37500003 4280374830
0.10760242 -0.010045869 0.37600002 4280440623
0.10882366 -0.010045869 0.37600002 4280965686
0.1100449 -0.010045869 0.37600002 4280702001
0.11126615 -0.010045869 0.37600002 4280832817
0.11278657 -0.010072587 0.377 4281161782
0.11401107 -0.010072587 0.377 4281358134
0.11554123 -0.010099305 0.37800002 4280700204
0.11738681 -0.01015274 0.38000003 4281028145
0.11893321 -0.010179458 0.38100001 4281291317
0.1204861 -0.010206176 0.38200003 4281290804
0.020615915 -0.008706864 0.37100002 4282076990
0.021762107 -0.0086833946 0.37 4283920477
0.02283974 -0.0086364578 0.36800003 4282473031
0.023969689 -0.0086129894 0.36700001 4281288757
0.025161708 -0.0086129894 0.36700001 4281944634
0.028581148 -0.0085660517 0.36500001 4281088046
0.029766668 -0.0085660517 0.36500001 4282340423
0.03086739 -0.0085425833 0.36400002 4278721295
0.032049663 -0.0085425833 0.36400002 4281156149
0.033231933 -0.0085425833 0.36400002 4282999636
0.034414209 -0.0085425833 0.36400002 4281815876
0.035596479 -0.0085425833 0.36400002 4281683263
0.036778755 -0.0085425833 0.36400002 4282275400
0.038065314 -0.0085660517 0.36500001 4282143816
0.039250832 -0.0085660517 0.36500001 4281880644
0.04054714 -0.0085895211 0.36600003 4281880644
0.04173591 -0.0085895211 0.36600003 4282012482
0.043041959 -0.0086129894 0.36700001 4281617724
0.044354506 -0.0086364578 0.36800003 4280433711
0.045673542 -0.0086599262 0.36900002 4280630839
0.046999078 -0.0086833946 0.37 4280630841
0.048200838 -0.0086833946 0.37 4280762427
0.049402602 -0.0086833946 0.37 4280301610
0.050604358 -0.0086833946 0.37 4280893231
0.051806122 -0.0086833946 0.37 4281090610
0.053007882 -0.0086833946 0.37 4280959024
0.054209646 -0.0086833946 0.37 4281090608
0.055411402 -0.0086833946 0.37 4281222194
0.056613166 -0.0086833946 0.37 4281419573
0.057814926 -0.0086833946 0.37 4281551157
0.057900153 -0.008519114 0.36300001 4282603586
0.058916427 -0.0084956456 0.36200002 4280565032
0.060092207 -0.0084956456 0.36200002 4278792214
0.061267979 -0.0084956456 0.36200002 4278331663
0.062443756 -0.0084956456 0.36200002 4279516451
0.063619532 -0.0084956456 0.36200002 4283068761
0.064795315 -0.0084956456 0.36200002 4285171571
0.082827434 -0.0086599262 0.36900002 4279843873
0.084253661 -0.0086833946 0.37 4279581471
0.085455418 -0.0086833946 0.37 4279385119
0.086657174 -0.0086833946 0.37 4279254303
0.088096403 -0.008706864 0.37100002 4278531091
0.089301407 -0.008706864 0.37100002 4278860056
0.090506412 -0.008706864 0.37100002 4278795033
0.09195862 -0.0087303324 0.37200001 4279124765
0.093417332 -0.0087538008 0.37300003 4279058972
0.094628833 -0.0087538008 0.37300003 4279125535
0.096097283 -0.0087772692 0.37400001 4279257633
0.097312033 -0.0087772692 0.37400001 4278994461
0.098790236 -0.0088007385 0.37500003 4278994461
0.10000824 -0.0088007385 0.37500003 4279586598
0.10122624 -0.0088007385 0.37500003 4280375602
0.10244423 -0.0088007385 0.37500003 4280638520
0.10366224 -0.0088007385 0.37500003 4280835129
0.10515992 -0.0088242069 0.37600002 4280439858
0.10638116 -0.0088242069 0.37600002 4280570161
0.10760242 -0.0088242069 0.37600002 4281293114
0.10882366 -0.0088242069 0.37600002 4281489979
0.1100449 -0.0088242069 0.37600002 4281029428
0.11126615 -0.0088242069 0.37600002 4281291571
0.11278657 -0.0088476753 0.377 4282081087
0.11401107 -0.0088476753 0.377 4281685562
0.11554123 -0.0088711446 0.37800002 4281947450
0.021820923 -0.0075014471 0.37100002 4282473029
0.022901803 -0.0074610082 0.36900002 4282142781
0.024035003 -0.0074407887 0.36800003 4281484081
0.025161708 -0.0074205687 0.36700001 4281285675
0.026281916 -0.0074003497 0.36600003 4282865222
0.027470684 -0.0074003497 0.36600003 4281154606
0.03086739 -0.0073599103 0.36400002 4282800461
0.032049663 -0.0073599103 0.36400002 4282868304
0.033231933 -0.0073599103 0.36400002 4282409037
0.034414209 -0.0073599103 0.36400002 4282211917
0.035596479 -0.0073599103 0.36400002 4282540369
0.036778755 -0.0073599103 0.36400002 4283590490
0.038065314 -0.0073801298 0.36500001 4282932047
0.039250832 -0.0073801298 0.36500001 4283195732
0.04054714 -0.0074003497 0.36600003 4282275400
0.04173591 -0.0074003497 0.36600003 4281550907
0.043041959 -0.0074205687 0.36700001 4279905569
0.044354506 -0.0074407887 0.36800003 4279840291
0.045549769 -0.0074407887 0.36800003 4280433458
0.046999078 -0.0074812272 0.37 4280630587
0.048200838 -0.0074812272 0.37 4280696380
0.049402602 -0.0074812272 0.37 4280762425
0.050604358 -0.0074812272 0.37 4280236079
0.051806122 -0.0074812272 0.37 4280498473
0.053007882 -0.0074812272 0.37 4280827436
0.054209646 -0.0074812272 0.37 4280893229
0.055411402 -0.0074812272 0.37 4281090608
0.056613166 -0.0074812272 0.37 4281090608
0.057814926 -0.0074812272 0.37 4281222194
0.059016682 -0.0074812272 0.37 4281419571
0.060218446 -0.0074812272 0.37 4281486388
0.060092207 -0.0073194713 0.36200002 4278726162
0.061437227 -0.0073396903 0.36300001 4278792468
0.062616251 -0.0073396903 0.36300001 4278661396
0.063795276 -0.0073396903 0.36300001 4278924314
0.064795315 -0.0073194713 0.36200002 4284514924
0.072643898 -0.0074003497 0.36600003 4285499507
0.073832661 -0.0074003497 0.36600003 4285696886
0.075226404 -0.0074205687 0.36700001 4286092157
0.076418422 -0.0074205687 0.36700001 4284315487
0.078802451 -0.0074205687 0.36700001 4279579416
0.080212444 -0.0074407887 0.36800003 4279909151
0.081407711 -0.0074407887 0.36800003 4279384090
0.082827434 -0.0074610082 0.36900002 4278859543
0.084025949 -0.0074610082 0.36900002 4278925336
0.085455418 -0.0074812272 0.37 4278531091
0.086657174 -0.0074812272 0.37 4278925849
0.087858938 -0.0074812272 0.37 4278400275
0.089301407 -0.0075014471 0.37100002 4279058205
0.090506412 -0.0075014471 0.37100002 4279255838
0.09195862 -0.0075216666 0.37200001 4279387937
0.093417332 -0.0075418861 0.37300003 4279124765
0.094628833 -0.0075418861 0.37300003 4278993949
0.096097283 -0.0075621055 0.37400001 4279717672
0.097312033 -0.0075621055 0.37400001 4279849258
0.098790236 -0.0075823255 0.37500003 4280440625
0.10000824 -0.0075823255 0.37500003 4280440625
0.10122624 -0.0075823255 0.37500003 4280374065
0.10271741 -0.0076025445 0.37600002 4280175916
0.10393866 -0.0076025445 0.37600002 4280964149
0.10515992 -0.0076025445 0.37600002 4281161014
0.10638116 -0.0076025445 0.37600002 4281423673
0.10760242 -0.0076025445 0.37600002 4281028915
0.10911308 -0.007622764 0.377 4281028915
0.11033757 -0.007622764 0.377 4281028147
0.11126615 -0.0076025445 0.37600002 4281947452
0.020727053 -0.0063299704 0.37300003 4280628510
0.026281916 -0.0062111774 0.36600003 4283063367
0.027395627 -0.0061942069 0.36500001 4281682232
0.028581148 -0.0061942069 0.36500001 4279840030
0.029766668 -0.0061942069 0.36500001 4282473041
0.03086739 -0.0061772368 0.36400002 4282606164
0.032049663 -0.0061772368 0.36400002 4282540884
0.033231933 -0.0061772368 0.36400002 4282211919
0.034414209 -0.0061772368 0.36400002 4282080333
0.035596479 -0.0061772368 0.36400002 4282671187
0.036778755 -0.0061772368 0.36400002 4281286452
0.038065314 -0.0061942069 0.36500001 4281944636
0.039250832 -0.0061942069 0.36500001 4282339392
0.04054714 -0.0062111774 0.36600003 4282076988
0.04173591 -0.0062111774 0.36600003 4282473031
0.043159239 -0.0062451186 0.36800003 4282603847
0.044354506 -0.0062451186 0.36800003 4282867021
0.045673542 -0.0062620887 0.36900002 4280498991
0.046999078 -0.0062790592 0.37 4280433976
0.048200838 -0.0062790592 0.37 4280499769
0.049402602 -0.0062790592 0.37 4280631101
0.050604358 -0.0062790592 0.37 4280565308
0.051806122 -0.0062790592 0.37 4280301872
0.053007882 -0.0062790592 0.37 4280630575
0.054209646 -0.0062790592 0.37 4280499243
0.055411402 -0.0062790592 0.37 4280696622
0.056613166 -0.0062790592 0.37 4280828208
0.057814926 -0.0062790592 0.37 4281025587
0.059016682 -0.0062790592 0.37 4281156399
0.060218446 -0.0062790592 0.37 4279709975
0.06142021 -0.0062790592 0.37 4278528011
0.061606478 -0.0061772368 0.36400002 4278660882
0.062788747 -0.0061772368 0.36400002 4278989847
0.063795276 -0.0061602662 0.36300001 4278792468
0.064974301 -0.0061602662 0.36300001 4278727189
0.066335566 -0.0061772368 0.36400002 4284515692
0.067703329 -0.0061942069 0.36500001 4285302128
0.068888851 -0.0061942069 0.36500001 4285433714
0.070266359 -0.0062111774 0.36600003 4285697399
0.071455128 -0.0062111774 0.36600003 4285697399
0.072643898 -0.0062111774 0.36600003 4284513125
0.075226404 -0.006228148 0.36700001 4279712285
0.076418422 -0.006228148 0.36700001 4279449113
0.077610441 -0.006228148 0.36700001 4278989845
0.078802451 -0.006228148 0.36700001 4279121431
0.080212444 -0.0062451186 0.36800003 4279056152
0.081407711 -0.0062451186 0.36800003 4278727957
0.082827434 -0.0062620887 0.36900002 4278596371
0.084025949 -0.0062620887 0.36900002 4278794263
0.085455418 -0.0062790592 0.37 4278925849
0.086657174 -0.0062790592 0.37 4280044330
0.088096403 -0.0062960298 0.37100002 4279255838
0.089301407 -0.0062960298 0.37100002 4279190045
0.090750366 -0.0063129999 0.37200001 4279453217
0.09195862 -0.0063129999 0.37200001 4279716389
0.093417332 -0.0063299704 0.37300003 4280440112
0.094882526 -0.006346941 0.37400001 4280374319
0.096097283 -0.006346941 0.37400001 4280834100
0.097572237 -0.0063639116 0.37500003 4279912485
0.098790236 -0.0063639116 0.37500003 4281029942
0.10027492 -0.0063808816 0.37600002 4280898356
0.10149617 -0.0063808816 0.37600002 4280699698
0.10271741 -0.0063808816 0.37600002 4279777826
0.10393866 -0.0063808816 0.37600002 4280567596
0.10543959 -0.0063978522 0.377 4281554491
0.10666409 -0.0063978522 0.377 4280830768
0.10788859 -0.0063978522 0.377 4281751870
0.026281916 -0.0050220066 0.36600003 4283392070
0.027395627 -0.0050082849 0.36500001 4280826923
0.028581148 -0.0050082849 0.36500001 4280958511
0.029766668 -0.0050082849 0.36500001 4282342739
0.03086739 -0.0049945638 0.36400002 4282343252
0.032049663 -0.0049945638 0.36400002 4281751115
0.033231933 -0.0049945638 0.36400002 4282145875
0.034414209 -0.0049945638 0.36400002 4282013004
0.035596479 -0.0049945638 0.36400002 4281617470
0.036778755 -0.0049945638 0.36400002 4280891944
0.038065314 -0.0050082849 0.36500001 4280365340
0.039250832 -0.0050082849 0.36500001 4281943339
0.040436354 -0.0050082849 0.36500001 4282995512
0.041849941 -0.0050357278 0.36700001 4279840026
0.043159239 -0.0050494494 0.36800003 4282735431
0.04447503 -0.0050631706 0.36900002 4283195984
0.045673542 -0.0050631706 0.36900002 4280696370
0.046999078 -0.0050768917 0.37 4280302390
0.048200838 -0.0050768917 0.37 4280433722
0.049402602 -0.0050768917 0.37 4280631101
0.050604358 -0.0050768917 0.37 4280565308
0.051806122 -0.0050768917 0.37 4280631353
0.053007882 -0.0050768917 0.37 4280433711
0.054209646 -0.0050768917 0.37 4280762161
0.055411402 -0.0050768917 0.37 4280564782
0.056613166 -0.0050768917 0.37 4280828208
0.057971187 -0.0050906129 0.37100002 4280828208
0.059176192 -0.0050906129 0.37100002 4281288755
0.059892945 -0.0050494494 0.36800003 4279183892
0.060922209 -0.0050357278 0.36700001 4279053844
0.061775722 -0.0050082849 0.36500001 4278856978
0.062961243 -0.0050082849 0.36500001 4278858261
0.064146765 -0.0050082849 0.36500001 4278858261
0.065153301 -0.0049945638 0.36400002 4278727187
0.066517808 -0.0050082849 0.36500001 4278464015
0.067703329 -0.0050082849 0.36500001 4279975977
0.068888851 -0.0050082849 0.36500001 4279843621
0.070266359 -0.0050220066 0.36600003 4279777826
0.071455128 -0.0050220066 0.36600003 4279711520
0.072842374 -0.0050357278 0.36700001 4279252506
0.074034385 -0.0050357278 0.36700001 4279187226
0.075226404 -0.0050357278 0.36700001 4278924568
0.076418422 -0.0050357278 0.36700001 4278793752
0.077610441 -0.0050357278 0.36700001 4278596373
0.079017177 -0.0050494494 0.36800003 4278924566
0.080212444 -0.0050494494 0.36800003 4278793750
0.081628926 -0.0050631706 0.36900002 4279254301
0.082827434 -0.0050631706 0.36900002 4279254814
0.084025949 -0.0050631706 0.36900002 4279452193
0.085455418 -0.0050768917 0.37 4279320861
0.086657174 -0.0050768917 0.37 4279715619
0.088096403 -0.0050906129 0.37100002 4279781412
0.089301407 -0.0050906129 0.37100002 4280307756
0.090750366 -0.0051043341 0.37200001 4280307502
0.09220583 -0.0051180557 0.37300003 4280702260
0.093417332 -0.0051180557 0.37300003 4280306221
0.094882526 -0.0051317769 0.37400001 4279120920
0.096354231 -0.0051454986 0.37500003 4280039967
0.10027492 -0.0051592197 0.37600002 4280303657
0.1029906 -0.0051729409 0.377 4281487163
0.10421509 -0.0051729409 0.377 4281881659
0.10543959 -0.0051729409 0.377 4282604869
0.027395627 -0.0038223625 0.36500001 4281814070
0.028581148 -0.0038223625 0.36500001 4281551159
0.029685117 -0.0038118905 0.36400002 4282211406
0.03086739 -0.0038118905 0.36400002 4282804054
0.032049663 -0.0038118905 0.36400002 4281685322
0.033231933 -0.0038118905 0.36400002 4281158467
0.034414209 -0.0038118905 0.36400002 4280695852
0.035596479 -0.0038118905 0.36400002 4279970842
0.036778755 -0.0038118905 0.36400002 4281153823
0.037961025 -0.0038118905 0.36400002 4280495378
0.039250832 -0.0038223625 0.36500001 4281612823
0.040436354 -0.0038223625 0.36500001 4281678616
0.041849941 -0.003843307 0.36700001 4281944884
0.043159239 -0.0038537795 0.36800003 4282801476
0.04447503 -0.0038642515 0.36900002 4281024304
0.045797318 -0.0038747236 0.37 4280564784
0.046999078 -0.0038747236 0.37 4280368181
0.048200838 -0.0038747236 0.37 4280368181
0.049402602 -0.0038747236 0.37 4280433722
0.050604358 -0.0038747236 0.37 4280631101
0.051806122 -0.0038747236 0.37 4280565308
0.053007882 -0.0038747236 0.37 4280367929
0.054209646 -0.0038747236 0.37 4280433711
0.055411402 -0.0038747236 0.37 4280302123
0.057225201 -0.0039166128 0.37400001 4280499502
0.057971187 -0.0038851961 0.37100002 4280894514
0.059176192 -0.0038851961 0.37100002 4279117588
0.060055695 -0.0038642515 0.36900002 4279578652
0.061088212 -0.0038537795 0.36800003 4279317016
0.06211422 -0.003843307 0.36700001 4278856978
0.063133746 -0.003832835 0.36600003 4278726160
0.064322516 -0.003832835 0.36600003 4278989845
0.065511286 -0.003832835 0.36600003 4278990359
0.066700049 -0.003832835 0.36600003 4278726675
0.067888819 -0.003832835 0.36600003 4278858261
0.069077589 -0.003832835 0.36600003 4278858261
0.070266359 -0.003832835 0.36600003 4278989847
0.071650356 -0.003843307 0.36700001 4278726675
0.072842374 -0.003843307 0.36700001 4278660882
0.074034385 -0.003843307 0.36700001 4278661396
0.075226404 -0.003843307 0.36700001 4278727189
0.076626651 -0.0038537795 0.36800003 4278858775
0.077821918 -0.0038537795 0.36800003 4279385887
0.079017177 -0.0038537795 0.36800003 4279649059
0.080212444 -0.0038537795 0.36800003 4279320094
0.081628926 -0.0038642515 0.36900002 4279188508
0.082827434 -0.0038642515 0.36900002 4279452193
0.084253661 -0.0038747236 0.37 4279846951
0.085455418 -0.0038747236 0.37 4279978278
0.08689139 -0.0038851961 0.37100002 4280241450
0.088096403 -0.0038851961 0.37100002 4280503598
0.089542113 -0.0038956681 0.37200001 4280371498
0.090750366 -0.0038956681 0.37200001 4279382555
0.09220583 -0.0039061406 0.37300003 4279382557
0.094882526 -0.0039166128 0.37400001 4280762926
0.096354231 -0.0039270851 0.37500003 4280894510
0.10027492 -0.0039375573 0.37600002 4281947450
0.028581148 -0.0026364403 0.36500001 4281353265
0.029685117 -0.0026292175 0.36400002 4282012993
0.03086739 -0.0026292175 0.36400002 4281749310
0.032049663 -0.0026292175 0.36400002 4282736205
0.033231933 -0.0026292175 0.36400002 4280958509
0.034414209 -0.0026292175 0.36400002 4280296979
0.035596479 -0.0026292175 0.36400002 4281086747
0.036778755 -0.0026292175 0.36400002 4280691217
0.037961025 -0.0026292175 0.36400002 4281283608
0.039250832 -0.0026364403 0.36500001 4282007331
0.040436354 -0.0026364403 0.36500001 4282599211
0.041849941 -0.0026508868 0.36700001 4282403890
0.043159239 -0.0026581099 0.36800003 4280957991
0.04447503 -0.002665333 0.36900002 4279970594
0.045797318 -0.0026725559 0.37 4280300076
0.046999078 -0.0026725559 0.37 4280301874
0.048200838 -0.0026725559 0.37 4280170288
0.049402602 -0.0026725559 0.37 4280368183
0.050604358 -0.0026725559 0.37 4280433722
0.051806122 -0.0026725559 0.37 4280499517
0.053007882 -0.0026725559 0.37 4280762689
0.0559678 -0.0027592336 0.38200003 4280301874
0.057208531 -0.0027592336 0.38200003 4280433711
0.057225201 -0.0027014485 0.37400001 4280499502
0.058283698 -0.0026942254 0.37300003 4279183129
0.059335694 -0.0026870023 0.37200001 4279315480
0.060218446 -0.0026725559 0.37 4279644959
0.06142021 -0.0026725559 0.37 4279317529
0.062283471 -0.0026581099 0.36800003 4279515676
0.063478738 -0.0026581099 0.36800003 4278791953
0.064498261 -0.0026508868 0.36700001 4278726673
0.065690279 -0.0026508868 0.36700001 4278398476
0.06688229 -0.0026508868 0.36700001 4280832817
0.068074308 -0.0026508868 0.36700001 4278595601
0.069266327 -0.0026508868 0.36700001 4278924568
0.070458338 -0.0026508868 0.36700001 4278727189
0.071650356 -0.0026508868 0.36700001 4278727187
0.073040858 -0.0026581099 0.36800003 4278661394
0.074236117 -0.0026581099 0.36800003 4278727187
0.075431384 -0.0026581099 0.36800003 4279187738
0.076626651 -0.0026581099 0.36800003 4279254301
0.077821918 -0.0026581099 0.36800003 4279320094
0.079231896 -0.002665333 0.36900002 4279582750
0.085686386 -0.0026797792 0.37100002 4279646492
0.08689139 -0.0026797792 0.37100002 4279908381
0.088333853 -0.0026870023 0.37200001 4280104735
0.090994321 -0.0026942254 0.37300003 4280432678
0.093667775 -0.0027014485 0.37400001 4280366885
0.029685117 -0.0014465442 0.36400002 4283394131
0.03086739 -0.0014465442 0.36400002 4283656533
0.032049663 -0.0014465442 0.36400002 4283721297
0.033231933 -0.0014465442 0.36400002 4282207544
0.034414209 -0.0014465442 0.36400002 4282533673
0.035596479 -0.0014465442 0.36400002 4282072865
0.036778755 -0.0014465442 0.36400002 4282533673
0.037961025 -0.0014465442 0.36400002 4282402087
0.039143298 -0.0014465442 0.36400002 4282402087
0.040436354 -0.0014505181 0.36500001 4282337066
0.041849941 -0.0014584663 0.36700001 4283918162
0.043159239 -0.0014624404 0.36800003 4280299293
0.04447503 -0.0014664143 0.36900002 4280891694
0.045797318 -0.0014703883 0.37 4280300076
0.046999078 -0.0014703883 0.37 4280103982
0.048200838 -0.0014703883 0.37 4280169775
0.049402602 -0.0014703883 0.37 4280170288
0.050604358 -0.0014703883 0.37 4280433976
0.051806122 -0.0014703883 0.37 4280367929
0.053007882 -0.0014703883 0.37 4280631101
0.0559678 -0.0015180766 0.38200003 4280630837
0.057208531 -0.0015180766 0.38200003 4279183131
0.05737821 -0.0014902585 0.37500003 4279578654
0.058439955 -0.0014862844 0.37400001 4279183896
0.059495199 -0.0014823105 0.37300003 4279118613
0.060543951 -0.0014783364 0.37200001 4279513625
0.061586212 -0.0014743623 0.37100002 4279383320
0.062621966 -0.0014703883 0.37 4279384090
0.063651234 -0.0014664143 0.36900002 4278923539
0.064849749 -0.0014664143 0.36900002 4279055638
0.065869272 -0.0014624404 0.36800003 4278924566
0.067064531 -0.0014624404 0.36800003 4278858773
0.069455065 -0.0014624404 0.36800003 4279320094
0.070650324 -0.0014624404 0.36800003 4279056922
0.071845591 -0.0014624404 0.36800003 4278464785
0.073040858 -0.0014624404 0.36800003 4279056922
0.074236117 -0.0014624404 0.36800003 4279188508
0.075431384 -0.0014624404 0.36800003 4279912231
0.076834872 -0.0014664143 0.36900002 4279912231
0.088333853 -0.0014783364 0.37200001 4280367653
0.089542113 -0.0014783364 0.37200001 4279972125
0.028581148 -0.00026459587 0.36500001 4280232469
0.029685117 -0.00026387096 0.36400002 4284116571
0.03086739 -0.00026387096 0.36400002 4283129930
0.032049663 -0.00026387096 0.36400002 4283063113
0.033231933 -0.00026387096 0.36400002 4281615407
0.034414209 -0.00026387096 0.36400002 4282534445
0.035596479 -0.00026387096 0.36400002 4282928431
0.036778755 -0.00026387096 0.36400002 4282271525
0.037961025 -0.00026387096 0.36400002 4281942560
0.039143298 -0.00026387096 0.36400002 4284246094
0.040436354 -0.00026459587 0.36500001 4284115539
0.041849941 -0.00026604571 0.36700001 4283852629
0.043159239 -0.00026677066 0.36800003 4283457873
0.04447503 -0.00026749558 0.36900002 4281023280
0.045797318 -0.00026822046 0.37 4280366122
0.046999078 -0.00026822046 0.37 4280365871
0.048200838 -0.00026822046 0.37 4280300591
0.049402602 -0.00026822046 0.37 4280301361
0.050604358 -0.00026822046 0.37 4280433462
0.051806122 -0.00026822046 0.37 4280499769
0.053007882 -0.00026822046 0.37 4280565308
0.0559678 -0.00027691954 0.38200003 4280762941
0.05705877 -0.00027619459 0.38100001 4279052058
0.057684224 -0.00027329492 0.377 4279052824
0.05875247 -0.00027257 0.37600002 4278987029
0.059814211 -0.00027184509 0.37500003 4278987799
0.060706709 -0.00027039525 0.37300003 4279119383
0.061752211 -0.00026967033 0.37200001 4279317527
0.062960461 -0.00026967033 0.37200001 4279581469
0.063996226 -0.00026894541 0.37100002 4279581469
0.065025486 -0.00026822046 0.37 4279581982
0.06622725 -0.00026822046 0.37 4279450910
0.067246772 -0.00026749558 0.36900002 4279648289
0.069643795 -0.00026749558 0.36900002 4279845922
0.070842311 -0.00026749558 0.36900002 4279780129
0.072040819 -0.00026749558 0.36900002 4279780899
0.073239334 -0.00026749558 0.36900002 4279912231
0.079446614 -0.00026822046 0.37 4279778080
0.083276361 -0.00026894541 0.37100002 4280366883
0.084481373 -0.00026894541 0.37100002 4280234786
0.085686386 -0.00026894541 0.37100002 4280432676
0.028581148 0.00092132646 0.36500001 4279640854
0.029685117 0.00091880228 0.36400002 4283063885
0.03086739 0.00091880228 0.36400002 4283590481
0.032049663 0.00091880228 0.36400002 4282997574
0.033231933 0.00091880228 0.36400002 4282602816
0.034414209 0.00091880228 0.36400002 4283062851
0.035596479 0.00091880228 0.36400002 4283326023
0.036778755 0.00091880228 0.36400002 4284905055
0.037961025 0.00091880228 0.36400002 4284116053
0.039143298 0.00091880228 0.36400002 4284117338
0.040436354 0.00092132646 0.36500001 4283919705
0.041849941 0.00092637481 0.36700001 4283656535
0.043159239 0.00092889904 0.36800003 4283722328
0.04447503 0.00093142322 0.36900002 4279576088
0.045797318 0.00093394733 0.37 4280628522
0.046999078 0.00093394733 0.37 4280826420
0.048200838 0.00093394733 0.37 4280365871
0.049402602 0.00093394733 0.37 4280301361
0.050604358 0.00093394733 0.37 4280169777
0.051806122 0.00093394733 0.37 4280565562
0.053007882 0.00093394733 0.37 4280565308
0.0559678 0.00096423761 0.38200003 4280434746
0.05705877 0.00096171338 0.38100001 4280894525
0.057837237 0.00095414085 0.37800002 4279250203
0.058908723 0.00095161662 0.377 4278856215
0.059973713 0.00094909244 0.37600002 4278922004
0.061032213 0.00094656833 0.37500003 4279250969
0.062084213 0.00094404409 0.37400001 4279581469
0.063129716 0.00094151992 0.37300003 4279647262
0.064168721 0.00093899574 0.37200001 4279779875
0.065376982 0.00093899574 0.37200001 4279516703
0.029685117 0.0021014756 0.36400002 4280958259
0.03086739 0.0021014756 0.36400002 4280300329
0.0559678 0.0022053947 0.38200003 4279775532
0.05705877 0.0021996212 0.38100001 4280433462
0.057990242 0.0021880746 0.37900001 4280171053
0.059064981 0.0021823014 0.37800002 4279250203
0.060133215 0.0021765281 0.377 4278988310
0.061194964 0.0021707548 0.37600002 4279778080
0.062250216 0.0021649816 0.37500003 4279778848
0.063298963 0.0021592083 0.37400001 4279647775
0.064513713 0.0021592083 0.37400001 4279582496
0.065552726 0.002153435 0.37300003 4279911461
0.078244857 0.0021361152 0.37 4279908899
0.079446614 0.0021361152 0.37 4281619519
0.080648378 0.0021361152 0.37 4282605130
0.0559678 0.0034465517 0.38200003 4280170290
0.05705877 0.0034375291 0.38100001 4280105011
0.058143254 0.0034285069 0.38000003 4280368951
0.059221238 0.0034194842 0.37900001 4280368949
0.060292721 0.0034104621 0.37800002 4279317275
0.061357714 0.0034014394 0.377 4279843873
0.062416214 0.0033924172 0.37600002 4279647775
0.06346821 0.003383395 0.37500003 4279647775
0.064686216 0.003383395 0.37500003 4279977254
0.05705877 0.0046754372 0.38100001 4280499769
0.058143254 0.0046631657 0.38000003 4280632125
0.059221238 0.0046508941 0.37900001 4280895295
0.060292721 0.004638623 0.37800002 4280172075
0.061357714 0.0046263509 0.377 4279843873
0.06258221 0.0046263509 0.377 4279385117
0.063637458 0.0046140798 0.37600002 4279648289
0.06258221 0.0058512627 0.377 4279976490
0.072497815 -0.0091213053 0.37133723 4294967295
0.072497815 -0.0091213053 0.37133723 4294901760
0.072428994 -0.0095961411 0.37147793 4294901760
0.072360173 -0.010070978 0.37161863 4294901760
0.072291344 -0.010545814 0.3717593 4294901760
0.072222523 -0.01102065 0.37189999 4294901760
0.072153702 -0.011495487 0.37204069 4294901760
0.072084881 -0.011970323 0.37218139 4294901760
0.072016053 -0.012445159 0.37232208 4294901760
0.071947232 -0.012919995 0.37246275 4294901760
0.071878411 -0.013394832 0.37260345 4294901760
0.07180959 -0.013869667 0.37274414 4294901760
0.071740761 -0.014344504 0.37288484 4294901760
0.07167194 -0.01481934 0.37302554 4294901760
0.071603119 -0.015294176 0.37316623 4294901760
0.071534298 -0.015769012 0.3733069 4294901760
0.07146547 -0.016243849 0.3734476 4294901760
0.071396649 -0.016718686 0.37358829 4294901760
0.071327828 -0.017193522 0.37372899 4294901760
0.071259007 -0.017668359 0.37386969 4294901760
0.071190178 -0.018143194 0.37401035 4294901760
0.071121357 -0.01861803 0.37415105 4294901760
0.071052536 -0.019092865 0.37429175 4294901760
0.070983715 -0.019567702 0.37443244 4294901760
0.070914887 -0.020042539 0.37457314 4294901760
0.070846066 -0.020517375 0.37471381 4294901760
0.070777245 -0.020992212 0.37485451 4294901760
0.070708424 -0.021467047 0.3749952 4294901760
0.070639603 -0.021941885 0.3751359 4294901760
0.070570774 -0.02241672 0.3752766 4294901760
0.070501953 -0.022891555 0.37541726 4294901760
0.070433132 -0.023366392 0.37555796 4294901760
0.070364311 -0.023841228 0.37569866 4294901760
0.070295483 -0.024316065 0.37583935 4294901760
0.070226662 -0.024790902 0.37598005 4294901760
0.070157841 -0.025265738 0.37612075 4294901760
0.07008902 -0.025740571 0.37626141 4294901760
0.070020191 -0.026215412 0.37640211 4294901760
0.06995137 -0.026690245 0.37654281 4294901760
0.069882549 -0.027165081 0.3766835 4294901760
0.069813728 -0.027639918 0.3768242 4294901760
0.0697449 -0.028114755 0.37696487 4294901760
0.069676079 -0.028589591 0.37710556 4294901760
0.069607258 -0.029064428 0.37724626 4294901760
0.069538437 -0.029539265 0.37738696 4294901760
0.069469608 -0.030014098 0.37752765 4294901760
0.069400787 -0.030488934 0.37766832 4294901760
0.069331966 -0.030963771 0.37780902 4294901760
0.069263145 -0.031438608 0.37794971 4294901760
0.069194317 -0.031913444 0.37809041 4294901760
0.069125496 -0.032388281 0.37823111 4294901760
0.069056675 -0.032863118 0.37837178 4294901760
0.068987854 -0.033337954 0.37851247 4294901760
0.068919033 -0.033812787 0.37865317 4294901760
0.068850204 -0.034287624 0.37879387 4294901760
0.068781383 -0.034762464 0.37893456 4294901760
0.068712562 -0.035237297 0.37907526 4294901760
0.068643741 -0.035712134 0.37921593 4294901760
0.068574913 -0.036186971 0.37935662 4294901760
0.068506092 -0.036661807 0.37949732 4294901760
0.068437271 -0.03713664 0.37963802 4294901760
0.06836845 -0.037611481 0.37977871 4294901760
0.068299621 -0.038086317 0.37991938 4294901760
0.0682308 -0.03856115 0.38006008 4294901760
0.068161979 -0.039035987 0.38020077 4294901760
0.068093158 -0.039510824 0.38034147 4294901760
0.06802433 -0.03998566 0.38048217 4294901760
0.067955509 -0.040460497 0.38062283 4294901760
0.067886688 -0.040935334 0.38076353 4294901760
0.067817867 -0.04141017 0.38090423 4294901760
0.067749038 -0.041885007 0.38104492 4294901760
0.067680217 -0.04235984 0.38118562 4294901760
0.067611396 -0.042834677 0.38132632 4294901760
0.067542575 -0.043309517 0.38146698 4294901760
0.067473747 -0.04378435 0.38160768 4294901760
0.067404926 -0.044259187 0.38174838 4294901760
0.067336105 -0.044734024 0.38188908 4294901760
0.067267284 -0.04520886 0.38202977 4294901760
0.067198463 -0.045683697 0.38217044 4294901760
0.067129634 -0.04615853 0.38231114 4294901760
0.067060813 -0.04663337 0.38245183 4294901760
0.066991992 -0.047108207 0.38259253 4294901760
0.066923171 -0.04758304 0.38273323 4294901760
0.066854343 -0.048057877 0.38287389 4294901760
0.066785522 -0.048532713 0.38301459 4294901760
0.066716701 -0.04900755 0.38315529 4294901760
0.06664788 -0.049482387 0.38329598 4294901760
0.066579051 -0.049957223 0.38343668 4294901760
0.06651023 -0.05043206 0.38357735 4294901760
0.066441409 -0.050906893 0.38371804 4294901760
0.066372588 -0.05138173 0.38385874 4294901760
0.06630376 -0.051856566 0.38399944 4294901760
0.066234939 -0.052331403 0.38414013 4294901760
0.066166118 -0.05280624 0.38428083 4294901760
0.066097297 -0.053281076 0.3844215 4294901760
0.066028468 -0.053755913 0.38456219 4294901760
0.065959647 -0.054230746 0.38470289 4294901760
0.065890826 -0.054705583 0.38484359 4294901760
0.065822005 -0.055180423 0.38498428 4294901760
0.065753177 -0.055655256 0.38512495 4294901760
0.065684356 -0.056130093 0.38526565 4294901760
