# .PCD v0.7 - Point Cloud Data file format
VERSION 0.7
FIELDS x y z rgb
SIZE 4 4 4 4
TYPE F F F U
COUNT 1 1 1 1
WIDTH 1046
HEIGHT 1
VIEWPOINT 0 0 0 1 0 0 0
POINTS 1046
DATA ascii
0.061582208 0.059087936 0.33200002 4281022507
0.062660545 0.059087936 0.33200002 4280167457
0.063738875 0.059087936 0.33200002 4281287474
0.06050387 0.060166635 0.33200002 4281220147
0.061582208 0.060166635 0.33200002 4281088561
0.062660545 0.060166635 0.33200002 4280825389
0.063738875 0.060166635 0.33200002 4281156653
0.06481722 0.060166635 0.33200002 4280304676
0.06050387 0.061245337 0.33200002 4281285940
0.061582208 0.061245337 0.33200002 4280891696
0.062660545 0.061245337 0.33200002 4280695339
0.063738875 0.061245337 0.33200002 4279909918
0.06481722 0.061245337 0.33200002 4279320859
0.06050387 0.06232404 0.33200002 4281549110
0.061582208 0.06232404 0.33200002 4280826671
0.062660545 0.06232404 0.33200002 4280696620
0.063738875 0.06232404 0.33200002 4279451932
0.06481722 0.06232404 0.33200002 4279190554
0.065895557 0.06232404 0.33200002 4278993945
0.060321633 0.063211769 0.33100003 4281615157
0.061396722 0.063211769 0.33100003 4280695852
0.062471811 0.063211769 0.33100003 4280368934
0.063546896 0.063211769 0.33100003 4279255836
0.06481722 0.063402742 0.33200002 4278928154
0.060321633 0.064287223 0.33100003 4281155120
0.061396722 0.064287223 0.33100003 4280499752
0.062471811 0.064287223 0.33100003 4279976481
0.063546896 0.064287223 0.33100003 4279256601
0.06481722 0.064481445 0.33200002 4279453980
0.060139388 0.065165207 0.33000001 4280958509
0.061211228 0.065165207 0.33000001 4280698667
0.062283073 0.065165207 0.33000001 4279648025
0.063354909 0.065165207 0.33000001 4278993175
0.060139388 0.066237405 0.33000001 4280960303
0.061211228 0.066237405 0.33000001 4280897583
0.062283073 0.066237405 0.33000001 4279780127
0.063354909 0.066237405 0.33000001 4279387933
0.064231522 0.066036686 0.32900003 4278993945
0.060139388 0.067309611 0.33000001 4281684792
0.061211228 0.067309611 0.33000001 4280503084
0.062094338 0.067105643 0.32900003 4279386654
0.063162923 0.067105643 0.32900003 4279125531
0.064231522 0.067105643 0.32900003 4279125531
0.05995715 0.068174601 0.32900003 4281750839
0.061025742 0.068174601 0.32900003 4280109610
0.062094338 0.068174601 0.32900003 4279519010
0.063162923 0.068174601 0.32900003 4279257885
0.064231522 0.068174601 0.32900003 4279323678
0.065101631 0.067967378 0.32800001 4279125535
0.05995715 0.06924355 0.32900003 4280501540
0.061025742 0.06924355 0.32900003 4280503598
0.062094338 0.06924355 0.32900003 4279649826
0.063162923 0.06924355 0.32900003 4279257633
0.064036287 0.069033086 0.32800001 4279652391
0.065101631 0.069033086 0.32800001 4279454500
0.066166975 0.069033086 0.32800001 4279453730
0.060139388 0.070526227 0.33000001 4280567594
0.061025742 0.070312507 0.32900003 4281161268
0.062094338 0.070312507 0.32900003 4280899380
0.063162923 0.070312507 0.32900003 4279586084
0.064036287 0.070098795 0.32800001 4279652389
0.065101631 0.070098795 0.32800001 4284717170
0.066166975 0.070098795 0.32800001 4279058459
0.067232318 0.070098795 0.32800001 4279649826
0.06808944 0.069885075 0.32700002 4279648543
0.059067551 0.071598426 0.33000001 4280500520
0.060139388 0.071598426 0.33000001 4282015294
0.061025742 0.071381465 0.32900003 4281490231
0.062094338 0.071381465 0.32900003 4281293366
0.063162923 0.071381465 0.32900003 4279979557
0.064036287 0.071164496 0.32800001 4279520289
0.065101631 0.071164496 0.32800001 4280637489
0.066166975 0.071164496 0.32800001 4281558339
0.067232318 0.071164496 0.32800001 4279980074
0.06808944 0.070947535 0.32700002 4279387937
0.069151543 0.070947535 0.32700002 4279387683
0.070213631 0.070947535 0.32700002 4279714852
0.071275733 0.070947535 0.32700002 4279513623
0.059067551 0.072670631 0.33000001 4281750587
0.060139388 0.072670631 0.33000001 4281882941
0.061025742 0.072450422 0.32900003 4281752892
0.062094338 0.072450422 0.32900003 4281752890
0.063162923 0.072450422 0.32900003 4281490745
0.064036287 0.072230205 0.32800001 4279979559
0.065101631 0.072230205 0.32800001 4279783465
0.066166975 0.072230205 0.32800001 4283598435
0.067232318 0.072230205 0.32800001 4280177969
0.06808944 0.072009988 0.32700002 4279256867
0.069151543 0.072009988 0.32700002 4278993949
0.070213631 0.072009988 0.32700002 4279190558
0.071275733 0.072009988 0.32700002 4279649826
0.072337829 0.072009988 0.32700002 4279649313
0.073399924 0.072009988 0.32700002 4280238370
0.059067551 0.073742829 0.33000001 4282211136
0.060139388 0.073742829 0.33000001 4282080574
0.061025742 0.073519371 0.32900003 4282081087
0.062094338 0.073519371 0.32900003 4281950269
0.063162923 0.073519371 0.32900003 4281752890
0.064036287 0.073295906 0.32800001 4281621817
0.065101631 0.073295906 0.32800001 4280572211
0.066166975 0.073295906 0.32800001 4279783465
0.067232318 0.073295906 0.32800001 4279652393
0.06808944 0.073072441 0.32700002 4279455014
0.069151543 0.073072441 0.32700002 4279455014
0.070213631 0.073072441 0.32700002 4279322910
0.071275733 0.073072441 0.32700002 4279190554
0.072337829 0.073072441 0.32700002 4278993175
0.073399924 0.073072441 0.32700002 4279321627
0.075524122 0.073072441 0.32700002 4280108067
0.076586209 0.073072441 0.32700002 4279448854
0.077648312 0.073072441 0.32700002 4281617974
0.059067551 0.074815035 0.33000001 4282144829
0.060139388 0.074815035 0.33000001 4282146367
0.061025742 0.074588329 0.32900003 4281687612
0.062094338 0.074588329 0.32900003 4281950784
0.063162923 0.074588329 0.32900003 4282016062
0.064036287 0.074361615 0.32800001 4281752890
0.065101631 0.074361615 0.32800001 4281359159
0.066166975 0.074361615 0.32800001 4280966454
0.067232318 0.074361615 0.32800001 4280112944
0.06808944 0.074134901 0.32700002 4279323428
0.069151543 0.074134901 0.32700002 4279323426
0.070213631 0.074134901 0.32700002 4279257631
0.071275733 0.074134901 0.32700002 4278731287
0.072337829 0.074134901 0.32700002 4278994459
0.073399924 0.074134901 0.32700002 4279388703
0.074462019 0.074134901 0.32700002 4279125533
0.075524122 0.074134901 0.32700002 4279453215
0.076586209 0.074134901 0.32700002 4279584029
0.077648312 0.074134901 0.32700002 4279715102
0.078710407 0.074134901 0.32700002 4279911711
0.079772502 0.074134901 0.32700002 4280039194
0.060139388 0.07588724 0.33000001 4282408001
0.061025742 0.075657278 0.32900003 4282016064
0.062094338 0.075657278 0.32900003 4282081855
0.063162923 0.075657278 0.32900003 4282016062
0.064036287 0.075427316 0.32800001 4281950269
0.065101631 0.075427316 0.32800001 4281621817
0.066166975 0.075427316 0.32800001 4281227573
0.067232318 0.075427316 0.32800001 4280834098
0.06808944 0.075197354 0.32700002 4280571696
0.069151543 0.075197354 0.32700002 4280177453
0.070213631 0.075197354 0.32700002 4279322912
0.071275733 0.075197354 0.32700002 4279455010
0.072337829 0.075197354 0.32700002 4279191838
0.073399924 0.075197354 0.32700002 4279191838
0.074462019 0.075197354 0.32700002 4279257631
0.075524122 0.075197354 0.32700002 4278994459
0.076586209 0.075197354 0.32700002 4279257117
0.077648312 0.075197354 0.32700002 4278994199
0.078710407 0.075197354 0.32700002 4279322910
0.079772502 0.075197354 0.32700002 4279650594
0.080587395 0.074967392 0.32600001 4279845920
0.081646241 0.074967392 0.32600001 4279778330
0.064036287 0.076493025 0.32800001 4281884478
0.065101631 0.076493025 0.32800001 4281621819
0.066166975 0.076493025 0.32800001 4281490747
0.067232318 0.076493025 0.32800001 4281753917
0.06808944 0.076259814 0.32700002 4281227573
0.069151543 0.076259814 0.32700002 4281030194
0.070213631 0.076259814 0.32700002 4280767022
0.071275733 0.076259814 0.32700002 4280307754
0.072337829 0.076259814 0.32700002 4279979559
0.073399924 0.076259814 0.32700002 4279257119
0.074462019 0.076259814 0.32700002 4279126047
0.075524122 0.076259814 0.32700002 4279191838
0.076586209 0.076259814 0.32700002 4279323678
0.077648312 0.076259814 0.32700002 4279389471
0.078710407 0.076259814 0.32700002 4279191838
0.079772502 0.076259814 0.32700002 4278994461
0.080587395 0.076026604 0.32600001 4279257119
0.081646241 0.076026604 0.32600001 4279387935
0.082705088 0.076026604 0.32600001 4279584801
0.083507001 0.075793393 0.32500002 4280107295
0.064036287 0.077558726 0.32800001 4281884224
0.065101631 0.077558726 0.32800001 4281555772
0.066166975 0.077558726 0.32800001 4281358393
0.067232318 0.077558726 0.32800001 4281490231
0.068297662 0.077558726 0.32800001 4281424438
0.069363013 0.077558726 0.32800001 4281424438
0.070428349 0.077558726 0.32800001 4281424438
0.0714937 0.077558726 0.32800001 4280964401
0.072559044 0.077558726 0.32800001 4280701999
0.073624387 0.077558726 0.32800001 4280111145
0.074462019 0.077322267 0.32700002 4279849256
0.075524122 0.077322267 0.32700002 4279389217
0.076586209 0.077322267 0.32700002 4279191838
0.077648312 0.077322267 0.32700002 4279126558
0.078710407 0.077322267 0.32700002 4279127330
0.079528548 0.077085808 0.32600001 4279191838
0.080587395 0.077085808 0.32600001 4279126045
0.081646241 0.077085808 0.32600001 4278994713
0.082451396 0.076849349 0.32500002 4279125785
0.083507001 0.076849349 0.32500002 4279453726
0.0845626 0.076849349 0.32500002 4279453215
0.065101631 0.078624435 0.32800001 4281883454
0.066166975 0.078624435 0.32800001 4281752892
0.067232318 0.078624435 0.32800001 4281621306
0.068297662 0.078624435 0.32800001 4281489720
0.069363013 0.078624435 0.32800001 4281358132
0.070428349 0.078624435 0.32800001 4281423925
0.0714937 0.078624435 0.32800001 4281292852
0.072559044 0.078624435 0.32800001 4281161266
0.073624387 0.078624435 0.32800001 4280964401
0.074689731 0.078624435 0.32800001 4280767792
0.075755075 0.078624435 0.32800001 4280241963
0.076586209 0.078384727 0.32700002 4280176938
0.077648312 0.078384727 0.32700002 4279191838
0.078710407 0.078384727 0.32700002 4279257635
0.079528548 0.078145012 0.32600001 4279257633
0.080587395 0.078145012 0.32600001 4279191838
0.081395797 0.077905312 0.32500002 4279454750
0.082451396 0.077905312 0.32500002 4279323164
0.083507001 0.077905312 0.32500002 4279059738
0.0845626 0.077905312 0.32500002 4279125531
0.085618205 0.077905312 0.32500002 4279453726
0.086673804 0.077905312 0.32500002 4279453213
0.087729409 0.077905312 0.32500002 4279846690
0.088785 0.077905312 0.32500002 4279911201
0.065101631 0.079690143 0.32800001 4283789395
0.066166975 0.079690143 0.32800001 4281553460
0.067232318 0.079690143 0.32800001 4281817915
0.068297662 0.079690143 0.32800001 4281817915
0.069363013 0.079690143 0.32800001 4281620536
0.070428349 0.079690143 0.32800001 4281358647
0.0714937 0.079690143 0.32800001 4281095475
0.072559044 0.079690143 0.32800001 4281358647
0.073624387 0.079690143 0.32800001 4281358645
0.074689731 0.079690143 0.32800001 4281094960
0.075755075 0.079690143 0.32800001 4280567596
0.076820418 0.079690143 0.32800001 4280502571
0.077648312 0.079447187 0.32700002 4280570926
0.078469701 0.079204224 0.32600001 4280307754
0.079528548 0.079204224 0.32600001 4280638002
0.080340199 0.078961268 0.32500002 4279716900
0.081395797 0.078961268 0.32500002 4279388703
0.082197696 0.078718305 0.324 4279126045
0.083250053 0.078718305 0.324 4279323424
0.084302403 0.078718305 0.324 4279191838
0.08535476 0.078718305 0.324 4279059738
0.08640711 0.078718305 0.324 4278993945
0.087729409 0.078961268 0.32500002 4279125531
0.088785 0.078961268 0.32500002 4279585312
0.089840598 0.078961268 0.32500002 4279584029
0.090896204 0.078961268 0.32500002 4279977504
0.091951802 0.078961268 0.32500002 4280370469
0.068297662 0.080755845 0.32800001 4282275904
0.069574483 0.081002057 0.32900003 4281685562
0.070643075 0.081002057 0.32900003 4281817915
0.071711667 0.081002057 0.32900003 4281292600
0.072780266 0.081002057 0.32900003 4281161014
0.073848851 0.081002057 0.32900003 4281226548
0.074917451 0.081002057 0.32900003 4281157934
0.075755075 0.080755845 0.32800001 4280301344
0.076820418 0.080755845 0.32800001 4281092141
0.077648312 0.08050964 0.32700002 4281029682
0.078469701 0.080263428 0.32600001 4281227573
0.079528548 0.080263428 0.32600001 4280636719
0.080340199 0.080017224 0.32500002 4280242729
0.081145339 0.079771012 0.324 4279520289
0.082197696 0.079771012 0.324 4279586596
0.083250053 0.079771012 0.324 4279257633
0.084302403 0.079771012 0.324 4279257633
0.08535476 0.079771012 0.324 4279454500
0.08640711 0.079771012 0.324 4279257119
0.087459467 0.079771012 0.324 4278993945
0.08851181 0.079771012 0.324 4278993945
0.089564167 0.079771012 0.324 4279388703
0.090616517 0.079771012 0.324 4279387933
0.091668874 0.079771012 0.324 4279649822
0.092721224 0.079771012 0.324 4279846690
0.093773581 0.079771012 0.324 4279911201
0.094533257 0.079524808 0.32300001 4280040737
0.069574483 0.082071014 0.32900003 4285695603
0.070643075 0.082071014 0.32900003 4283459408
0.071711667 0.082071014 0.32900003 4282079550
0.072780266 0.082071014 0.32900003 4281685046
0.073848851 0.082071014 0.32900003 4280762147
0.074917451 0.082071014 0.32900003 4280235036
0.075755075 0.081821553 0.32800001 4281881144
0.076820418 0.081821553 0.32800001 4281685044
0.077648312 0.081572101 0.32700002 4281160753
0.078469701 0.08132264 0.32600001 4281621304
0.079284593 0.081073187 0.32500002 4280897583
0.080092989 0.080823727 0.324 4280963376
0.081145339 0.080823727 0.324 4280701999
0.081944004 0.080574274 0.32300001 4280373547
0.082993105 0.080574274 0.32300001 4280242729
0.084042214 0.080574274 0.32300001 4280045350
0.085091323 0.080574274 0.32300001 4279519008
0.086140424 0.080574274 0.32300001 4279519519
0.087189533 0.080574274 0.32300001 4279388703
0.088238627 0.080574274 0.32300001 4279388703
0.089287736 0.080574274 0.32300001 4279125531
0.090616517 0.080823727 0.324 4279323164
0.091668874 0.080823727 0.324 4279256601
0.092435054 0.080574274 0.32300001 4279256601
0.093484156 0.080574274 0.32300001 4279190043
0.094533257 0.080574274 0.32300001 4279320859
0.095582359 0.080574274 0.32300001 4279911715
0.096332304 0.080324821 0.32200003 4280305446
0.071711667 0.083139963 0.32900003 4285235052
0.072780266 0.083139963 0.32900003 4284511329
0.073848851 0.083139963 0.32900003 4282932033
0.074917451 0.083139963 0.32900003 4281747759
0.075755075 0.082887255 0.32800001 4281947702
0.076820418 0.082887255 0.32800001 4281159470
0.077648312 0.082634553 0.32700002 4280633128
0.078469701 0.082381845 0.32600001 4280630309
0.079284593 0.082129143 0.32500002 4280102168
0.080092989 0.081876434 0.324 4280036889
0.080894895 0.081623733 0.32300001 4279907356
0.081944004 0.081623733 0.32300001 4280764462
0.082993105 0.081623733 0.32300001 4281030712
0.083782025 0.081371032 0.32200003 4280635954
0.084827885 0.081371032 0.32200003 4280571696
0.085873738 0.081371032 0.32200003 4280111656
0.086919598 0.081371032 0.32200003 4279717152
0.088238627 0.081623733 0.32300001 4279519773
0.089287736 0.081623733 0.32300001 4279323164
0.090336844 0.081623733 0.32300001 4279257371
0.091385946 0.081623733 0.32300001 4279323162
0.092435054 0.081623733 0.32300001 4279125783
0.093484156 0.081623733 0.32300001 4279256347
0.094533257 0.081623733 0.32300001 4279058968
0.095286444 0.081371032 0.32200003 4279321627
0.096332304 0.081371032 0.32200003 4279453213
0.097378157 0.081371032 0.32200003 4279715102
0.09811835 0.081118323 0.32100001 4280042785
0.099160962 0.081118323 0.32100001 4280171555
0.075755075 0.083952963 0.32800001 4283197004
0.076820418 0.083952963 0.32800001 4282013497
0.077648312 0.083697014 0.32700002 4282012732
0.078469701 0.083441056 0.32600001 4280695335
0.079284593 0.083185099 0.32500002 4280496672
0.080092989 0.082929142 0.324 4280759844
0.080894895 0.082673192 0.32300001 4280365600
0.081944004 0.082673192 0.32300001 4280102428
0.082736164 0.082417242 0.32200003 4279906332
0.083782025 0.082417242 0.32200003 4280171301
0.084827885 0.082417242 0.32200003 4280438059
0.085873738 0.082417242 0.32200003 4280505133
0.086919598 0.082417242 0.32200003 4280570924
0.087965451 0.082417242 0.32200003 4280374315
0.089011304 0.082417242 0.32200003 4280045604
0.090057164 0.082417242 0.32200003 4279519260
0.091385946 0.082673192 0.32300001 4279256086
0.092435054 0.082673192 0.32300001 4279716637
0.093484156 0.082673192 0.32300001 4279453467
0.094240583 0.082417242 0.32200003 4279256601
0.095286444 0.082417242 0.32200003 4279190295
0.096332304 0.082417242 0.32200003 4279058709
0.097075738 0.082161285 0.32100001 4279190295
0.09811835 0.082161285 0.32100001 4279386904
0.099160962 0.082161285 0.32100001 4279715102
0.10020357 0.082161285 0.32100001 4279780897
0.10093077 0.081905335 0.32000002 4280172838
0.10197013 0.081905335 0.32000002 4280763692
0.079040639 0.083981857 0.324 4282735170
0.080092989 0.083981857 0.324 4280892198
0.080894895 0.083722658 0.32300001 4280497186
0.081690311 0.083463453 0.32200003 4280365602
0.082736164 0.083463453 0.32200003 4280695337
0.083782025 0.083463453 0.32200003 4280036637
0.084827885 0.083463453 0.32200003 4279774748
0.085607044 0.083204247 0.32100001 4279841311
0.086919598 0.083463453 0.32200003 4280765997
0.087965451 0.083463453 0.32200003 4281227573
0.089011304 0.083463453 0.32200003 4280833067
0.090057164 0.083463453 0.32200003 4280701481
0.091103025 0.083463453 0.32200003 4280373286
0.092148878 0.083463453 0.32200003 4280044834
0.093194738 0.083463453 0.32200003 4279715869
0.094240583 0.083463453 0.32200003 4279650846
0.095286444 0.083463453 0.32200003 4279388957
0.096332304 0.083463453 0.32200003 4279257117
0.097075738 0.083204247 0.32100001 4278994199
0.09811835 0.083204247 0.32100001 4279256601
0.099160962 0.083204247 0.32100001 4279190295
0.099891409 0.082945049 0.32000002 4279452697
0.10093077 0.082945049 0.32000002 4279649563
0.10197013 0.082945049 0.32000002 4279582746
0.10268757 0.082685843 0.31900001 4280042020
0.080644451 0.084509656 0.32200003 4280630309
0.081690311 0.084509656 0.32200003 4280630055
0.082736164 0.084509656 0.32200003 4280234788
0.083782025 0.084509656 0.32200003 4280168225
0.08456444 0.084247202 0.32100001 4281088813
0.085607044 0.084247202 0.32100001 4280957739
0.086649656 0.084247202 0.32100001 4280168221
0.087965451 0.084509656 0.32200003 4279971866
0.089011304 0.084509656 0.32200003 4280170780
0.090057164 0.084509656 0.32200003 4281225261
0.091103025 0.084509656 0.32200003 4280833067
0.092148878 0.084509656 0.32200003 4280504102
0.093194738 0.084509656 0.32200003 4280439079
0.094240583 0.084509656 0.32200003 4280044834
0.095286444 0.084509656 0.32200003 4279388187
0.096033126 0.084247202 0.32100001 4279059992
0.097075738 0.084247202 0.32100001 4279059992
0.09811835 0.084247202 0.32100001 4279257117
0.098852053 0.083984755 0.32000002 4279322910
0.099891409 0.083984755 0.32000002 4279190554
0.10093077 0.083984755 0.32000002 4279452443
0.10165147 0.083722293 0.31900001 4279452443
0.10268757 0.083722293 0.31900001 4279584029
0.10372369 0.083722293 0.31900001 4279649309
0.10443141 0.083459847 0.31800002 4279845920
0.10546428 0.083459847 0.31800002 4280042274
0.094990522 0.085290164 0.32100001 4280438055
0.096033126 0.085290164 0.32100001 4280241700
0.097075738 0.085290164 0.32100001 4279716639
0.09781269 0.085024469 0.32000002 4279453726
0.098852053 0.085024469 0.32000002 4279453726
0.099891409 0.085024469 0.32000002 4279453726
0.10061535 0.084758759 0.31900001 4279519519
0.10165147 0.084758759 0.31900001 4278992662
0.10268757 0.084758759 0.31900001 4279190043
0.10339855 0.084493063 0.31800002 4279124248
0.10443141 0.084493063 0.31800002 4279386650
0.10546428 0.084493063 0.31800002 4279451930
0.10616223 0.084227361 0.317 4279582232
0.10719185 0.084227361 0.317 4279976479
0.10822146 0.084227361 0.317 4279909153
0.10925108 0.084227361 0.317 4281223993
0.09781269 0.086064182 0.32000002 4280569895
0.098852053 0.086064182 0.32000002 4279913768
0.099891409 0.086064182 0.32000002 4279650596
0.10061535 0.085795231 0.31900001 4279716898
0.10165147 0.085795231 0.31900001 4279651359
0.10268757 0.085795231 0.31900001 4279256601
0.10339855 0.08552628 0.31800002 4278993429
0.10443141 0.08552628 0.31800002 4279256088
0.10546428 0.08552628 0.31800002 4279124500
0.10616223 0.085257329 0.317 4279386904
0.10719185 0.085257329 0.317 4279386650
0.10822146 0.085257329 0.317 4279582748
0.10925108 0.085257329 0.317 4279779615
0.1102807 0.085257329 0.317 4280303909
0.11131032 0.085257329 0.317 4280895026
0.098852053 0.087103896 0.32000002 4280700715
0.099579245 0.086831696 0.31900001 4280503850
0.10061535 0.086831696 0.31900001 4280176168
0.10165147 0.086831696 0.31900001 4279650594
0.10236568 0.086559497 0.31800002 4279453980
0.10339855 0.086559497 0.31800002 4279585566
0.10443141 0.086559497 0.31800002 4279453726
0.10546428 0.086559497 0.31800002 4279519519
0.10616223 0.08628729 0.317 4279124761
0.10719185 0.08628729 0.317 4279124248
0.10822146 0.08628729 0.317 4279255064
0.10925108 0.08628729 0.317 4279452443
0.1102807 0.08628729 0.317 4279517723
0.11131032 0.08628729 0.317 4279713818
0.11233994 0.08628729 0.317 4280172577
0.11336955 0.08628729 0.317 4280632104
0.10133281 0.087592714 0.31800002 4280373034
0.10236568 0.087592714 0.31800002 4280176166
0.10339855 0.087592714 0.31800002 4279914018
0.10443141 0.087592714 0.31800002 4279585566
0.10513262 0.087317258 0.317 4279716898
0.10616223 0.087317258 0.317 4279387933
0.10719185 0.087317258 0.317 4279190554
0.10822146 0.087317258 0.317 4279453467
0.10925108 0.087317258 0.317 4279255318
0.1102807 0.087317258 0.317 4279254551
0.11131032 0.087317258 0.317 4279386137
0.11233994 0.087317258 0.317 4279648539
0.11336955 0.087317258 0.317 4279713818
0.11403829 0.087041818 0.31600001 4279975711
0.11506466 0.087041818 0.31600001 4280566311
0.10410301 0.088347219 0.317 4280373547
0.10513262 0.088347219 0.317 4279912996
0.10616223 0.088347219 0.317 4279519008
0.10719185 0.088347219 0.317 4279782178
0.10822146 0.088347219 0.317 4279847201
0.10925108 0.088347219 0.317 4279715615
0.1102807 0.088347219 0.317 4279386650
0.11131032 0.088347219 0.317 4279255064
0.11233994 0.088347219 0.317 4279189525
0.11336955 0.088347219 0.317 4279255318
0.11403829 0.088068523 0.31600001 4279517977
0.11506466 0.088068523 0.31600001 4279648793
0.11609103 0.088068523 0.31600001 4280172827
0.1171174 0.088068523 0.31600001 4280105750
0.11814377 0.088068523 0.31600001 4281813552
0.10719185 0.089377187 0.317 4280307243
0.10822146 0.089377187 0.317 4279912998
0.10925108 0.089377187 0.317 4279650596
0.1102807 0.089377187 0.317 4279519521
0.11131032 0.089377187 0.317 4279256347
0.11233994 0.089377187 0.317 4279124502
0.11336955 0.089377187 0.317 4279255318
0.11439916 0.089377187 0.317 4278992146
0.11506466 0.089095242 0.31600001 4279123478
0.11609103 0.089095242 0.31600001 4279386137
0.1171174 0.089095242 0.31600001 4279582746
0.11814377 0.089095242 0.31600001 4280171803
0.11879303 0.088813297 0.31500003 4280697633
0.11981613 0.088813297 0.31500003 4281154343
0.10822146 0.090407155 0.317 4280700717
0.10959573 0.090692356 0.31800002 4280373036
0.1106286 0.090692356 0.31800002 4279847203
0.11131032 0.090407155 0.317 4279781408
0.11233994 0.090407155 0.317 4279913764
0.11336955 0.090407155 0.317 4279585053
0.11439916 0.090407155 0.317 4279124502
0.11542878 0.090407155 0.317 4279190295
0.1164584 0.090407155 0.317 4279255318
0.1171174 0.090121962 0.31600001 4279254805
0.11814377 0.090121962 0.31600001 4279714072
0.11879303 0.089836769 0.31500003 4279845145
0.11981613 0.089836769 0.31500003 4280040217
0.10959573 0.091725573 0.31800002 4280897583
0.1106286 0.091725573 0.31800002 4280963887
0.11166146 0.091725573 0.31800002 4280569643
0.11269433 0.091725573 0.31800002 4280241448
0.11372718 0.091725573 0.31800002 4279912996
0.11476005 0.091725573 0.31800002 4279716387
0.11542878 0.091437124 0.317 4279321629
0.1164584 0.091437124 0.317 4279517725
0.11748802 0.091437124 0.317 4279452184
0.11851764 0.091437124 0.317 4279386391
0.11954726 0.091437124 0.317 4279254805
0.12057687 0.091437124 0.317 4279845145
0.10820629 0.09334217 0.32000002 4280238118
0.10924565 0.09334217 0.32000002 4280501290
0.10994036 0.093050465 0.31900001 4280698669
0.11097648 0.093050465 0.31900001 4280632874
0.11201259 0.093050465 0.31900001 4280897583
0.11304871 0.093050465 0.31900001 4281029680
0.11372718 0.092758775 0.31800002 4280767022
0.11476005 0.092758775 0.31800002 4280306471
0.11579292 0.092758775 0.31800002 4279977506
0.11682578 0.092758775 0.31800002 4279978276
0.11785865 0.092758775 0.31800002 4280109862
0.11851764 0.092467077 0.317 4279715104
0.11954726 0.092467077 0.317 4279715104
0.12057687 0.092467077 0.317 4279516955
0.12122287 0.092175387 0.31600001 4279451162
0.12224924 0.092175387 0.31600001 4279647512
0.10716692 0.094381884 0.32000002 4279908901
0.10820629 0.094381884 0.32000002 4280040485
0.10924565 0.094381884 0.32000002 4280566313
0.10994036 0.094086938 0.31900001 4280039969
0.11097648 0.094086938 0.31900001 4280896046
0.11201259 0.094086938 0.31900001 4280961839
0.11304871 0.094086938 0.31900001 4280896300
0.11408481 0.094086938 0.31900001 4280765227
0.11512093 0.094086938 0.31900001 4281029169
0.11615704 0.094086938 0.31900001 4280963374
0.11682578 0.093791991 0.31800002 4280700202
0.11785865 0.093791991 0.31800002 4280437543
0.11889151 0.093791991 0.31800002 4280109092
0.11954726 0.093497045 0.317 4279912483
0.12057687 0.093497045 0.317 4279912483
0.12160648 0.093497045 0.317 4279320346
0.12224924 0.093202107 0.31600001 4279582746
0.10716692 0.095421597 0.32000002 4280894774
0.10820629 0.095421597 0.32000002 4280434475
0.10924565 0.095421597 0.32000002 4280236834
0.10994036 0.095123403 0.31900001 4280171555
0.11097648 0.095123403 0.31900001 4280369702
0.11201259 0.095123403 0.31900001 4280435495
0.1134031 0.095421597 0.32000002 4280895276
0.11408481 0.095123403 0.31900001 4281157934
0.11512093 0.095123403 0.31900001 4281026864
0.11615704 0.095123403 0.31900001 4280829483
0.11719315 0.095123403 0.31900001 4281224495
0.11822927 0.095123403 0.31900001 4281356851
0.11889151 0.094825208 0.31800002 4280832303
0.11992438 0.094825208 0.31800002 4280175655
0.12057687 0.094527014 0.317 4280306471
0.12160648 0.094527014 0.317 4279912483
0.1226361 0.094527014 0.317 4279781412
0.10716692 0.096461311 0.32000002 4281419072
0.10820629 0.096461311 0.32000002 4281287486
0.10924565 0.096461311 0.32000002 4281221942
0.10994036 0.096159868 0.31900001 4280762415
0.11097648 0.096159868 0.31900001 4280105762
0.11201259 0.096159868 0.31900001 4280040739
0.1134031 0.096461311 0.32000002 4280631592
0.11444245 0.096461311 0.32000002 4281092143
0.11548182 0.096461311 0.32000002 4280961071
0.11615704 0.096159868 0.31900001 4281224243
0.11719315 0.096159868 0.31900001 4282868806
0.11822927 0.096159868 0.31900001 4281223981
0.11926538 0.096159868 0.31900001 4280896300
0.11992438 0.095858425 0.31800002 4281225778
0.12095724 0.095858425 0.31800002 4281159983
0.12160648 0.095556982 0.317 4280700715
0.1226361 0.095556982 0.317 4280043301
0.10716692 0.097501017 0.32000002 4281615168
0.10786814 0.097196326 0.31900001 4281615170
0.10890425 0.097196326 0.31900001 4281352768
0.10994036 0.097196326 0.31900001 4281155387
0.11097648 0.097196326 0.31900001 4281090358
0.11201259 0.097196326 0.31900001 4280762161
0.1134031 0.097501017 0.32000002 4280762413
0.11444245 0.097501017 0.32000002 4280893227
0.11548182 0.097501017 0.32000002 4281156653
0.11652118 0.097501017 0.32000002 4281354032
0.11756054 0.097501017 0.32000002 4281617456
0.11822927 0.097196326 0.31900001 4281156392
0.11926538 0.097196326 0.31900001 4281882425
0.11992438 0.096891634 0.31800002 4281224495
0.12095724 0.096891634 0.31800002 4281027116
0.12199011 0.096891634 0.31800002 4281027116
0.12302297 0.096891634 0.31800002 4281159985
0.10786814 0.098232791 0.31900001 4281746756
0.10890425 0.098232791 0.31900001 4281417791
0.10994036 0.098232791 0.31900001 4281417791
0.11097648 0.098232791 0.31900001 4281417791
0.11201259 0.098232791 0.31900001 4281483070
0.11304871 0.098232791 0.31900001 4281944120
0.11444245 0.098540731 0.32000002 4282535996
0.11548182 0.098540731 0.32000002 4282669377
0.11652118 0.098540731 0.32000002 4282143033
0.11756054 0.098540731 0.32000002 4280695841
0.1185999 0.098540731 0.32000002 4281880115
0.11963926 0.098540731 0.32000002 4282012212
0.12067863 0.098540731 0.32000002 4281947189
0.12171797 0.098540731 0.32000002 4281420075
0.12275734 0.098540731 0.32000002 4280564255
0.1237967 0.098540731 0.32000002 4281486386
0.10786814 0.099269256 0.31900001 4281745988
0.10890425 0.099269256 0.31900001 4281483330
0.10994036 0.099269256 0.31900001 4281483330
0.11097648 0.099269256 0.31900001 4281614656
0.11201259 0.099269256 0.31900001 4281679934
0.11304871 0.099269256 0.31900001 4282600254
0.11444245 0.099580444 0.32000002 4283585861
0.11548182 0.099580444 0.32000002 4284574807
0.11652118 0.099580444 0.32000002 4285364323
0.11756054 0.099580444 0.32000002 4285168227
0.1185999 0.099580444 0.32000002 4282339644
0.11963926 0.099580444 0.32000002 4282405687
0.12067863 0.099580444 0.32000002 4280957727
0.12171797 0.099580444 0.32000002 4281878577
0.12275734 0.099580444 0.32000002 4282406205
0.1237967 0.099580444 0.32000002 4282078775
0.089503467 0.082205027 0.32331666 4294967295
0.089503467 0.082205027 0.32331666 4294901760
0.089676738 0.081749581 0.32320467 4294901760
0.089850008 0.081294134 0.32309267 4294901760
0.090023279 0.08083868 0.32298064 4294901760
0.090196542 0.080383234 0.32286865 4294901760
0.090369813 0.079927787 0.32275665 4294901760
0.090543084 0.079472341 0.32264465 4294901760
0.090716355 0.079016894 0.32253265 4294901760
0.090889625 0.07856144 0.32242063 4294901760
0.091062896 0.078105994 0.32230863 4294901760
0.091236159 0.077650547 0.32219663 4294901760
0.09140943 0.0771951 0.32208464 4294901760
0.091582701 0.076739646 0.32197264 4294901760
0.091755971 0.0762842 0.32186061 4294901760
0.091929242 0.075828753 0.32174861 4294901760
0.092102513 0.075373307 0.32163662 4294901760
0.092275783 0.07491786 0.32152462 4294901760
0.092449047 0.074462406 0.32141262 4294901760
0.092622317 0.07400696 0.3213006 4294901760
0.092795588 0.073551513 0.3211886 4294901760
0.092968859 0.073096067 0.3210766 4294901760
0.093142129 0.072640613 0.3209646 4294901760
0.0933154 0.072185166 0.32085261 4294901760
0.093488671 0.07172972 0.32074058 4294901760
0.093661934 0.071274273 0.32062858 4294901760
0.093835205 0.070818827 0.32051659 4294901760
0.094008476 0.070363373 0.32040459 4294901760
0.094181746 0.069907926 0.32029259 4294901760
0.094355017 0.069452479 0.32018057 4294901760
0.094528288 0.068997033 0.32006857 4294901760
0.094701558 0.068541586 0.31995657 4294901760
0.094874822 0.068086132 0.31984457 4294901760
0.095048092 0.067630686 0.31973258 4294901760
0.095221363 0.067175239 0.31962055 4294901760
0.095394634 0.066719793 0.31950855 4294901760
0.095567904 0.066264346 0.31939656 4294901760
0.095741175 0.065808892 0.31928456 4294901760
0.095914438 0.065353446 0.31917256 4294901760
0.096087709 0.064897999 0.31906053 4294901760
0.09626098 0.064442553 0.31894854 4294901760
0.09643425 0.063987099 0.31883654 4294901760
0.096607521 0.063531652 0.31872454 4294901760
0.096780792 0.063076206 0.31861255 4294901760
0.096954063 0.062620759 0.31850052 4294901760
0.097127326 0.062165309 0.31838852 4294901760
0.097300597 0.061709862 0.31827652 4294901760
0.097473867 0.061254412 0.31816453 4294901760
0.097647138 0.060798965 0.31805253 4294901760
0.097820409 0.060343519 0.3179405 4294901760
0.097993679 0.059888069 0.31782851 4294901760
0.098166943 0.059432618 0.31771651 4294901760
0.098340213 0.058977172 0.31760451 4294901760
0.098513484 0.058521725 0.31749251 4294901760
0.098686755 0.058066279 0.31738049 4294901760
0.098860025 0.057610825 0.31726849 4294901760
0.099033296 0.057155378 0.31715649 4294901760
0.099206567 0.056699932 0.3170445 4294901760
0.09937983 0.056244485 0.3169325 4294901760
0.099553101 0.055789039 0.31682047 4294901760
0.099726371 0.055333588 0.31670848 4294901760
0.099899642 0.054878138 0.31659648 4294901760
0.10007291 0.054422691 0.31648448 4294901760
0.10024618 0.053967245 0.31637248 4294901760
0.10041945 0.053511795 0.31626046 4294901760
0.10059272 0.053056344 0.31614846 4294901760
0.10076599 0.052600898 0.31603646 4294901760
0.10093926 0.052145451 0.31592447 4294901760
0.10111253 0.051690001 0.31581247 4294901760
0.1012858 0.051234551 0.31570044 4294901760
0.10145907 0.050779104 0.31558844 4294901760
0.10163234 0.050323658 0.31547645 4294901760
0.1018056 0.049868211 0.31536445 4294901760
0.10197888 0.049412761 0.31525245 4294901760
0.10215215 0.048957311 0.31514043 4294901760
0.10232542 0.048501864 0.31502843 4294901760
0.10249869 0.048046418 0.31491643 4294901760
0.10267196 0.047590967 0.31480443 4294901760
0.10284522 0.047135521 0.31469244 4294901760
0.10301849 0.046680074 0.31458041 4294901760
0.10319176 0.046224624 0.31446841 4294901760
0.10336503 0.045769174 0.31435642 4294901760
0.1035383 0.045313727 0.31424442 4294901760
0.10371158 0.044858281 0.31413242 4294901760
0.10388485 0.044402834 0.3140204 4294901760
0.10405811 0.043947384 0.3139084 4294901760
0.10423138 0.043491933 0.3137964 4294901760
0.10440465 0.043036487 0.3136844 4294901760
0.10457792 0.04258104 0.31357241 4294901760
0.10475119 0.04212559 0.31346038 4294901760
0.10492446 0.041670144 0.31334838 4294901760
0.10509773 0.041214697 0.31323639 4294901760
0.105271 0.040759247 0.31312439 4294901760
0.10544427 0.040303797 0.31301239 4294901760
0.10561754 0.03984835 0.31290036 4294901760
0.10579081 0.039392903 0.31278837 4294901760
0.10596408 0.038937453 0.31267637 4294901760
0.10613735 0.038482007 0.31256437 4294901760
0.10631062 0.038026556 0.31245238 4294901760
0.10648388 0.03757111 0.31234035 4294901760
0.10665715 0.03711566 0.31222835 4294901760
0.10683043 0.036660213 0.31211635 4294901760
0.089503467 0.082205027 0.32331666 4278255360
0.089952379 0.082400657 0.32321563 4278255360
0.090401292 0.08259628 0.3231146 4278255360
0.090850204 0.08279191 0.32301357 4278255360
0.091299117 0.082987539 0.32291254 4278255360
0.091748036 0.083183169 0.32281151 4278255360
0.092196949 0.083378792 0.32271048 4278255360
0.092645861 0.083574422 0.32260948 4278255360
0.093094774 0.083770052 0.32250845 4278255360
0.093543686 0.083965681 0.32240742 4278255360
0.093992598 0.084161304 0.32230639 4278255360
0.094441511 0.084356934 0.32220536 4278255360
0.094890423 0.084552564 0.32210433 4278255360
0.095339343 0.084748194 0.3220033 4278255360
0.095788255 0.084943816 0.32190228 4278255360
0.096237168 0.085139446 0.32180125 4278255360
0.09668608 0.085335076 0.32170022 4278255360
0.097134992 0.085530706 0.32159919 4278255360
0.097583905 0.085726328 0.32149816 4278255360
0.098032817 0.085921958 0.32139716 4278255360
0.09848173 0.086117588 0.32129613 4278255360
0.098930642 0.086313218 0.3211951 4278255360
0.099379562 0.08650884 0.32109407 4278255360
0.099828474 0.08670447 0.32099304 4278255360
0.10027739 0.0869001 0.32089201 4278255360
0.1007263 0.087095723 0.32079098 4278255360
0.10117521 0.087291352 0.32068995 4278255360
0.10162412 0.087486982 0.32058892 4278255360
0.10207304 0.087682612 0.32048789 4278255360
0.10252195 0.087878235 0.32038686 4278255360
0.10297087 0.088073865 0.32028583 4278255360
0.10341978 0.088269494 0.3201848 4278255360
0.10386869 0.088465124 0.3200838 4278255360
0.10431761 0.088660747 0.31998277 4278255360
0.10476652 0.088856377 0.31988174 4278255360
0.10521543 0.089052007 0.31978071 4278255360
0.10566434 0.089247636 0.31967968 4278255360
0.10611326 0.089443259 0.31957865 4278255360
0.10656217 0.089638889 0.31947762 4278255360
0.10701108 0.089834519 0.31937659 4278255360
0.10746 0.090030149 0.31927556 4278255360
0.10790891 0.090225771 0.31917453 4278255360
0.10835782 0.090421401 0.3190735 4278255360
0.10880674 0.090617031 0.31897247 4278255360
0.10925565 0.090812653 0.31887147 4278255360
0.10970456 0.091008283 0.31877044 4278255360
0.11015348 0.091203913 0.31866941 4278255360
0.11060239 0.091399543 0.31856838 4278255360
0.11105131 0.091595173 0.31846735 4278255360
0.11150022 0.091790795 0.31836632 4278255360
0.11194913 0.091986425 0.31826529 4278255360
0.11239804 0.092182055 0.31816426 4278255360
0.11284696 0.092377678 0.31806323 4278255360
0.11329587 0.092573307 0.3179622 4278255360
0.11374478 0.092768937 0.31786117 4278255360
0.1141937 0.092964567 0.31776014 4278255360
0.11464261 0.093160197 0.31765911 4278255360
0.11509153 0.09335582 0.31755811 4278255360
0.11554044 0.093551449 0.31745708 4278255360
0.11598935 0.093747079 0.31735605 4278255360
0.11643826 0.093942702 0.31725502 4278255360
0.11688718 0.094138332 0.31715399 4278255360
0.11733609 0.094333962 0.31705296 4278255360
0.11778501 0.094529592 0.31695193 4278255360
0.11823392 0.094725214 0.3168509 4278255360
0.11868283 0.094920844 0.31674987 4278255360
0.11913174 0.095116474 0.31664884 4278255360
0.11958066 0.095312104 0.31654781 4278255360
0.12002957 0.095507726 0.31644678 4278255360
0.12047848 0.095703356 0.31634578 4278255360
0.12092739 0.095898986 0.31624475 4278255360
0.12137631 0.096094608 0.31614372 4278255360
0.12182523 0.096290238 0.31604269 4278255360
0.12227414 0.096485868 0.31594166 4278255360
0.12272305 0.096681498 0.31584063 4278255360
0.12317196 0.096877128 0.3157396 4278255360
0.12362088 0.09707275 0.31563857 4278255360
0.12406979 0.09726838 0.31553754 4278255360
0.1245187 0.09746401 0.31543651 4278255360
0.12496762 0.097659633 0.31533548 4278255360
0.12541653 0.097855262 0.31523445 4278255360
0.12586544 0.098050892 0.31513342 4278255360
0.12631436 0.098246522 0.31503242 4278255360
0.12676327 0.098442152 0.31493139 4278255360
0.12721218 0.098637775 0.31483036 4278255360
0.12766109 0.098833404 0.31472933 4278255360
0.12811001 0.099029034 0.3146283 4278255360
0.12855892 0.099224657 0.31452727 4278255360
0.12900783 0.099420287 0.31442624 4278255360
0.12945674 0.099615917 0.31432521 4278255360
0.12990566 0.099811539 0.31422418 4278255360
0.13035458 0.10000718 0.31412315 4278255360
0.1308035 0.1002028 0.31402212 4278255360
0.13125241 0.10039843 0.31392109 4278255360
0.13170132 0.10059406 0.31382009 4278255360
0.13215023 0.10078968 0.31371906 4278255360
0.13259915 0.10098531 0.31361803 4278255360
0.13304806 0.10118094 0.313517 4278255360
0.13349697 0.10137656 0.31341597 4278255360
0.13394588 0.10157219 0.31331494 4278255360
0.13439479 0.10176782 0.31321391 4278255360
0.089503467 0.082205027 0.32331666 4278190335
0.089630648 0.082135722 0.32379523 4278190335
0.089757822 0.082066417 0.32427379 4278190335
0.089885004 0.081997111 0.32475236 4278190335
0.090012178 0.081927814 0.32523093 4278190335
0.090139359 0.081858508 0.32570949 4278190335
0.090266533 0.081789203 0.32618806 4278190335
0.090393715 0.081719898 0.32666659 4278190335
0.090520889 0.081650592 0.32714516 4278190335
0.09064807 0.081581287 0.32762372 4278190335
0.090775244 0.081511982 0.32810229 4278190335
0.090902425 0.081442684 0.32858086 4278190335
0.091029599 0.081373379 0.32905942 4278190335
0.091156781 0.081304073 0.32953799 4278190335
0.091283955 0.081234768 0.33001655 4278190335
0.091411136 0.081165463 0.33049512 4278190335
0.09153831 0.081096157 0.33097368 4278190335
0.091665491 0.081026852 0.33145225 4278190335
0.091792665 0.080957554 0.33193082 4278190335
0.091919847 0.080888249 0.33240935 4278190335
0.092047021 0.080818944 0.33288792 4278190335
0.092174202 0.080749638 0.33336648 4278190335
0.092301376 0.080680333 0.33384505 4278190335
0.092428558 0.080611028 0.33432361 4278190335
0.092555732 0.080541722 0.33480218 4278190335
0.092682913 0.080472425 0.33528075 4278190335
0.092810094 0.080403119 0.33575931 4278190335
0.092937268 0.080333814 0.33623788 4278190335
0.09306445 0.080264509 0.33671644 4278190335
0.093191624 0.080195203 0.33719501 4278190335
0.093318805 0.080125898 0.33767357 4278190335
0.093445979 0.080056593 0.33815214 4278190335
0.09357316 0.079987288 0.33863068 4278190335
0.093700334 0.07991799 0.33910924 4278190335
0.093827516 0.079848684 0.33958781 4278190335
0.09395469 0.079779379 0.34006637 4278190335
0.094081871 0.079710074 0.34054494 4278190335
0.094209045 0.079640768 0.3410235 4278190335
0.094336227 0.079571463 0.34150207 4278190335
0.094463401 0.079502158 0.34198064 4278190335
0.094590582 0.07943286 0.3424592 4278190335
0.094717756 0.079363555 0.34293777 4278190335
0.094844937 0.079294249 0.34341633 4278190335
0.094972111 0.079224944 0.3438949 4278190335
0.095099293 0.079155639 0.34437346 4278190335
0.095226467 0.079086334 0.344852 4278190335
0.095353648 0.079017028 0.34533057 4278190335
0.095480822 0.07894773 0.34580913 4278190335
0.095608003 0.078878425 0.3462877 4278190335
0.095735177 0.07880912 0.34676626 4278190335
0.095862359 0.078739814 0.34724483 4278190335
0.09598954 0.078670509 0.34772339 4278190335
0.096116714 0.078601204 0.34820196 4278190335
0.096243888 0.078531899 0.34868053 4278190335
0.09637107 0.078462601 0.34915909 4278190335
0.096498251 0.078393295 0.34963766 4278190335
0.096625425 0.07832399 0.35011619 4278190335
0.096752606 0.078254685 0.35059476 4278190335
0.09687978 0.07818538 0.35107332 4278190335
0.097006962 0.078116074 0.35155189 4278190335
0.097134136 0.078046769 0.35203046 4278190335
0.097261317 0.077977464 0.35250902 4278190335
0.097388491 0.077908166 0.35298759 4278190335
0.097515672 0.07783886 0.35346615 4278190335
0.097642846 0.077769555 0.35394472 4278190335
0.097770028 0.07770025 0.35442328 4278190335
0.097897202 0.077630945 0.35490185 4278190335
0.098024383 0.077561639 0.35538042 4278190335
0.098151557 0.077492341 0.35585898 4278190335
0.098278739 0.077423036 0.35633755 4278190335
0.098405913 0.077353731 0.35681608 4278190335
0.098533094 0.077284425 0.35729465 4278190335
0.098660275 0.07721512 0.35777321 4278190335
0.098787449 0.077145815 0.35825178 4278190335
0.098914623 0.07707651 0.35873035 4278190335
0.099041805 0.077007204 0.35920891 4278190335
0.099168986 0.076937906 0.35968748 4278190335
0.09929616 0.076868601 0.36016604 4278190335
0.099423334 0.076799296 0.36064461 4278190335
0.099550515 0.076729991 0.36112317 4278190335
0.099677697 0.076660685 0.36160174 4278190335
0.099804871 0.07659138 0.36208028 4278190335
0.099932052 0.076522082 0.36255884 4278190335
0.10005923 0.076452777 0.36303741 4278190335
0.10018641 0.076383471 0.36351597 4278190335
0.10031358 0.076314166 0.36399454 4278190335
0.10044076 0.076244861 0.3644731 4278190335
0.10056794 0.076175556 0.36495167 4278190335
0.10069512 0.07610625 0.36543024 4278190335
0.10082229 0.076036945 0.3659088 4278190335
0.10094947 0.075967647 0.36638737 4278190335
0.10107665 0.075898342 0.36686593 4278190335
0.10120383 0.075829037 0.3673445 4278190335
0.101331 0.075759731 0.36782306 4278190335
0.10145818 0.075690426 0.36830163 4278190335
0.10158536 0.075621121 0.36878017 4278190335
0.10171254 0.075551815 0.36925873 4278190335
0.10183972 0.075482517 0.3697373 4278190335
0.1019669 0.075413212 0.37021586 4278190335
0.10209407 0.075343907 0.37069443 4278190335
0.10222125 0.075274602 0.37117299 4278190335
0.089503467 0.082205027 0.32331666 4294967295
0.088740401 0.082620852 0.32044527 4294967295
0.087977335 0.083036676 0.3175739 4294967295
0.087214269 0.0834525 0.31470251 4294967295
0.086451203 0.083868332 0.31183115 4294967295
0.085688129 0.084284157 0.30895975 4294967295
0.084925063 0.084699981 0.30608839 4294967295
0.084161997 0.085115805 0.30321699 4294967295
0.083398931 0.08553163 0.30034563 4294967295
0.082635865 0.085947454 0.29747424 4294967295
0.081872799 0.086363286 0.29460287 4294967295
0.081109732 0.08677911 0.29173148 4294967295
0.080346666 0.087194934 0.28886011 4294967295
0.0795836 0.087610759 0.28598872 4294967295
0.078820534 0.088026583 0.28311735 4294967295
0.078057468 0.088442408 0.28024596 4294967295
0.077294394 0.088858232 0.2773746 4294967295
0.076531328 0.089274064 0.2745032 4294967295
0.075768262 0.089689888 0.27163184 4294967295
0.075005196 0.090105712 0.26876044 4294967295
0.07424213 0.090521537 0.26588908 4294967295
0.073479064 0.090937361 0.26301768 4294967295
0.072715998 0.091353185 0.26014632 4294967295
0.071952932 0.09176901 0.25727493 4294967295
0.071189865 0.092184842 0.25440356 4294967295
0.070426792 0.092600666 0.25153217 4294967295
0.069663733 0.09301649 0.2486608 4294967295
0.06890066 0.093432315 0.24578941 4294967295
0.068137594 0.093848139 0.24291804 4294967295
0.067374527 0.094263963 0.24004665 4294967295
0.066611461 0.094679795 0.23717527 4294967295
0.065848395 0.09509562 0.23430389 4294967295
0.065085329 0.095511444 0.23143253 4294967295
0.064322263 0.095927268 0.22856113 4294967295
0.063559189 0.096343093 0.22568977 4294967295
0.062796131 0.096758917 0.22281837 4294967295
0.062033057 0.097174749 0.219947 4294967295
0.061269991 0.097590573 0.21707562 4294967295
0.060506925 0.098006397 0.21420425 4294967295
0.059743859 0.098422222 0.21133286 4294967295
0.058980793 0.098838046 0.20846148 4294967295
0.058217727 0.099253871 0.2055901 4294967295
0.057454661 0.099669695 0.20271873 4294967295
0.056691591 0.10008553 0.19984734 4294967295
0.055928525 0.10050134 0.19697596 4294967295
0.055165458 0.10091718 0.19410458 4294967295
0.054402392 0.101333 0.1912332 4294967295
0.053639326 0.10174882 0.18836182 4294967295
0.05287626 0.10216465 0.18549044 4294967295
0.05211319 0.10258047 0.18261907 4294967295
0.051350124 0.1029963 0.17974769 4294967295
0.050587058 0.10341212 0.17687631 4294967295
0.049823992 0.10382795 0.17400493 4294967295
0.049060926 0.10424378 0.17113355 4294967295
0.048297856 0.1046596 0.16826217 4294967295
0.04753479 0.10507543 0.16539079 4294967295
0.046771724 0.10549125 0.16251941 4294967295
0.046008658 0.10590708 0.15964803 4294967295
0.045245592 0.1063229 0.15677665 4294967295
0.044482525 0.10673873 0.15390527 4294967295
0.043719456 0.10715456 0.15103388 4294967295
0.042956389 0.10757038 0.14816251 4294967295
0.042193323 0.1079862 0.14529113 4294967295
0.041430254 0.10840203 0.14241976 4294967295
0.040667187 0.10881786 0.13954838 4294967295
0.039904121 0.10923368 0.136677 4294967295
0.039141051 0.10964951 0.1338056 4294967295
0.038377985 0.11006533 0.13093422 4294967295
0.037614919 0.11048116 0.12806286 4294967295
0.036851853 0.11089698 0.12519148 4294967295
0.036088787 0.11131281 0.1223201 4294967295
0.035325721 0.11172864 0.11944872 4294967295
0.034562651 0.11214446 0.11657733 4294967295
0.033799585 0.11256029 0.11370595 4294967295
0.033036519 0.11297611 0.11083457 4294967295
0.032273453 0.11339194 0.1079632 4294967295
0.031510387 0.11380777 0.10509183 4294967295
0.030747321 0.11422358 0.10222045 4294967295
0.029984254 0.11463942 0.099349067 4294967295
0.029221185 0.11505524 0.096477672 4294967295
0.028458118 0.11547107 0.093606293 4294967295
0.027695052 0.11588689 0.090734914 4294967295
0.026931986 0.11630271 0.087863535 4294967295
0.02616892 0.11671855 0.08499217 4294967295
0.025405854 0.11713436 0.082120791 4294967295
0.02464278 0.11755019 0.079249397 4294967295
0.023879714 0.11796602 0.076378018 4294967295
0.023116648 0.11838184 0.073506638 4294967295
0.022353582 0.11879767 0.070635259 4294967295
0.021590516 0.11921349 0.067763895 4294967295
0.02082745 0.11962932 0.064892501 4294967295
0.020064384 0.12004515 0.062021106 4294967295
0.019301318 0.12046097 0.059149742 4294967295
0.018538252 0.1208768 0.056278378 4294967295
0.017775185 0.12129262 0.053406984 4294967295
0.017012119 0.12170845 0.050535619 4294967295
0.016249053 0.12212427 0.047664225 4294967295
0.01548598 0.1225401 0.044792831 4294967295
0.014722914 0.12295593 0.041921467 4294967295
0.013959847 0.12337175 0.039050072 4294967295
0.013196781 0.12378757 0.036178708 4294967295
