# .PCD v0.7 - Point Cloud Data file format
VERSION 0.7
FIELDS x y z rgb
SIZE 4 4 4 4
TYPE F F F U
COUNT 1 1 1 1
WIDTH 1086
HEIGHT 1
VIEWPOINT 0 0 0 1 0 0 0
POINTS 1086
DATA ascii
0.092574291 0.038476355 0.33100003 4279187224
0.09364938 0.038476355 0.33100003 4279252506
0.095010646 0.038592596 0.33200002 4279251736
0.096088983 0.038592596 0.33200002 4279382039
0.097167313 0.038592596 0.33200002 4279513625
0.098541565 0.038708836 0.333 4278789902
0.099623151 0.038708836 0.333 4278592269
0.10100716 0.03882508 0.33400002 4278921234
0.10209199 0.03882508 0.33400002 4278196997
0.10348573 0.038941324 0.33500001 4278196484
0.10457382 0.038941324 0.33500001 4278195457
0.1059773 0.039057568 0.33600003 4278193408
0.10738729 0.039173808 0.33700001 4278194944
0.10880377 0.039290052 0.33800003 4278195969
0.11022675 0.039406296 0.33900002 4278196225
0.11165622 0.039522536 0.34 4278197766
0.11276054 0.039522536 0.34 4278198277
0.11386485 0.039522536 0.34 4278264839
0.11496918 0.039522536 0.34 4278857746
0.1160735 0.039522536 0.34 4278529548
0.11717782 0.039522536 0.34 4278859027
0.11828214 0.039522536 0.34 4279057174
0.11903533 0.039406296 0.33900002 4278729490
0.1201364 0.039406296 0.33900002 4278795283
0.12123747 0.039406296 0.33900002 4278729490
0.12197766 0.039290052 0.33800003 4278532878
0.049421765 0.03859587 0.32300001 4279184146
0.05047087 0.03859587 0.32300001 4278988049
0.051519971 0.03859587 0.32300001 4278858259
0.052569076 0.03859587 0.32300001 4278924566
0.053618181 0.03859587 0.32300001 4278728209
0.054667283 0.03859587 0.32300001 4278728209
0.055716392 0.03859587 0.32300001 4278400527
0.056765497 0.03859587 0.32300001 4278729492
0.057814602 0.03859587 0.32300001 4278532628
0.058863703 0.03859587 0.32300001 4278664214
0.059912808 0.03859587 0.32300001 4278664212
0.061150651 0.038715359 0.324 4278598419
0.062202998 0.038715359 0.324 4278664212
0.063255355 0.038715359 0.324 4278533396
0.064307705 0.038715359 0.324 4278401810
0.065360054 0.038715359 0.324 4278467603
0.066412412 0.038715359 0.324 4278599189
0.067464761 0.038715359 0.324 4278533396
0.068517119 0.038715359 0.324 4278599189
0.069569468 0.038715359 0.324 4278467603
0.070621818 0.038715359 0.324 4279055638
0.071674176 0.038715359 0.324 4278195969
0.072726525 0.038715359 0.324 4279121431
0.073778875 0.038715359 0.324 4278793750
0.074831232 0.038715359 0.324 4278195459
0.076117791 0.038834855 0.32500002 4278786058
0.077173397 0.038834855 0.32500002 4278852111
0.078469701 0.038954344 0.32600001 4279115537
0.079528548 0.038954344 0.32600001 4279049744
0.080834597 0.03907384 0.32700002 4279181330
0.081896693 0.03907384 0.32700002 4279182100
0.083212487 0.039193328 0.32800001 4279576858
0.084277831 0.039193328 0.32800001 4279312402
0.085603371 0.039312821 0.32900003 4278785804
0.086671971 0.039312821 0.32900003 4279114769
0.088007249 0.039432313 0.33000001 4278720011
0.089079089 0.039432313 0.33000001 4278589193
0.090150923 0.039432313 0.33000001 4279381785
0.091499202 0.039551806 0.33100003 4279056406
0.092574291 0.039551806 0.33100003 4278859797
0.09364938 0.039551806 0.33100003 4278661648
0.095010646 0.039671298 0.33200002 4278859027
0.096088983 0.039671298 0.33200002 4279187992
0.097459979 0.039790787 0.333 4279056406
0.098541565 0.039790787 0.333 4278990611
0.099922322 0.039910283 0.33400002 4278924818
0.10100716 0.039910283 0.33400002 4279122199
0.10239765 0.040029772 0.33500001 4278924820
0.10348573 0.040029772 0.33500001 4279056406
0.10488598 0.040149264 0.33600003 4279187992
0.10629271 0.040268756 0.33700001 4279121685
0.10738729 0.040268756 0.33700001 4279055379
0.10880377 0.040388249 0.33800003 4279318297
0.11022675 0.040507741 0.33900002 4279318297
0.11165622 0.04062723 0.34 4279318297
0.11276054 0.04062723 0.34 4279185943
0.11419976 0.040746726 0.34100002 4278856465
0.11530732 0.040746726 0.34100002 4279184660
0.1164149 0.040746726 0.34100002 4278724109
0.11752246 0.040746726 0.34100002 4278197251
0.11828214 0.04062723 0.34 4278591757
0.11938646 0.04062723 0.34 4278194688
0.12049079 0.04062723 0.34 4278728720
0.1215951 0.04062723 0.34 4278729490
0.049421765 0.039645329 0.32300001 4279249937
0.05047087 0.039645329 0.32300001 4278922256
0.051519971 0.039645329 0.32300001 4279055638
0.052569076 0.039645329 0.32300001 4278793750
0.053618181 0.039645329 0.32300001 4278596623
0.054667283 0.039645329 0.32300001 4278662929
0.055716392 0.039645329 0.32300001 4278663699
0.056765497 0.039645329 0.32300001 4278729492
0.057814602 0.039645329 0.32300001 4278664212
0.058863703 0.039645329 0.32300001 4278598419
0.059912808 0.039645329 0.32300001 4278598419
0.060961917 0.039645329 0.32300001 4278664212
0.062202998 0.03976807 0.324 4278467603
0.063255355 0.03976807 0.324 4278533396
0.064307705 0.03976807 0.324 4278533396
0.065360054 0.03976807 0.324 4278533396
0.066412412 0.03976807 0.324 4278467603
0.067464761 0.03976807 0.324 4278599189
0.068517119 0.03976807 0.324 4278533396
0.069569468 0.03976807 0.324 4278598419
0.070621818 0.03976807 0.324 4279185943
0.071674176 0.03976807 0.324 4278327304
0.072726525 0.03976807 0.324 4279121945
0.073778875 0.03976807 0.324 4278991129
0.0750622 0.039890811 0.32500002 4278260998
0.076117791 0.039890811 0.32500002 4279246609
0.077173397 0.039890811 0.32500002 4278788623
0.078469701 0.040013552 0.32600001 4278328072
0.079528548 0.040013552 0.32600001 4278524170
0.080834597 0.040136296 0.32700002 4278656269
0.081896693 0.040136296 0.32700002 4278393097
0.083212487 0.040259033 0.32800001 4278525451
0.084277831 0.040259033 0.32800001 4278326021
0.085603371 0.040381778 0.32900003 4278260744
0.086671971 0.040381778 0.32900003 4278919441
0.088007249 0.040504515 0.33000001 4278853648
0.089079089 0.040504515 0.33000001 4278393095
0.090424113 0.04062726 0.33100003 4279120920
0.091499202 0.04062726 0.33100003 4278728211
0.092574291 0.04062726 0.33100003 4278198528
0.093932308 0.040750001 0.33200002 4278458886
0.095010646 0.040750001 0.33200002 4278327300
0.096378401 0.040872738 0.333 4278857748
0.097459979 0.040872738 0.333 4278198533
0.098837487 0.040995482 0.33400002 4278199559
0.099922322 0.040995482 0.33400002 4278792466
0.10100716 0.040995482 0.33400002 4279122199
0.10239765 0.041118219 0.33500001 4278198784
0.10348573 0.041118219 0.33500001 4278199555
0.10488598 0.041240964 0.33600003 4278859797
0.10629271 0.041363701 0.33700001 4278926099
0.10770595 0.041486446 0.33800003 4278991892
0.10880377 0.041486446 0.33800003 4279057172
0.11022675 0.041609187 0.33900002 4278859795
0.11165622 0.041731924 0.34 4279057174
0.11276054 0.041731924 0.34 4278925588
0.11419976 0.041854668 0.34100002 4278925588
0.11530732 0.041854668 0.34100002 4279056404
0.1164149 0.041854668 0.34100002 4279253269
0.11752246 0.041854668 0.34100002 4279187478
0.11863004 0.041854668 0.34100002 4279186711
0.1197376 0.041854668 0.34100002 4278193920
0.12084518 0.041854668 0.34100002 4278925588
0.12195273 0.041854668 0.34100002 4278925588
0.12378207 0.04210015 0.34300002 4278926099
0.033343375 0.041576721 0.33000001 4284446051
0.034936655 0.042206671 0.33500001 4284974194
0.035809662 0.041954692 0.333 4285631870
0.037002034 0.042080685 0.33400002 4285894528
0.0382009 0.042206671 0.33500001 4285302645
0.039288979 0.042206671 0.33500001 4283657053
0.05047087 0.040694792 0.32300001 4279185941
0.051519971 0.040694792 0.32300001 4278924566
0.052569076 0.040694792 0.32300001 4278793750
0.053618181 0.040694792 0.32300001 4278399505
0.054667283 0.040694792 0.32300001 4278662931
0.055716392 0.040694792 0.32300001 4278860308
0.056765497 0.040694792 0.32300001 4278597906
0.057814602 0.040694792 0.32300001 4278663699
0.058863703 0.040694792 0.32300001 4278598419
0.059912808 0.040694792 0.32300001 4278598419
0.060961917 0.040694792 0.32300001 4278532626
0.062011018 0.040694792 0.32300001 4278532626
0.063255355 0.040820781 0.324 4278532626
0.064307705 0.040820781 0.324 4278598419
0.065360054 0.040820781 0.324 4278598419
0.066412412 0.040820781 0.324 4278532626
0.067464761 0.040820781 0.324 4278598419
0.068517119 0.040820781 0.324 4278730005
0.069569468 0.040820781 0.324 4278335247
0.070621818 0.040820781 0.324 4278854927
0.071674176 0.040820781 0.324 4278524681
0.072726525 0.040820781 0.324 4278793750
0.073778875 0.040820781 0.324 4278859797
0.0750622 0.040946774 0.32500002 4278523400
0.076117791 0.040946774 0.32500002 4279181330
0.077173397 0.040946774 0.32500002 4278196488
0.078469701 0.04107276 0.32600001 4279578139
0.079528548 0.04107276 0.32600001 4278459658
0.080834597 0.041198753 0.32700002 4278262279
0.082147136 0.041324742 0.32800001 4278194691
0.083212487 0.041324742 0.32800001 4278194946
0.084534779 0.041450735 0.32900003 4278588939
0.085603371 0.041450735 0.32900003 4279708957
0.086935401 0.041576721 0.33000001 4278196744
0.088007249 0.041576721 0.33000001 4278262281
0.089349031 0.041702714 0.33100003 4278196742
0.090424113 0.041702714 0.33100003 4279187224
0.091499202 0.041702714 0.33100003 4278660880
0.092853971 0.041828703 0.33200002 4278262279
0.093932308 0.041828703 0.33200002 4278457093
0.095010646 0.041828703 0.33200002 4278786318
0.096378401 0.041954692 0.333 4279250201
0.097459979 0.041954692 0.333 4279449113
0.098837487 0.042080685 0.33400002 4279186711
0.099922322 0.042080685 0.33400002 4278198791
0.10130957 0.042206671 0.33500001 4278331402
0.10239765 0.042206671 0.33500001 4279318810
0.10379466 0.042332664 0.33600003 4278857746
0.10488598 0.042332664 0.33600003 4278858259
0.10629271 0.042458653 0.33700001 4278727439
0.10770595 0.042584646 0.33800003 4278200067
0.10880377 0.042584646 0.33800003 4279056404
0.11022675 0.042710632 0.33900002 4278465037
0.11165622 0.042836621 0.34 4278267658
0.1130922 0.042962614 0.34100002 4278333451
0.11419976 0.042962614 0.34100002 4278925586
0.11530732 0.042962614 0.34100002 4278728207
0.1164149 0.042962614 0.34100002 4278990611
0.1178671 0.043088604 0.34200001 4278925588
0.11897792 0.043088604 0.34200001 4279121172
0.12008874 0.043088604 0.34200001 4278263304
0.12119956 0.043088604 0.34200001 4279122199
0.12231036 0.043088604 0.34200001 4278991381
0.12378207 0.043214593 0.34300002 4278991892
0.033444416 0.042778164 0.33100003 4284249444
0.034936655 0.043295119 0.33500001 4285237112
0.0359172 0.043165881 0.33400002 4285237112
0.037002034 0.043165881 0.33400002 4285302905
0.0382009 0.043295119 0.33500001 4285302905
0.039288979 0.043295119 0.33500001 4285500284
0.040377058 0.043295119 0.33500001 4285106296
0.040970035 0.042778164 0.33100003 4285566077
0.043394178 0.04200273 0.32500002 4279508498
0.044449776 0.04200273 0.32500002 4279837463
0.046417713 0.041873489 0.324 4280034842
0.047470067 0.041873489 0.324 4280891171
0.048522417 0.041873489 0.324 4279313936
0.049421765 0.041744251 0.32300001 4279119635
0.05047087 0.041744251 0.32300001 4279251734
0.051519971 0.041744251 0.32300001 4279121431
0.052569076 0.041744251 0.32300001 4278858773
0.053618181 0.041744251 0.32300001 4278727957
0.054667283 0.041744251 0.32300001 4278794517
0.055716392 0.041744251 0.32300001 4278729492
0.056765497 0.041744251 0.32300001 4278597906
0.057814602 0.041744251 0.32300001 4278664212
0.058863703 0.041744251 0.32300001 4278664212
0.059912808 0.041744251 0.32300001 4278664212
0.060961917 0.041744251 0.32300001 4278730005
0.062011018 0.041744251 0.32300001 4278532626
0.06306012 0.041744251 0.32300001 4278598419
0.064109229 0.041744251 0.32300001 4278664212
0.065360054 0.041873489 0.324 4278598419
0.066412412 0.041873489 0.324 4278532626
0.067464761 0.041873489 0.324 4278532626
0.068517119 0.041873489 0.324 4278664212
0.069569468 0.041873489 0.324 4278202636
0.070621818 0.041873489 0.324 4278262279
0.071674176 0.041873489 0.324 4278194688
0.072726525 0.041873489 0.324 4278661394
0.073778875 0.041873489 0.324 4279121431
0.0750622 0.04200273 0.32500002 4278654470
0.076117791 0.04200273 0.32500002 4278522886
0.077410847 0.042131964 0.32600001 4278587912
0.078469701 0.042131964 0.32600001 4278587912
0.079772502 0.042261206 0.32700002 4278456839
0.080834597 0.042261206 0.32700002 4278456839
0.082147136 0.042390443 0.32800001 4278522632
0.083466187 0.042519685 0.32900003 4278719498
0.084534779 0.042519685 0.32900003 4278391560
0.08586356 0.042648923 0.33000001 4278524429
0.086935401 0.042648923 0.33000001 4278789136
0.088007249 0.042648923 0.33000001 4278393095
0.089349031 0.042778164 0.33100003 4279118613
0.090424113 0.042778164 0.33100003 4278924818
0.091499202 0.042778164 0.33100003 4278195712
0.092853971 0.042907402 0.33200002 4278523400
0.093932308 0.042907402 0.33200002 4278851597
0.095296815 0.04303664 0.333 4278852111
0.096378401 0.04303664 0.333 4278789650
0.097752653 0.043165881 0.33400002 4279778080
0.098837487 0.043165881 0.33400002 4278989845
0.099922322 0.043165881 0.33400002 4278331404
0.10130957 0.043295119 0.33500001 4278660369
0.10239765 0.043295119 0.33500001 4278924820
0.10379466 0.04342436 0.33600003 4278397449
0.10488598 0.04342436 0.33600003 4278988564
0.10629271 0.043553598 0.33700001 4278988310
0.10770595 0.04368284 0.33800003 4278527246
0.10912567 0.043812077 0.33900002 4278395912
0.11022675 0.043812077 0.33900002 4278198532
0.11165622 0.043941315 0.34 4279449113
0.1130922 0.044070557 0.34100002 4278265093
0.11419976 0.044070557 0.34100002 4278593291
0.11530732 0.044070557 0.34100002 4279317014
0.11675628 0.044199791 0.34200001 4278199045
0.1178671 0.044199791 0.34200001 4278990611
0.11897792 0.044199791 0.34200001 4278858000
0.12008874 0.044199791 0.34200001 4278988562
0.12155395 0.044329032 0.34300002 4279057174
0.12266801 0.044329032 0.34300002 4278991381
0.12414294 0.04445827 0.34400001 4278860306
0.12598851 0.044716749 0.34600002 4278860306
0.12784709 0.044975229 0.34800002 4278794513
0.033444416 0.043853618 0.33100003 4285302393
0.034936655 0.044383571 0.33500001 4285105526
0.036024738 0.044383571 0.33500001 4285237112
0.037112817 0.044383571 0.33500001 4285302905
0.0382009 0.044383571 0.33500001 4285434491
0.039288979 0.044383571 0.33500001 4285302905
0.040377058 0.044383571 0.33500001 4285302905
0.041465141 0.044383571 0.33500001 4285302905
0.041028924 0.04279371 0.32300001 4285302905
0.042208303 0.0429262 0.324 4285171319
0.043260656 0.0429262 0.324 4285960835
0.044313006 0.0429262 0.324 4284183910
0.04536536 0.0429262 0.324 4279772699
0.046417713 0.0429262 0.324 4280363805
0.047470067 0.0429262 0.324 4280694051
0.048522417 0.0429262 0.324 4279379988
0.04957477 0.0429262 0.324 4279317016
0.05047087 0.04279371 0.32300001 4279186713
0.051519971 0.04279371 0.32300001 4279186711
0.052569076 0.04279371 0.32300001 4278858259
0.053618181 0.04279371 0.32300001 4278859027
0.054667283 0.04279371 0.32300001 4278859797
0.055716392 0.04279371 0.32300001 4278663701
0.056765497 0.04279371 0.32300001 4278466835
0.057814602 0.04279371 0.32300001 4278598421
0.058863703 0.04279371 0.32300001 4278598421
0.059912808 0.04279371 0.32300001 4278598421
0.060961917 0.04279371 0.32300001 4278664212
0.062011018 0.04279371 0.32300001 4278664212
0.06306012 0.04279371 0.32300001 4278664212
0.064109229 0.04279371 0.32300001 4278664212
0.065360054 0.0429262 0.324 4278664212
0.066412412 0.0429262 0.324 4278795798
0.067464761 0.0429262 0.324 4278730005
0.068517119 0.0429262 0.324 4278532626
0.069569468 0.0429262 0.324 4278598419
0.070621818 0.0429262 0.324 4278592269
0.071674176 0.0429262 0.324 4279118613
0.072726525 0.0429262 0.324 4278793752
0.073778875 0.0429262 0.324 4279121947
0.0750622 0.04305869 0.32500002 4278719498
0.076117791 0.04305869 0.32500002 4278719752
0.077410847 0.043191176 0.32600001 4278718728
0.078469701 0.043191176 0.32600001 4278718730
0.079772502 0.043323666 0.32700002 4278652937
0.0810818 0.043456152 0.32800001 4278718730
0.082147136 0.043456152 0.32800001 4278719500
0.083466187 0.043588642 0.32900003 4278652937
0.084534779 0.043588642 0.32900003 4278587914
0.08586356 0.043721128 0.33000001 4278522119
0.086935401 0.043721128 0.33000001 4278456326
0.088273942 0.043853618 0.33100003 4278522632
0.089349031 0.043853618 0.33100003 4279251221
0.090424113 0.043853618 0.33100003 4279056404
0.091775626 0.043986108 0.33200002 4279251734
0.092853971 0.043986108 0.33200002 4278260226
0.093932308 0.043986108 0.33200002 4278654218
0.095296815 0.044118594 0.333 4279051027
0.096378401 0.044118594 0.333 4279120666
0.097752653 0.044251084 0.33400002 4278197765
0.098837487 0.044251084 0.33400002 4278198275
0.10022149 0.044383571 0.33500001 4279317527
0.10130957 0.044383571 0.33500001 4278198789
0.10239765 0.044383571 0.33500001 4278395912
0.10379466 0.044516061 0.33600003 4278462990
0.10488598 0.044516061 0.33600003 4279186713
0.10629271 0.044648547 0.33700001 4278194944
0.10770595 0.044781037 0.33800003 4279052820
0.10912567 0.044913523 0.33900002 4278329349
0.11022675 0.044913523 0.33900002 4278330119
0.11165622 0.045046009 0.34 4279317527
0.1130922 0.045178503 0.34100002 4278461705
0.11419976 0.045178503 0.34100002 4278330119
0.11564547 0.045310989 0.34200001 4278921486
0.11675628 0.045310989 0.34200001 4278196736
0.1178671 0.045310989 0.34200001 4279057174
0.11932582 0.045443479 0.34300002 4278726162
0.12043988 0.045443479 0.34300002 4279317527
0.12155395 0.045443479 0.34300002 4278991894
0.12302563 0.045575965 0.34400001 4278728722
0.12450383 0.045708455 0.34500003 4278991894
0.12598851 0.045840941 0.34600002 4278860308
0.1274797 0.045973428 0.347 4278926101
0.032662705 0.04533628 0.33400002 4284050528
0.033747539 0.04533628 0.33400002 4285302907
0.034936655 0.045472018 0.33500001 4285171321
0.036024738 0.045472018 0.33500001 4285237112
0.037112817 0.045472018 0.33500001 4285302905
0.0382009 0.045472018 0.33500001 4285434491
0.037647054 0.043571692 0.32100001 4285302905
0.038689662 0.043571692 0.32100001 4285500284
0.039856046 0.043707434 0.32200003 4285434491
0.041028924 0.043843169 0.32300001 4285434491
0.042208303 0.043978903 0.324 4285302905
0.043260656 0.043978903 0.324 4285237112
0.044313006 0.043978903 0.324 4285237112
0.04536536 0.043978903 0.324 4285368184
0.046417713 0.043978903 0.324 4279972129
0.047470067 0.043978903 0.324 4279576856
0.048522417 0.043978903 0.324 4279249174
0.04957477 0.043978903 0.324 4278988310
0.050627124 0.043978903 0.324 4279251482
0.051519971 0.043843169 0.32300001 4279252504
0.052569076 0.043843169 0.32300001 4279121431
0.053618181 0.043843169 0.32300001 4278990359
0.054667283 0.043843169 0.32300001 4278794004
0.055716392 0.043843169 0.32300001 4278728724
0.056941237 0.043978903 0.324 4278861080
0.057993591 0.043978903 0.324 4278795800
0.059045941 0.043978903 0.324 4278664214
0.060098294 0.043978903 0.324 4278730007
0.060961917 0.043843169 0.32300001 4278598419
0.062011018 0.043843169 0.32300001 4278795798
0.06306012 0.043843169 0.32300001 4278664212
0.064109229 0.043843169 0.32300001 4278532626
0.065360054 0.043978903 0.324 4278598419
0.066412412 0.043978903 0.324 4278532626
0.067464761 0.043978903 0.324 4278598419
0.068517119 0.043978903 0.324 4278532626
0.069569468 0.043978903 0.324 4278201864
0.070621818 0.043978903 0.324 4278199561
0.071674176 0.043978903 0.324 4278397197
0.072726525 0.043978903 0.324 4278860310
0.074006595 0.044114646 0.32500002 4278729494
0.0750622 0.044114646 0.32500002 4279447578
0.076117791 0.044114646 0.32500002 4279116818
0.077410847 0.04425038 0.32600001 4278918926
0.078710407 0.044386119 0.32700002 4278458123
0.079772502 0.044386119 0.32700002 4278456839
0.0810818 0.044521853 0.32800001 4278456839
0.082397588 0.044657595 0.32900003 4278456326
0.083466187 0.044657595 0.32900003 4278916107
0.08479172 0.04479333 0.33000001 4278390535
0.08586356 0.04479333 0.33000001 4278587914
0.087198846 0.044929069 0.33100003 4278587912
0.088273942 0.044929069 0.33100003 4278719752
0.089349031 0.044929069 0.33100003 4279250453
0.090697289 0.045064807 0.33200002 4278528011
0.091775626 0.045064807 0.33200002 4278988051
0.092853971 0.045064807 0.33200002 4279381271
0.094215229 0.045200542 0.333 4279512859
0.095296815 0.045200542 0.333 4279514141
0.096378401 0.045200542 0.333 4279252506
0.097752653 0.04533628 0.33400002 4278989845
0.098837487 0.04533628 0.33400002 4278858773
0.10022149 0.045472018 0.33500001 4279056406
0.10130957 0.045472018 0.33500001 4279056406
0.10239765 0.045472018 0.33500001 4278924566
0.10379466 0.045607757 0.33600003 4279187224
0.10488598 0.045607757 0.33600003 4278858773
0.10629271 0.045743492 0.33700001 4278924566
0.10770595 0.04587923 0.33800003 4279122199
0.10912567 0.046014968 0.33900002 4279056406
0.11022675 0.046014968 0.33900002 4278859027
0.11165622 0.046150703 0.34 4279121431
0.1130922 0.046286441 0.34100002 4279120918
0.11419976 0.046286441 0.34100002 4279055125
0.11564547 0.04642218 0.34200001 4278857746
0.11675628 0.04642218 0.34200001 4278726927
0.11821175 0.046557918 0.34300002 4279057176
0.11932582 0.046557918 0.34300002 4278198274
0.12043988 0.046557918 0.34300002 4279712285
0.12190833 0.046693653 0.34400001 4278991892
0.12302563 0.046693653 0.34400001 4278860306
0.12450383 0.046829391 0.34500003 4279123478
0.12598851 0.04696513 0.34600002 4278794513
0.1274797 0.047100864 0.347 4278926099
0.031577874 0.046421483 0.33400002 4280232991
0.033249456 0.047255401 0.34 4285236600
0.034353778 0.047255401 0.34 4285302907
0.035458099 0.047255401 0.34 4285237114
0.03656242 0.047255401 0.34 4285237112
0.037666742 0.047255401 0.34 4285302905
0.038771059 0.047255401 0.34 4285237112
0.037647054 0.044614658 0.32100001 4285434491
0.03881019 0.044753648 0.32200003 4285302905
0.039856046 0.044753648 0.32200003 4285434491
0.040901903 0.044753648 0.32200003 4285171319
0.042078033 0.044892631 0.32300001 4285302905
0.043127138 0.044892631 0.32300001 4285105526
0.044313006 0.045031615 0.324 4285237112
0.04536536 0.045031615 0.324 4285105780
0.046417713 0.045031615 0.324 4285303159
0.047470067 0.045031615 0.324 4283658334
0.048522417 0.045031615 0.324 4278723859
0.04957477 0.045031615 0.324 4278987029
0.050627124 0.045031615 0.324 4279053590
0.051679473 0.045031615 0.324 4279120920
0.052731827 0.045031615 0.324 4278989845
0.05378418 0.045031615 0.324 4278924820
0.05483653 0.045031615 0.324 4278859797
0.055888884 0.045031615 0.324 4278991896
0.056941237 0.045031615 0.324 4278597908
0.057993591 0.045031615 0.324 4278664212
0.059045941 0.045031615 0.324 4278664212
0.060098294 0.045031615 0.324 4278598419
0.061150651 0.045031615 0.324 4278598419
0.062202998 0.045031615 0.324 4278664212
0.063255355 0.045031615 0.324 4278730005
0.064307705 0.045031615 0.324 4278598419
0.065360054 0.045031615 0.324 4278664212
0.066412412 0.045031615 0.324 4278532626
0.067464761 0.045031615 0.324 4278532626
0.068517119 0.045031615 0.324 4278335247
0.069569468 0.045031615 0.324 4278199811
0.070621818 0.045031615 0.324 4278462990
0.071674176 0.045031615 0.324 4278529296
0.072726525 0.045031615 0.324 4278728722
0.074006595 0.045170605 0.32500002 4278795285
0.0750622 0.045170605 0.32500002 4278860310
0.076352 0.045309588 0.32600001 4278925590
0.077410847 0.045309588 0.32600001 4278859797
0.078710407 0.045448579 0.32700002 4278859797
0.080016449 0.045587562 0.32800001 4278990613
0.081329003 0.045726553 0.32900003 4279253017
0.082397588 0.045726553 0.32900003 4279318299
0.083719879 0.045865536 0.33000001 4279252506
0.08479172 0.045865536 0.33000001 4279251736
0.086123757 0.046004526 0.33100003 4279449115
0.087198846 0.046004526 0.33100003 4278988564
0.088273942 0.046004526 0.33100003 4279646494
0.089618966 0.046143509 0.33200002 4278923541
0.090697289 0.046143509 0.33200002 4278725138
0.091775626 0.046143509 0.33200002 4278922006
0.092853971 0.046143509 0.33200002 4278197512
0.094215229 0.046282496 0.333 4278196999
0.095296815 0.046282496 0.333 4278195972
0.096667834 0.046421483 0.33400002 4278195459
0.097752653 0.046421483 0.33400002 4278195201
0.098837487 0.046421483 0.33400002 4278196230
0.10022149 0.046560466 0.33500001 4278195200
0.10130957 0.046560466 0.33500001 4278193408
0.10239765 0.046560466 0.33500001 4278195456
0.10379466 0.046699457 0.33600003 4278196994
0.10488598 0.046699457 0.33600003 4278196994
0.10629271 0.04683844 0.33700001 4278330119
0.10770595 0.046977431 0.33800003 4278856976
0.10880377 0.046977431 0.33800003 4278856976
0.11022675 0.047116414 0.33900002 4278726160
0.11165622 0.047255401 0.34 4278923793
0.1130922 0.047394387 0.34100002 4279121172
0.11419976 0.047394387 0.34100002 4279384344
0.11564547 0.047533374 0.34200001 4279384344
0.11675628 0.047533374 0.34200001 4279187476
0.11821175 0.047672361 0.34300002 4279055890
0.11932582 0.047672361 0.34300002 4278194688
0.12043988 0.047672361 0.34300002 4279187224
0.12190833 0.047811348 0.34400001 4278860306
0.12302563 0.047811348 0.34400001 4278795537
0.12450383 0.047950335 0.34500003 4278992916
0.12598851 0.048089322 0.34600002 4278795537
0.1274797 0.048228305 0.347 4279189271
0.12860675 0.048228305 0.347 4279254551
0.032145139 0.048360098 0.34 4280958511
0.033347253 0.048502333 0.34100002 4285105526
0.034454823 0.048502333 0.34100002 4285237114
0.035562389 0.048502333 0.34100002 4285237112
0.036669958 0.048502333 0.34100002 4285433977
0.037777528 0.048502333 0.34100002 4285237112
0.038885094 0.048502333 0.34100002 4285434491
0.037764337 0.045799859 0.32200003 4285302905
0.03881019 0.045799859 0.32200003 4285237112
0.039856046 0.045799859 0.32200003 4285302905
0.040901903 0.045799859 0.32200003 4285302391
0.042078033 0.045942094 0.32300001 4285368184
0.043127138 0.045942094 0.32300001 4285368184
0.044313006 0.046084326 0.324 4285433977
0.04536536 0.046084326 0.324 4285368438
0.046417713 0.046084326 0.324 4285434231
0.047470067 0.046084326 0.324 4285171573
0.048522417 0.046084326 0.324 4285501054
0.04957477 0.046084326 0.324 4284645229
0.050627124 0.046084326 0.324 4279973924
0.051679473 0.046084326 0.324 4278856213
0.052731827 0.046084326 0.324 4279185943
0.05378418 0.046084326 0.324 4279055638
0.05483653 0.046084326 0.324 4279187738
0.055888884 0.046084326 0.324 4278991642
0.056941237 0.046084326 0.324 4278926103
0.057993591 0.046084326 0.324 4278597908
0.059045941 0.046084326 0.324 4278730007
0.060098294 0.046084326 0.324 4278730007
0.061150651 0.046084326 0.324 4278795800
0.062202998 0.046084326 0.324 4278598419
0.063255355 0.046084326 0.324 4278730005
0.064307705 0.046084326 0.324 4278730005
0.065360054 0.046084326 0.324 4278532626
0.066412412 0.046084326 0.324 4278532628
0.067464761 0.046084326 0.324 4278532628
0.068517119 0.046084326 0.324 4278729494
0.069569468 0.046084326 0.324 4278532115
0.070621818 0.046084326 0.324 4278926103
0.071674176 0.046084326 0.324 4278728724
0.072950989 0.046226565 0.32500002 4278795287
0.074006595 0.046226565 0.32500002 4278729492
0.0750622 0.046226565 0.32500002 4278795285
0.076352 0.0463688 0.32600001 4278795285
0.077648312 0.046511035 0.32700002 4278729492
0.078710407 0.046511035 0.32700002 4278597906
0.080016449 0.046653271 0.32800001 4278728722
0.081329003 0.04679551 0.32900003 4278860308
0.082648039 0.046937741 0.33000001 4278794515
0.083973579 0.04707998 0.33100003 4278926101
0.085048668 0.04707998 0.33100003 4278794517
0.086123757 0.04707998 0.33100003 4278794517
0.087462284 0.047222216 0.33200002 4278860310
0.088540621 0.047222216 0.33200002 4278860310
0.089618966 0.047222216 0.33200002 4278794517
0.090697289 0.047222216 0.33200002 4278926103
0.091775626 0.047222216 0.33200002 4278794517
0.093133643 0.047364447 0.333 4278728724
0.094215229 0.047364447 0.333 4278793750
0.095296815 0.047364447 0.333 4279188508
0.096667834 0.047506686 0.33400002 4278991129
0.097752653 0.047506686 0.33400002 4278925336
0.098837487 0.047506686 0.33400002 4279056152
0.10022149 0.047648918 0.33500001 4279187738
0.10130957 0.047648918 0.33500001 4279120918
0.10239765 0.047648918 0.33500001 4279515676
0.10379466 0.047791157 0.33600003 4279252504
0.10488598 0.047791157 0.33600003 4279778078
0.10629271 0.047933392 0.33700001 4279382807
0.10770595 0.048075628 0.33800003 4278987281
0.10880377 0.048075628 0.33800003 4279250453
0.11022675 0.048217863 0.33900002 4278921488
0.11165622 0.048360098 0.34 4278196992
0.1130922 0.048502333 0.34100002 4278394115
0.11453465 0.048644569 0.34200001 4278195968
0.11564547 0.048644569 0.34200001 4278195968
0.11709768 0.048786808 0.34300002 4278195968
0.11821175 0.048786808 0.34300002 4278262792
0.11932582 0.048786808 0.34300002 4279054355
0.12079101 0.048929039 0.34400001 4279319578
0.12190833 0.048929039 0.34400001 4278926099
0.12338327 0.049071278 0.34500003 4278926099
0.12450383 0.049071278 0.34500003 4278926099
0.12598851 0.049213514 0.34600002 4278926099
0.12711233 0.049213514 0.34600002 4279188758
0.032239683 0.049610276 0.34100002 4281419321
0.033347253 0.049610276 0.34100002 4285237112
0.034454823 0.049610276 0.34100002 4285302905
0.035562389 0.049610276 0.34100002 4285434491
0.036669958 0.049610276 0.34100002 4285368184
0.037777528 0.049610276 0.34100002 4285237112
0.036718477 0.046846069 0.32200003 4285302905
0.037764337 0.046846069 0.32200003 4285302905
0.03881019 0.046846069 0.32200003 4285106296
0.039856046 0.046846069 0.32200003 4285303675
0.041028924 0.046991549 0.32300001 4285434491
0.042078033 0.046991549 0.32300001 4285302905
0.043127138 0.046991549 0.32300001 4285237112
0.044313006 0.047137033 0.324 4285433977
0.04536536 0.047137033 0.324 4285433977
0.046417713 0.047137033 0.324 4285434231
0.047470067 0.047137033 0.324 4285302645
0.048522417 0.047137033 0.324 4285368438
0.04957477 0.047137033 0.324 4285368436
0.050627124 0.047137033 0.324 4285434229
0.051679473 0.047137033 0.324 4286157954
0.052731827 0.047137033 0.324 4283394908
0.05378418 0.047137033 0.324 4279841822
0.05483653 0.047137033 0.324 4278789648
0.055888884 0.047137033 0.324 4279909666
0.056941237 0.047137033 0.324 4279450396
0.057993591 0.047137033 0.324 4279254814
0.059045941 0.047137033 0.324 4278991642
0.060098294 0.047137033 0.324 4279123228
0.061150651 0.047137033 0.324 4278992666
0.062202998 0.047137033 0.324 4278992666
0.063255355 0.047137033 0.324 4279058459
0.064307705 0.047137033 0.324 4278730007
0.065360054 0.047137033 0.324 4278927386
0.066412412 0.047137033 0.324 4278795287
0.067464761 0.047137033 0.324 4278729494
0.068517119 0.047137033 0.324 4278861080
0.069569468 0.047137033 0.324 4278860310
0.070621818 0.047137033 0.324 4278991896
0.071674176 0.047137033 0.324 4278991896
0.072950989 0.047282521 0.32500002 4278795287
0.074006595 0.047282521 0.32500002 4278795287
0.0750622 0.047282521 0.32500002 4278663699
0.076352 0.047428004 0.32600001 4278663699
0.077648312 0.047573492 0.32700002 4278663699
0.078951113 0.047718972 0.32800001 4278861078
0.080260411 0.047864459 0.32900003 4278729492
0.081576198 0.048009943 0.33000001 4278663699
0.08289849 0.048155431 0.33100003 4278663699
0.083973579 0.048155431 0.33100003 4278795285
0.085305609 0.048300914 0.33200002 4278730005
0.086383946 0.048300914 0.33200002 4278598419
0.087462284 0.048300914 0.33200002 4278664212
0.088540621 0.048300914 0.33200002 4278598419
0.089618966 0.048300914 0.33200002 4278729492
0.090697289 0.048300914 0.33200002 4278597906
0.092052057 0.048446395 0.333 4278532113
0.093133643 0.048446395 0.333 4278992664
0.094215229 0.048446395 0.333 4278729492
0.095296815 0.048446395 0.333 4278268943
0.096667834 0.048591882 0.33400002 4278663701
0.097752653 0.048591882 0.33400002 4278597906
0.098837487 0.048591882 0.33400002 4278795285
0.10022149 0.048737366 0.33500001 4278729492
0.10130957 0.048737366 0.33500001 4278532113
0.10239765 0.048737366 0.33500001 4278861078
0.10379466 0.048882853 0.33600003 4278860308
0.10488598 0.048882853 0.33600003 4278728722
0.10629271 0.049028337 0.33700001 4278991894
0.10770595 0.049173824 0.33800003 4278991381
0.10880377 0.049173824 0.33800003 4279057174
0.11022675 0.049319305 0.33900002 4278991381
0.11165622 0.049464788 0.34 4279187990
0.1130922 0.049610276 0.34100002 4279056404
0.11453465 0.04975576 0.34200001 4279319062
0.11564547 0.04975576 0.34200001 4279450648
0.11709768 0.049901247 0.34300002 4279516441
0.11821175 0.049901247 0.34300002 4279186963
0.11932582 0.049901247 0.34300002 4279319062
0.12079101 0.050046727 0.34400001 4279187990
0.12190833 0.050046727 0.34400001 4279188758
0.12338327 0.050192215 0.34500003 4278925586
0.12450383 0.050192215 0.34500003 4279188758
0.12598851 0.050337698 0.34600002 4279320344
0.12711233 0.050337698 0.34600002 4279319062
0.032239683 0.050718222 0.34100002 4282735181
0.033445042 0.050866954 0.34200001 4285171319
0.03455586 0.050866954 0.34200001 4285237112
0.035666678 0.050866954 0.34200001 4285302905
0.036777493 0.050866954 0.34200001 4285302905
0.037888311 0.050866954 0.34200001 4285434491
0.036718477 0.04789228 0.32200003 4285302905
0.037764337 0.04789228 0.32200003 4285302905
0.03881019 0.04789228 0.32200003 4285434491
0.039856046 0.04789228 0.32200003 4285434491
0.041028924 0.048041012 0.32300001 4285302905
0.042078033 0.048041012 0.32300001 4285171319
0.043260656 0.048189744 0.324 4285302907
0.044313006 0.048189744 0.324 4285565565
0.04536536 0.048189744 0.324 4285433979
0.046417713 0.048189744 0.324 4285433979
0.047470067 0.048189744 0.324 4285368184
0.048522417 0.048189744 0.324 4285433464
0.04957477 0.048189744 0.324 4285893497
0.050627124 0.048189744 0.324 4285631095
0.051679473 0.048189744 0.324 4285631095
0.052731827 0.048189744 0.324 4285434229
0.05378418 0.048189744 0.324 4285368438
0.05483653 0.048189744 0.324 4285565817
0.055888884 0.048189744 0.324 4285500538
0.056941237 0.048189744 0.324 4283659104
0.057993591 0.048189744 0.324 4280896057
0.059045941 0.048189744 0.324 4279712033
0.060098294 0.048189744 0.324 4279185689
0.061150651 0.048189744 0.324 4279186459
0.062202998 0.048189744 0.324 4279252506
0.063255355 0.048189744 0.324 4279581984
0.064307705 0.048189744 0.324 4279121947
0.065360054 0.048189744 0.324 4279450912
0.066412412 0.048189744 0.324 4279450396
0.067464761 0.048189744 0.324 4279385117
0.068517119 0.048189744 0.324 4278991129
0.069569468 0.048189744 0.324 4279320094
0.070621818 0.048189744 0.324 4279188762
0.071895398 0.04833848 0.32500002 4279057176
0.072950989 0.04833848 0.32500002 4279057176
0.074006595 0.04833848 0.32500002 4279188762
0.075293154 0.048487213 0.32600001 4278991896
0.076352 0.048487213 0.32600001 4278729494
0.077648312 0.048635948 0.32700002 4278795287
0.078951113 0.048784681 0.32800001 4278795287
0.080260411 0.048933417 0.32900003 4278926101
0.081823401 0.049230885 0.33100003 4278860308
0.08289849 0.049230885 0.33100003 4278926101
0.084227271 0.049379617 0.33200002 4278860308
0.085305609 0.049379617 0.33200002 4278663701
0.086383946 0.049379617 0.33200002 4278861078
0.087462284 0.049379617 0.33200002 4278795285
0.088540621 0.049379617 0.33200002 4278729492
0.089888893 0.049528349 0.333 4278861080
0.090970472 0.049528349 0.333 4278795285
0.092052057 0.049528349 0.333 4278861078
0.093133643 0.049528349 0.333 4278860308
0.094215229 0.049528349 0.333 4278729494
0.095296815 0.049528349 0.333 4278795285
0.096667834 0.049677085 0.33400002 4278729492
0.097752653 0.049677085 0.33400002 4278597906
0.098837487 0.049677085 0.33400002 4278729492
0.099922322 0.049677085 0.33400002 4278795285
0.10130957 0.049825817 0.33500001 4278795285
0.10239765 0.049825817 0.33500001 4278663699
0.10379466 0.049974553 0.33600003 4278795285
0.10488598 0.049974553 0.33600003 4278663701
0.10629271 0.050123286 0.33700001 4278663699
0.10770595 0.050272021 0.33800003 4278861078
0.10880377 0.050272021 0.33800003 4278860308
0.11022675 0.050420754 0.33900002 4278794515
0.11165622 0.050569486 0.34 4278926101
0.1130922 0.050718222 0.34100002 4278991894
0.11453465 0.050866954 0.34200001 4278991894
0.11564547 0.050866954 0.34200001 4278991894
0.11709768 0.05101569 0.34300002 4278991894
0.11821175 0.05101569 0.34300002 4278991381
0.1196737 0.051164422 0.34400001 4279188760
0.12079101 0.051164422 0.34400001 4279057174
0.12190833 0.051164422 0.34400001 4279057174
0.12338327 0.051313158 0.34500003 4279320346
0.12450383 0.051313158 0.34500003 4279319574
0.12562439 0.051313158 0.34500003 4279385367
0.032334227 0.051978145 0.34200001 4284577385
0.033445042 0.051978145 0.34200001 4285302391
0.03455586 0.051978145 0.34200001 4285237112
0.035666678 0.051978145 0.34200001 4285302905
0.036777493 0.051978145 0.34200001 4285302905
0.037888311 0.051978145 0.34200001 4285237112
0.038999125 0.051978145 0.34200001 4285302905
0.037764337 0.04893849 0.32200003 4285302905
0.03881019 0.04893849 0.32200003 4285434491
0.039979823 0.049090471 0.32300001 4285302905
0.041028924 0.049090471 0.32300001 4285302905
0.042208303 0.049242452 0.324 4285171319
0.043260656 0.049242452 0.324 4285302905
0.044313006 0.049242452 0.324 4285302905
0.04536536 0.049242452 0.324 4285434491
0.046417713 0.049242452 0.324 4285434491
0.047470067 0.049242452 0.324 4285565563
0.048672181 0.049394436 0.32500002 4285565563
0.049727783 0.049394436 0.32500002 4285433977
0.050783385 0.049394436 0.32500002 4285565563
0.051838979 0.049394436 0.32500002 4285565817
0.052894581 0.049394436 0.32500002 4285434231
0.053950183 0.049394436 0.32500002 4285565817
0.055005781 0.049394436 0.32500002 4285302645
0.056061383 0.049394436 0.32500002 4285368438
0.057116985 0.049394436 0.32500002 4285566331
0.057993591 0.049242452 0.324 4285171319
0.059045941 0.049242452 0.324 4285039733
0.060098294 0.049242452 0.324 4285039987
0.061150651 0.049242452 0.324 4284776815
0.062202998 0.049242452 0.324 4285631610
0.063255355 0.049242452 0.324 4285500538
0.064307705 0.049242452 0.324 4285303929
0.065360054 0.049242452 0.324 4285172089
0.066412412 0.049242452 0.324 4284579952
0.067464761 0.049242452 0.324 4284251241
0.068517119 0.049242452 0.324 4283198549
0.069569468 0.049242452 0.324 4281619517
0.070621818 0.049242452 0.324 4281816896
0.071895398 0.049394436 0.32500002 4280369450
0.072950989 0.049394436 0.32500002 4279908899
0.074006595 0.049394436 0.32500002 4279120666
0.075293154 0.049546417 0.32600001 4279120666
0.076352 0.049546417 0.32600001 4279120920
0.077648312 0.049698401 0.32700002 4279055127
0.078951113 0.049850386 0.32800001 4279055125
0.080260411 0.05000237 0.32900003 4279318297
0.081823401 0.050306335 0.33100003 4279581723
0.083148934 0.050458316 0.33200002 4279516443
0.084227271 0.050458316 0.33200002 4279516443
0.085305609 0.050458316 0.33200002 4279648029
0.086644135 0.050610296 0.333 4278924820
0.087725721 0.050610296 0.333 4279319578
0.088807307 0.050610296 0.333 4279319578
0.089888893 0.050610296 0.333 4279187992
0.090970472 0.050610296 0.333 4279187992
0.092052057 0.050610296 0.333 4279385369
0.093133643 0.050610296 0.333 4279319578
0.094215229 0.050610296 0.333 4278991383
0.095296815 0.050610296 0.333 4278991383
0.096667834 0.050762285 0.33400002 4279057176
0.097752653 0.050762285 0.33400002 4279057176
0.098837487 0.050762285 0.33400002 4278860310
0.099922322 0.050762285 0.33400002 4278860310
0.10130957 0.050914265 0.33500001 4278991383
0.10239765 0.050914265 0.33500001 4279320346
0.10348573 0.050914265 0.33500001 4278991383
0.10488598 0.05106625 0.33600003 4279057176
0.10629271 0.05121823 0.33700001 4279057176
0.10770595 0.051370215 0.33800003 4278991381
0.10880377 0.051370215 0.33800003 4279188760
0.11022675 0.051522195 0.33900002 4279319576
0.11165622 0.051674176 0.34 4279319576
0.1130922 0.051826164 0.34100002 4279254553
0.11453465 0.051978145 0.34200001 4279255066
0.11564547 0.051978145 0.34200001 4279255066
0.11709768 0.052130129 0.34300002 4279319576
0.11821175 0.052130129 0.34300002 4279385369
0.1196737 0.05228211 0.34400001 4279516955
0.12079101 0.05228211 0.34400001 4279451162
0.12190833 0.05228211 0.34400001 4279648027
0.12338327 0.052434094 0.34500003 4279516443
0.12450383 0.052434094 0.34500003 4279579670
0.032334227 0.053089339 0.34200001 4285630073
0.033445042 0.053089339 0.34200001 4285302391
0.03455586 0.053089339 0.34200001 4285237112
0.035666678 0.053089339 0.34200001 4285302905
0.036777493 0.053089339 0.34200001 4285434491
0.037888311 0.053089339 0.34200001 4285302905
0.038999125 0.053089339 0.34200001 4285302905
0.040109944 0.053089339 0.34200001 4285302905
0.039979823 0.050139934 0.32300001 4285500284
0.041028924 0.050139934 0.32300001 4285302905
0.042208303 0.050295163 0.324 4285434491
0.043260656 0.050295163 0.324 4285434491
0.044313006 0.050295163 0.324 4285434491
0.04536536 0.050295163 0.324 4285630843
0.046417713 0.050295163 0.324 4285630843
0.047470067 0.050295163 0.324 4285499257
0.048672181 0.050450396 0.32500002 4285565563
0.049727783 0.050450396 0.32500002 4285433977
0.050783385 0.050450396 0.32500002 4285631356
0.051838979 0.050450396 0.32500002 4285368184
0.052894581 0.050450396 0.32500002 4285433977
0.053950183 0.050450396 0.32500002 4285302645
0.055005781 0.050450396 0.32500002 4285631097
0.056061383 0.050450396 0.32500002 4285499511
0.057116985 0.050450396 0.32500002 4285433718
0.058172587 0.050450396 0.32500002 4285368184
0.059228186 0.050450396 0.32500002 4285302391
0.090970472 0.051692251 0.333 4280303657
0.092052057 0.051692251 0.333 4279579934
0.093133643 0.051692251 0.333 4279777313
0.094215229 0.051692251 0.333 4279777567
0.095296815 0.051692251 0.333 4279777567
0.096667834 0.051847484 0.33400002 4279711774
0.097752653 0.051847484 0.33400002 4279711774
0.098837487 0.051847484 0.33400002 4279711774
0.099922322 0.051847484 0.33400002 4279448602
0.10100716 0.051847484 0.33400002 4279974946
0.10239765 0.052002717 0.33500001 4279909153
0.10348573 0.052002717 0.33500001 4280172325
0.10488598 0.05215795 0.33600003 4279974946
0.10629271 0.052313179 0.33700001 4280434213
0.10770595 0.052468415 0.33800003 4280500006
0.10880377 0.052468415 0.33800003 4280368934
0.11022675 0.052623644 0.33900002 4280566313
0.11165622 0.052778874 0.34 4281355315
0.1130922 0.05293411 0.34100002 4281684280
0.11453465 0.053089339 0.34200001 4282144831
0.11564547 0.053089339 0.34200001 4282670660
0.11709768 0.053244572 0.34300002 4283328844
0.11821175 0.053244572 0.34300002 4283920981
0.1196737 0.053399805 0.34400001 4284512094
0.12079101 0.053399805 0.34400001 4285366892
0.12190833 0.053399805 0.34400001 4286221431
0.032334227 0.05420053 0.34200001 4285697149
0.033445042 0.05420053 0.34200001 4285368184
0.03455586 0.05420053 0.34200001 4285433977
0.035666678 0.05420053 0.34200001 4285565565
0.036777493 0.05420053 0.34200001 4285631358
0.037888311 0.05420053 0.34200001 4285565563
0.038999125 0.05420053 0.34200001 4285565563
0.040109944 0.05420053 0.34200001 4285631356
0.039979823 0.051189389 0.32300001 4285433977
0.041028924 0.051189389 0.32300001 4285433977
0.042208303 0.05134787 0.324 4285631356
0.043260656 0.05134787 0.324 4285565563
0.044313006 0.05134787 0.324 4285565565
0.04536536 0.05134787 0.324 4285565563
0.046417713 0.05134787 0.324 4285565563
0.076098502 0.042529345 0.32967868 4294967295
0.076098502 0.042529345 0.32967868 4294901760
0.076098502 0.042529345 0.33017868 4294901760
0.076098502 0.042529345 0.33067867 4294901760
0.076098502 0.042529345 0.33117869 4294901760
0.076098502 0.042529345 0.33167869 4294901760
0.076098502 0.042529345 0.33217868 4294901760
0.076098502 0.042529345 0.33267868 4294901760
0.076098502 0.042529345 0.3331787 4294901760
0.076098502 0.042529345 0.33367869 4294901760
0.076098502 0.042529345 0.33417869 4294901760
0.076098502 0.042529345 0.33467868 4294901760
0.076098502 0.042529345 0.33517867 4294901760
0.076098502 0.042529345 0.3356787 4294901760
0.076098502 0.042529345 0.33617869 4294901760
0.076098502 0.042529345 0.33667868 4294901760
0.076098502 0.042529345 0.33717868 4294901760
0.076098502 0.042529345 0.33767867 4294901760
0.076098502 0.042529345 0.33817869 4294901760
0.076098502 0.042529345 0.33867869 4294901760
0.076098502 0.042529345 0.33917868 4294901760
0.076098502 0.042529345 0.33967867 4294901760
0.076098502 0.042529345 0.3401787 4294901760
0.076098502 0.042529345 0.34067869 4294901760
0.076098502 0.042529345 0.34117869 4294901760
0.076098502 0.042529345 0.34167868 4294901760
0.076098502 0.042529345 0.3421787 4294901760
0.076098502 0.042529345 0.3426787 4294901760
0.076098502 0.042529345 0.34317869 4294901760
0.076098502 0.042529345 0.34367868 4294901760
0.076098502 0.042529345 0.34417868 4294901760
0.076098502 0.042529345 0.3446787 4294901760
0.076098502 0.042529345 0.34517869 4294901760
0.076098502 0.042529345 0.34567869 4294901760
0.076098502 0.042529345 0.34617868 4294901760
0.076098502 0.042529345 0.34667867 4294901760
0.076098502 0.042529345 0.3471787 4294901760
0.076098502 0.042529345 0.34767869 4294901760
0.076098502 0.042529345 0.34817868 4294901760
0.076098502 0.042529345 0.34867868 4294901760
0.076098502 0.042529345 0.3491787 4294901760
0.076098502 0.042529345 0.3496787 4294901760
0.076098502 0.042529345 0.35017869 4294901760
0.076098502 0.042529345 0.35067868 4294901760
0.076098502 0.042529345 0.35117871 4294901760
0.076098502 0.042529345 0.3516787 4294901760
0.076098502 0.042529345 0.35217869 4294901760
0.076098502 0.042529345 0.35267869 4294901760
0.076098502 0.042529345 0.35317868 4294901760
0.076098502 0.042529345 0.3536787 4294901760
0.076098502 0.042529345 0.3541787 4294901760
0.076098502 0.042529345 0.35467869 4294901760
0.076098502 0.042529345 0.35517868 4294901760
0.076098502 0.042529345 0.35567868 4294901760
0.076098502 0.042529345 0.3561787 4294901760
0.076098502 0.042529345 0.35667869 4294901760
0.076098502 0.042529345 0.35717869 4294901760
0.076098502 0.042529345 0.35767868 4294901760
0.076098502 0.042529345 0.35817868 4294901760
0.076098502 0.042529345 0.3586787 4294901760
0.076098502 0.042529345 0.35917869 4294901760
0.076098502 0.042529345 0.35967869 4294901760
0.076098502 0.042529345 0.36017868 4294901760
0.076098502 0.042529345 0.3606787 4294901760
0.076098502 0.042529345 0.3611787 4294901760
0.076098502 0.042529345 0.36167869 4294901760
0.076098502 0.042529345 0.36217868 4294901760
0.076098502 0.042529345 0.36267871 4294901760
0.076098502 0.042529345 0.3631787 4294901760
0.076098502 0.042529345 0.36367869 4294901760
0.076098502 0.042529345 0.36417869 4294901760
0.076098502 0.042529345 0.36467868 4294901760
0.076098502 0.042529345 0.3651787 4294901760
0.076098502 0.042529345 0.3656787 4294901760
0.076098502 0.042529345 0.36617869 4294901760
0.076098502 0.042529345 0.36667868 4294901760
0.076098502 0.042529345 0.36717868 4294901760
0.076098502 0.042529345 0.3676787 4294901760
0.076098502 0.042529345 0.3681787 4294901760
0.076098502 0.042529345 0.36867869 4294901760
0.076098502 0.042529345 0.36917868 4294901760
0.076098502 0.042529345 0.36967871 4294901760
0.076098502 0.042529345 0.3701787 4294901760
0.076098502 0.042529345 0.37067869 4294901760
0.076098502 0.042529345 0.37117869 4294901760
0.076098502 0.042529345 0.37167868 4294901760
0.076098502 0.042529345 0.3721787 4294901760
0.076098502 0.042529345 0.3726787 4294901760
0.076098502 0.042529345 0.37317869 4294901760
0.076098502 0.042529345 0.37367868 4294901760
0.076098502 0.042529345 0.37417871 4294901760
0.076098502 0.042529345 0.3746787 4294901760
0.076098502 0.042529345 0.37517869 4294901760
0.076098502 0.042529345 0.37567869 4294901760
0.076098502 0.042529345 0.37617868 4294901760
0.076098502 0.042529345 0.37667871 4294901760
0.076098502 0.042529345 0.3771787 4294901760
0.076098502 0.042529345 0.37767869 4294901760
0.076098502 0.042529345 0.37817869 4294901760
0.076098502 0.042529345 0.37867871 4294901760
0.076098502 0.042529345 0.3791787 4294901760
0.076098502 0.042529345 0.3796787 4294901760
0.076098502 0.042529345 0.32967868 4278255360
0.075928077 0.042444427 0.33014101 4278255360
0.075757645 0.042359512 0.33060333 4278255360
0.07558722 0.042274594 0.33106565 4278255360
0.075416788 0.042189676 0.33152798 4278255360
0.075246364 0.042104762 0.3319903 4278255360
0.075075939 0.042019844 0.33245263 4278255360
0.074905507 0.041934926 0.33291495 4278255360
0.074735083 0.041850012 0.33337727 4278255360
0.074564651 0.041765094 0.3338396 4278255360
0.074394226 0.041680176 0.33430192 4278255360
0.074223794 0.041595262 0.33476424 4278255360
0.074053369 0.041510344 0.33522657 4278255360
0.073882945 0.041425426 0.33568889 4278255360
0.073712513 0.041340511 0.33615121 4278255360
0.073542088 0.041255593 0.33661354 4278255360
0.073371656 0.041170675 0.33707586 4278255360
0.073201232 0.041085761 0.33753818 4278255360
0.073030807 0.041000843 0.33800051 4278255360
0.072860375 0.040915925 0.33846283 4278255360
0.07268995 0.040831011 0.33892515 4278255360
