# .PCD v0.7 - Point Cloud Data file format
VERSION 0.7
FIELDS x y z rgb
SIZE 4 4 4 4
TYPE F F F U
COUNT 1 1 1 1
WIDTH 743
HEIGHT 1
VIEWPOINT 0 0 0 1 0 0 0
POINTS 743
DATA ascii
0.1286003 -0.021488508 0.384 4280109610
0.12984754 -0.021488508 0.384 4279978024
0.13109477 -0.021488508 0.384 4279912744
0.13234201 -0.021488508 0.384 4279190045
0.13358924 -0.021488508 0.384 4279519519
0.13483648 -0.021488508 0.384 4279585312
0.13608371 -0.021488508 0.384 4279454498
0.12610584 -0.020240853 0.384 4279715106
0.12735309 -0.020240853 0.384 4279781412
0.1286003 -0.020240853 0.384 4279388707
0.12984754 -0.020240853 0.384 4279257121
0.13109477 -0.020240853 0.384 4278993949
0.13234201 -0.020240853 0.384 4279126047
0.13358924 -0.020240853 0.384 4279257631
0.13483648 -0.020240853 0.384 4279455010
0.12328948 -0.018943736 0.38300002 4279584801
0.12453347 -0.018943736 0.38300002 4279058970
0.12577745 -0.018943736 0.38300002 4279388705
0.12702143 -0.018943736 0.38300002 4279126045
0.1286003 -0.018993197 0.384 4279192351
0.12984754 -0.018993197 0.384 4279323937
0.13109477 -0.018993197 0.384 4279061535
0.13234201 -0.018993197 0.384 4279127328
0.13358924 -0.018993197 0.384 4279323937
0.13448535 -0.018943736 0.38300002 4279389984
0.11800463 -0.017653119 0.38200003 4279780899
0.11924537 -0.017653119 0.38200003 4279386652
0.1204861 -0.017653119 0.38200003 4279255836
0.12172684 -0.017653119 0.38200003 4279584801
0.12328948 -0.017699331 0.38300002 4279126045
0.12453347 -0.017699331 0.38300002 4279257631
0.12577745 -0.017699331 0.38300002 4278929179
0.12702143 -0.017699331 0.38300002 4279192605
0.1286003 -0.017745541 0.384 4279193375
0.13109477 -0.017745541 0.384 4278797593
0.11491832 -0.016326034 0.38000003 4278992666
0.11645823 -0.016368998 0.38100001 4279387935
0.11769572 -0.016368998 0.38100001 4279322912
0.11893321 -0.016368998 0.38100001 4279191840
0.1204861 -0.016411962 0.38200003 4279323424
0.12172684 -0.016411962 0.38200003 4279389730
0.12296758 -0.016411962 0.38200003 4279193121
0.12453347 -0.016454924 0.38300002 4279193634
0.12577745 -0.016454924 0.38300002 4278929949
0.10940251 -0.015011949 0.37800002 4279058718
0.11092292 -0.015051662 0.37900001 4278796316
0.11215391 -0.015051662 0.37900001 4278993949
0.11338491 -0.015051662 0.37900001 4279257121
0.1146159 -0.015051662 0.37900001 4279126047
0.11615257 -0.015091376 0.38000003 4279126047
0.11738681 -0.015091376 0.38000003 4279258146
0.11893321 -0.01513109 0.38100001 4279389732
0.1204861 -0.015170805 0.38200003 4279060765
0.12172684 -0.015170805 0.38200003 4279323937
0.1029906 -0.013747321 0.377 4279517473
0.10421509 -0.013747321 0.377 4279124252
0.10543959 -0.013747321 0.377 4279124763
0.10666409 -0.013747321 0.377 4278993177
0.10788859 -0.013747321 0.377 4279190558
0.10911308 -0.013747321 0.377 4279257119
0.11063025 -0.013783786 0.37800002 4278994461
0.111858 -0.013783786 0.37800002 4279323939
0.11308575 -0.013783786 0.37800002 4279323939
0.1146159 -0.013820251 0.37900001 4279521316
0.11615257 -0.013856716 0.38000003 4279323937
0.11893321 -0.013893181 0.38100001 4279455010
0.058916427 -0.012024171 0.36200002 4280039717
0.059926208 -0.011990955 0.36100003 4279120668
0.061098732 -0.011990955 0.36100003 4284580202
0.098526791 -0.012422762 0.37400001 4279451680
0.10000824 -0.012455978 0.37500003 4279320607
0.10149617 -0.012489194 0.37600002 4279124511
0.10271741 -0.012489194 0.37600002 4278862363
0.10393866 -0.012489194 0.37600002 4278993945
0.10515992 -0.012489194 0.37600002 4278994459
0.10638116 -0.012489194 0.37600002 4279389219
0.10911308 -0.01252241 0.377 4279323939
0.11033757 -0.01252241 0.377 4278995744
0.111858 -0.012555626 0.37800002 4279127330
0.11308575 -0.012555626 0.37800002 4279587111
0.059926208 -0.01081803 0.36100003 4279054873
0.061098732 -0.01081803 0.36100003 4279778596
0.062271263 -0.01081803 0.36100003 4285828985
0.063443795 -0.01081803 0.36100003 4285367921
0.085720345 -0.010967864 0.36600003 4286420861
0.092665978 -0.011087731 0.37 4279516703
0.094121441 -0.011117698 0.37100002 4279452193
0.095583394 -0.011147664 0.37200001 4279255068
0.097051844 -0.011177632 0.37300003 4278992666
0.098526791 -0.011207598 0.37400001 4278992666
0.099741548 -0.011207598 0.37400001 4279058972
0.10122624 -0.011237565 0.37500003 4278599189
0.10244423 -0.011237565 0.37500003 4279257119
0.10366224 -0.011237565 0.37500003 4279389217
0.10515992 -0.011267532 0.37600002 4279323937
0.10638116 -0.011267532 0.37600002 4278863388
0.10760242 -0.011267532 0.37600002 4279521318
0.10911308 -0.011297498 0.377 4279652391
0.060092207 -0.0096718213 0.36200002 4279054873
0.061098732 -0.0096451044 0.36100003 4279318045
0.062271263 -0.0096451044 0.36100003 4280041770
0.063443795 -0.0096451044 0.36100003 4285237364
0.064616323 -0.0096451044 0.36100003 4285368434
0.084762543 -0.0098054102 0.36700001 4280896046
0.085954554 -0.0098054102 0.36700001 4279514647
0.088579297 -0.009832128 0.36800003 4279647516
0.089774556 -0.009832128 0.36800003 4279319578
0.091217026 -0.0098588457 0.36900002 4278794004
0.092665978 -0.0098855626 0.37 4278991896
0.094121441 -0.0099122813 0.37100002 4279124252
0.095583394 -0.0099389981 0.37200001 4279321629
0.097051844 -0.0099657169 0.37300003 4278993177
0.098263353 -0.0099657169 0.37300003 4278993947
0.099741548 -0.0099924337 0.37400001 4279257633
0.1009563 -0.0099924337 0.37400001 4279191840
0.10244423 -0.010019152 0.37500003 4278994461
0.10366224 -0.010019152 0.37500003 4279652389
0.10488024 -0.010019152 0.37500003 4279718182
0.054063134 -0.0086599262 0.36900002 4280432678
0.060092207 -0.0084956456 0.36200002 4278923541
0.061267979 -0.0084956456 0.36200002 4279055640
0.062271263 -0.0084721772 0.36100003 4279055900
0.063443795 -0.0084721772 0.36100003 4281621315
0.064616323 -0.0084721772 0.36100003 4285237362
0.07999447 -0.0086129894 0.36700001 4284184928
0.081186488 -0.0086129894 0.36700001 4280895278
0.082378507 -0.0086129894 0.36700001 4279251223
0.084762543 -0.0086129894 0.36700001 4279385117
0.085954554 -0.0086129894 0.36700001 4279188762
0.08738403 -0.0086364578 0.36800003 4278991381
0.088579297 -0.0086364578 0.36800003 4278991896
0.090018511 -0.0086599262 0.36900002 4278795287
0.091217026 -0.0086599262 0.36900002 4279058459
0.092665978 -0.0086833946 0.37 4279190045
0.094121441 -0.008706864 0.37100002 4279321631
0.095583394 -0.0087303324 0.37200001 4279453730
0.097051844 -0.0087538008 0.37300003 4279388707
0.098263353 -0.0087538008 0.37300003 4279257121
0.099741548 -0.0087772692 0.37400001 4279257121
0.050467592 -0.0074610082 0.36900002 4280169773
0.060258206 -0.0073396903 0.36300001 4278791183
0.061267979 -0.0073194713 0.36200002 4278791953
0.062443756 -0.0073194713 0.36200002 4279055640
0.063619532 -0.0073194713 0.36200002 4279318558
0.064795315 -0.0073194713 0.36200002 4284054373
0.071650356 -0.0074205687 0.36700001 4285433714
0.072842374 -0.0074205687 0.36700001 4285499507
0.074034385 -0.0074205687 0.36700001 4285696886
0.075226404 -0.0074205687 0.36700001 4286026364
0.076418422 -0.0074205687 0.36700001 4284447332
0.077610441 -0.0074205687 0.36700001 4280894764
0.081186488 -0.0074205687 0.36700001 4279581469
0.082378507 -0.0074205687 0.36700001 4279121945
0.083570525 -0.0074205687 0.36700001 4278991129
0.084762543 -0.0074205687 0.36700001 4278728470
0.085954554 -0.0074205687 0.36700001 4278860310
0.08738403 -0.0074407887 0.36800003 4278861078
0.088579297 -0.0074407887 0.36800003 4278992664
0.090018511 -0.0074610082 0.36900002 4279124765
0.092665978 -0.0074812272 0.37 4279256097
0.094121441 -0.0075014471 0.37100002 4279124511
0.051666107 -0.0062620887 0.36900002 4280366633
0.060424209 -0.0061772368 0.36400002 4278988562
0.061437227 -0.0061602662 0.36300001 4278791953
0.062616251 -0.0061602662 0.36300001 4278857746
0.063795276 -0.0061602662 0.36300001 4278660882
0.064974301 -0.0061602662 0.36300001 4278857748
0.066335566 -0.0061772368 0.36400002 4283068246
0.067517839 -0.0061772368 0.36400002 4285697913
0.06870012 -0.0061772368 0.36400002 4285237362
0.071650356 -0.006228148 0.36700001 4286026364
0.072842374 -0.006228148 0.36700001 4284578405
0.074034385 -0.006228148 0.36700001 4281486647
0.075226404 -0.006228148 0.36700001 4278922258
0.076418422 -0.006228148 0.36700001 4279646494
0.077610441 -0.006228148 0.36700001 4279384092
0.078802451 -0.006228148 0.36700001 4279187226
0.07999447 -0.006228148 0.36700001 4278989845
0.081186488 -0.006228148 0.36700001 4278859027
0.082378507 -0.006228148 0.36700001 4278728211
0.083570525 -0.006228148 0.36700001 4278926103
0.084993504 -0.0062451186 0.36800003 4278926103
0.086188763 -0.0062451186 0.36800003 4279190045
0.08738403 -0.0062451186 0.36800003 4279190558
0.088820003 -0.0062620887 0.36900002 4279124765
0.090018511 -0.0062620887 0.36900002 4279058972
0.060590208 -0.0050082849 0.36500001 4279119637
0.061775722 -0.0050082849 0.36500001 4278725392
0.062788747 -0.0049945638 0.36400002 4278726673
0.063971028 -0.0049945638 0.36400002 4278858259
0.065153301 -0.0049945638 0.36400002 4278726673
0.066517808 -0.0050082849 0.36500001 4279121433
0.067703329 -0.0050082849 0.36500001 4279186459
0.068888851 -0.0050082849 0.36500001 4279975205
0.071650356 -0.0050357278 0.36700001 4280172325
0.072842374 -0.0050357278 0.36700001 4279515424
0.074034385 -0.0050357278 0.36700001 4279383838
0.075431384 -0.0050494494 0.36800003 4278989847
0.076626651 -0.0050494494 0.36800003 4278858261
0.077821918 -0.0050494494 0.36800003 4278727189
0.079017177 -0.0050494494 0.36800003 4278661396
0.080212444 -0.0050494494 0.36800003 4278858773
0.081407711 -0.0050494494 0.36800003 4278991129
0.08260297 -0.0050494494 0.36800003 4279189791
0.083798237 -0.0050494494 0.36800003 4279189791
0.084993504 -0.0050494494 0.36800003 4279255838
0.059016682 -0.0038747236 0.37 4279379475
0.060922209 -0.003843307 0.36700001 4279580188
0.061944973 -0.003832835 0.36600003 4278856976
0.063133746 -0.003832835 0.36600003 4278660880
0.064322516 -0.003832835 0.36600003 4278726673
0.065332286 -0.0038223625 0.36500001 4279647775
0.066700049 -0.003832835 0.36600003 4278397962
0.067888819 -0.003832835 0.36600003 4278858259
0.069077589 -0.003832835 0.36600003 4278726673
0.070458338 -0.003843307 0.36700001 4278792466
0.071650356 -0.003843307 0.36700001 4278660880
0.073040858 -0.0038537795 0.36800003 4278792468
0.074236117 -0.0038537795 0.36800003 4278792468
0.075431384 -0.0038537795 0.36800003 4278858261
0.076626651 -0.0038537795 0.36800003 4278858261
0.077821918 -0.0038537795 0.36800003 4278858773
0.079017177 -0.0038537795 0.36800003 4279056152
0.080212444 -0.0038537795 0.36800003 4279254301
0.081407711 -0.0038537795 0.36800003 4279254301
0.08260297 -0.0038537795 0.36800003 4278991642
0.059176192 -0.0026797792 0.37100002 4279249174
0.060218446 -0.0026725559 0.37 4279842590
0.061254211 -0.002665333 0.36900002 4279317014
0.062283471 -0.0026581099 0.36800003 4279449113
0.063306242 -0.0026508868 0.36700001 4278791953
0.064498261 -0.0026508868 0.36700001 4278660880
0.065690279 -0.0026508868 0.36700001 4278199044
0.06688229 -0.0026508868 0.36700001 4280832815
0.068074308 -0.0026508868 0.36700001 4278990099
0.069266327 -0.0026508868 0.36700001 4278858259
0.070458338 -0.0026508868 0.36700001 4278726673
0.071845591 -0.0026581099 0.36800003 4278858259
0.073040858 -0.0026581099 0.36800003 4278727187
0.074236117 -0.0026581099 0.36800003 4279056152
0.075431384 -0.0026581099 0.36800003 4279319324
0.076834872 -0.002665333 0.36900002 4279188508
0.078033388 -0.002665333 0.36900002 4279320094
0.080430411 -0.002665333 0.36900002 4280241196
0.056609489 -0.0015021805 0.37800002 4279577887
0.057531219 -0.0014942324 0.37600002 4280169254
0.058439955 -0.0014862844 0.37400001 4279183383
0.059495199 -0.0014823105 0.37300003 4279118613
0.060543951 -0.0014783364 0.37200001 4279317016
0.06142021 -0.0014703883 0.37 4279514906
0.062621966 -0.0014703883 0.37 4279514906
0.063651234 -0.0014664143 0.36900002 4279713055
0.064849749 -0.0014664143 0.36900002 4279253017
0.065869272 -0.0014624404 0.36800003 4278924566
0.067064531 -0.0014624404 0.36800003 4278924566
0.068259798 -0.0014624404 0.36800003 4279319324
0.069455065 -0.0014624404 0.36800003 4279648289
0.070650324 -0.0014624404 0.36800003 4278990359
0.071845591 -0.0014624404 0.36800003 4278859543
0.073040858 -0.0014624404 0.36800003 4278991642
0.074437842 -0.0014664143 0.36900002 4278991642
0.078033388 -0.0014664143 0.36900002 4280438059
0.079231896 -0.0014664143 0.36900002 4280832817
0.080430411 -0.0014664143 0.36900002 4280567848
0.083051898 -0.0014703883 0.37 4280698928
0.085455418 -0.0014703883 0.37 4280959790
0.057684224 -0.00027329492 0.377 4279183383
0.05875247 -0.00027257 0.37600002 4279118103
0.059654702 -0.00027112017 0.37400001 4279250199
0.060706709 -0.00027039525 0.37300003 4279053590
0.061752211 -0.00026967033 0.37200001 4279317016
0.062791213 -0.00026894541 0.37100002 4279712287
0.063996226 -0.00026894541 0.37100002 4279581471
0.065025486 -0.00026822046 0.37 4279581984
0.06622725 -0.00026822046 0.37 4279450910
0.067429006 -0.00026822046 0.37 4279648289
0.068445288 -0.00026749558 0.36900002 4279977254
0.069643795 -0.00026749558 0.36900002 4279648289
0.070842311 -0.00026749558 0.36900002 4280109610
0.072040819 -0.00026749558 0.36900002 4280109610
0.073239334 -0.00026749558 0.36900002 4280175403
0.074437842 -0.00026749558 0.36900002 4280241196
0.075636357 -0.00026749558 0.36900002 4280569645
0.076834872 -0.00026749558 0.36900002 4280832817
0.078244857 -0.00026822046 0.37 4280832817
0.057837237 0.00095414085 0.37800002 4279381789
0.058908723 0.00095161662 0.377 4279052822
0.059973713 0.00094909244 0.37600002 4279118615
0.061032213 0.00094656833 0.37500003 4279250969
0.062084213 0.00094404409 0.37400001 4279252506
0.063129716 0.00094151992 0.37300003 4279713057
0.064168721 0.00093899574 0.37200001 4279647777
0.065376982 0.00093899574 0.37200001 4279450910
0.06640625 0.00093647157 0.37100002 4279977256
0.067611255 0.00093647157 0.37100002 4280306221
0.06881626 0.00093647157 0.37100002 4280109864
0.069832534 0.00093394733 0.37 4279912485
0.07103429 0.00093394733 0.37 4280175657
0.072040819 0.00093142322 0.36900002 4280373036
0.073239334 0.00093142322 0.36900002 4280570415
0.074437842 0.00093142322 0.36900002 4280570415
0.07584133 0.00093394733 0.37 4280767024
0.077043094 0.00093394733 0.37 4280701231
0.078244857 0.00093394733 0.37 4280830766
0.059064981 0.0021823014 0.37800002 4279052824
0.060133215 0.0021765281 0.377 4278988312
0.061194964 0.0021707548 0.37600002 4279777826
0.062250216 0.0021649816 0.37500003 4279647777
0.063298963 0.0021592083 0.37400001 4279516703
0.064513713 0.0021592083 0.37400001 4279516703
0.065552726 0.002153435 0.37300003 4279648289
0.066764235 0.002153435 0.37300003 4280832563
0.067793489 0.0021476618 0.37200001 4280372012
0.069001749 0.0021476618 0.37200001 4280240680
0.070021272 0.0021418885 0.37100002 4280701231
0.07103429 0.0021361152 0.37 4280306989
0.072236054 0.0021361152 0.37 4280570161
0.073437817 0.0021361152 0.37 4280766770
0.074639574 0.0021361152 0.37 4280963635
0.077043094 0.0021361152 0.37 4281028915
0.060292721 0.0034104621 0.37800002 4279185691
0.061357714 0.0034014394 0.377 4279713057
0.062416214 0.0033924172 0.37600002 4279581982
0.06346821 0.003383395 0.37500003 4279647775
0.064686216 0.003383395 0.37500003 4279648289
0.065728471 0.0033743724 0.37400001 4280437805
0.066943221 0.0033743724 0.37400001 4280503598
0.067975737 0.0033653502 0.37300003 4280437805
0.069187239 0.0033653502 0.37300003 4280503852
0.07021001 0.0033563275 0.37200001 4280701231
0.061357714 0.0046263509 0.377 4279909414
0.06258221 0.0046263509 0.377 4279450912
0.063637458 0.0046140798 0.37600002 4279648289
0.064686216 0.0046018083 0.37500003 4280569391
0.065904215 0.0046018083 0.37500003 4280569391
0.066943221 0.0045895367 0.37400001 4280372012
0.068157971 0.0045895367 0.37400001 4280437805
0.069372728 0.0045895367 0.37400001 4280766770
0.08431866 -0.0069609717 0.3718164 4294967295
0.08431866 -0.0069609717 0.3718164 4294901760
0.084263518 -0.0073900409 0.37156567 4294901760
0.084208369 -0.0078191105 0.37131497 4294901760
0.084153228 -0.0082481802 0.37106425 4294901760
0.084098078 -0.0086772488 0.37081352 4294901760
0.084042937 -0.0091063185 0.37056282 4294901760
0.083987795 -0.0095353881 0.37031209 4294901760
0.083932646 -0.0099644568 0.3700614 4294901760
0.083877504 -0.010393526 0.36981067 4294901760
0.083822355 -0.010822596 0.36955994 4294901760
0.083767213 -0.011251666 0.36930925 4294901760
0.083712071 -0.011680735 0.36905852 4294901760
0.083656922 -0.012109804 0.36880779 4294901760
0.08360178 -0.012538873 0.3685571 4294901760
0.083546631 -0.012967942 0.36830637 4294901760
0.083491489 -0.013397012 0.36805567 4294901760
0.083436348 -0.013826082 0.36780494 4294901760
0.083381198 -0.014255151 0.36755422 4294901760
0.083326057 -0.014684221 0.36730352 4294901760
0.083270907 -0.01511329 0.36705279 4294901760
0.083215766 -0.01554236 0.36680207 4294901760
0.083160624 -0.015971428 0.36655137 4294901760
0.083105475 -0.016400497 0.36630064 4294901760
0.083050333 -0.016829567 0.36604995 4294901760
0.082995184 -0.017258637 0.36579922 4294901760
0.082940042 -0.017687706 0.36554849 4294901760
0.0828849 -0.018116774 0.36529779 4294901760
0.082829751 -0.018545846 0.36504707 4294901760
0.082774609 -0.018974913 0.36479634 4294901760
0.08271946 -0.019403983 0.36454564 4294901760
0.082664318 -0.019833053 0.36429492 4294901760
0.082609177 -0.020262122 0.36404419 4294901760
0.082554027 -0.020691192 0.36379349 4294901760
0.082498886 -0.021120261 0.36354277 4294901760
0.082443736 -0.021549331 0.36329207 4294901760
0.082388595 -0.021978399 0.36304134 4294901760
0.082333453 -0.02240747 0.36279061 4294901760
0.082278304 -0.022836538 0.36253992 4294901760
0.082223162 -0.023265608 0.36228919 4294901760
0.082168013 -0.023694675 0.36203846 4294901760
0.082112871 -0.024123747 0.36178777 4294901760
0.082057729 -0.024552815 0.36153704 4294901760
0.08200258 -0.024981884 0.36128634 4294901760
0.081947438 -0.025410954 0.36103562 4294901760
0.081892289 -0.025840024 0.36078489 4294901760
0.081837147 -0.026269091 0.36053419 4294901760
0.081782006 -0.026698163 0.36028346 4294901760
0.081726857 -0.027127231 0.36003274 4294901760
0.081671715 -0.0275563 0.35978204 4294901760
0.081616566 -0.02798537 0.35953131 4294901760
0.081561424 -0.028414439 0.35928059 4294901760
0.081506282 -0.028843509 0.35902989 4294901760
0.081451133 -0.029272577 0.35877916 4294901760
0.081395991 -0.029701646 0.35852847 4294901760
0.081340842 -0.030130718 0.35827774 4294901760
0.0812857 -0.030559788 0.35802701 4294901760
0.081230558 -0.030988855 0.35777631 4294901760
0.081175409 -0.031417925 0.35752559 4294901760
0.081120268 -0.031846993 0.35727486 4294901760
0.081065118 -0.032276064 0.35702416 4294901760
0.081009977 -0.032705136 0.35677344 4294901760
0.080954835 -0.033134203 0.35652274 4294901760
0.080899686 -0.033563271 0.35627201 4294901760
0.080844544 -0.033992343 0.35602129 4294901760
0.080789395 -0.03442141 0.35577059 4294901760
0.080734253 -0.034850478 0.35551986 4294901760
0.080679111 -0.03527955 0.35526913 4294901760
0.080623962 -0.035708621 0.35501844 4294901760
0.08056882 -0.036137689 0.35476771 4294901760
0.080513671 -0.036566757 0.35451701 4294901760
0.080458529 -0.036995828 0.35426629 4294901760
0.080403388 -0.037424896 0.35401556 4294901760
0.080348238 -0.037853967 0.35376486 4294901760
0.080293097 -0.038283039 0.35351413 4294901760
0.080237947 -0.038712107 0.35326341 4294901760
0.080182806 -0.039141174 0.35301271 4294901760
0.080127664 -0.039570246 0.35276198 4294901760
0.080072515 -0.039999314 0.35251129 4294901760
0.080017373 -0.040428381 0.35226056 4294901760
0.079962224 -0.040857453 0.35200983 4294901760
0.079907082 -0.041286524 0.35175914 4294901760
0.07985194 -0.041715592 0.35150841 4294901760
0.079796791 -0.04214466 0.35125768 4294901760
0.079741649 -0.042573728 0.35100698 4294901760
0.0796865 -0.043002799 0.35075626 4294901760
0.079631358 -0.043431871 0.35050553 4294901760
0.079576217 -0.043860938 0.35025483 4294901760
0.079521067 -0.044290006 0.35000411 4294901760
0.079465926 -0.044719078 0.34975341 4294901760
0.079410776 -0.045148145 0.34950268 4294901760
0.079355635 -0.045577213 0.34925196 4294901760
0.079300493 -0.046006285 0.34900126 4294901760
0.079245344 -0.046435356 0.34875053 4294901760
0.079190202 -0.046864424 0.3484998 4294901760
0.079135053 -0.047293492 0.34824911 4294901760
0.079079911 -0.047722563 0.34799838 4294901760
0.079024769 -0.048151631 0.34774768 4294901760
0.07896962 -0.048580702 0.34749696 4294901760
0.078914478 -0.04900977 0.34724623 4294901760
0.078859329 -0.049438842 0.34699553 4294901760
0.078804187 -0.049867909 0.34674481 4294901760
0.08431866 -0.0069609717 0.3718164 4278255360
0.084792823 -0.0070819077 0.37191907 4278255360
0.085266992 -0.0072028432 0.37202173 4278255360
0.085741155 -0.0073237792 0.37212443 4278255360
0.086215317 -0.0074447151 0.3722271 4278255360
0.086689487 -0.0075656506 0.37232977 4278255360
0.087163649 -0.0076865866 0.37243244 4278255360
0.087637812 -0.0078075221 0.37253511 4278255360
0.088111982 -0.007928458 0.37263778 4278255360
0.088586144 -0.008049394 0.37274048 4278255360
0.089060307 -0.00817033 0.37284315 4278255360
0.089534476 -0.008291265 0.37294582 4278255360
0.090008639 -0.008412201 0.37304848 4278255360
0.090482801 -0.0085331369 0.37315115 4278255360
0.090956971 -0.0086540729 0.37325385 4278255360
0.091431133 -0.0087750088 0.37335652 4278255360
0.091905303 -0.0088959448 0.37345919 4278255360
0.092379466 -0.0090168808 0.37356186 4278255360
0.092853628 -0.0091378158 0.37366453 4278255360
0.093327798 -0.0092587518 0.3737672 4278255360
0.09380196 -0.0093796877 0.3738699 4278255360
0.094276123 -0.0095006237 0.37397256 4278255360
0.094750293 -0.0096215587 0.37407523 4278255360
0.095224455 -0.0097424947 0.3741779 4278255360
0.095698617 -0.0098634306 0.37428057 4278255360
0.096172787 -0.0099843666 0.37438327 4278255360
0.09664695 -0.010105303 0.37448594 4278255360
0.097121119 -0.010226239 0.37458861 4278255360
0.097595282 -0.010347174 0.37469128 4278255360
0.098069444 -0.01046811 0.37479395 4278255360
0.098543614 -0.010589045 0.37489662 4278255360
0.099017777 -0.010709981 0.37499931 4278255360
0.099491939 -0.010830917 0.37510198 4278255360
0.099966109 -0.010951852 0.37520465 4278255360
0.10044027 -0.011072788 0.37530732 4278255360
0.10091443 -0.011193724 0.37540999 4278255360
0.1013886 -0.01131466 0.37551266 4278255360
0.10186277 -0.011435596 0.37561536 4278255360
0.10233693 -0.011556532 0.37571803 4278255360
0.1028111 -0.011677468 0.3758207 4278255360
0.10328526 -0.011798404 0.37592337 4278255360
0.10375942 -0.011919339 0.37602603 4278255360
0.10423359 -0.012040275 0.37612873 4278255360
0.10470776 -0.012161211 0.3762314 4278255360
0.10518192 -0.012282146 0.37633407 4278255360
0.10565609 -0.012403082 0.37643674 4278255360
0.10613025 -0.012524018 0.37653941 4278255360
0.10660441 -0.012644954 0.37664208 4278255360
0.10707858 -0.01276589 0.37674478 4278255360
0.10755274 -0.012886826 0.37684745 4278255360
0.10802691 -0.013007762 0.37695011 4278255360
0.10850108 -0.013128697 0.37705278 4278255360
0.10897524 -0.013249633 0.37715545 4278255360
0.1094494 -0.013370568 0.37725815 4278255360
0.10992357 -0.013491505 0.37736082 4278255360
0.11039773 -0.013612441 0.37746349 4278255360
0.1108719 -0.013733376 0.37756616 4278255360
0.11134607 -0.013854312 0.37766883 4278255360
0.11182023 -0.013975248 0.3777715 4278255360
0.11229439 -0.014096184 0.3778742 4278255360
0.11276856 -0.01421712 0.37797686 4278255360
0.11324273 -0.014338056 0.37807953 4278255360
0.11371689 -0.014458992 0.3781822 4278255360
0.11419106 -0.014579927 0.37828487 4278255360
0.11466522 -0.014700863 0.37838757 4278255360
0.11513938 -0.014821798 0.37849024 4278255360
0.11561355 -0.014942734 0.37859291 4278255360
0.11608772 -0.01506367 0.37869558 4278255360
0.11656188 -0.015184605 0.37879825 4278255360
0.11703604 -0.015305541 0.37890092 4278255360
0.11751021 -0.015426477 0.37900361 4278255360
0.11798437 -0.015547413 0.37910628 4278255360
0.11845854 -0.015668349 0.37920895 4278255360
0.11893271 -0.015789285 0.37931162 4278255360
0.11940687 -0.015910221 0.37941429 4278255360
0.11988103 -0.016031155 0.37951696 4278255360
0.1203552 -0.016152091 0.37961966 4278255360
0.12082937 -0.016273027 0.37972233 4278255360
0.12130353 -0.016393963 0.379825 4278255360
0.1217777 -0.016514899 0.37992766 4278255360
0.12225186 -0.016635835 0.38003033 4278255360
0.12272602 -0.016756771 0.38013303 4278255360
0.12320019 -0.016877707 0.3802357 4278255360
0.12367436 -0.016998643 0.38033837 4278255360
0.12414852 -0.017119579 0.38044104 4278255360
0.12462269 -0.017240515 0.38054371 4278255360
0.12509686 -0.017361451 0.38064641 4278255360
0.12557101 -0.017482385 0.38074908 4278255360
0.12604518 -0.017603321 0.38085175 4278255360
0.12651935 -0.017724257 0.38095441 4278255360
0.12699351 -0.017845193 0.38105708 4278255360
0.12746768 -0.017966129 0.38115975 4278255360
0.12794185 -0.018087065 0.38126245 4278255360
0.128416 -0.018208001 0.38136512 4278255360
0.12889017 -0.018328937 0.38146779 4278255360
0.12936434 -0.018449873 0.38157046 4278255360
0.1298385 -0.018570807 0.38167313 4278255360
0.13031267 -0.018691745 0.3817758 4278255360
0.13078684 -0.018812681 0.3818785 4278255360
0.13126099 -0.018933615 0.38198116 4278255360
0.13173516 -0.019054551 0.38208383 4278255360
0.08431866 -0.0069609717 0.3718164 4278190335
0.084231906 -0.0072010411 0.37224633 4278190335
0.084145151 -0.0074411109 0.37267625 4278190335
0.084058397 -0.0076811803 0.37310618 4278190335
0.083971642 -0.0079212496 0.37353611 4278190335
0.083884887 -0.0081613194 0.37396604 4278190335
0.083798133 -0.0084013883 0.37439597 4278190335
0.083711378 -0.0086414581 0.37482592 4278190335
0.083624624 -0.0088815279 0.37525585 4278190335
0.083537877 -0.0091215977 0.37568578 4278190335
0.083451122 -0.0093616666 0.37611571 4278190335
0.083364367 -0.0096017364 0.37654564 4278190335
0.083277613 -0.0098418053 0.37697557 4278190335
0.083190858 -0.010081875 0.37740549 4278190335
0.083104104 -0.010321945 0.37783542 4278190335
0.083017349 -0.010562015 0.37826535 4278190335
0.082930595 -0.010802084 0.37869528 4278190335
0.08284384 -0.011042153 0.37912521 4278190335
0.082757086 -0.011282223 0.37955514 4278190335
0.082670331 -0.011522293 0.37998509 4278190335
0.082583576 -0.011762362 0.38041502 4278190335
0.082496822 -0.012002431 0.38084495 4278190335
0.082410067 -0.012242502 0.38127488 4278190335
0.082323313 -0.01248257 0.38170481 4278190335
0.082236558 -0.012722639 0.38213474 4278190335
0.082149804 -0.01296271 0.38256466 4278190335
0.082063057 -0.013202779 0.38299459 4278190335
0.081976302 -0.013442849 0.38342452 4278190335
0.081889547 -0.013682919 0.38385445 4278190335
0.081802793 -0.013922988 0.38428438 4278190335
0.081716038 -0.014163057 0.38471431 4278190335
0.081629284 -0.014403127 0.38514423 4278190335
0.081542529 -0.014643196 0.38557419 4278190335
0.081455775 -0.014883267 0.38600412 4278190335
0.08136902 -0.015123336 0.38643405 4278190335
0.081282265 -0.015363405 0.38686398 4278190335
0.081195511 -0.015603475 0.38729391 4278190335
0.081108756 -0.015843544 0.38772383 4278190335
0.081022002 -0.016083613 0.38815376 4278190335
0.080935247 -0.016323682 0.38858369 4278190335
0.080848493 -0.016563753 0.38901362 4278190335
0.080761738 -0.016803822 0.38944355 4278190335
0.080674991 -0.01704389 0.38987347 4278190335
0.080588236 -0.017283961 0.3903034 4278190335
0.080501482 -0.01752403 0.39073336 4278190335
0.080414727 -0.017764099 0.39116329 4278190335
0.080327973 -0.01800417 0.39159322 4278190335
0.080241218 -0.018244239 0.39202315 4278190335
0.080154464 -0.018484307 0.39245307 4278190335
0.080067709 -0.018724378 0.392883 4278190335
0.079980955 -0.018964447 0.39331293 4278190335
0.0798942 -0.019204516 0.39374286 4278190335
0.079807445 -0.019444587 0.39417279 4278190335
0.079720691 -0.019684656 0.39460272 4278190335
0.079633936 -0.019924726 0.39503264 4278190335
0.079547182 -0.020164795 0.39546257 4278190335
0.079460427 -0.020404864 0.3958925 4278190335
0.079373673 -0.020644935 0.39632246 4278190335
0.079286918 -0.020885004 0.39675239 4278190335
0.079200171 -0.021125073 0.39718232 4278190335
0.079113416 -0.021365143 0.39761224 4278190335
0.079026662 -0.021605212 0.39804217 4278190335
0.078939907 -0.021845281 0.3984721 4278190335
0.078853153 -0.022085352 0.39890203 4278190335
0.078766398 -0.022325421 0.39933196 4278190335
0.078679644 -0.02256549 0.39976189 4278190335
0.078592889 -0.02280556 0.40019181 4278190335
0.078506134 -0.023045629 0.40062174 4278190335
0.07841938 -0.023285698 0.40105167 4278190335
0.078332625 -0.023525767 0.40148163 4278190335
0.078245871 -0.023765838 0.40191156 4278190335
0.078159116 -0.024005907 0.40234149 4278190335
0.078072362 -0.024245977 0.40277141 4278190335
0.077985607 -0.024486046 0.40320134 4278190335
0.077898853 -0.024726115 0.40363127 4278190335
0.077812105 -0.024966186 0.4040612 4278190335
0.077725351 -0.025206255 0.40449113 4278190335
0.077638596 -0.025446324 0.40492105 4278190335
0.077551842 -0.025686393 0.40535098 4278190335
0.077465087 -0.025926463 0.40578091 4278190335
0.077378333 -0.026166532 0.40621084 4278190335
0.077291578 -0.026406603 0.40664077 4278190335
0.077204823 -0.026646672 0.4070707 4278190335
0.077118069 -0.026886741 0.40750065 4278190335
0.077031314 -0.02712681 0.40793058 4278190335
0.07694456 -0.02736688 0.40836051 4278190335
0.076857805 -0.027606949 0.40879044 4278190335
0.076771051 -0.02784702 0.40922037 4278190335
0.076684296 -0.028087089 0.4096503 4278190335
0.076597542 -0.028327158 0.41008022 4278190335
0.076510787 -0.028567227 0.41051015 4278190335
0.076424032 -0.028807297 0.41094008 4278190335
0.076337278 -0.029047366 0.41137001 4278190335
0.076250531 -0.029287437 0.41179997 4278190335
0.076163776 -0.029527506 0.4122299 4278190335
0.076077022 -0.029767575 0.41265982 4278190335
0.075990267 -0.030007644 0.41308975 4278190335
0.075903513 -0.030247714 0.41351968 4278190335
0.075816758 -0.030487785 0.41394961 4278190335
0.075730003 -0.030727854 0.41437954 4278190335
0.075643249 -0.030967923 0.41480947 4278190335
0.08431866 -0.0069609717 0.3718164 4294967295
0.084839188 -0.0055205547 0.36923683 4294967295
0.085359707 -0.0040801372 0.36665723 4294967295
0.085880235 -0.0026397202 0.36407766 4294967295
0.086400762 -0.0011993032 0.36149806 4294967295
0.086921282 0.00024111429 0.35891849 4294967295
0.087441809 0.0016815313 0.35633889 4294967295
0.087962337 0.0031219483 0.35375932 4294967295
0.088482857 0.0045623654 0.35117972 4294967295
0.089003384 0.0060027833 0.34860015 4294967295
0.089523911 0.0074432003 0.34602055 4294967295
0.090044431 0.0088836178 0.34344098 4294967295
0.090564959 0.010324035 0.34086138 4294967295
0.091085479 0.011764452 0.33828181 4294967295
0.091606006 0.013204869 0.33570221 4294967295
0.092126533 0.014645288 0.33312264 4294967295
0.092647053 0.016085703 0.33054304 4294967295
0.093167581 0.01752612 0.32796347 4294967295
0.093688108 0.018966539 0.3253839 4294967295
0.094208628 0.020406954 0.3228043 4294967295
0.094729155 0.021847373 0.32022473 4294967295
0.095249683 0.023287788 0.31764513 4294967295
0.095770203 0.024728207 0.31506556 4294967295
0.09629073 0.026168624 0.31248596 4294967295
0.096811257 0.027609041 0.30990639 4294967295
0.097331777 0.029049458 0.30732679 4294967295
0.097852305 0.030489875 0.30474722 4294967295
0.098372832 0.03193029 0.30216762 4294967295
0.098893352 0.033370707 0.29958805 4294967295
0.099413879 0.034811124 0.29700845 4294967295
0.099934407 0.036251545 0.29442888 4294967295
0.10045493 0.037691958 0.29184932 4294967295
0.10097545 0.039132375 0.28926972 4294967295
0.10149598 0.040572796 0.28669012 4294967295
0.1020165 0.042013209 0.28411055 4294967295
0.10253703 0.043453626 0.28153098 4294967295
0.10305755 0.044894047 0.27895138 4294967295
0.10357808 0.046334464 0.27637178 4294967295
0.1040986 0.047774877 0.27379221 4294967295
0.10461912 0.049215294 0.27121264 4294967295
0.10513965 0.050655715 0.26863304 4294967295
0.10566018 0.052096132 0.26605347 4294967295
0.1061807 0.053536545 0.26347387 4294967295
0.10670123 0.054976966 0.2608943 4294967295
0.10722175 0.056417383 0.2583147 4294967295
0.10774227 0.057857797 0.25573513 4294967295
0.1082628 0.059298217 0.25315553 4294967295
0.10878332 0.060738631 0.25057596 4294967295
0.10930385 0.062179051 0.24799637 4294967295
0.10982437 0.063619472 0.24541679 4294967295
0.1103449 0.065059885 0.24283721 4294967295
0.11086542 0.066500299 0.24025762 4294967295
0.11138595 0.067940719 0.23767804 4294967295
0.11190647 0.069381133 0.23509847 4294967295
0.112427 0.070821553 0.23251887 4294967295
0.11294752 0.072261974 0.22993928 4294967295
0.11346805 0.073702388 0.2273597 4294967295
0.11398857 0.075142808 0.22478013 4294967295
0.11450909 0.076583222 0.22220054 4294967295
0.11502962 0.078023635 0.21962096 4294967295
0.11555015 0.079464063 0.21704136 4294967295
0.11607067 0.080904476 0.21446177 4294967295
0.1165912 0.08234489 0.2118822 4294967295
0.11711172 0.08378531 0.20930262 4294967295
0.11763224 0.085225724 0.20672303 4294967295
0.11815277 0.086666137 0.20414345 4294967295
0.11867329 0.088106565 0.20156386 4294967295
0.11919382 0.089546978 0.19898428 4294967295
0.11971434 0.090987392 0.1964047 4294967295
0.12023487 0.092427813 0.19382511 4294967295
0.12075539 0.093868226 0.19124553 4294967295
0.12127592 0.095308647 0.18866596 4294967295
0.12179644 0.096749067 0.18608636 4294967295
0.12231697 0.098189481 0.18350677 4294967295
0.12283749 0.099629901 0.18092719 4294967295
0.12335802 0.10107031 0.17834762 4294967295
0.12387854 0.10251073 0.17576803 4294967295
0.12439907 0.10395115 0.17318845 4294967295
0.12491959 0.10539156 0.17060886 4294967295
0.12544012 0.10683198 0.16802926 4294967295
0.12596065 0.1082724 0.16544969 4294967295
0.12648116 0.10971282 0.16287011 4294967295
0.12700169 0.11115324 0.16029052 4294967295
0.12752222 0.11259365 0.15771094 4294967295
0.12804274 0.11403406 0.15513135 4294967295
0.12856327 0.11547449 0.15255177 4294967295
0.12908378 0.11691491 0.14997219 4294967295
0.12960431 0.11835532 0.1473926 4294967295
0.13012484 0.11979574 0.14481302 4294967295
0.13064536 0.12123616 0.14223345 4294967295
0.13116589 0.12267657 0.13965386 4294967295
0.13168642 0.12411699 0.13707426 4294967295
0.13220695 0.12555741 0.13449468 4294967295
0.13272746 0.12699783 0.13191509 4294967295
0.13324799 0.12843823 0.12933552 4294967295
0.13376851 0.12987866 0.12675594 4294967295
0.13428904 0.13131908 0.12417635 4294967295
0.13480955 0.1327595 0.12159675 4294967295
0.13533008 0.13419992 0.11901718 4294967295
0.13585061 0.13564032 0.11643758 4294967295
0.13637114 0.13708074 0.11385801 4294967295
