# .PCD v0.7 - Point Cloud Data file format
VERSION 0.7
FIELDS x y z rgb
SIZE 4 4 4 4
TYPE F F F U
COUNT 1 1 1 1
WIDTH 1046
HEIGHT 1
VIEWPOINT 0 0 0 1 0 0 0
POINTS 1046
DATA ascii
0.086653657 0.00090870552 0.36000001 4278663699
0.087822936 0.00090870552 0.36000001 4278992664
0.10025875 0.00092637481 0.36700001 4279519008
0.11549944 0.00093394733 0.37 4278728722
0.11670119 0.00093394733 0.37 4278926101
0.11790295 0.00093394733 0.37 4278399757
0.11910471 0.00093394733 0.37 4278860308
0.12030648 0.00093394733 0.37 4278860308
0.12183665 0.00093647157 0.37100002 4279123480
0.12304165 0.00093647157 0.37100002 4278926101
0.12424666 0.00093647157 0.37100002 4278794515
0.12545167 0.00093647157 0.37100002 4278860308
0.12665668 0.00093647157 0.37100002 4278860308
0.12786168 0.00093647157 0.37100002 4278860308
0.12906669 0.00093647157 0.37100002 4278926101
0.1302717 0.00093647157 0.37100002 4278991894
0.13147672 0.00093647157 0.37100002 4278991896
0.13268171 0.00093647157 0.37100002 4278926103
0.1342476 0.00093899574 0.37200001 4278926103
0.13545586 0.00093899574 0.37200001 4278860310
0.13666412 0.00093899574 0.37200001 4278926103
0.13787238 0.00093899574 0.37200001 4278926103
0.13945451 0.00094151992 0.37300003 4279122199
0.043041959 0.0021187954 0.36700001 4283985500
0.04447503 0.0021303419 0.36900002 4284052065
0.045921095 0.0021418885 0.37100002 4284249444
0.047126103 0.0021418885 0.37100002 4284051811
0.048461385 0.0021476618 0.37200001 4284315237
0.049669642 0.0021476618 0.37200001 4284052578
0.050741129 0.0021418885 0.37100002 4284249957
0.051946141 0.0021418885 0.37100002 4284315750
0.053007882 0.0021361152 0.37 4284052065
0.054063134 0.0021303419 0.36900002 4279836950
0.055111885 0.0021245687 0.36800003 4280100122
0.056154139 0.0021187954 0.36700001 4280034842
0.057189904 0.0021130221 0.36600003 4280628262
0.058219161 0.0021072486 0.36500001 4278985230
0.059241932 0.0021014756 0.36400002 4279579164
0.060424209 0.0021014756 0.36400002 4279382037
0.061437227 0.0020957021 0.36300001 4279317014
0.062443756 0.0020899288 0.36200002 4278792207
0.063619532 0.0020899288 0.36200002 4279187478
0.064795315 0.0020899288 0.36200002 4278926103
0.065971084 0.0020899288 0.36200002 4278203406
0.067146868 0.0020899288 0.36200002 4278993947
0.068322644 0.0020899288 0.36200002 4278796568
0.069498412 0.0020899288 0.36200002 4278795285
0.070674196 0.0020899288 0.36200002 4278795285
0.071849972 0.0020899288 0.36200002 4278795285
0.073025748 0.0020899288 0.36200002 4278729492
0.074201524 0.0020899288 0.36200002 4278795285
0.075169079 0.0020841558 0.36100003 4278597906
0.076341607 0.0020841558 0.36100003 4278663699
0.077514134 0.0020841558 0.36100003 4279058457
0.078468695 0.0020783823 0.36000001 4278729492
0.079637975 0.0020783823 0.36000001 4279124250
0.080807254 0.0020783823 0.36000001 4278992666
0.081976533 0.0020783823 0.36000001 4278992666
0.08314582 0.0020783823 0.36000001 4279321631
0.084315091 0.0020783823 0.36000001 4279519008
0.085721835 0.0020841558 0.36100003 4279321629
0.086894363 0.0020841558 0.36100003 4279321629
0.088066891 0.0020841558 0.36100003 4278992664
0.089486621 0.0020899288 0.36200002 4279190043
0.09998557 0.0021130221 0.36600003 4278729492
0.10236311 0.0021130221 0.36600003 4278992664
0.11549944 0.0021361152 0.37 4279320346
0.11670119 0.0021361152 0.37 4279254553
0.11790295 0.0021361152 0.37 4279188760
0.11910471 0.0021361152 0.37 4279188762
0.12063164 0.0021418885 0.37100002 4279254553
0.12183665 0.0021418885 0.37100002 4279385369
0.12304165 0.0021418885 0.37100002 4279385369
0.12424666 0.0021418885 0.37100002 4279385369
0.12545167 0.0021418885 0.37100002 4279385369
0.12665668 0.0021418885 0.37100002 4279319576
0.12786168 0.0021418885 0.37100002 4279319578
0.12906669 0.0021418885 0.37100002 4279319578
0.1302717 0.0021418885 0.37100002 4279187992
0.13147672 0.0021418885 0.37100002 4279582236
0.13268171 0.0021418885 0.37100002 4279582236
0.1342476 0.0021476618 0.37200001 4279516443
0.13545586 0.0021476618 0.37200001 4279516443
0.13666412 0.0021476618 0.37200001 4279779615
0.13787238 0.0021476618 0.37200001 4279976992
0.13945451 0.002153435 0.37300003 4280108065
0.043041959 0.0033112157 0.36700001 4283986272
0.044595558 0.0033382827 0.37 4284117858
0.045921095 0.0033473053 0.37100002 4284117858
0.047253128 0.0033563275 0.37200001 4284381030
0.048461385 0.0033563275 0.37200001 4284117858
0.049536124 0.0033473053 0.37100002 4284249957
0.050741129 0.0033473053 0.37100002 4284447336
0.051946141 0.0033473053 0.37100002 4284249957
0.053007882 0.0033382827 0.37 4284447082
0.054063134 0.0033292605 0.36900002 4282339394
0.055111885 0.0033202383 0.36800003 4280363807
0.056154139 0.0033112157 0.36700001 4280101405
0.057189904 0.0033021935 0.36600003 4280365088
0.05837867 0.0033021935 0.36600003 4279446551
0.059404682 0.0032931708 0.36500001 4279184406
0.060424209 0.0032841486 0.36400002 4279382807
0.061606478 0.0032841486 0.36400002 4279119635
0.062616251 0.003275126 0.36300001 4278858000
0.063795276 0.003275126 0.36300001 4278858513
0.064795315 0.0032661038 0.36200002 4278990613
0.065971084 0.0032661038 0.36200002 4278530832
0.067146868 0.0032661038 0.36200002 4278531861
0.068322644 0.0032661038 0.36200002 4278203150
0.069690399 0.003275126 0.36300001 4278662931
0.070869423 0.003275126 0.36300001 4278926103
0.072048448 0.003275126 0.36300001 4278333964
0.073025748 0.0032661038 0.36200002 4278728722
0.074201524 0.0032661038 0.36200002 4278926101
0.0753773 0.0032661038 0.36200002 4278202120
0.076341607 0.0032570816 0.36100003 4278400527
0.077514134 0.0032570816 0.36100003 4278202634
0.078686662 0.0032570816 0.36100003 4278399757
0.079859197 0.0032570816 0.36100003 4278794515
0.081031717 0.0032570816 0.36100003 4278926101
0.082204252 0.0032570816 0.36100003 4278531343
0.08337678 0.0032570816 0.36100003 4278991896
0.084549308 0.0032570816 0.36100003 4278991896
0.085721835 0.0032570816 0.36100003 4278926101
0.086894363 0.0032570816 0.36100003 4278991894
0.088310838 0.0032661038 0.36200002 4278991896
0.089486621 0.0032661038 0.36200002 4278926103
0.091163293 0.0032841486 0.36400002 4279123482
0.092345566 0.0032841486 0.36400002 4278991896
0.093784779 0.0032931708 0.36500001 4278531343
0.094970301 0.0032931708 0.36500001 4279254553
0.096155822 0.0032931708 0.36500001 4279189273
0.097341344 0.0032931708 0.36500001 4279254553
0.098526873 0.0032931708 0.36500001 4279188760
0.09998557 0.0033021935 0.36600003 4279254553
0.10117434 0.0033021935 0.36600003 4278925588
0.10236311 0.0033021935 0.36600003 4279254553
0.10355188 0.0033021935 0.36600003 4279057174
0.10474065 0.0033021935 0.36600003 4279320346
0.10621884 0.0033112157 0.36700001 4279385369
0.10741085 0.0033112157 0.36700001 4279451162
0.1088988 0.0033202383 0.36800003 4279516955
0.11009406 0.0033202383 0.36800003 4279385369
0.11128933 0.0033202383 0.36800003 4279188762
0.11279026 0.0033292605 0.36900002 4279254555
0.11398876 0.0033292605 0.36900002 4279385371
0.11549944 0.0033382827 0.37 4279319062
0.11670119 0.0033382827 0.37 4279582234
0.11790295 0.0033382827 0.37 4279516441
0.11942662 0.0033473053 0.37100002 4279450648
0.12063164 0.0033473053 0.37100002 4279516441
0.12183665 0.0033473053 0.37100002 4279516441
0.12304165 0.0033473053 0.37100002 4280042787
0.12424666 0.0033473053 0.37100002 4279844125
0.12545167 0.0033473053 0.37100002 4279844125
0.12665668 0.0033473053 0.37100002 4279317527
0.12786168 0.0033473053 0.37100002 4279185941
0.12906669 0.0033473053 0.37100002 4278395912
0.1302717 0.0033473053 0.37100002 4279184658
0.13147672 0.0033473053 0.37100002 4279909405
0.13303934 0.0033563275 0.37200001 4279844123
0.1342476 0.0033563275 0.37200001 4279779100
0.13545586 0.0033563275 0.37200001 4279713307
0.13666412 0.0033563275 0.37200001 4279844895
0.13787238 0.0033563275 0.37200001 4279779100
0.13945451 0.0033653502 0.37300003 4280304163
0.043041959 0.0045036362 0.36700001 4283789152
0.044595558 0.0045404509 0.37 4284052324
0.046044871 0.0045649935 0.37200001 4284183910
0.047253128 0.0045649935 0.37200001 4284315237
0.048461385 0.0045649935 0.37200001 4284315750
0.049536124 0.0045527224 0.37100002 4284513129
0.050741129 0.0045527224 0.37100002 4284513129
0.051806122 0.0045404509 0.37 4284447336
0.053007882 0.0045404509 0.37 4284250471
0.054063134 0.0045281793 0.36900002 4284973678
0.055111885 0.0045159082 0.36800003 4279510293
0.056154139 0.0045036362 0.36700001 4280299295
0.057346158 0.0045036362 0.36700001 4279313684
0.05837867 0.004491365 0.36600003 4279513373
0.059404682 0.0044790935 0.36500001 4279513371
0.060590208 0.0044790935 0.36500001 4279251736
0.061606478 0.0044668219 0.36400002 4278922769
0.062788747 0.0044668219 0.36400002 4278726673
0.063971028 0.0044668219 0.36400002 4279187740
0.064974301 0.0044545503 0.36300001 4278990359
0.066153325 0.0044545503 0.36300001 4279319578
0.06733235 0.0044545503 0.36300001 4279386141
0.068511374 0.0044545503 0.36300001 4279188762
0.069690399 0.0044545503 0.36300001 4278859797
0.070869423 0.0044545503 0.36300001 4278991383
0.072048448 0.0044545503 0.36300001 4278925590
0.073227473 0.0044545503 0.36300001 4279188760
0.074201524 0.0044422788 0.36200002 4278991381
0.0753773 0.0044422788 0.36200002 4279057174
0.076341607 0.0044300077 0.36100003 4279188760
0.077514134 0.0044300077 0.36100003 4279057174
0.078686662 0.0044300077 0.36100003 4279320346
0.079859197 0.0044300077 0.36100003 4279056404
0.081031717 0.0044300077 0.36100003 4279188762
0.082204252 0.0044300077 0.36100003 4279254555
0.08337678 0.0044300077 0.36100003 4279057176
0.084549308 0.0044300077 0.36100003 4278991383
0.085959293 0.0044422788 0.36200002 4279188762
0.087135069 0.0044422788 0.36200002 4279188762
0.088310838 0.0044422788 0.36200002 4279254555
0.089733817 0.0044545503 0.36300001 4279187992
0.091163293 0.0044668219 0.36400002 4279319578
0.092345566 0.0044668219 0.36400002 4279319578
0.093784779 0.0044790935 0.36500001 4279122199
0.094970301 0.0044790935 0.36500001 4279516441
0.096155822 0.0044790935 0.36500001 4279450648
0.097341344 0.0044790935 0.36500001 4279450648
0.098796807 0.004491365 0.36600003 4279516441
0.09998557 0.004491365 0.36600003 4279516443
0.10117434 0.004491365 0.36600003 4279516443
0.10236311 0.004491365 0.36600003 4279516443
0.10355188 0.004491365 0.36600003 4279581723
0.10502683 0.0045036362 0.36700001 4279647516
0.10621884 0.0045036362 0.36700001 4280107297
0.10741085 0.0045036362 0.36700001 4279449367
0.1088988 0.0045159082 0.36800003 4279515160
0.11009406 0.0045159082 0.36800003 4278791183
0.11128933 0.0045159082 0.36800003 4278330634
0.11279026 0.0045281793 0.36900002 4278330121
0.11398876 0.0045281793 0.36900002 4278526728
0.11549944 0.0045404509 0.37 4278329349
0.11670119 0.0045404509 0.37 4278658314
0.11822161 0.0045527224 0.37100002 4278658314
0.11942662 0.0045527224 0.37100002 4279250451
0.12063164 0.0045527224 0.37100002 4279382807
0.12183665 0.0045527224 0.37100002 4280172323
0.1233733 0.0045649935 0.37200001 4280172577
0.12458155 0.0045649935 0.37200001 4280303393
0.12578981 0.0045649935 0.37200001 4280040221
0.12699807 0.0045649935 0.37200001 4280172323
0.12820633 0.0045649935 0.37200001 4279843358
0.12941457 0.0045649935 0.37200001 4279974174
0.1302717 0.0045527224 0.37100002 4278920974
0.13147672 0.0045527224 0.37100002 4280171553
0.13303934 0.0045649935 0.37200001 4279975198
0.1342476 0.0045649935 0.37200001 4279976479
0.13545586 0.0045649935 0.37200001 4279779100
0.13666412 0.0045649935 0.37200001 4279976481
0.13787238 0.0045649935 0.37200001 4280108067
0.13945451 0.0045772656 0.37300003 4281356597
0.049536124 0.0057581393 0.37100002 4284381289
0.050604358 0.0057426183 0.37 4284447336
0.051806122 0.0057426183 0.37 4284513129
0.053007882 0.0057426183 0.37 4284315750
0.054063134 0.0057270983 0.36900002 4284315750
0.055111885 0.0057115778 0.36800003 4282471750
0.056307152 0.0057115778 0.36800003 4279905053
0.057346158 0.0056960569 0.36700001 4279248406
0.058538172 0.0056960569 0.36700001 4279513371
0.05956744 0.0056805364 0.36600003 4279250969
0.06075621 0.0056805364 0.36600003 4279251736
0.061775722 0.0056650154 0.36500001 4278988562
0.062961243 0.0056650154 0.36500001 4279186711
0.064146765 0.0056650154 0.36500001 4279121431
0.065332286 0.0056650154 0.36500001 4279187738
0.066335566 0.0056494954 0.36400002 4279451164
0.067517839 0.0056494954 0.36400002 4279780127
0.06870012 0.0056494954 0.36400002 4279451162
0.069882385 0.0056494954 0.36400002 4279187992
0.071064658 0.0056494954 0.36400002 4279187992
0.072246931 0.0056494954 0.36400002 4279057174
0.073227473 0.0056339744 0.36300001 4279188760
0.074406497 0.0056339744 0.36300001 4278925588
0.0753773 0.005618454 0.36200002 4279057174
0.076553077 0.005618454 0.36200002 4279056404
0.077514134 0.0056029335 0.36100003 4279187992
0.078686662 0.0056029335 0.36100003 4278725392
0.079859197 0.0056029335 0.36100003 4279185943
0.081031717 0.0056029335 0.36100003 4278923539
0.082204252 0.0056029335 0.36100003 4279318810
0.083607741 0.005618454 0.36200002 4279253017
0.084783509 0.005618454 0.36200002 4279318810
0.085959293 0.005618454 0.36200002 4279121431
0.087375768 0.0056339744 0.36300001 4279515676
0.088554792 0.0056339744 0.36300001 4279843871
0.089981019 0.0056494954 0.36400002 4279778078
0.091163293 0.0056494954 0.36400002 4278791183
0.092599258 0.0056650154 0.36500001 4278856976
0.093784779 0.0056650154 0.36500001 4278592521
0.094970301 0.0056650154 0.36500001 4278328835
0.096155822 0.0056650154 0.36500001 4278986254
0.097608037 0.0056805364 0.36600003 4278854668
0.098796807 0.0056805364 0.36600003 4279514906
0.09998557 0.0056805364 0.36600003 4278988562
0.10117434 0.0056805364 0.36600003 4279447830
0.10236311 0.0056805364 0.36600003 4279842590
0.10355188 0.0056805364 0.36600003 4279119637
0.10502683 0.0056960569 0.36700001 4280698667
0.10621884 0.0056960569 0.36700001 4280238370
0.10741085 0.0056960569 0.36700001 4279975198
0.1088988 0.0057115778 0.36800003 4279514393
0.11009406 0.0057115778 0.36800003 4280435495
0.11128933 0.0057115778 0.36800003 4279843358
0.11279026 0.0057270983 0.36900002 4279777565
0.11398876 0.0057270983 0.36900002 4279843610
0.11549944 0.0057426183 0.37 4279843610
0.11670119 0.0057426183 0.37 4279777817
0.11822161 0.0057581393 0.37100002 4279777817
0.11942662 0.0057581393 0.37100002 4279909403
0.12095679 0.0057736598 0.37200001 4279975196
0.12216504 0.0057736598 0.37200001 4279712539
0.1233733 0.0057736598 0.37200001 4279646746
0.12458155 0.0057736598 0.37200001 4279448852
0.12578981 0.0057736598 0.37200001 4278790152
0.12699807 0.0057736598 0.37200001 4279712026
0.12820633 0.0057736598 0.37200001 4279777819
0.12941457 0.0057736598 0.37200001 4279381523
0.13062283 0.0057736598 0.37200001 4280236834
0.13183109 0.0057736598 0.37200001 4280040739
0.13303934 0.0057736598 0.37200001 4279843871
0.1342476 0.0057736598 0.37200001 4279976481
0.13545586 0.0057736598 0.37200001 4279713822
0.13666412 0.0057736598 0.37200001 4279976994
0.13787238 0.0057736598 0.37200001 4280831020
0.049402602 0.0069447863 0.37 4284512875
0.050604358 0.0069447863 0.37 4284381289
0.051806122 0.0069447863 0.37 4284513129
0.052864619 0.0069260169 0.36900002 4284644715
0.054063134 0.0069260169 0.36900002 4284447336
0.055111885 0.0069072475 0.36800003 4284907887
0.056307152 0.0069072475 0.36800003 4279116818
0.057502419 0.0069072475 0.36800003 4279643930
0.058538172 0.0068884776 0.36700001 4279447832
0.059730191 0.0068884776 0.36700001 4279317016
0.060922209 0.0068884776 0.36700001 4279317527
0.061944973 0.0068697082 0.36600003 4279054355
0.063133746 0.0068697082 0.36600003 4279318297
0.064322516 0.0068697082 0.36600003 4279252504
0.065511286 0.0068697082 0.36600003 4279713568
0.066517808 0.0068509378 0.36500001 4279713568
0.067703329 0.0068509378 0.36500001 4279779875
0.068888851 0.0068509378 0.36500001 4279385371
0.070074365 0.0068509378 0.36500001 4279122199
0.071064658 0.0068321684 0.36400002 4279385371
0.072246931 0.0068321684 0.36400002 4279187992
0.073227473 0.0068133986 0.36300001 4279187992
0.074406497 0.0068133986 0.36300001 4278727441
0.0753773 0.0067946292 0.36200002 4278990613
0.076553077 0.0067946292 0.36200002 4279122199
0.077728853 0.0067946292 0.36200002 4279253271
0.078904629 0.0067946292 0.36200002 4279119635
0.080080412 0.0067946292 0.36200002 4279909153
0.081256181 0.0067946292 0.36200002 4279712285
0.082431957 0.0067946292 0.36200002 4278725390
0.083607741 0.0067946292 0.36200002 4278787851
0.084783509 0.0067946292 0.36200002 4278853133
0.086196743 0.0068133986 0.36300001 4278721547
0.087375768 0.0068133986 0.36300001 4278852365
0.088798746 0.0068321684 0.36400002 4278852365
0.089981019 0.0068321684 0.36400002 4278852365
0.091413736 0.0068509378 0.36500001 4279049742
0.092599258 0.0068509378 0.36500001 4279115535
0.093784779 0.0068509378 0.36500001 4279049742
0.095230497 0.0068697082 0.36600003 4279181328
0.096419267 0.0068697082 0.36600003 4279181328
0.097608037 0.0068697082 0.36600003 4279115535
0.098796807 0.0068697082 0.36600003 4279777565
0.09998557 0.0068697082 0.36600003 4279514906
0.10117434 0.0068697082 0.36600003 4278988049
0.10236311 0.0068697082 0.36600003 4279052560
0.10355188 0.0068697082 0.36600003 4278526730
0.10502683 0.0068884776 0.36700001 4279777565
0.10621884 0.0068884776 0.36700001 4278593291
0.10741085 0.0068884776 0.36700001 4279382807
0.1088988 0.0069072475 0.36800003 4279053844
0.11009406 0.0069072475 0.36800003 4278659086
0.11128933 0.0069072475 0.36800003 4279843360
0.11279026 0.0069260169 0.36900002 4279317016
0.11398876 0.0069260169 0.36900002 4279645463
0.11549944 0.0069447863 0.37 4279250191
0.11670119 0.0069447863 0.37 4279381523
0.11822161 0.0069635562 0.37100002 4279578904
0.11942662 0.0069635562 0.37100002 4279118353
0.12095679 0.006982326 0.37200001 4279776283
0.12216504 0.006982326 0.37200001 4279776283
0.1233733 0.006982326 0.37200001 4279710490
0.12458155 0.006982326 0.37200001 4280302625
0.12578981 0.006982326 0.37200001 4278855179
0.12699807 0.006982326 0.37200001 4279843358
0.12820633 0.006982326 0.37200001 4279909664
0.12941457 0.006982326 0.37200001 4279250453
0.13062283 0.006982326 0.37200001 4279909664
0.13183109 0.006982326 0.37200001 4279976227
0.13303934 0.006982326 0.37200001 4279778848
0.1342476 0.006982326 0.37200001 4279778848
0.13545586 0.006982326 0.37200001 4280042020
0.13666412 0.006982326 0.37200001 4279777565
0.049402602 0.0081469538 0.37 4284250217
0.050604358 0.0081469538 0.37 4284184424
0.051666107 0.0081249354 0.36900002 4284381803
0.052864619 0.0081249354 0.36900002 4284579182
0.054063134 0.0081249354 0.36900002 4284513643
0.055261642 0.0081249354 0.36900002 4284645229
0.056307152 0.0081029171 0.36800003 4279512857
0.057502419 0.0081029171 0.36800003 4279644443
0.058697678 0.0081029171 0.36800003 4278988051
0.059730191 0.0080808979 0.36700001 4279251736
0.060922209 0.0080808979 0.36700001 4279251734
0.06211422 0.0080808979 0.36700001 4279383320
0.063306242 0.0080808979 0.36700001 4279252758
0.064498261 0.0080808979 0.36700001 4279253271
0.065511286 0.0080588795 0.36600003 4279582496
0.066700049 0.0080588795 0.36600003 4279845668
0.067888819 0.0080588795 0.36600003 4279779875
0.069077589 0.0080588795 0.36600003 4279121945
0.070074365 0.0080368603 0.36500001 4279319578
0.071259893 0.0080368603 0.36500001 4279122199
0.072246931 0.0080148419 0.36400002 4279122197
0.073429205 0.0080148419 0.36400002 4279187990
0.074406497 0.0079928227 0.36300001 4279187990
0.075585522 0.0079928227 0.36300001 4278924818
0.076553077 0.0079708034 0.36200002 4279122199
0.077728853 0.0079708034 0.36200002 4278922771
0.078904629 0.0079708034 0.36200002 4278724109
0.080080412 0.0079708034 0.36200002 4279908383
0.081256181 0.0079708034 0.36200002 4279975457
0.082431957 0.0079708034 0.36200002 4278657035
0.083607741 0.0079708034 0.36200002 4279905051
0.085017718 0.0079928227 0.36300001 4279115535
0.086196743 0.0079928227 0.36300001 4280365088
0.087375768 0.0079928227 0.36300001 4279838744
0.088798746 0.0080148419 0.36400002 4279641365
0.089981019 0.0080148419 0.36400002 4279707674
0.091413736 0.0080368603 0.36500001 4279707672
0.092599258 0.0080368603 0.36500001 4279181328
0.094041727 0.0080588795 0.36600003 4279116305
0.095230497 0.0080588795 0.36600003 4279511063
0.096419267 0.0080588795 0.36600003 4279247121
0.097608037 0.0080588795 0.36600003 4280037405
0.098796807 0.0080588795 0.36600003 4279842588
0.09998557 0.0080588795 0.36600003 4278526730
0.10117434 0.0080588795 0.36600003 4278919441
0.10236311 0.0080588795 0.36600003 4279182100
0.10383481 0.0080808979 0.36700001 4278986000
0.10502683 0.0080808979 0.36700001 4278788875
0.10621884 0.0080808979 0.36700001 4279842590
0.10741085 0.0080808979 0.36700001 4279053844
0.1088988 0.0081029171 0.36800003 4279580188
0.11009406 0.0081029171 0.36800003 4279317016
0.11128933 0.0081029171 0.36800003 4279053844
0.11279026 0.0081249354 0.36900002 4279777567
0.11398876 0.0081249354 0.36900002 4279843358
0.11549944 0.0081469538 0.37 4279711772
0.11670119 0.0081469538 0.37 4279580188
0.11822161 0.008168973 0.37100002 4279909153
0.11974853 0.0081909914 0.37200001 4279974944
0.12095679 0.0081909914 0.37200001 4280369702
0.12216504 0.0081909914 0.37200001 4280303139
0.1233733 0.0081909914 0.37200001 4279908381
0.12491645 0.0082130106 0.37300003 4280434725
0.12612796 0.0082130106 0.37300003 4280039453
0.12733947 0.0082130106 0.37300003 4279578902
0.12855096 0.0082130106 0.37300003 4278657800
0.12941457 0.0081909914 0.37200001 4280172323
0.13062283 0.0081909914 0.37200001 4279974944
0.13183109 0.0081909914 0.37200001 4279779361
0.13303934 0.0081909914 0.37200001 4279779361
0.1342476 0.0081909914 0.37200001 4280042020
0.13509174 0.008168973 0.37100002 4279580188
0.049269084 0.009323854 0.36900002 4284316010
0.050467592 0.009323854 0.36900002 4284513389
0.051666107 0.009323854 0.36900002 4284579182
0.052864619 0.009323854 0.36900002 4284644975
0.054063134 0.009323854 0.36900002 4284644975
0.055261642 0.009323854 0.36900002 4284316264
0.056460157 0.009323854 0.36900002 4285368436
0.057502419 0.0092985863 0.36800003 4279183379
0.058697678 0.0092985863 0.36800003 4279447832
0.059892945 0.0092985863 0.36800003 4279514906
0.061088212 0.0092985863 0.36800003 4279185941
0.062283471 0.0092985863 0.36800003 4279252758
0.063478738 0.0092985863 0.36800003 4279515930
0.064674005 0.0092985863 0.36800003 4279384344
0.065690279 0.0092733176 0.36700001 4279976994
0.06688229 0.0092733176 0.36700001 4279911201
0.068074308 0.0092733176 0.36700001 4279319324
0.069077589 0.0092480499 0.36600003 4279121945
0.070266359 0.0092480499 0.36600003 4279187478
0.071259893 0.0092227822 0.36500001 4279450650
0.072445415 0.0092227822 0.36500001 4279319578
0.073429205 0.0091975145 0.36400002 4279187992
0.074406497 0.0091722459 0.36300001 4279516957
0.075585522 0.0091722459 0.36300001 4279187992
0.076764546 0.0091722459 0.36300001 4279187224
0.077943571 0.0091722459 0.36300001 4278198535
0.078904629 0.0091469781 0.36200002 4280303141
0.080080412 0.0091469781 0.36200002 4279712285
0.081480645 0.0091722459 0.36300001 4279249685
0.082659669 0.0091722459 0.36300001 4278721547
0.083838694 0.0091722459 0.36300001 4279576088
0.085017718 0.0091722459 0.36300001 4280234018
0.086196743 0.0091722459 0.36300001 4279312914
0.087616481 0.0091975145 0.36400002 4280036637
0.088798746 0.0091975145 0.36400002 4279180562
0.090228222 0.0092227822 0.36500001 4279904285
0.091413736 0.0092227822 0.36500001 4279246355
0.092852958 0.0092480499 0.36600003 4280036125
0.094041727 0.0092480499 0.36600003 4279642647
0.095230497 0.0092480499 0.36600003 4279576854
0.096419267 0.0092480499 0.36600003 4278984717
0.097874723 0.0092733176 0.36700001 4280105248
0.099066742 0.0092733176 0.36700001 4279909153
0.10025875 0.0092733176 0.36700001 4278591755
0.10145077 0.0092733176 0.36700001 4278984719
0.10264279 0.0092733176 0.36700001 4279971614
0.10383481 0.0092733176 0.36700001 4280434213
0.10502683 0.0092733176 0.36700001 4280302627
0.10621884 0.0092733176 0.36700001 4280038942
0.10741085 0.0092733176 0.36700001 4280039455
0.1088988 0.0092985863 0.36800003 4279580186
0.11009406 0.0092985863 0.36800003 4278922256
0.11128933 0.0092985863 0.36800003 4278987281
0.11279026 0.009323854 0.36900002 4278724109
0.11398876 0.009323854 0.36900002 4278592523
0.11549944 0.0093491217 0.37 4278592523
0.11670119 0.0093491217 0.37 4278921488
0.11822161 0.0093743894 0.37100002 4278987281
0.11942662 0.0093743894 0.37100002 4279710490
0.12095679 0.0093996571 0.37200001 4280039455
0.12216504 0.0093996571 0.37200001 4280434213
0.1233733 0.0093996571 0.37200001 4280302627
0.12491645 0.0094249258 0.37300003 4280565799
0.12612796 0.0094249258 0.37300003 4280500006
0.12733947 0.0094249258 0.37300003 4280631592
0.12855096 0.0094249258 0.37300003 4280631592
0.12976247 0.0094249258 0.37300003 4280631592
0.13097398 0.0094249258 0.37300003 4280171041
0.13183109 0.0093996571 0.37200001 4281026096
0.13303934 0.0093996571 0.37200001 4282408003
0.049269084 0.010522773 0.36900002 4284250217
0.050467592 0.010522773 0.36900002 4284513389
0.051666107 0.010522773 0.36900002 4284579182
0.052864619 0.010522773 0.36900002 4284579182
0.054063134 0.010522773 0.36900002 4284579182
0.055261642 0.010522773 0.36900002 4284579182
0.056460157 0.010522773 0.36900002 4284776815
0.057658672 0.010522773 0.36900002 4282407751
0.05885718 0.010522773 0.36900002 4279382039
0.060055695 0.010522773 0.36900002 4279712287
0.061088212 0.010494256 0.36800003 4279318297
0.062283471 0.010494256 0.36800003 4279384090
0.063478738 0.010494256 0.36800003 4279384090
0.064674005 0.010494256 0.36800003 4279384090
0.065869272 0.010494256 0.36800003 4280042787
0.067064531 0.010494256 0.36800003 4279648029
0.068259798 0.010494256 0.36800003 4279187992
0.069266327 0.010465739 0.36700001 4279122199
0.070458338 0.010465739 0.36700001 4279187992
0.071455128 0.010437222 0.36600003 4279385371
0.072445415 0.010408705 0.36500001 4279582236
0.073429205 0.010380188 0.36400002 4279319064
0.074611478 0.010380188 0.36400002 4279253271
0.075793751 0.010380188 0.36400002 4279450650
0.076764546 0.010351671 0.36300001 4279449113
0.077943571 0.010351671 0.36300001 4278854414
0.079122595 0.010351671 0.36300001 4279382809
0.08030162 0.010351671 0.36300001 4279514906
0.081480645 0.010351671 0.36300001 4278788875
0.082659669 0.010351671 0.36300001 4279049742
0.083838694 0.010351671 0.36300001 4279246609
0.085251927 0.010380188 0.36400002 4279115023
0.0864342 0.010380188 0.36400002 4279180562
0.087616481 0.010380188 0.36400002 4278983183
0.089042693 0.010408705 0.36500001 4279312148
0.090228222 0.010408705 0.36500001 4279180562
0.091664188 0.010437222 0.36600003 4279246609
0.092852958 0.010437222 0.36600003 4278851851
0.094041727 0.010437222 0.36600003 4279115023
0.095230497 0.010437222 0.36600003 4279180816
0.096682705 0.010465739 0.36700001 4280565286
0.097874723 0.010465739 0.36700001 4278592523
0.099066742 0.010465739 0.36700001 4278724109
0.10025875 0.010465739 0.36700001 4278526730
0.10145077 0.010465739 0.36700001 4279710490
0.10264279 0.010465739 0.36700001 4279381525
0.10383481 0.010465739 0.36700001 4280039969
0.10502683 0.010465739 0.36700001 4279974176
0.10621884 0.010465739 0.36700001 4280895278
0.10741085 0.010465739 0.36700001 4280236834
0.1088988 0.010494256 0.36800003 4280105762
0.11009406 0.010494256 0.36800003 4280368934
0.11159174 0.010522773 0.36900002 4279909666
0.11279026 0.010522773 0.36900002 4280107045
0.11398876 0.010522773 0.36900002 4280303909
0.11549944 0.01055129 0.37 4280040737
0.11670119 0.01055129 0.37 4280171553
0.11822161 0.010579807 0.37100002 4280500518
0.11942662 0.010579807 0.37100002 4280697383
0.12095679 0.010608324 0.37200001 4280697383
0.12216504 0.010608324 0.37200001 4280039455
0.1233733 0.010608324 0.37200001 4281157936
0.12458155 0.010608324 0.37200001 4282341956
0.12612796 0.010636841 0.37300003 4283789402
0.12733947 0.010636841 0.37300003 4285499761
0.12855096 0.010636841 0.37300003 4286420863
0.12976247 0.010636841 0.37300003 4286551425
0.13097398 0.010636841 0.37300003 4286617990
0.049269084 0.011721692 0.36900002 4284381803
0.050467592 0.011721692 0.36900002 4284513389
0.051666107 0.011721692 0.36900002 4284579182
0.052864619 0.011721692 0.36900002 4284644975
0.054063134 0.011721692 0.36900002 4284644975
0.055261642 0.011721692 0.36900002 4284579182
0.056460157 0.011721692 0.36900002 4284579436
0.057658672 0.011721692 0.36900002 4284842608
0.05885718 0.011721692 0.36900002 4280104994
0.060055695 0.011721692 0.36900002 4279580188
0.061254211 0.011721692 0.36900002 4279318297
0.062452719 0.011721692 0.36900002 4279779361
0.063651234 0.011721692 0.36900002 4279187224
0.064849749 0.011721692 0.36900002 4279779361
0.066048265 0.011721692 0.36900002 4279845668
0.067246772 0.011721692 0.36900002 4279450910
0.068259798 0.011689926 0.36800003 4279450650
0.069455065 0.011689926 0.36800003 4279582236
0.070458338 0.01165816 0.36700001 4279516443
0.071455128 0.011626394 0.36600003 4279450650
0.072643898 0.011626394 0.36600003 4279450650
0.073630929 0.011594627 0.36500001 4279450650
0.074611478 0.011562862 0.36400002 4278792720
0.075793751 0.011562862 0.36400002 4279450650
0.076976024 0.011562862 0.36400002 4279513625
0.078158297 0.011562862 0.36400002 4279381271
0.07934057 0.011562862 0.36400002 4279646494
0.080522843 0.011562862 0.36400002 4279514908
0.081705116 0.011562862 0.36400002 4279184660
0.082887389 0.011562862 0.36400002 4279446551
0.084069662 0.011562862 0.36400002 4279972127
0.085251927 0.011562862 0.36400002 4279972127
0.0864342 0.011562862 0.36400002 4280695850
0.087616481 0.011562862 0.36400002 4280696620
0.089042693 0.011594627 0.36500001 4280499754
0.090228222 0.011594627 0.36500001 4280631340
0.091664188 0.011626394 0.36600003 4280762924
0.092852958 0.011626394 0.36600003 4280302373
0.094041727 0.011626394 0.36600003 4280565799
0.095490687 0.01165816 0.36700001 4280434725
0.096682705 0.01165816 0.36700001 4280172323
0.097874723 0.01165816 0.36700001 4280172323
0.099066742 0.01165816 0.36700001 4280040737
0.10025875 0.01165816 0.36700001 4280172323
0.10145077 0.01165816 0.36700001 4280107043
0.10264279 0.01165816 0.36700001 4280172836
0.10383481 0.01165816 0.36700001 4280172836
0.10502683 0.01165816 0.36700001 4279975457
0.10621884 0.01165816 0.36700001 4280238629
0.10741085 0.01165816 0.36700001 4279909664
0.1088988 0.011689926 0.36800003 4279711774
0.11009406 0.011689926 0.36800003 4280171301
0.11159174 0.011721692 0.36900002 4280368680
0.11279026 0.011721692 0.36900002 4281684794
0.11398876 0.011721692 0.36900002 4282999627
0.11549944 0.011753458 0.37 4284446819
0.11670119 0.011753458 0.37 4285631095
0.11822161 0.011785224 0.37100002 4286157439
0.11942662 0.011785224 0.37100002 4286354820
0.12063164 0.011785224 0.37100002 4285894269
0.12216504 0.011816991 0.37200001 4285894782
0.1233733 0.011816991 0.37200001 4285894782
0.12458155 0.011816991 0.37200001 4286157441
0.12578981 0.011816991 0.37200001 4286091648
0.12733947 0.011848757 0.37300003 4286288257
0.048070569 0.012920611 0.36900002 4284316010
0.049269084 0.012920611 0.36900002 4284513389
0.050467592 0.012920611 0.36900002 4284579182
0.051666107 0.012920611 0.36900002 4284644975
0.052864619 0.012920611 0.36900002 4284710768
0.054063134 0.012920611 0.36900002 4284579182
0.055261642 0.012920611 0.36900002 4284710768
0.056460157 0.012920611 0.36900002 4284579182
0.057658672 0.012920611 0.36900002 4284513389
0.05885718 0.012920611 0.36900002 4285303157
0.060055695 0.012920611 0.36900002 4279710750
0.061254211 0.012920611 0.36900002 4279713057
0.062452719 0.012920611 0.36900002 4279384090
0.06382373 0.012955626 0.37 4279187224
0.064849749 0.012920611 0.36900002 4279976740
0.066048265 0.012920611 0.36900002 4279648289
0.067246772 0.012920611 0.36900002 4279385117
0.068445288 0.012920611 0.36900002 4279450910
0.069455065 0.012885596 0.36800003 4279385117
0.070650324 0.012885596 0.36800003 4279319578
0.071650356 0.01285058 0.36700001 4279187992
0.072643898 0.012815565 0.36600003 4279319578
0.073630929 0.012780549 0.36500001 4279451164
0.07481645 0.012780549 0.36500001 4279516703
0.075793751 0.012745535 0.36400002 4278594576
0.076976024 0.012745535 0.36400002 4278987797
0.078158297 0.012745535 0.36400002 4279777567
0.07934057 0.012745535 0.36400002 4279778080
0.080522843 0.012745535 0.36400002 4280107045
0.081705116 0.012745535 0.36400002 4279909666
0.082887389 0.012745535 0.36400002 4279975459
0.084069662 0.012745535 0.36400002 4280172838
0.085251927 0.012745535 0.36400002 4280238118
0.0864342 0.012745535 0.36400002 4280040739
0.087857179 0.012780549 0.36500001 4279975459
0.089042693 0.012780549 0.36500001 4280304424
0.090475425 0.012815565 0.36600003 4279909666
0.091664188 0.012815565 0.36600003 4280238116
0.092852958 0.012815565 0.36600003 4279777565
0.094298668 0.01285058 0.36700001 4280040737
0.095490687 0.01285058 0.36700001 4279448600
0.096682705 0.01285058 0.36700001 4279711774
0.097874723 0.01285058 0.36700001 4279777567
0.099066742 0.01285058 0.36700001 4280238118
0.10025875 0.01285058 0.36700001 4281093425
0.10145077 0.01285058 0.36700001 4281553206
0.10264279 0.01285058 0.36700001 4283526484
0.10383481 0.01285058 0.36700001 4284644711
0.10502683 0.01285058 0.36700001 4285565813
0.10621884 0.01285058 0.36700001 4286158466
0.10770353 0.012885596 0.36800003 4286553224
0.1088988 0.012885596 0.36800003 4286157952
0.11009406 0.012885596 0.36800003 4285894782
0.11159174 0.012920611 0.36900002 4285763196
0.11279026 0.012920611 0.36900002 4285696890
0.11398876 0.012920611 0.36900002 4285894267
0.11549944 0.012955626 0.37 4285828474
0.11670119 0.012955626 0.37 4285828474
0.11790295 0.012955626 0.37 4285960060
0.11942662 0.012990641 0.37100002 4285828476
0.12063164 0.012990641 0.37100002 4285960062
0.12183665 0.012990641 0.37100002 4285828476
0.12304165 0.012990641 0.37100002 4286091648
0.12458155 0.013025655 0.37200001 4286157187
0.12578981 0.013025655 0.37200001 4286288003
0.048070569 0.014119529 0.36900002 4284512875
0.049269084 0.014119529 0.36900002 4284710254
0.050467592 0.014119529 0.36900002 4284841840
0.051666107 0.014119529 0.36900002 4284973426
0.052864619 0.014119529 0.36900002 4284841840
0.054063134 0.014119529 0.36900002 4284579182
0.055261642 0.014119529 0.36900002 4284710768
0.056460157 0.014119529 0.36900002 4284710768
0.057658672 0.014119529 0.36900002 4284710768
0.05885718 0.014119529 0.36900002 4284513643
0.060055695 0.014119529 0.36900002 4284711022
0.06142021 0.014157793 0.37 4282803021
0.062621966 0.014157793 0.37 4279250969
0.06382373 0.014157793 0.37 4279976229
0.065025486 0.014157793 0.37 4280108328
0.06622725 0.014157793 0.37 4279779361
0.067429006 0.014157793 0.37 4279516189
0.068445288 0.014119529 0.36900002 4279647775
0.069643795 0.014119529 0.36900002 4279713568
0.070650324 0.014081265 0.36800003 4279713568
0.071650356 0.014043001 0.36700001 4279647775
0.072643898 0.014004736 0.36600003 4279976742
0.073832661 0.014004736 0.36600003 4279910949
0.07481645 0.013966472 0.36500001 4279713055
0.076001972 0.013966472 0.36500001 4279778078
0.077187493 0.013966472 0.36500001 4279514393
0.078158297 0.013928208 0.36400002 4279579416
0.07934057 0.013928208 0.36400002 4279842590
0.080522843 0.013928208 0.36400002 4279973922
0.081705116 0.013928208 0.36400002 4279646240
0.082887389 0.013928208 0.36400002 4280896309
0.084069662 0.013928208 0.36400002 4281882689
0.085486136 0.013966472 0.36500001 4283461205
0.086671658 0.013966472 0.36500001 4284119135
0.087857179 0.013966472 0.36500001 4285039983
0.089042693 0.013966472 0.36500001 4285303925
0.090475425 0.014004736 0.36600003 4285303927
0.091664188 0.014004736 0.36600003 4285434743
0.092852958 0.014004736 0.36600003 4285697915
0.094298668 0.014043001 0.36700001 4285565813
0.095490687 0.014043001 0.36700001 4285828472
0.096682705 0.014043001 0.36700001 4285960058
0.097874723 0.014043001 0.36700001 4285499507
0.099066742 0.014043001 0.36700001 4285499507
0.10025875 0.014043001 0.36700001 4285499507
0.10145077 0.014043001 0.36700001 4285697399
0.10264279 0.014043001 0.36700001 4285763194
0.10383481 0.014043001 0.36700001 4285697401
0.10502683 0.014043001 0.36700001 4285763194
0.10621884 0.014043001 0.36700001 4285828987
0.10770353 0.014081265 0.36800003 4286026368
0.1088988 0.014081265 0.36800003 4285828222
0.11009406 0.014081265 0.36800003 4285894015
0.11159174 0.014119529 0.36900002 4285894015
0.11279026 0.014119529 0.36900002 4286090624
0.11398876 0.014119529 0.36900002 4286025085
0.11549944 0.014157793 0.37 4286025085
0.11670119 0.014157793 0.37 4286025085
0.11790295 0.014157793 0.37 4286222462
0.11910471 0.014157793 0.37 4286222462
0.12063164 0.014196058 0.37100002 4286025085
0.12183665 0.014196058 0.37100002 4286288257
0.12304165 0.014196058 0.37100002 4286288257
0.12424666 0.014196058 0.37100002 4286222464
0.048070569 0.015318448 0.36900002 4284644461
0.049269084 0.015318448 0.36900002 4284776047
0.050467592 0.015318448 0.36900002 4284841840
0.051666107 0.015318448 0.36900002 4284776047
0.052864619 0.015318448 0.36900002 4284776047
0.054063134 0.015318448 0.36900002 4284710254
0.055261642 0.015318448 0.36900002 4284644461
0.056460157 0.015318448 0.36900002 4284710254
0.057658672 0.015318448 0.36900002 4284579182
0.05885718 0.015318448 0.36900002 4284644975
0.060218446 0.01535996 0.37 4284579182
0.06142021 0.01535996 0.37 4284513643
0.062621966 0.01535996 0.37 4284711022
0.06382373 0.01535996 0.37 4284382827
0.065025486 0.01535996 0.37 4283922276
0.06622725 0.01535996 0.37 4282145863
0.067429006 0.01535996 0.37 4281290554
0.068445288 0.015318448 0.36900002 4281290552
0.069643795 0.015318448 0.36900002 4281685825
0.070650324 0.015276935 0.36800003 4283001683
0.071650356 0.01523542 0.36700001 4284054371
0.072643898 0.015193908 0.36600003 4285039983
0.073832661 0.015193908 0.36600003 4285434741
0.07481645 0.015152394 0.36500001 4285500534
0.076001972 0.015152394 0.36500001 4285039983
0.077187493 0.015152394 0.36500001 4284842604
0.078373015 0.015152394 0.36500001 4285566327
0.079558536 0.015152394 0.36500001 4285171569
0.080744058 0.015152394 0.36500001 4284974190
0.081929572 0.015152394 0.36500001 4284974190
0.083115093 0.015152394 0.36500001 4284842606
0.084300615 0.015152394 0.36500001 4284974192
0.085486136 0.015152394 0.36500001 4285303157
0.086671658 0.015152394 0.36500001 4285500536
0.087857179 0.015152394 0.36500001 4285434229
0.089042693 0.015152394 0.36500001 4285434229
0.090475425 0.015193908 0.36600003 4285631608
0.091664188 0.015193908 0.36600003 4285434229
0.092852958 0.015193908 0.36600003 4285631097
0.094298668 0.01523542 0.36700001 4285630327
0.095490687 0.01523542 0.36700001 4285630327
0.096682705 0.01523542 0.36700001 4285827704
0.097874723 0.01523542 0.36700001 4285893497
0.099066742 0.01523542 0.36700001 4285827704
0.10025875 0.01523542 0.36700001 4285893497
0.10145077 0.01523542 0.36700001 4285894267
0.10264279 0.01523542 0.36700001 4285828474
0.10383481 0.01523542 0.36700001 4285894267
0.10502683 0.01523542 0.36700001 4285894269
0.10621884 0.01523542 0.36700001 4286091648
0.10770353 0.015276935 0.36800003 4285960062
0.1088988 0.015276935 0.36800003 4286222464
0.11009406 0.015276935 0.36800003 4286090878
0.11159174 0.015318448 0.36900002 4286090624
0.11279026 0.015318448 0.36900002 4286025085
0.11670119 0.01535996 0.37 4285959292
0.11790295 0.01535996 0.37 4286090878
0.11910471 0.01535996 0.37 4286090878
0.12063164 0.015401474 0.37100002 4286025085
0.12183665 0.015401474 0.37100002 4286090878
0.12304165 0.015401474 0.37100002 4286288257
0.048070569 0.016517365 0.36900002 4284710254
0.049269084 0.016517365 0.36900002 4284644461
0.050467592 0.016517365 0.36900002 4284710254
0.051666107 0.016517365 0.36900002 4284644461
0.060218446 0.016562128 0.37 4284513389
0.06142021 0.016562128 0.37 4284579436
0.062621966 0.016562128 0.37 4284513643
0.06382373 0.016562128 0.37 4284579436
0.065025486 0.016562128 0.37 4284513643
0.06622725 0.016562128 0.37 4284382057
0.067429006 0.016562128 0.37 4284579436
0.06863077 0.016562128 0.37 4284776301
0.069643795 0.016517365 0.36900002 4284710508
0.070842311 0.016517365 0.36900002 4284842092
0.072040819 0.016517365 0.36900002 4284842092
0.076001972 0.016338315 0.36500001 4284973678
0.077187493 0.016338315 0.36500001 4284973678
0.078373015 0.016338315 0.36500001 4285171057
0.079558536 0.016338315 0.36500001 4284973678
0.080744058 0.016338315 0.36500001 4285236850
0.081929572 0.016338315 0.36500001 4285302643
0.083115093 0.016338315 0.36500001 4285236337
0.084300615 0.016338315 0.36500001 4285631095
0.095490687 0.016427841 0.36700001 4285828476
0.096682705 0.016427841 0.36700001 4285762683
0.097874723 0.016427841 0.36700001 4285696890
0.099066742 0.016427841 0.36700001 4285762683
0.10025875 0.016427841 0.36700001 4285827704
0.10145077 0.016427841 0.36700001 4285827704
0.10264279 0.016427841 0.36700001 4286025085
0.086591966 0.006590243 0.36711112 4294967295
0.086591966 0.006590243 0.36711112 4294901760
0.086591966 0.006590243 0.36761111 4294901760
0.086591966 0.006590243 0.3681111 4294901760
0.086591966 0.006590243 0.36861113 4294901760
0.086591966 0.006590243 0.36911112 4294901760
0.086591966 0.006590243 0.36961111 4294901760
0.086591966 0.006590243 0.37011111 4294901760
0.086591966 0.006590243 0.37061113 4294901760
0.086591966 0.006590243 0.37111112 4294901760
0.086591966 0.006590243 0.37161112 4294901760
0.086591966 0.006590243 0.37211111 4294901760
0.086591966 0.006590243 0.37261111 4294901760
0.086591966 0.006590243 0.37311113 4294901760
0.086591966 0.006590243 0.37361112 4294901760
0.086591966 0.006590243 0.37411112 4294901760
0.086591966 0.006590243 0.37461111 4294901760
0.086591966 0.006590243 0.3751111 4294901760
0.086591966 0.006590243 0.37561113 4294901760
0.086591966 0.006590243 0.37611112 4294901760
0.086591966 0.006590243 0.37661111 4294901760
0.086591966 0.006590243 0.37711111 4294901760
0.086591966 0.006590243 0.37761113 4294901760
0.086591966 0.006590243 0.37811112 4294901760
0.086591966 0.006590243 0.37861112 4294901760
0.086591966 0.006590243 0.37911111 4294901760
0.086591966 0.006590243 0.37961113 4294901760
0.086591966 0.006590243 0.38011113 4294901760
0.086591966 0.006590243 0.38061112 4294901760
0.086591966 0.006590243 0.38111112 4294901760
0.086591966 0.006590243 0.38161111 4294901760
0.086591966 0.006590243 0.38211113 4294901760
0.086591966 0.006590243 0.38261113 4294901760
0.086591966 0.006590243 0.38311112 4294901760
0.086591966 0.006590243 0.38361111 4294901760
0.086591966 0.006590243 0.38411111 4294901760
0.086591966 0.006590243 0.38461113 4294901760
0.086591966 0.006590243 0.38511112 4294901760
0.086591966 0.006590243 0.38561112 4294901760
0.086591966 0.006590243 0.38611111 4294901760
0.086591966 0.006590243 0.38661113 4294901760
0.086591966 0.006590243 0.38711113 4294901760
0.086591966 0.006590243 0.38761112 4294901760
0.086591966 0.006590243 0.38811111 4294901760
0.086591966 0.006590243 0.38861114 4294901760
0.086591966 0.006590243 0.38911113 4294901760
0.086591966 0.006590243 0.38961112 4294901760
0.086591966 0.006590243 0.39011112 4294901760
0.086591966 0.006590243 0.39061111 4294901760
0.086591966 0.006590243 0.39111114 4294901760
0.086591966 0.006590243 0.39161113 4294901760
0.086591966 0.006590243 0.39211112 4294901760
0.086591966 0.006590243 0.39261112 4294901760
0.086591966 0.006590243 0.39311111 4294901760
0.086591966 0.006590243 0.39361113 4294901760
0.086591966 0.006590243 0.39411113 4294901760
0.086591966 0.006590243 0.39461112 4294901760
0.086591966 0.006590243 0.39511111 4294901760
0.086591966 0.006590243 0.39561111 4294901760
0.086591966 0.006590243 0.39611113 4294901760
0.086591966 0.006590243 0.39661112 4294901760
0.086591966 0.006590243 0.39711112 4294901760
0.086591966 0.006590243 0.39761111 4294901760
0.086591966 0.006590243 0.39811113 4294901760
0.086591966 0.006590243 0.39861113 4294901760
0.086591966 0.006590243 0.39911112 4294901760
0.086591966 0.006590243 0.39961112 4294901760
0.086591966 0.006590243 0.40011114 4294901760
0.086591966 0.006590243 0.40061113 4294901760
0.086591966 0.006590243 0.40111113 4294901760
0.086591966 0.006590243 0.40161112 4294901760
0.086591966 0.006590243 0.40211111 4294901760
0.086591966 0.006590243 0.40261114 4294901760
0.086591966 0.006590243 0.40311113 4294901760
0.086591966 0.006590243 0.40361112 4294901760
0.086591966 0.006590243 0.40411112 4294901760
0.086591966 0.006590243 0.40461111 4294901760
0.086591966 0.006590243 0.40511113 4294901760
0.086591966 0.006590243 0.40561113 4294901760
0.086591966 0.006590243 0.40611112 4294901760
0.086591966 0.006590243 0.40661111 4294901760
0.086591966 0.006590243 0.40711114 4294901760
0.086591966 0.006590243 0.40761113 4294901760
0.086591966 0.006590243 0.40811113 4294901760
0.086591966 0.006590243 0.40861112 4294901760
0.086591966 0.006590243 0.40911111 4294901760
0.086591966 0.006590243 0.40961114 4294901760
0.086591966 0.006590243 0.41011113 4294901760
0.086591966 0.006590243 0.41061112 4294901760
0.086591966 0.006590243 0.41111112 4294901760
0.086591966 0.006590243 0.41161114 4294901760
0.086591966 0.006590243 0.41211113 4294901760
0.086591966 0.006590243 0.41261113 4294901760
0.086591966 0.006590243 0.41311112 4294901760
0.086591966 0.006590243 0.41361111 4294901760
0.086591966 0.006590243 0.41411114 4294901760
0.086591966 0.006590243 0.41461113 4294901760
0.086591966 0.006590243 0.41511112 4294901760
0.086591966 0.006590243 0.41561112 4294901760
0.086591966 0.006590243 0.41611114 4294901760
0.086591966 0.006590243 0.41661114 4294901760
0.086591966 0.006590243 0.41711113 4294901760
0.086591966 0.006590243 0.36711112 4278255360
0.086498521 0.0065428498 0.36760002 4278255360
0.086405076 0.0064954562 0.3680889 4278255360
0.086311631 0.0064480631 0.36857781 4278255360
0.086218186 0.0064006699 0.36906672 4278255360
0.086124733 0.0063532763 0.36955562 4278255360
0.086031288 0.0063058832 0.3700445 4278255360
0.085937843 0.00625849 0.37053341 4278255360
0.085844398 0.0062110964 0.37102231 4278255360
0.085750952 0.0061637033 0.37151119 4278255360
0.085657507 0.0061163101 0.3720001 4278255360
0.085564062 0.0060689165 0.37248901 4278255360
0.085470617 0.0060215234 0.37297791 4278255360
0.085377172 0.0059741302 0.37346679 4278255360
0.085283726 0.0059267366 0.3739557 4278255360
0.085190281 0.0058793435 0.3744446 4278255360
0.085096829 0.0058319503 0.37493348 4278255360
0.085003383 0.0057845567 0.37542239 4278255360
0.084909938 0.0057371636 0.3759113 4278255360
0.084816493 0.0056897704 0.37640017 4278255360
0.084723048 0.0056423768 0.37688908 4278255360
0.084629603 0.0055949837 0.37737799 4278255360
0.084536158 0.0055475906 0.37786689 4278255360
0.084442712 0.0055001969 0.37835577 4278255360
0.084349267 0.0054528038 0.37884468 4278255360
0.084255815 0.0054054102 0.37933359 4278255360
0.084162369 0.005358017 0.37982246 4278255360
0.084068924 0.0053106239 0.38031137 4278255360
0.083975479 0.0052632308 0.38080028 4278255360
0.083882034 0.0052158372 0.38128918 4278255360
0.083788589 0.005168444 0.38177806 4278255360
0.083695143 0.0051210504 0.38226697 4278255360
0.083601698 0.0050736573 0.38275588 4278255360
0.083508253 0.0050262641 0.38324475 4278255360
0.083414808 0.004978871 0.38373366 4278255360
0.083321363 0.0049314774 0.38422257 4278255360
0.08322791 0.0048840838 0.38471147 4278255360
0.083134465 0.0048366906 0.38520035 4278255360
0.08304102 0.0047892975 0.38568926 4278255360
0.082947575 0.0047419043 0.38617817 4278255360
0.082854129 0.0046945107 0.38666704 4278255360
0.082760684 0.0046471176 0.38715595 4278255360
0.082667239 0.0045997244 0.38764486 4278255360
0.082573794 0.0045523308 0.38813376 4278255360
0.082480349 0.0045049377 0.38862264 4278255360
0.082386896 0.0044575445 0.38911155 4278255360
0.082293451 0.0044101514 0.38960046 4278255360
0.082200006 0.0043627578 0.39008933 4278255360
0.08210656 0.0043153646 0.39057824 4278255360
0.082013115 0.004267971 0.39106715 4278255360
0.08191967 0.0042205779 0.39155602 4278255360
0.081826225 0.0041731847 0.39204493 4278255360
0.08173278 0.0041257916 0.39253384 4278255360
0.081639335 0.0040783985 0.39302275 4278255360
0.081545889 0.0040310044 0.39351162 4278255360
0.081452444 0.0039836112 0.39400053 4278255360
