# .PCD v0.7 - Point Cloud Data file format
VERSION 0.7
FIELDS x y z rgb
SIZE 4 4 4 4
TYPE F F F U
COUNT 1 1 1 1
WIDTH 748
HEIGHT 1
VIEWPOINT 0 0 0 1 0 0 0
POINTS 748
DATA ascii
0.0064212908 0.012293482 0.38700002 4279453215
0.007678268 0.012293482 0.38700002 4279323937
0.0089583332 0.012325248 0.38800001 4278733853
0.010218557 0.012325248 0.38800001 4279129125
0.011508367 0.012357014 0.38900003 4279063336
0.01277184 0.012357014 0.38900003 4279787057
0.007678268 0.013550884 0.38700002 4279321627
0.0089583332 0.013585899 0.38800001 4278798363
0.010218557 0.013585899 0.38800001 4278732570
0.011508367 0.013620915 0.38900003 4278602781
0.01277184 0.013620915 0.38900003 4278668828
0.014071392 0.01365593 0.39000002 4278668574
0.015377442 0.013690946 0.39100003 4279655984
0.016647412 0.013690946 0.39100003 4279591474
0.017963205 0.013725961 0.39200002 4279394095
0.019285493 0.013760975 0.39300001 4279590961
0.020561956 0.013760975 0.39300001 4279327789
0.021838421 0.013760975 0.39300001 4278998822
0.0089583332 0.01484655 0.38800001 4278928666
0.010218557 0.01484655 0.38800001 4278666007
0.011508367 0.014884816 0.38900003 4278666777
0.01277184 0.014884816 0.38900003 4278929949
0.014071392 0.014923079 0.39000002 4278800160
0.015377442 0.014961344 0.39100003 4278866466
0.016647412 0.014961344 0.39100003 4278735650
0.017963205 0.014999609 0.39200002 4278867236
0.019285493 0.015037872 0.39300001 4278604577
0.020561956 0.015037872 0.39300001 4278933542
0.021893991 0.015076137 0.39400002 4278472991
0.023173705 0.015076137 0.39400002 4278604064
0.0089583332 0.016107202 0.38800001 4278928154
0.010218557 0.016107202 0.38800001 4278664980
0.011508367 0.016148716 0.38900003 4278797080
0.01277184 0.016148716 0.38900003 4278797080
0.014071392 0.016190229 0.39000002 4278929949
0.015377442 0.016231744 0.39100003 4278864669
0.016647412 0.016231744 0.39100003 4278733853
0.017963205 0.016273256 0.39200002 4278800160
0.019285493 0.016314769 0.39300001 4278867236
0.020561956 0.016314769 0.39300001 4278735650
0.021893991 0.016356282 0.39400002 4278472478
0.023173705 0.016356282 0.39400002 4278538271
0.02451548 0.016397797 0.39500001 4278603294
0.02579844 0.016397797 0.39500001 4278735134
0.027081402 0.016397797 0.39500001 4278206219
0.028364362 0.016397797 0.39500001 4278996507
0.0089583332 0.017367853 0.38800001 4278927384
0.010218557 0.017367853 0.38800001 4278928154
0.011508367 0.017412616 0.38900003 4278862359
0.01277184 0.017412616 0.38900003 4278928666
0.014071392 0.017457379 0.39000002 4278929433
0.015377442 0.017502142 0.39100003 4278929949
0.016647412 0.017502142 0.39100003 4278536474
0.017963205 0.017546903 0.39200002 4278734367
0.019285493 0.017591666 0.39300001 4278866466
0.020561956 0.017591666 0.39300001 4278998052
0.021893991 0.01763643 0.39400002 4278405915
0.023173705 0.01763643 0.39400002 4278734367
0.02451548 0.017681191 0.39500001 4278734621
0.02579844 0.017681191 0.39500001 4278404372
0.027081402 0.017681191 0.39500001 4279651107
0.028364362 0.017681191 0.39500001 4279388703
0.02972238 0.017725954 0.39600003 4278864923
0.03100859 0.017725954 0.39600003 4278733337
0.03724898 0.018263103 0.40800002 4278733335
0.040094934 0.01835263 0.41000003 4278733337
0.041426618 0.01835263 0.41000003 4278667544
0.042862587 0.018397391 0.41100001 4278667544
0.05601719 0.019247878 0.43000001 4278405142
0.057547357 0.019292641 0.43100002 4278799898
0.058947243 0.019292641 0.43100002 4278734105
0.060487147 0.019337403 0.43200001 4278734107
0.061890285 0.019337403 0.43200001 4278602521
0.063293427 0.019337403 0.43200001 4278668828
0.064846322 0.019382168 0.43300003 4278734621
0.066252708 0.019382168 0.43300003 4278932000
0.0089583332 0.018628506 0.38800001 4279124763
0.010218557 0.018628506 0.38800001 4278927384
0.011508367 0.018676519 0.38900003 4278862361
0.01277184 0.018676519 0.38900003 4278994461
0.014071392 0.018724529 0.39000002 4279061019
0.015377442 0.018772542 0.39100003 4278930203
0.016647412 0.018772542 0.39100003 4278930716
0.017963205 0.018820552 0.39200002 4278865693
0.019236421 0.018820552 0.39200002 4278998052
0.020561956 0.018868564 0.39300001 4278669087
0.021893991 0.018916577 0.39400002 4278734880
0.023173705 0.018916577 0.39400002 4278734367
0.024453416 0.018916577 0.39400002 4278800160
0.028436171 0.0190126 0.39600003 4279126047
0.031086894 0.01906061 0.39700001 4278199040
0.032457903 0.019108623 0.39800003 4278198787
0.033835407 0.019156635 0.39900002 4278199298
0.035747699 0.019492716 0.40600002 4278198784
0.037157681 0.019540727 0.40700001 4278197504
0.038574167 0.019588739 0.40800002 4278197760
0.040094934 0.019684762 0.41000003 4278197248
0.041426618 0.019684762 0.41000003 4278198528
0.042862587 0.019732773 0.41100001 4278198272
0.044197515 0.019732773 0.41100001 4278198784
0.049492389 0.020260902 0.42200002 4278196480
0.051104102 0.020356925 0.42400002 4278196224
0.052605029 0.020404935 0.42500001 4278196480
0.054239478 0.02050096 0.42700002 4278196992
0.055886921 0.020596983 0.42900002 4278196992
0.057413835 0.020644994 0.43000001 4278197504
0.058947243 0.020693006 0.43100002 4278196480
0.060347132 0.020693006 0.43100002 4278196992
0.061890285 0.020741018 0.43200001 4278197248
0.063293427 0.020741018 0.43200001 4278600984
0.064846322 0.020789029 0.43300003 4278733337
0.066252708 0.020789029 0.43300003 4278996509
0.067815349 0.020837041 0.43400002 4278930464
0.0089583332 0.019889157 0.38800001 4278927384
0.010218557 0.019889157 0.38800001 4279058970
0.011508367 0.019940419 0.38900003 4278993947
0.01277184 0.019940419 0.38900003 4278994461
0.014071392 0.019991679 0.39000002 4278798363
0.015338113 0.019991679 0.39000002 4279061535
0.016647412 0.020042941 0.39100003 4278931486
0.01791738 0.020042941 0.39100003 4278865439
0.019236421 0.020094201 0.39200002 4278866466
0.020561956 0.020145461 0.39300001 4278603294
0.021838421 0.020145461 0.39300001 4278405915
0.023173705 0.020196723 0.39400002 4278866207
0.024453416 0.020196723 0.39400002 4278800414
0.02579844 0.020247983 0.39500001 4278535958
0.027081402 0.020247983 0.39500001 4278198016
0.028436171 0.020299245 0.39600003 4279519521
0.02972238 0.020299245 0.39600003 4278527500
0.031086894 0.020350505 0.39700001 4278590474
0.032539453 0.020453027 0.39900002 4278655756
0.03392021 0.020504287 0.40000001 4278853135
0.035659652 0.02076059 0.40500003 4278589709
0.037066389 0.02081185 0.40600002 4278721295
0.038574167 0.020914372 0.40800002 4278589709
0.039997142 0.020965632 0.40900001 4278656269
0.041426618 0.021016894 0.41000003 4279585314
0.042862587 0.021068154 0.41100001 4279585314
0.044305053 0.021119416 0.41200003 4279519008
0.045975581 0.021273198 0.41500002 4279650594
0.047551569 0.021375719 0.41700003 4279782180
0.049257826 0.021529501 0.42000002 4279519521
0.050863042 0.021632021 0.42200002 4279453728
0.052605029 0.021785803 0.42500001 4279585314
0.054239478 0.021888325 0.42700002 4279256351
0.055756651 0.021939587 0.42800003 4279124765
0.057280317 0.021990847 0.42900002 4279256351
0.058810472 0.022042107 0.43000001 4279322914
0.060347132 0.022093369 0.43100002 4279125533
0.061890285 0.022144629 0.43200001 4279388705
0.063293427 0.022144629 0.43200001 4279454500
0.064846322 0.022195891 0.43300003 4278666781
0.066252708 0.022195891 0.43300003 4278995744
0.067815349 0.022247151 0.43400002 4279193123
0.069224976 0.022247151 0.43400002 4285766274
0.007678268 0.0210953 0.38700002 4279582750
0.0089583332 0.021149809 0.38800001 4279058970
0.010218557 0.021149809 0.38800001 4278795798
0.011508367 0.021204319 0.38900003 4279059738
0.01277184 0.021204319 0.38900003 4278994459
0.014071392 0.021258829 0.39000002 4278929949
0.015338113 0.021258829 0.39000002 4278733083
0.016647412 0.021313339 0.39100003 4278733853
0.01791738 0.021313339 0.39100003 4278997279
0.019236421 0.021367848 0.39200002 4279194658
0.020509636 0.021367848 0.39200002 4278865439
0.021838421 0.021422358 0.39300001 4278865439
0.023173705 0.021476869 0.39400002 4278536728
0.024453416 0.021476869 0.39400002 4278799900
0.028436171 0.021585887 0.39600003 4279913766
0.029797435 0.021640398 0.39700001 4278262792
0.031165199 0.021694908 0.39800003 4278721549
0.032539453 0.021749416 0.39900002 4278655756
0.034005009 0.021858437 0.40100002 4278721549
0.035571601 0.022021966 0.40400001 4278918928
0.037066389 0.022130987 0.40600002 4278918928
0.038479622 0.022185495 0.40700001 4278918928
0.039997142 0.022294514 0.40900001 4278657039
0.041426618 0.022349026 0.41000003 4278994463
0.042862587 0.022403535 0.41100001 4278203405
0.044305053 0.022458045 0.41200003 4278199298
0.045975581 0.022621574 0.41500002 4278202124
0.047551569 0.022730595 0.41700003 4278202892
0.049140546 0.022839613 0.41900003 4278664214
0.050863042 0.023003142 0.42200002 4278200320
0.052481253 0.023112163 0.42400002 4279323424
0.054112453 0.023221184 0.42600003 4278863127
0.055756651 0.023330202 0.42800003 4279061019
0.057280317 0.023384711 0.42900002 4278337042
0.058810472 0.023439221 0.43000001 4279258144
0.060347132 0.023493731 0.43100002 4278731800
0.061747022 0.023493731 0.43100002 4278863386
0.063293427 0.02354824 0.43200001 4279257633
0.064846322 0.023602752 0.43300003 4278929951
0.066252708 0.023602752 0.43300003 4279061537
0.067815349 0.02365726 0.43400002 4279258918
0.069224976 0.02365726 0.43400002 4285042553
0.0089583332 0.02241046 0.38800001 4279124252
0.010218557 0.02241046 0.38800001 4278993177
0.011508367 0.02246822 0.38900003 4278993947
0.01277184 0.02246822 0.38900003 4278928666
0.014035312 0.02246822 0.38900003 4278732570
0.015338113 0.022525977 0.39000002 4278733083
0.016604833 0.022525977 0.39000002 4278864669
0.01791738 0.022583738 0.39100003 4278996255
0.01918735 0.022583738 0.39100003 4278997025
0.020509636 0.022641497 0.39200002 4278865439
0.021838421 0.022699254 0.39300001 4278865439
0.023114886 0.022699254 0.39300001 4278733853
0.024453416 0.022757014 0.39400002 4278602267
0.02579844 0.022814773 0.39500001 4279061537
0.028436171 0.022872532 0.39600003 4279913766
0.029797435 0.022930291 0.39700001 4278197250
0.031165199 0.022988051 0.39800003 4279579164
0.032539453 0.023045808 0.39900002 4278393865
0.034005009 0.023161327 0.40100002 4278788623
0.035571601 0.023334604 0.40400001 4279578652
0.037066389 0.023450121 0.40600002 4278460685
0.038479622 0.02350788 0.40700001 4279316766
0.039997142 0.023623398 0.40900001 4278461968
0.041426618 0.023681156 0.41000003 4279452963
0.042862587 0.023738915 0.41100001 4278199047
0.044305053 0.023796676 0.41200003 4278196742
0.045864798 0.023912193 0.41400003 4278530580
0.047437534 0.024027709 0.41600001 4279321377
0.049140546 0.024200987 0.41900003 4278662677
0.050742518 0.024316506 0.42100003 4279124000
0.052357472 0.024432022 0.42300001 4278268689
0.053985428 0.02454754 0.42500001 4278201355
0.055626374 0.024663059 0.42700002 4278465552
0.057146799 0.024720818 0.42800003 4278794517
0.058810472 0.024836333 0.43000001 4278465552
0.060207114 0.024836333 0.43000001 4278664984
0.061747022 0.024894094 0.43100002 4278796570
0.063293427 0.024951853 0.43200001 4278994461
0.064846322 0.025009612 0.43300003 4278798365
0.066252708 0.025009612 0.43300003 4278864671
0.067815349 0.02506737 0.43400002 4279325224
0.069224976 0.02506737 0.43400002 4285174653
0.0089583332 0.023671111 0.38800001 4278993179
0.010218557 0.023671111 0.38800001 4278927384
0.011508367 0.02373212 0.38900003 4278862875
0.01277184 0.02373212 0.38900003 4278929179
0.014035312 0.02373212 0.38900003 4278995742
0.015298785 0.02373212 0.38900003 4278996255
0.016604833 0.023793127 0.39000002 4278930462
0.017871555 0.023793127 0.39000002 4278996255
0.01918735 0.023854136 0.39100003 4278997025
0.020509636 0.023915144 0.39200002 4278865439
0.021782853 0.023915144 0.39200002 4278799646
0.023114886 0.023976151 0.39300001 4278733853
0.024453416 0.02403716 0.39400002 4278865441
0.027081402 0.024098167 0.39500001 4280176940
0.028436171 0.024159176 0.39600003 4279847203
0.029797435 0.024220183 0.39700001 4278198278
0.031165199 0.024281193 0.39800003 4278789648
0.032621007 0.024403207 0.40000001 4279710750
0.034005009 0.024464216 0.40100002 4278196228
0.035571601 0.02464724 0.40400001 4278591759
0.036975093 0.024708249 0.40500003 4280763440
0.038479622 0.024830263 0.40700001 4280173354
0.039899349 0.024891272 0.40800002 4278660369
0.041426618 0.025013288 0.41000003 4280043049
0.042862587 0.025074296 0.41100001 4278460173
0.044305053 0.025135305 0.41200003 4278789648
0.045864798 0.025257321 0.41400003 4278727187
0.047437534 0.025379336 0.41600001 4278201611
0.049023267 0.025501352 0.41800001 4278663447
0.050621986 0.025623368 0.42000002 4278334482
0.0522337 0.025745384 0.42200002 4278531861
0.053985428 0.025928408 0.42500001 4278399507
0.055626374 0.026050424 0.42700002 4279320094
0.057146799 0.026111433 0.42800003 4278595601
0.058673706 0.02617244 0.42900002 4278202126
0.060207114 0.026233448 0.43000001 4278730007
0.061747022 0.026294457 0.43100002 4278401812
0.063293427 0.026355464 0.43200001 4279454496
0.064846322 0.026416473 0.43300003 4279060765
0.066252708 0.026416473 0.43300003 4278995744
0.067815349 0.02647748 0.43400002 4278732320
0.069224976 0.02647748 0.43400002 4286160519
0.007698108 0.024931764 0.38800001 4279386141
0.0089583332 0.024931764 0.38800001 4279058972
0.010218557 0.024931764 0.38800001 4278862361
0.011478783 0.024931764 0.38800001 4278928668
0.01277184 0.024996022 0.38900003 4278797595
0.014035312 0.024996022 0.38900003 4278733083
0.015298785 0.024996022 0.38900003 4279062048
0.016604833 0.025060279 0.39000002 4278931232
0.017871555 0.025060279 0.39000002 4278997025
0.01918735 0.025124537 0.39100003 4278931232
0.020457316 0.025124537 0.39100003 4278865439
0.021782853 0.025188792 0.39200002 4278997025
0.023114886 0.02525305 0.39300001 4278602267
0.024453416 0.025317308 0.39400002 4278931232
0.025733128 0.025317308 0.39400002 4278928668
0.028436171 0.025445823 0.39600003 4280176168
0.029797435 0.025510078 0.39700001 4278657037
0.031165199 0.025574338 0.39800003 4278787855
0.032621007 0.025702849 0.40000001 4278524683
0.034005009 0.025767108 0.40100002 4278590222
0.035571601 0.025959879 0.40400001 4278590222
0.036975093 0.026024137 0.40500003 4278590222
0.038479622 0.02615265 0.40700001 4278458888
0.039899349 0.026216907 0.40800002 4279316762
0.041426618 0.026345422 0.41000003 4280109610
0.042862587 0.026409678 0.41100001 4278198280
0.044412587 0.026538193 0.41300002 4279318812
0.045864798 0.026602451 0.41400003 4279583779
0.047437534 0.026730964 0.41600001 4279059742
0.049023267 0.026859477 0.41800001 4279125535
0.050621986 0.026987992 0.42000002 4278994463
0.0522337 0.027116507 0.42200002 4278928670
0.053858403 0.027245022 0.42400002 4278929183
0.055496104 0.027373536 0.42600003 4279191842
0.057146799 0.027502051 0.42800003 4279257121
0.058673706 0.027566306 0.42900002 4279519523
0.060207114 0.027630564 0.43000001 4279256349
0.061747022 0.027694821 0.43100002 4278335249
0.063293427 0.027759077 0.43200001 4279586596
0.064846322 0.027823336 0.43300003 4279061535
0.066252708 0.027823336 0.43300003 4279193123
0.067659095 0.027823336 0.43300003 4278599964
0.0089583332 0.026192416 0.38800001 4278993179
0.010218557 0.026192416 0.38800001 4278862363
0.011478783 0.026192416 0.38800001 4278797082
0.012739007 0.026192416 0.38800001 4278928668
0.014035312 0.026259923 0.38900003 4278863388
0.015298785 0.026259923 0.38900003 4278995744
0.016562259 0.026259923 0.38900003 4278799646
0.017871555 0.026327427 0.39000002 4278799646
0.01918735 0.026394935 0.39100003 4278931232
0.020457316 0.026394935 0.39100003 4278733853
0.021782853 0.026462441 0.39200002 4278799646
0.023114886 0.026529947 0.39300001 4278733855
0.024453416 0.026597453 0.39400002 4278864671
0.025733128 0.026597453 0.39400002 4278201863
0.027081402 0.026664959 0.39500001 4279190045
0.028436171 0.026732467 0.39600003 4279320861
0.029797435 0.026799971 0.39700001 4278657039
0.031165199 0.026867479 0.39800003 4278787855
0.032539453 0.026934985 0.39900002 4278720525
0.034005009 0.027069997 0.40100002 4279049490
0.035483554 0.027205011 0.40300003 4278983697
0.036975093 0.027340023 0.40500003 4278786318
0.038479622 0.027475033 0.40700001 4278654732
0.039997142 0.027610047 0.40900001 4280499756
0.041426618 0.027677553 0.41000003 4278198018
0.042862587 0.027745059 0.41100001 4278198018
0.044412587 0.027880071 0.41300002 4278197250
0.045864798 0.027947579 0.41400003 4278195968
0.047437534 0.028082591 0.41600001 4278195968
0.049023267 0.028217603 0.41800001 4278196224
0.050621986 0.028352614 0.42000002 4278195456
0.0522337 0.028487628 0.42200002 4278195968
0.053858403 0.02862264 0.42400002 4278196224
0.055496104 0.028757654 0.42600003 4278196993
0.057146799 0.028892666 0.42800003 4278196480
0.058673706 0.028960172 0.42900002 4278198020
0.060347132 0.029095184 0.43100002 4278199559
0.061747022 0.029095184 0.43100002 4278925336
0.063293427 0.02916269 0.43200001 4278995744
0.064846322 0.029230196 0.43300003 4279522088
0.066252708 0.029230196 0.43300003 4279193125
0.067815349 0.029297702 0.43400002 4280506684
0.0014041858 0.027594578 0.39000002 4283984219
0.0064378832 0.027453067 0.38800001 4279713055
0.007698108 0.027453067 0.38800001 4279451680
0.0089583332 0.027453067 0.38800001 4279190043
0.010218557 0.027453067 0.38800001 4279190043
0.011478783 0.027453067 0.38800001 4279124761
0.012739007 0.027453067 0.38800001 4279257117
0.013999231 0.027453067 0.38800001 4279192351
0.015298785 0.027523823 0.38900003 4279127328
0.016562259 0.027523823 0.38900003 4278996255
0.017871555 0.027594578 0.39000002 4279193634
0.019138277 0.027594578 0.39000002 4279062818
0.020457316 0.027665334 0.39100003 4278733853
0.021782853 0.027736088 0.39200002 4278602267
0.023114886 0.027806843 0.39300001 4278799646
0.024453416 0.027877599 0.39400002 4279061535
0.027081402 0.027948353 0.39500001 4278796568
0.028436171 0.028019112 0.39600003 4279191840
0.029797435 0.028089866 0.39700001 4279781928
0.031165199 0.028160622 0.39800003 4280504883
0.032539453 0.028231377 0.39900002 4279977772
0.034005009 0.028372888 0.40100002 4279780393
0.035483554 0.028514398 0.40300003 4279978026
0.037066389 0.028726663 0.40600002 4279912233
0.038479622 0.028797418 0.40700001 4279912485
0.039997142 0.028938929 0.40900001 4280044584
0.041426618 0.029009685 0.41000003 4279913768
0.042862587 0.029080439 0.41100001 4279585316
0.044412587 0.02922195 0.41300002 4279585062
0.045864798 0.029292706 0.41400003 4279651109
0.047437534 0.029434215 0.41600001 4279453730
0.049023267 0.029575726 0.41800001 4279585316
0.050621986 0.029717239 0.42000002 4279059742
0.0522337 0.029858749 0.42200002 4278993949
0.053858403 0.03000026 0.42400002 4279125535
0.055626374 0.030212525 0.42700002 4279125535
0.057146799 0.030283282 0.42800003 4279126049
0.058810472 0.03042479 0.43000001 4279191842
0.060347132 0.030495547 0.43100002 4279388705
0.061890285 0.030566301 0.43200001 4279191840
0.063293427 0.030566301 0.43200001 4279192353
0.064846322 0.030637057 0.43300003 4279061537
0.066252708 0.030637057 0.43300003 4279518758
0.067815349 0.030707812 0.43400002 4285372032
0.0064378832 0.028713718 0.38800001 4279713568
0.007698108 0.028713718 0.38800001 4279582750
0.0089583332 0.028713718 0.38800001 4279320859
0.010218557 0.028713718 0.38800001 4279190043
0.011478783 0.028713718 0.38800001 4279256347
0.012739007 0.028713718 0.38800001 4279125785
0.013999231 0.028713718 0.38800001 4279456293
0.015259456 0.028713718 0.38800001 4279061535
0.016562259 0.028787725 0.38900003 4278931232
0.01782573 0.028787725 0.38900003 4278931486
0.019138277 0.028861728 0.39000002 4278865693
0.020457316 0.028935732 0.39100003 4278733853
0.021782853 0.029009737 0.39200002 4278799646
0.023114886 0.02908374 0.39300001 4278799646
0.024391351 0.02908374 0.39300001 4279061537
0.027081402 0.029231749 0.39500001 4278862361
0.028436171 0.029305754 0.39600003 4279192351
0.02972238 0.029305754 0.39600003 4279192353
0.031086894 0.029379759 0.39700001 4278995746
0.032457903 0.029453764 0.39800003 4278929953
0.03392021 0.029601771 0.40000001 4278798367
0.035483554 0.029823786 0.40300003 4278666779
0.037066389 0.030045798 0.40600002 4278732572
0.038479622 0.030119803 0.40700001 4279258398
0.039997142 0.03026781 0.40900001 4279061019
0.041426618 0.030341817 0.41000003 4278798617
0.042966876 0.030489827 0.41200003 4278732824
0.044412587 0.030563829 0.41300002 4278732570
0.045864798 0.030637836 0.41400003 4279126558
0.047437534 0.030785842 0.41600001 4278929433
0.049023267 0.030933851 0.41800001 4279060765
0.050621986 0.031081861 0.42000002 4278929181
0.0522337 0.03122987 0.42200002 4279126560
0.053985428 0.031451881 0.42500001 4279126560
0.055626374 0.03159989 0.42700002 4278929181
0.057146799 0.031673897 0.42800003 4279126560
0.058810472 0.031821903 0.43000001 4279258146
0.060347132 0.031895909 0.43100002 4279323428
0.061890285 0.031969912 0.43200001 4279257635
0.063439943 0.032043919 0.43300003 4279388967
0.064846322 0.032043919 0.43300003 4278992673
0.066405714 0.032117922 0.43400002 4284778868
0.0039275307 0.030051624 0.38900003 4283789402
0.0051910039 0.030051624 0.38900003 4279909412
0.0064378832 0.029974369 0.38800001 4279648291
0.007698108 0.029974369 0.38800001 4279451680
0.0089583332 0.029974369 0.38800001 4279189275
0.010218557 0.029974369 0.38800001 4279124250
0.011478783 0.029974369 0.38800001 4279124250
0.012739007 0.029974369 0.38800001 4279387935
0.013999231 0.029974369 0.38800001 4278995744
0.015259456 0.029974369 0.38800001 4279062050
0.016562259 0.030051624 0.38900003 4278997025
0.01782573 0.030051624 0.38900003 4278997025
0.019138277 0.030128878 0.39000002 4278865693
0.020457316 0.030206133 0.39100003 4278865693
0.021782853 0.030283384 0.39200002 4278931232
0.023114886 0.030360637 0.39300001 4278865441
0.024391351 0.030360637 0.39300001 4278930464
0.025733128 0.030437892 0.39400002 4278996257
0.027081402 0.030515144 0.39500001 4279390502
0.028364362 0.030515144 0.39500001 4279061537
0.02972238 0.030592399 0.39600003 4278929951
0.031086894 0.030669652 0.39700001 4279127330
0.032457903 0.030746907 0.39800003 4279061537
0.033835407 0.030824158 0.39900002 4279127330
0.035483554 0.031133173 0.40300003 4279127330
0.037066389 0.031364933 0.40600002 4279193121
0.038574167 0.031519443 0.40800002 4278995742
0.039997142 0.031596694 0.40900001 4278930462
0.041426618 0.031673949 0.41000003 4278930462
0.042966876 0.031828456 0.41200003 4278996255
0.044412587 0.031905707 0.41300002 4278996255
0.045864798 0.031982962 0.41400003 4278995742
0.047437534 0.032137468 0.41600001 4279127328
0.049023267 0.032291975 0.41800001 4279192353
0.050621986 0.032446481 0.42000002 4279388967
0.0522337 0.032600991 0.42200002 4279191588
0.053985428 0.032832749 0.42500001 4279323174
0.055626374 0.032987259 0.42700002 4279388453
0.057280317 0.033141766 0.42900002 4278992412
0.058810472 0.033219017 0.43000001 4279386402
0.060347132 0.033296272 0.43100002 4281358659
0.061890285 0.033373524 0.43200001 4284186990
0.063439943 0.033450779 0.43300003 4286356876
0.0039275307 0.031315524 0.38900003 4279908903
0.0051910039 0.031315524 0.38900003 4279777828
0.0064378832 0.031235021 0.38800001 4279647777
0.007698108 0.031235021 0.38800001 4279713570
0.0089583332 0.031235021 0.38800001 4279254301
0.010218557 0.031235021 0.38800001 4279386654
0.011478783 0.031235021 0.38800001 4279519523
0.012739007 0.031235021 0.38800001 4279322914
0.013999231 0.031235021 0.38800001 4279126308
0.015259456 0.031235021 0.38800001 4278929699
0.016519681 0.031235021 0.38800001 4278799650
0.01782573 0.031315524 0.38900003 4279062822
0.019138277 0.031396028 0.39000002 4278997029
0.021782853 0.031557031 0.39200002 4278931236
0.023056071 0.031557031 0.39200002 4278996775
0.024391351 0.031637534 0.39300001 4279061798
0.025733128 0.031718038 0.39400002 4278930212
0.027012844 0.031718038 0.39400002 4279061285
0.028364362 0.031798538 0.39500001 4279061285
0.02972238 0.031879045 0.39600003 4279192871
0.03100859 0.031879045 0.39600003 4279258664
0.032376349 0.031959545 0.39700001 4279061798
0.033835407 0.032120552 0.39900002 4279061798
0.035483554 0.032442562 0.40300003 4279193125
0.037066389 0.032684069 0.40600002 4279126562
0.038574167 0.032845076 0.40800002 4279257635
0.039997142 0.032925576 0.40900001 4279126049
0.041426618 0.033006079 0.41000003 4279323428
0.042966876 0.033167087 0.41200003 4279191588
0.044412587 0.033247586 0.41300002 4279257383
0.045864798 0.03332809 0.41400003 4279388455
0.047437534 0.033489093 0.41600001 4279716137
0.049023267 0.0336501 0.41800001 4279846440
0.0522337 0.033972111 0.42200002 4283660900
0.053985428 0.034213617 0.42500001 4285765763
0.055626374 0.034374624 0.42700002 4286686865
0.057280317 0.034535628 0.42900002 4286225544
0.023056071 0.032830682 0.39200002 4279059490
0.024391351 0.03291443 0.39300001 4279453478
0.025733128 0.032998186 0.39400002 4280045102
0.027012844 0.032998186 0.39400002 4279781676
0.028364362 0.033081934 0.39500001 4279781676
0.02972238 0.033165686 0.39600003 4280044078
0.03100859 0.033165686 0.39600003 4280109871
0.032376349 0.033249438 0.39700001 4280109871
0.033835407 0.033416942 0.39900002 4280767288
0.035483554 0.03375195 0.40300003 4280767290
0.039997142 0.034254458 0.40900001 4283135586
0.042966876 0.034505714 0.41200003 4285174653
0.045864798 0.034673218 0.41400003 4287081369
0.034026001 0.024892509 0.40501672 4294967295
0.034026001 0.024892509 0.40501672 4294901760
0.034026001 0.024892509 0.40551671 4294901760
0.034026001 0.024892509 0.40601671 4294901760
0.034026001 0.024892509 0.40651673 4294901760
0.034026001 0.024892509 0.40701672 4294901760
0.034026001 0.024892509 0.40751672 4294901760
0.034026001 0.024892509 0.40801671 4294901760
0.034026001 0.024892509 0.40851673 4294901760
0.034026001 0.024892509 0.40901673 4294901760
0.034026001 0.024892509 0.40951672 4294901760
0.034026001 0.024892509 0.41001672 4294901760
0.034026001 0.024892509 0.41051671 4294901760
0.034026001 0.024892509 0.41101673 4294901760
0.034026001 0.024892509 0.41151673 4294901760
0.034026001 0.024892509 0.41201672 4294901760
0.034026001 0.024892509 0.41251671 4294901760
0.034026001 0.024892509 0.41301674 4294901760
0.034026001 0.024892509 0.41351673 4294901760
0.034026001 0.024892509 0.41401672 4294901760
0.034026001 0.024892509 0.41451672 4294901760
0.034026001 0.024892509 0.41501671 4294901760
0.034026001 0.024892509 0.41551673 4294901760
0.034026001 0.024892509 0.41601673 4294901760
0.034026001 0.024892509 0.41651672 4294901760
0.034026001 0.024892509 0.41701671 4294901760
0.034026001 0.024892509 0.41751671 4294901760
0.034026001 0.024892509 0.41801673 4294901760
0.034026001 0.024892509 0.41851673 4294901760
0.034026001 0.024892509 0.41901672 4294901760
0.034026001 0.024892509 0.41951671 4294901760
0.034026001 0.024892509 0.42001674 4294901760
0.034026001 0.024892509 0.42051673 4294901760
0.034026001 0.024892509 0.42101672 4294901760
0.034026001 0.024892509 0.42151672 4294901760
0.034026001 0.024892509 0.42201674 4294901760
0.034026001 0.024892509 0.42251673 4294901760
0.034026001 0.024892509 0.42301673 4294901760
0.034026001 0.024892509 0.42351672 4294901760
0.034026001 0.024892509 0.42401671 4294901760
0.034026001 0.024892509 0.42451674 4294901760
0.034026001 0.024892509 0.42501673 4294901760
0.034026001 0.024892509 0.42551672 4294901760
0.034026001 0.024892509 0.42601672 4294901760
0.034026001 0.024892509 0.42651671 4294901760
0.034026001 0.024892509 0.42701674 4294901760
0.034026001 0.024892509 0.42751673 4294901760
0.034026001 0.024892509 0.42801672 4294901760
0.034026001 0.024892509 0.42851672 4294901760
0.034026001 0.024892509 0.42901674 4294901760
0.034026001 0.024892509 0.42951673 4294901760
0.034026001 0.024892509 0.43001673 4294901760
0.034026001 0.024892509 0.43051672 4294901760
0.034026001 0.024892509 0.43101671 4294901760
0.034026001 0.024892509 0.43151674 4294901760
0.034026001 0.024892509 0.43201673 4294901760
0.034026001 0.024892509 0.43251672 4294901760
0.034026001 0.024892509 0.43301672 4294901760
0.034026001 0.024892509 0.43351674 4294901760
0.034026001 0.024892509 0.43401673 4294901760
0.034026001 0.024892509 0.43451673 4294901760
0.034026001 0.024892509 0.43501672 4294901760
0.034026001 0.024892509 0.43551672 4294901760
0.034026001 0.024892509 0.43601674 4294901760
0.034026001 0.024892509 0.43651673 4294901760
0.034026001 0.024892509 0.43701673 4294901760
0.034026001 0.024892509 0.43751672 4294901760
0.034026001 0.024892509 0.43801674 4294901760
0.034026001 0.024892509 0.43851674 4294901760
0.034026001 0.024892509 0.43901673 4294901760
0.034026001 0.024892509 0.43951672 4294901760
0.034026001 0.024892509 0.44001672 4294901760
0.034026001 0.024892509 0.44051674 4294901760
0.034026001 0.024892509 0.44101673 4294901760
0.034026001 0.024892509 0.44151673 4294901760
0.034026001 0.024892509 0.44201672 4294901760
0.034026001 0.024892509 0.44251674 4294901760
0.034026001 0.024892509 0.44301674 4294901760
0.034026001 0.024892509 0.44351673 4294901760
0.034026001 0.024892509 0.44401672 4294901760
0.034026001 0.024892509 0.44451672 4294901760
0.034026001 0.024892509 0.44501674 4294901760
0.034026001 0.024892509 0.44551674 4294901760
0.034026001 0.024892509 0.44601673 4294901760
0.034026001 0.024892509 0.44651672 4294901760
0.034026001 0.024892509 0.44701672 4294901760
0.034026001 0.024892509 0.44751674 4294901760
0.034026001 0.024892509 0.44801673 4294901760
0.034026001 0.024892509 0.44851673 4294901760
0.034026001 0.024892509 0.44901672 4294901760
0.034026001 0.024892509 0.44951671 4294901760
0.034026001 0.024892509 0.45001674 4294901760
0.034026001 0.024892509 0.45051673 4294901760
0.034026001 0.024892509 0.45101672 4294901760
0.034026001 0.024892509 0.45151675 4294901760
0.034026001 0.024892509 0.45201674 4294901760
0.034026001 0.024892509 0.45251673 4294901760
0.034026001 0.024892509 0.45301673 4294901760
0.034026001 0.024892509 0.45351672 4294901760
0.034026001 0.024892509 0.45401675 4294901760
0.034026001 0.024892509 0.45451674 4294901760
0.034026001 0.024892509 0.45501673 4294901760
0.034026001 0.024892509 0.40501672 4278255360
0.033831544 0.024923047 0.40547633 4278255360
0.033637088 0.024953585 0.40593597 4278255360
0.033442631 0.024984123 0.40639558 4278255360
0.033248175 0.025014661 0.40685523 4278255360
0.033053715 0.025045199 0.40731484 4278255360
0.032859258 0.025075737 0.40777445 4278255360
0.032664802 0.025106275 0.40823409 4278255360
0.032470345 0.025136814 0.4086937 4278255360
0.032275889 0.025167352 0.40915334 4278255360
0.032081433 0.02519789 0.40961295 4278255360
0.031886976 0.02522843 0.41007259 4278255360
0.03169252 0.025258968 0.41053221 4278255360
0.03149806 0.025289506 0.41099182 4278255360
0.031303603 0.025320044 0.41145146 4278255360
0.031109147 0.025350582 0.41191107 4278255360
0.03091469 0.02538112 0.41237071 4278255360
0.030720234 0.025411658 0.41283032 4278255360
0.030525777 0.025442196 0.41328993 4278255360
0.030331321 0.025472734 0.41374958 4278255360
0.030136863 0.025503272 0.41420919 4278255360
0.029942406 0.02553381 0.41466883 4278255360
0.02974795 0.025564348 0.41512844 4278255360
0.029553493 0.025594886 0.41558805 4278255360
0.029359035 0.025625424 0.41604769 4278255360
0.029164579 0.025655963 0.4165073 4278255360
0.028970122 0.025686501 0.41696694 4278255360
0.028775666 0.025717039 0.41742656 4278255360
0.028581209 0.025747577 0.41788617 4278255360
0.028386753 0.025778115 0.41834581 4278255360
0.028192295 0.025808655 0.41880542 4278255360
0.027997838 0.025839193 0.41926506 4278255360
0.027803382 0.025869731 0.41972467 4278255360
0.027608924 0.025900269 0.42018431 4278255360
0.027414467 0.025930807 0.42064393 4278255360
0.027220011 0.025961345 0.42110354 4278255360
0.027025554 0.025991883 0.42156318 4278255360
0.026831098 0.026022421 0.42202279 4278255360
0.02663664 0.026052959 0.42248243 4278255360
0.026442183 0.026083497 0.42294204 4278255360
0.026247727 0.026114035 0.42340165 4278255360
0.026053268 0.026144573 0.42386129 4278255360
0.025858812 0.026175112 0.42432091 4278255360
0.025664356 0.02620565 0.42478055 4278255360
0.025469899 0.026236188 0.42524016 4278255360
0.025275443 0.026266726 0.42569977 4278255360
0.025080986 0.026297264 0.42615941 4278255360
0.024886528 0.026327802 0.42661902 4278255360
0.024692072 0.02635834 0.42707866 4278255360
0.024497613 0.026388878 0.42753828 4278255360
0.024303157 0.026419416 0.42799789 4278255360
0.0241087 0.026449956 0.42845753 4278255360
0.023914244 0.026480494 0.42891714 4278255360
0.023719788 0.026511032 0.42937678 4278255360
0.023525331 0.02654157 0.42983639 4278255360
0.023330873 0.026572108 0.43029603 4278255360
0.023136416 0.026602646 0.43075565 4278255360
0.02294196 0.026633184 0.43121526 4278255360
0.022747504 0.026663722 0.4316749 4278255360
0.022553045 0.026694261 0.43213451 4278255360
0.022358589 0.026724799 0.43259415 4278255360
0.022164132 0.026755337 0.43305376 4278255360
0.021969676 0.026785875 0.43351337 4278255360
0.02177522 0.026816413 0.43397301 4278255360
0.021580763 0.026846951 0.43443263 4278255360
0.021386307 0.026877489 0.43489227 4278255360
0.021191847 0.026908027 0.43535188 4278255360
0.02099739 0.026938565 0.43581152 4278255360
0.020802934 0.026969103 0.43627113 4278255360
0.020608477 0.026999641 0.43673074 4278255360
0.020414021 0.027030181 0.43719038 4278255360
0.020219564 0.027060717 0.43765 4278255360
0.020025106 0.027091257 0.43810964 4278255360
0.01983065 0.027121795 0.43856925 4278255360
0.019636193 0.027152333 0.43902886 4278255360
0.019441737 0.027182871 0.4394885 4278255360
0.019247279 0.02721341 0.43994811 4278255360
0.019052822 0.027243948 0.44040775 4278255360
0.018858366 0.027274486 0.44086736 4278255360
0.018663909 0.027305024 0.44132698 4278255360
0.018469453 0.027335562 0.44178662 4278255360
0.018274995 0.0273661 0.44224623 4278255360
0.018080538 0.027396638 0.44270587 4278255360
0.017886082 0.027427176 0.44316548 4278255360
0.017691625 0.027457714 0.44362509 4278255360
0.017497167 0.027488252 0.44408473 4278255360
0.017302711 0.02751879 0.44454435 4278255360
0.017108254 0.027549328 0.44500399 4278255360
0.016913798 0.027579866 0.4454636 4278255360
0.016719341 0.027610404 0.44592321 4278255360
0.016524885 0.027640942 0.44638285 4278255360
0.016330427 0.027671482 0.44684246 4278255360
0.01613597 0.02770202 0.4473021 4278255360
0.015941514 0.027732559 0.44776171 4278255360
0.015747055 0.027763097 0.44822133 4278255360
0.015552599 0.027793635 0.44868097 4278255360
0.015358143 0.027824173 0.44914058 4278255360
0.015163684 0.027854711 0.44960022 4278255360
0.014969228 0.027885249 0.45005983 4278255360
0.014774771 0.027915787 0.45051947 4278255360
0.014580315 0.027946325 0.45097908 4278255360
