# .PCD v0.7 - Point Cloud Data file format
VERSION 0.7
FIELDS x y z rgb
SIZE 4 4 4 4
TYPE F F F U
COUNT 1 1 1 1
WIDTH 629
HEIGHT 1
VIEWPOINT 0 0 0 1 0 0 0
POINTS 629
DATA ascii
-0.04805835 0.012507609 0.49500003 4279717932
-0.046450593 0.012507609 0.49500003 4278865703
-0.044933423 0.012532877 0.49600002 4278866470
-0.043409754 0.012558145 0.49700001 4278735652
-0.041963689 0.01260868 0.49900001 4282814566
-0.040423781 0.012633948 0.5 4281695833
-0.038954984 0.012684484 0.50200003 4280050238
-0.037398838 0.012709752 0.50300002 4280049725
-0.035836194 0.012735019 0.50400001 4280378430
-0.034199201 0.012735019 0.50400001 4280509244
-0.032626819 0.012760287 0.505 4280838209
-0.030925216 0.012735019 0.50400001 4281692235
-0.029288223 0.012735019 0.50400001 4281889616
-0.047961261 0.014087398 0.49400002 4279716902
-0.046450593 0.014115916 0.49500003 4279062050
-0.044933423 0.014144432 0.49600002 4279325222
-0.043409754 0.014172949 0.49700001 4279919156
-0.041963689 0.014229983 0.49900001 4279130410
-0.040423781 0.014258499 0.5 4279328302
-0.038954984 0.014315534 0.50200003 4279920439
-0.037398838 0.014344051 0.50300002 4280380990
-0.035836194 0.014372568 0.50400001 4279788853
-0.034267057 0.014401084 0.505 4279262509
-0.032626819 0.014401084 0.505 4279723060
-0.030986575 0.014401084 0.505 4279788853
-0.029346334 0.014401084 0.505 4279723060
-0.027706094 0.014401084 0.505 4279854646
-0.026065852 0.014401084 0.505 4279525681
-0.024425613 0.014401084 0.505 4280051512
-0.022785371 0.014401084 0.505 4280183100
-0.021145131 0.014401084 0.505 4280116537
-0.049565777 0.015692456 0.49400002 4279778850
-0.047961261 0.015692456 0.49400002 4279847205
-0.046450593 0.015724221 0.49500003 4279191840
-0.044933423 0.015755987 0.49600002 4279258144
-0.043409754 0.015787752 0.49700001 4279194404
-0.041963689 0.015851285 0.49900001 4279391783
-0.040423781 0.015883051 0.5 4279064615
-0.038954984 0.015946584 0.50200003 4279328300
-0.037398838 0.015978349 0.50300002 4279262507
-0.035836194 0.016010115 0.50400001 4279130921
-0.034267057 0.01604188 0.505 4279262507
-0.032626819 0.01604188 0.505 4279262507
-0.030986575 0.01604188 0.505 4279065128
-0.029346334 0.01604188 0.505 4278867749
-0.02776096 0.016073648 0.50600004 4278671140
-0.02611747 0.016073648 0.50600004 4279000105
-0.024473982 0.016073648 0.50600004 4278802726
-0.022830492 0.016073648 0.50600004 4278868519
-0.021228876 0.016105415 0.50700003 4279395117
-0.014872964 0.016359543 0.51500005 4279197484
-0.013225874 0.016391309 0.51600003 4279854648
-0.011549906 0.016391309 0.51600003 4280051773
-0.0098739369 0.016391309 0.51600003 4279327539
-0.0082138544 0.016423075 0.51700002 4280048695
-0.052667972 0.017262496 0.49300003 4280431395
-0.049565777 0.01729751 0.49400002 4279778850
-0.047961261 0.01729751 0.49400002 4279649572
-0.046450593 0.017332526 0.49500003 4279322912
-0.044933423 0.017367542 0.49600002 4279257633
-0.043409754 0.017402556 0.49700001 4279260197
-0.041963689 0.017472588 0.49900001 4279194918
-0.040504631 0.017542619 0.50100005 4279590959
-0.038954984 0.017577633 0.50200003 4279393580
-0.037398838 0.017612647 0.50300002 4279327787
-0.035836194 0.017647663 0.50400001 4279064615
-0.034267057 0.017682677 0.505 4279064615
-0.032626819 0.017682677 0.505 4278933029
-0.031047937 0.017717695 0.50600004 4278206481
-0.029404448 0.017717695 0.50600004 4279194918
-0.02776096 0.017717695 0.50600004 4278867236
-0.026169086 0.017752709 0.50700003 4278933542
-0.024522349 0.017752709 0.50700003 4278999589
-0.02292073 0.017787723 0.50800002 4278999074
-0.021270746 0.017787723 0.50800002 4279130660
-0.014901844 0.018067846 0.51600003 4279065128
-0.013251506 0.01810286 0.51700002 4278999335
-0.011572289 0.01810286 0.51700002 4279000105
-0.0099122068 0.018137876 0.51800001 4279329070
-0.0082456302 0.018172892 0.51900005 4278539554
-0.006597836 0.018277936 0.52200001 4279329072
-0.0049117706 0.018312952 0.523 4279788855
-0.0032253526 0.018382983 0.52500004 4280051260
-0.049565777 0.018902566 0.49400002 4279779363
-0.047961261 0.018902566 0.49400002 4279979307
-0.046450593 0.018940832 0.49500003 4279322914
-0.044933423 0.018979095 0.49600002 4278994461
-0.043409754 0.019017359 0.49700001 4279062818
-0.041963689 0.019093888 0.49900001 4279129125
-0.040504631 0.019170418 0.50100005 4279064615
-0.038954984 0.019208683 0.50200003 4279327787
-0.037398838 0.019246945 0.50300002 4279393580
-0.035836194 0.019285209 0.50400001 4278998822
-0.034267057 0.019323474 0.505 4278933031
-0.032691427 0.01936174 0.50600004 4278933031
-0.031047937 0.01936174 0.50600004 4278206229
-0.029404448 0.01936174 0.50600004 4279522601
-0.027815823 0.019400004 0.50700003 4279326758
-0.026220702 0.019438267 0.50800002 4279786795
-0.024619082 0.019476531 0.509 4279721002
-0.023010971 0.019514797 0.51000005 4279458082
-0.021396363 0.019553062 0.51100004 4279786277
-0.019852502 0.019667853 0.514 4279260703
-0.018253781 0.019744383 0.51600003 4279064097
-0.016609939 0.019782646 0.51700002 4279064867
-0.014930722 0.019782646 0.51700002 4278868003
-0.013277137 0.01982091 0.51800001 4278933542
-0.011617057 0.019859176 0.51900005 4278867749
-0.0099504786 0.01989744 0.52000004 4278933542
-0.0082774051 0.019935703 0.52100003 4278933542
-0.0066231154 0.020050498 0.52400005 4278933542
-0.0049399454 0.020127025 0.52600002 4278999335
-0.003243783 0.020203553 0.528 4278867749
-0.0015404202 0.02035661 0.53200001 4279197484
0.00018822154 0.020433141 0.53400004 4279460656
-0.049565777 0.020507623 0.49400002 4279649059
-0.047961261 0.020507623 0.49400002 4279716389
-0.046450593 0.020549137 0.49500003 4279323428
-0.044933423 0.02059065 0.49600002 4279521320
-0.043409754 0.020632163 0.49700001 4279983150
-0.041963689 0.02071519 0.49900001 4278668828
-0.040423781 0.020756703 0.5 4279327271
-0.038954984 0.02083973 0.50200003 4279524650
-0.037398838 0.020881243 0.50300002 4279327789
-0.035836194 0.020922758 0.50400001 4278933031
-0.034267057 0.02096427 0.505 4278998824
-0.032691427 0.021005785 0.50600004 4278735652
-0.031047937 0.021005785 0.50600004 4278200577
-0.029462559 0.021047298 0.50700003 4280112944
-0.027870687 0.021088811 0.50800002 4278201358
-0.026272316 0.021130323 0.509 4278593552
-0.024667453 0.02117184 0.51000005 4278790420
-0.02305609 0.021213353 0.51100004 4278592271
-0.021438234 0.021254865 0.51200002 4278856978
-0.019891128 0.021379406 0.51500005 4278198791
-0.018289156 0.021462431 0.51700002 4279717672
-0.016642066 0.021503944 0.51800001 4278200064
-0.014988483 0.02154546 0.51900005 4278202120
-0.0133284 0.021586973 0.52000004 4278665498
-0.011661824 0.021628486 0.52100003 4278995746
-0.0099887494 0.021669999 0.52200001 4279719467
-0.0083250673 0.021753026 0.52400005 4279983150
-0.0066483943 0.021836052 0.52600002 4279260197
-0.0049587279 0.021919077 0.528 4279918381
-0.0032560702 0.022002107 0.53000003 4279260451
-0.0015462114 0.022168159 0.53400004 4278866720
0.00018857402 0.022209672 0.53500003 4279064869
0.0019406568 0.022375727 0.53900003 4278933796
0.0036981781 0.02241724 0.54000002 4279263277
0.0054520988 0.02241724 0.54000002 4279982902
-0.051170286 0.022112679 0.49400002 4280170789
-0.049565777 0.022112679 0.49400002 4279715367
-0.04805835 0.022157442 0.49500003 4279716648
-0.046450593 0.022157442 0.49500003 4279126562
-0.044933423 0.022202205 0.49600002 4279258918
-0.043409754 0.022246966 0.49700001 4279194404
-0.041963689 0.022336492 0.49900001 4279195172
-0.040423781 0.022381254 0.5 4279327271
-0.038954984 0.02247078 0.50200003 4279524650
-0.037398838 0.022515543 0.50300002 4279327017
-0.035836194 0.022560304 0.50400001 4279063847
-0.034267057 0.022605065 0.505 4279064617
-0.032691427 0.02264983 0.50600004 4279130412
-0.031047937 0.02264983 0.50600004 4278201606
-0.029462559 0.022694593 0.50700003 4280704567
-0.027870687 0.022739355 0.50800002 4278790931
-0.026272316 0.022784116 0.509 4278657550
-0.024715818 0.022873642 0.51100004 4278854418
-0.023101209 0.022918405 0.51200002 4278854418
-0.021521976 0.023007929 0.514 4278920211
-0.01992975 0.023097456 0.51600003 4278986004
-0.018324532 0.02318698 0.51800001 4280309809
-0.016674194 0.023231743 0.51900005 4279718699
-0.015017362 0.023276506 0.52000004 4279652906
-0.013354031 0.023321267 0.52100003 4279587113
-0.01170659 0.023410792 0.523 4280244530
-0.010027021 0.023455556 0.52400005 4279915565
-0.0083568422 0.023545079 0.52600002 4279783725
-0.0066736727 0.023634603 0.528 4280046897
-0.0049775112 0.023724129 0.53000003 4278665244
-0.0032745011 0.023858419 0.53300005 4278203665
-0.0015491069 0.023947943 0.53500003 4278203405
0.00018927896 0.024037465 0.537 4278201606
0.0019406568 0.024126993 0.53900003 4278931748
0.0036981781 0.024171755 0.54000002 4279129640
0.0054520988 0.024171755 0.54000002 4279259949
0.0072193649 0.024216516 0.54100001 4286755734
-0.051273871 0.02376575 0.49500003 4279578650
-0.049666114 0.02376575 0.49500003 4279583781
-0.04805835 0.02376575 0.49500003 4279650855
-0.046450593 0.02376575 0.49500003 4279192355
-0.044933423 0.02381376 0.49600002 4279258918
-0.043409754 0.023861771 0.49700001 4278865441
-0.041963689 0.023957795 0.49900001 4279195431
-0.040423781 0.024005806 0.5 4279787822
-0.038954984 0.024101831 0.50200003 4279656236
-0.037398838 0.024149843 0.50300002 4279261224
-0.035836194 0.024197852 0.50400001 4279129638
-0.034267057 0.024245864 0.505 4278998824
-0.032691427 0.024293877 0.50600004 4279459375
-0.031047937 0.024293877 0.50600004 4279191842
-0.029462559 0.024341889 0.50700003 4279388707
-0.027925549 0.02443791 0.509 4281028145
-0.026323933 0.024485925 0.51000005 4278528013
-0.024715818 0.024533935 0.51100004 4278198281
-0.023146328 0.024629958 0.51300001 4279447580
-0.021563848 0.024725983 0.51500005 4278987799
-0.019968374 0.024822004 0.51700002 4278196484
-0.018324532 0.024870016 0.51800001 4280243762
-0.016706323 0.024966041 0.52000004 4278202125
-0.015046241 0.025014052 0.52100003 4278861857
-0.013405294 0.025110073 0.523 4278204181
-0.011728975 0.025158087 0.52400005 4279653424
-0.010065292 0.02525411 0.52600002 4278203406
-0.0083886171 0.025350131 0.528 4278732574
-0.0066989521 0.025446156 0.53000003 4279522088
-0.0049962942 0.025542177 0.53200001 4279390502
-0.0032806445 0.025638202 0.53400004 4279325222
-0.0015548979 0.025782235 0.537 4279194406
0.00018963145 0.02583025 0.53800005 4278732572
0.0019442573 0.025926271 0.54000002 4278800164
0.0037050266 0.025974283 0.54100001 4279260713
0.0054621953 0.025974283 0.54100001 4279456556
0.0072193649 0.025974283 0.54100001 4286690454
-0.049666114 0.025374055 0.49500003 4279781412
-0.04805835 0.025374055 0.49500003 4279650596
-0.046544429 0.025425315 0.49600002 4279323428
-0.044933423 0.025425315 0.49600002 4279521318
-0.043409754 0.025476575 0.49700001 4279325222
-0.041879594 0.025527837 0.49800003 4279194920
-0.040423781 0.025630357 0.5 4279261224
-0.038877383 0.02568162 0.50100005 4279458603
-0.037398838 0.02578414 0.50300002 4279196201
-0.035836194 0.0258354 0.50400001 4279064617
-0.034267057 0.02588666 0.505 4279261226
-0.032691427 0.025937922 0.50600004 4279786543
-0.031109296 0.025989184 0.50700003 4280441141
-0.02952067 0.026040444 0.50800002 4278663960
-0.027925549 0.026091704 0.509 4278922004
-0.026323933 0.026142966 0.51000005 4279382555
-0.024764186 0.026245486 0.51200002 4278196999
-0.023191446 0.026348006 0.514 4278592273
-0.021563848 0.02639927 0.51500005 4281488446
-0.019968374 0.02650179 0.51700002 4278196737
-0.018359909 0.026604313 0.51900005 4280505651
-0.01673845 0.026706833 0.52100003 4278397970
-0.01507512 0.026758093 0.52200001 4278728218
-0.013430927 0.026860617 0.52400005 4280111408
-0.011773741 0.026963137 0.52600002 4278202380
-0.010103562 0.027065657 0.528 4278467865
-0.0084045054 0.027116919 0.52900004 4278402326
-0.0067242309 0.027270699 0.53200001 4278402324
-0.0050150775 0.027373223 0.53400004 4279717670
-0.0032929312 0.027475743 0.53600001 4278862361
-0.0015577936 0.027578266 0.53800005 4279653674
0.00018998391 0.027629526 0.53900003 4278203402
0.0019442573 0.027680786 0.54000002 4279063336
0.0037050266 0.027732046 0.54100001 4279261228
0.0054621953 0.027732046 0.54100001 4279194156
0.0072193649 0.027732046 0.54100001 4286690456
-0.049766447 0.02703687 0.49600002 4279650594
-0.048155438 0.02703687 0.49600002 4279585314
-0.046544429 0.02703687 0.49600002 4279389219
-0.044933423 0.02703687 0.49600002 4279587111
-0.043409754 0.027091378 0.49700001 4279325992
-0.041879594 0.027145889 0.49800003 4279391785
-0.040423781 0.027254907 0.5 4279589676
-0.038877383 0.02730942 0.50100005 4279589676
-0.037324488 0.027363928 0.50200003 4279130408
-0.035765093 0.027418438 0.50300002 4279130410
-0.034199201 0.027472947 0.50400001 4279063847
-0.032626819 0.027527457 0.505 4279522601
-0.031109296 0.027636478 0.50700003 4279915565
-0.02952067 0.027690986 0.50800002 4278199555
-0.027925549 0.027745496 0.509 4279118101
-0.026375549 0.027854517 0.51100004 4279183381
-0.024764186 0.027909027 0.51200002 4279248152
-0.023191446 0.028018044 0.514 4279116566
-0.021605721 0.028127067 0.51600003 4278788884
-0.020006998 0.028236084 0.51800001 4279053853
-0.018395284 0.028345106 0.52000004 4280110893
-0.016770577 0.028454125 0.52200001 4278266124
-0.015104 0.028508633 0.523 4280768307
-0.013456558 0.028617654 0.52500004 4279716902
-0.011796124 0.028726673 0.52700001 4279191842
-0.010122699 0.028835695 0.52900004 4279521066
-0.0084362803 0.028944712 0.53100002 4279061539
-0.0067368713 0.029053735 0.53300005 4279258148
-0.005024469 0.029162752 0.53500003 4278202634
-0.0032990747 0.02927177 0.537 4278204947
-0.0015606891 0.029380793 0.53900003 4279784490
0.00019033639 0.029435301 0.54000002 4278337046
0.0019478577 0.02948981 0.54100001 4279456810
0.0037118753 0.029544322 0.54200006 4279392301
0.0054621953 0.02948981 0.54100001 4278995494
0.0072193649 0.02948981 0.54100001 4287082648
-0.049766447 0.028648423 0.49600002 4279584549
-0.048155438 0.028648423 0.49600002 4279783465
-0.046544429 0.028648423 0.49600002 4279652906
-0.045024011 0.028706182 0.49700001 4279851055
-0.043409754 0.028706182 0.49700001 4279392301
-0.041963689 0.028821699 0.49900001 4279326506
-0.040423781 0.028879458 0.5 4279393582
-0.038877383 0.028937221 0.50100005 4279459375
-0.037324488 0.028994977 0.50200003 4279130408
-0.035765093 0.029052736 0.50300002 4278735650
-0.034199201 0.029110495 0.50400001 4279326506
-0.032691427 0.029226014 0.50600004 4278732572
-0.031109296 0.029283771 0.50700003 4280508213
-0.02952067 0.02934153 0.50800002 4279851053
-0.027925549 0.029399289 0.509 4280835381
-0.026375549 0.029514808 0.51100004 4280505651
-0.024812553 0.029630324 0.51300001 4280570676
-0.023236569 0.029745845 0.51500005 4279977256
-0.021647591 0.029861361 0.51700002 4279845416
-0.020006998 0.02991912 0.51800001 4279912492
-0.018395284 0.030034639 0.52000004 4278200848
-0.016770577 0.030150155 0.52200001 4278199307
-0.015132881 0.030265674 0.52400005 4278198788
-0.01348219 0.030381192 0.52600002 4278198016
-0.011818508 0.030496707 0.528 4278199812
-0.010141834 0.030612227 0.53000003 4278201612
-0.0084521677 0.030727744 0.53200001 4278202897
-0.0067495103 0.030843263 0.53400004 4278467351
-0.0050338604 0.030958779 0.53600001 4279059742
-0.0033052186 0.0310743 0.53800005 4279257121
-0.0015635845 0.031189816 0.54000002 4279915051
0.00019068885 0.031247575 0.54100001 4279257633
0.0019514584 0.031305335 0.54200006 4279522599
0.0037118753 0.031305335 0.54200006 4279523369
-0.05470955 0.030320985 0.49700001 4281751105
-0.053095296 0.030320985 0.49700001 4279843621
-0.046544429 0.030259978 0.49600002 4279652652
-0.045024011 0.030320985 0.49700001 4279982387
-0.043409754 0.030320985 0.49700001 4279392047
-0.041963689 0.030443002 0.49900001 4279129642
-0.040423781 0.030504009 0.5 4279130412
-0.038877383 0.03056502 0.50100005 4279196203
-0.037324488 0.030626027 0.50200003 4279064617
-0.035765093 0.030687034 0.50300002 4279261224
-0.034199201 0.030748041 0.50400001 4279392297
-0.032691427 0.03087006 0.50600004 4279852334
-0.031109296 0.030931067 0.50700003 4279522599
-0.02952067 0.030992074 0.50800002 4279457576
-0.027980415 0.031114092 0.51000005 4279194918
-0.026375549 0.031175099 0.51100004 4279260713
-0.024812553 0.031297114 0.51300001 4279391785
-0.023236569 0.031419132 0.51500005 4279391785
-0.021647591 0.031541146 0.51700002 4279917359
-0.020045621 0.031663164 0.51900005 4279588394
-0.01843066 0.031785179 0.52100003 4279522601
-0.016802704 0.031907193 0.523 4279653674
-0.015161759 0.032029212 0.52500004 4279653674
-0.013507821 0.032151226 0.52700001 4279719467
-0.011840892 0.032273244 0.52900004 4279522090
-0.01016097 0.032395259 0.53100002 4279719469
-0.0084680552 0.032517277 0.53300005 4279258918
-0.0067621497 0.032639291 0.53500003 4279652906
-0.0050432519 0.032761306 0.537 4280244530
-0.0033113621 0.032883324 0.53900003 4279783465
-0.0015635845 0.032944329 0.54000002 4280244530
0.00019068885 0.033005338 0.54100001 4280047664
0.0019514584 0.033066347 0.54200006 4279588394
0.0037187238 0.033127356 0.54300004 4279522601
-0.043497097 0.03200005 0.49800003 4280966463
-0.041963689 0.032064304 0.49900001 4280572989
-0.040423781 0.032128561 0.5 4279982135
-0.038877383 0.032192823 0.50100005 4279917109
-0.037324488 0.032257076 0.50200003 4279653937
-0.035765093 0.032321334 0.50300002 4279785523
-0.034267057 0.032449845 0.505 4279522603
-0.032691427 0.032514106 0.50600004 4279785775
-0.031109296 0.032578364 0.50700003 4279785775
-0.02952067 0.032642618 0.50800002 4279457580
-0.027980415 0.032771137 0.51000005 4279326508
-0.026375549 0.03283539 0.51100004 4279392301
-0.024812553 0.032963905 0.51300001 4279523373
-0.023236569 0.033092421 0.51500005 4279523373
-0.021647591 0.033220932 0.51700002 4279786543
-0.020045621 0.033349451 0.51900005 4279325992
-0.01843066 0.033477962 0.52100003 4279260201
-0.016802704 0.033606477 0.523 4279523373
-0.015161759 0.033734992 0.52500004 4279391787
-0.013507821 0.033863503 0.52700001 4279391787
-0.011863275 0.034056276 0.53000003 4279391787
-0.010180105 0.034184791 0.53200001 4279194408
-0.0084839426 0.034313306 0.53400004 4279391787
-0.0067747892 0.034441818 0.53600001 4279786545
-0.0050526438 0.034570336 0.53800005 4279522603
-0.0033175056 0.034698848 0.54000002 4279851053
-0.00156648 0.034763105 0.54100001 4279719467
0.00019104134 0.034827363 0.54200006 4279916846
0.0019550589 0.03489162 0.54300004 4279981871
0.0037187238 0.03489162 0.54300004 4280571705
-0.038877383 0.033820622 0.50100005 4285766274
-0.037324488 0.033888128 0.50200003 4284187756
-0.035836194 0.034023136 0.50400001 4283727207
-0.034267057 0.034090642 0.505 4282477908
-0.032691427 0.034158152 0.50600004 4281820491
-0.031109296 0.034225658 0.50700003 4281030977
-0.02952067 0.034293164 0.50800002 4280702012
-0.027980415 0.034428179 0.51000005 4280504631
-0.026375549 0.034495682 0.51100004 4280965180
-0.024812553 0.034630693 0.51300001 4280505912
-0.023236569 0.034765709 0.51500005 4279980338
-0.021647591 0.034900717 0.51700002 4280375096
-0.020045621 0.035035733 0.51900005 4280112438
-0.01843066 0.035170745 0.52100003 4279915059
-0.016802704 0.035305757 0.523 4280177717
-0.015161759 0.035440769 0.52500004 4279782959
-0.013533452 0.035643287 0.528 4279651887
-0.011885659 0.035845805 0.53100002 4280045361
-0.010199241 0.035980821 0.53300005 4279650603
-0.0084839426 0.036048327 0.53400004 4279388203
-0.0067747892 0.036183339 0.53600001 4279585582
-0.0050620353 0.036385857 0.53900003 4279913777
-0.0033175056 0.036453363 0.54000002 4280769088
-0.00156648 0.036520869 0.54100001 4282149456
0.00019104134 0.036588378 0.54200006 4283531109
0.0019550589 0.036655884 0.54300004 4286686611
-0.011908042 0.037641834 0.53200001 4287542172
-0.010199241 0.037712593 0.53300005 4287542172
-0.0084839426 0.037783347 0.53400004 4287476379
-0.0067747892 0.037924856 0.53600001 4287213207
-0.0050620353 0.038137123 0.53900003 4287015058
-0.0033175056 0.038207877 0.54000002 4286949267
-0.024186825 0.02498029 0.51404458 4294967295
-0.024186825 0.02498029 0.51404458 4294901760
-0.024186825 0.02498029 0.51454461 4294901760
-0.024186825 0.02498029 0.51504457 4294901760
-0.024186825 0.02498029 0.51554459 4294901760
-0.024186825 0.02498029 0.51604456 4294901760
-0.024186825 0.02498029 0.51654458 4294901760
-0.024186825 0.02498029 0.5170446 4294901760
-0.024186825 0.02498029 0.51754457 4294901760
-0.024186825 0.02498029 0.51804459 4294901760
-0.024186825 0.02498029 0.51854455 4294901760
-0.024186825 0.02498029 0.51904458 4294901760
-0.024186825 0.02498029 0.5195446 4294901760
-0.024186825 0.02498029 0.52004457 4294901760
-0.024186825 0.02498029 0.52054459 4294901760
-0.024186825 0.02498029 0.52104461 4294901760
-0.024186825 0.02498029 0.52154458 4294901760
-0.024186825 0.02498029 0.5220446 4294901760
-0.024186825 0.02498029 0.52254456 4294901760
-0.024186825 0.02498029 0.52304459 4294901760
-0.024186825 0.02498029 0.52354461 4294901760
-0.024186825 0.02498029 0.52404457 4294901760
-0.024186825 0.02498029 0.5245446 4294901760
-0.024186825 0.02498029 0.52504456 4294901760
-0.024186825 0.02498029 0.52554458 4294901760
-0.024186825 0.02498029 0.52604461 4294901760
-0.024186825 0.02498029 0.52654457 4294901760
-0.024186825 0.02498029 0.52704459 4294901760
-0.024186825 0.02498029 0.52754456 4294901760
-0.024186825 0.02498029 0.52804458 4294901760
-0.024186825 0.02498029 0.5285446 4294901760
-0.024186825 0.02498029 0.52904457 4294901760
-0.024186825 0.02498029 0.52954459 4294901760
-0.024186825 0.02498029 0.53004456 4294901760
-0.024186825 0.02498029 0.53054458 4294901760
-0.024186825 0.02498029 0.5310446 4294901760
-0.024186825 0.02498029 0.53154457 4294901760
-0.024186825 0.02498029 0.53204459 4294901760
-0.024186825 0.02498029 0.53254461 4294901760
-0.024186825 0.02498029 0.53304458 4294901760
-0.024186825 0.02498029 0.5335446 4294901760
-0.024186825 0.02498029 0.53404456 4294901760
-0.024186825 0.02498029 0.53454459 4294901760
-0.024186825 0.02498029 0.53504461 4294901760
-0.024186825 0.02498029 0.53554457 4294901760
-0.024186825 0.02498029 0.5360446 4294901760
-0.024186825 0.02498029 0.53654456 4294901760
-0.024186825 0.02498029 0.53704458 4294901760
-0.024186825 0.02498029 0.53754461 4294901760
-0.024186825 0.02498029 0.53804457 4294901760
-0.024186825 0.02498029 0.5385446 4294901760
-0.024186825 0.02498029 0.53904462 4294901760
-0.024186825 0.02498029 0.53954458 4294901760
-0.024186825 0.02498029 0.54004461 4294901760
-0.024186825 0.02498029 0.54054457 4294901760
-0.024186825 0.02498029 0.54104459 4294901760
-0.024186825 0.02498029 0.54154462 4294901760
-0.024186825 0.02498029 0.54204458 4294901760
-0.024186825 0.02498029 0.5425446 4294901760
-0.024186825 0.02498029 0.54304457 4294901760
-0.024186825 0.02498029 0.54354459 4294901760
-0.024186825 0.02498029 0.54404461 4294901760
-0.024186825 0.02498029 0.54454458 4294901760
-0.024186825 0.02498029 0.5450446 4294901760
-0.024186825 0.02498029 0.54554456 4294901760
-0.024186825 0.02498029 0.54604459 4294901760
-0.024186825 0.02498029 0.54654461 4294901760
-0.024186825 0.02498029 0.54704458 4294901760
-0.024186825 0.02498029 0.5475446 4294901760
-0.024186825 0.02498029 0.54804456 4294901760
-0.024186825 0.02498029 0.54854459 4294901760
-0.024186825 0.02498029 0.54904461 4294901760
-0.024186825 0.02498029 0.54954457 4294901760
-0.024186825 0.02498029 0.5500446 4294901760
-0.024186825 0.02498029 0.55054462 4294901760
-0.024186825 0.02498029 0.55104458 4294901760
-0.024186825 0.02498029 0.55154461 4294901760
-0.024186825 0.02498029 0.55204457 4294901760
-0.024186825 0.02498029 0.55254459 4294901760
-0.024186825 0.02498029 0.55304462 4294901760
-0.024186825 0.02498029 0.55354458 4294901760
-0.024186825 0.02498029 0.5540446 4294901760
-0.024186825 0.02498029 0.55454457 4294901760
-0.024186825 0.02498029 0.55504459 4294901760
-0.024186825 0.02498029 0.55554461 4294901760
-0.024186825 0.02498029 0.55604458 4294901760
-0.024186825 0.02498029 0.5565446 4294901760
-0.024186825 0.02498029 0.55704463 4294901760
-0.024186825 0.02498029 0.55754459 4294901760
-0.024186825 0.02498029 0.55804461 4294901760
-0.024186825 0.02498029 0.55854458 4294901760
-0.024186825 0.02498029 0.5590446 4294901760
-0.024186825 0.02498029 0.55954462 4294901760
-0.024186825 0.02498029 0.56004459 4294901760
-0.024186825 0.02498029 0.56054461 4294901760
-0.024186825 0.02498029 0.56104457 4294901760
-0.024186825 0.02498029 0.5615446 4294901760
-0.024186825 0.02498029 0.56204462 4294901760
-0.024186825 0.02498029 0.56254458 4294901760
-0.024186825 0.02498029 0.56304461 4294901760
-0.024186825 0.02498029 0.56354457 4294901760
-0.024186825 0.02498029 0.56404459 4294901760
-0.024186825 0.02498029 0.51404458 4278255360
-0.024465984 0.024968518 0.51445925 4278255360
-0.02474514 0.024956748 0.51487386 4278255360
-0.025024299 0.024944976 0.51528853 4278255360
-0.025303457 0.024933204 0.5157032 4278255360
-0.025582613 0.024921434 0.51611781 4278255360
-0.025861772 0.024909662 0.51653248 4278255360
-0.02614093 0.02489789 0.51694709 4278255360
-0.026420087 0.024886118 0.51736176 4278255360
-0.026699245 0.024874348 0.51777643 4278255360
-0.026978403 0.024862576 0.51819104 4278255360
-0.02725756 0.024850804 0.51860571 4278255360
-0.027536718 0.024839034 0.51902038 4278255360
-0.027815877 0.024827262 0.51943499 4278255360
-0.028095033 0.02481549 0.51984966 4278255360
-0.028374191 0.02480372 0.52026427 4278255360
-0.02865335 0.024791948 0.52067894 4278255360
-0.028932508 0.024780177 0.52109361 4278255360
-0.029211665 0.024768407 0.52150822 4278255360
-0.029490823 0.024756635 0.52192289 4278255360
-0.029769979 0.024744863 0.52233756 4278255360
-0.030049138 0.024733093 0.52275217 4278255360
-0.030328296 0.024721321 0.52316684 4278255360
-0.030607454 0.024709549 0.5235815 4278255360
-0.030886611 0.024697777 0.52399611 4278255360
-0.031165769 0.024686007 0.52441078 4278255360
-0.031444926 0.024674235 0.52482539 4278255360
-0.031724084 0.024662463 0.52524006 4278255360
-0.032003243 0.024650693 0.52565473 4278255360
-0.032282401 0.024638921 0.52606934 4278255360
-0.032561559 0.024627149 0.52648401 4278255360
-0.032840714 0.024615379 0.52689868 4278255360
-0.033119872 0.024603607 0.52731329 4278255360
-0.033399031 0.024591835 0.52772796 4278255360
-0.033678189 0.024580065 0.52814257 4278255360
-0.033957347 0.024568293 0.52855724 4278255360
-0.034236506 0.024556521 0.52897191 4278255360
-0.034515664 0.024544749 0.52938652 4278255360
-0.034794819 0.024532979 0.52980119 4278255360
-0.035073977 0.024521207 0.53021586 4278255360
-0.035353135 0.024509436 0.53063047 4278255360
-0.035632294 0.024497665 0.53104514 4278255360
-0.035911448 0.024485894 0.53145975 4278255360
-0.036190607 0.024474122 0.53187442 4278255360
-0.036469765 0.024462352 0.53228909 4278255360
-0.036748923 0.02445058 0.5327037 4278255360
-0.037028082 0.024438808 0.53311837 4278255360
-0.03730724 0.024427038 0.53353304 4278255360
-0.037586398 0.024415266 0.53394765 4278255360
-0.037865557 0.024403494 0.53436232 4278255360
-0.038144711 0.024391722 0.53477693 4278255360
-0.03842387 0.024379952 0.5351916 4278255360
-0.038703028 0.02436818 0.53560627 4278255360
-0.038982183 0.024356408 0.53602087 4278255360
-0.039261345 0.024344638 0.53643554 4278255360
-0.039540499 0.024332866 0.53685021 4278255360
-0.039819658 0.024321094 0.53726482 4278255360
-0.040098816 0.024309324 0.53767949 4278255360
-0.040377975 0.024297552 0.53809416 4278255360
-0.040657133 0.02428578 0.53850877 4278255360
-0.040936291 0.02427401 0.53892344 4278255360
-0.04121545 0.024262238 0.53933805 4278255360
-0.041494608 0.024250466 0.53975272 4278255360
-0.041773763 0.024238696 0.54016739 4278255360
-0.042052921 0.024226924 0.540582 4278255360
-0.042332076 0.024215152 0.54099667 4278255360
-0.042611238 0.024203381 0.54141134 4278255360
-0.042890392 0.024191611 0.54182595 4278255360
-0.043169551 0.024179839 0.54224062 4278255360
-0.043448709 0.024168067 0.54265523 4278255360
-0.043727867 0.024156297 0.5430699 4278255360
-0.044007026 0.024144525 0.54348457 4278255360
-0.044286184 0.024132753 0.54389918 4278255360
-0.044565342 0.024120983 0.54431385 4278255360
-0.044844501 0.024109211 0.54472852 4278255360
-0.045123655 0.024097439 0.54514313 4278255360
-0.045402814 0.024085669 0.5455578 4278255360
-0.045681968 0.024073897 0.54597247 4278255360
-0.045961127 0.024062125 0.54638708 4278255360
-0.046240285 0.024050353 0.54680175 4278255360
-0.046519443 0.024038583 0.54721636 4278255360
-0.046798602 0.024026811 0.54763103 4278255360
-0.04707776 0.024015039 0.54804569 4278255360
-0.047356918 0.024003269 0.5484603 4278255360
-0.047636077 0.023991497 0.54887497 4278255360
-0.047915235 0.023979725 0.54928964 4278255360
-0.048194394 0.023967955 0.54970425 4278255360
-0.048473548 0.023956183 0.55011892 4278255360
-0.048752706 0.023944411 0.55053353 4278255360
-0.049031861 0.023932641 0.5509482 4278255360
-0.049311019 0.023920869 0.55136287 4278255360
-0.049590178 0.023909098 0.55177748 4278255360
-0.049869336 0.023897327 0.55219215 4278255360
-0.050148495 0.023885556 0.55260682 4278255360
-0.050427653 0.023873784 0.55302143 4278255360
-0.050706811 0.023862012 0.5534361 4278255360
-0.05098597 0.023850242 0.55385071 4278255360
-0.051265128 0.02383847 0.55426538 4278255360
-0.051544286 0.023826698 0.55468005 4278255360
-0.051823441 0.023814928 0.55509466 4278255360
-0.052102599 0.023803156 0.55550933 4278255360
