# .PCD v0.7 - Point Cloud Data file format
VERSION 0.7
FIELDS x y z rgb
SIZE 4 4 4 4
TYPE F F F U
COUNT 1 1 1 1
WIDTH 1049
HEIGHT 1
VIEWPOINT 0 0 0 1 0 0 0
POINTS 1049
DATA ascii
0.00013112061 0.029946979 0.37200001 4280430370
0.0013357768 0.029866477 0.37100002 4281024304
0.0025407854 0.029866477 0.37100002 4280894510
0.0037356974 0.029785974 0.37 4279190556
0.0049374583 0.029785974 0.37 4279125531
0.0061226264 0.029705472 0.36900002 4279061019
0.0073211393 0.029705472 0.36900002 4278863640
0.0084965639 0.029624971 0.36800003 4278667031
0.0096918279 0.029624971 0.36800003 4278732824
0.012100057 0.032925576 0.40900001 4279061789
0.013461323 0.033006079 0.41000003 4278732570
0.014793002 0.033006079 0.41000003 4279193638
0.01616401 0.033086583 0.41100001 4279127845
0.01749894 0.033086583 0.41100001 4279260201
0.018879695 0.033167087 0.41200003 4279391787
-0.022721618 0.03274693 0.39100003 4286353796
-0.021396786 0.032663178 0.39000002 4286616709
-0.020130066 0.032663178 0.39000002 4282075968
-0.018814977 0.032579426 0.38900003 4283326289
-0.017506385 0.032495674 0.38800001 4281286188
-0.01624616 0.032495674 0.38800001 4282664486
-0.014947313 0.032411922 0.38700002 4282663971
-0.013690336 0.032411922 0.38700002 4284505655
-0.012401231 0.03232817 0.38600001 4283255842
-0.011147503 0.03232817 0.38600001 4283057959
-0.0098681422 0.032244418 0.38500002 4282335008
-0.0086176619 0.032244418 0.38500002 4280233239
-0.0073480452 0.032160666 0.384 4282669129
-0.0061008125 0.032160666 0.384 4284117858
-0.0048409407 0.032076914 0.38300002 4279840030
-0.0035124326 0.03132315 0.37400001 4280167196
-0.0022915362 0.031239398 0.37300003 4280365088
-0.001077136 0.031155644 0.37200001 4280496676
0.00013076815 0.031071894 0.37100002 4281220399
0.0013357768 0.031071894 0.37100002 4280892716
0.0025339369 0.03098814 0.37 4280631852
0.0037356974 0.03098814 0.37 4279124250
0.0049241139 0.03090439 0.36900002 4278993175
0.0061060339 0.03082064 0.36800003 4278862613
0.0073012989 0.03082064 0.36800003 4278731541
0.0084734745 0.030736886 0.36700001 4278797080
0.0096654911 0.030736886 0.36700001 4278731541
0.010857509 0.030736886 0.36700001 4278863640
0.013461323 0.034338214 0.41000003 4278535191
0.014793002 0.034338214 0.41000003 4278666779
0.01616401 0.034421962 0.41100001 4278732572
0.01749894 0.034421962 0.41100001 4278995744
0.018879695 0.034505714 0.41200003 4278732572
-0.022721618 0.034017328 0.39100003 4286288003
-0.021396786 0.033930324 0.39000002 4286353537
-0.02007845 0.033843327 0.38900003 4282470726
-0.018814977 0.033843327 0.38900003 4283062863
-0.017506385 0.033756323 0.38800001 4281416745
-0.01620429 0.033669323 0.38700002 4282861350
-0.014947313 0.033669323 0.38700002 4282663201
-0.013654959 0.033582322 0.38600001 4282926371
-0.012401231 0.033582322 0.38600001 4282663453
-0.011147503 0.033582322 0.38600001 4282531613
-0.0098681422 0.033495322 0.38500002 4281084171
-0.0086176619 0.033495322 0.38500002 4279639051
-0.0073480452 0.033408321 0.384 4282667845
-0.0061008125 0.033408321 0.384 4283984989
-0.0047524641 0.032712314 0.37600002 4280102432
-0.0035124326 0.032538313 0.37400001 4280167711
-0.0022915362 0.032451313 0.37300003 4279640854
-0.001077136 0.032364309 0.37200001 4280100381
0.00013076815 0.032277312 0.37100002 4281022766
0.0013321763 0.032190308 0.37 4280761391
0.0025339369 0.032190308 0.37 4280238377
0.0037256009 0.032103308 0.36900002 4279190043
0.0049107694 0.032016307 0.36800003 4278993177
0.0061060339 0.032016307 0.36800003 4278928154
0.007281458 0.031929307 0.36700001 4278862361
0.008450387 0.031842306 0.36600003 4278796566
0.0096654911 0.031929307 0.36700001 4278862359
0.010857509 0.031929307 0.36700001 4278599441
0.013461323 0.035670344 0.41000003 4278336529
0.014793002 0.035670344 0.41000003 4278600214
0.01616401 0.035757344 0.41100001 4278468628
0.01749894 0.035757344 0.41100001 4278666007
0.018879695 0.035844345 0.41200003 4278666007
-0.021396786 0.035197478 0.39000002 4286353283
-0.02007845 0.035107229 0.38900003 4282602312
-0.01876661 0.035016976 0.38800001 4282865484
-0.017506385 0.035016976 0.38800001 4280890147
-0.01620429 0.034926727 0.38700002 4283256108
-0.014947313 0.034926727 0.38700002 4283847473
-0.013654959 0.034836479 0.38600001 4282597408
-0.012401231 0.034836479 0.38600001 4282597408
-0.011118623 0.03474623 0.38500002 4282465822
-0.0098681422 0.03474623 0.38500002 4281149710
-0.0086176619 0.03474623 0.38500002 4280559899
-0.0073480452 0.034655977 0.384 4283325775
-0.006084925 0.034565728 0.38300002 4281155636
-0.0047651036 0.034024227 0.377 4280233504
-0.0035218243 0.03384373 0.37500003 4280232991
-0.0022915362 0.033663232 0.37300003 4279969049
-0.001077136 0.033572979 0.37200001 4280429346
0.00013076815 0.03348273 0.37100002 4280890667
0.0013321763 0.033392478 0.37 4281090608
0.0025339369 0.033392478 0.37 4280303911
0.0037256009 0.033302229 0.36900002 4279124250
0.0049107694 0.03321198 0.36800003 4278993177
0.006089441 0.033121731 0.36700001 4279059740
0.007261618 0.033031482 0.36600003 4278928154
0.0084272977 0.03294123 0.36500001 4278796568
0.0096654911 0.033121731 0.36700001 4278928152
0.010620832 0.032399733 0.35900003 4278862359
0.011786866 0.032399733 0.35900003 4278664980
0.012916816 0.03230948 0.35800001 4278599187
0.01616401 0.037092727 0.41100001 4278599187
0.01749894 0.037092727 0.41100001 4278200837
-0.021341924 0.03637113 0.38900003 4286353796
-0.02007845 0.03637113 0.38900003 4283392598
-0.01876661 0.036277629 0.38800001 4283194449
-0.017461266 0.036184132 0.38700002 4283391566
-0.01620429 0.036184132 0.38700002 4282466853
-0.014908689 0.036090631 0.38600001 4283585584
-0.013654959 0.036090631 0.38600001 4282796072
-0.012401231 0.036090631 0.38600001 4282269728
-0.011118623 0.035997134 0.38500002 4282400801
-0.0098681422 0.035997134 0.38500002 4283059244
-0.0085952785 0.035903633 0.384 4283257664
-0.0073480452 0.035903633 0.384 4283194185
-0.0060690381 0.035716638 0.38200003 4280167711
-0.0047777435 0.035342641 0.37800002 4280496676
-0.0035312155 0.035155643 0.37600002 4280232991
-0.0022976797 0.034968644 0.37400001 4279771670
-0.001077136 0.034781646 0.37200001 4280561702
0.00013076815 0.034688145 0.37100002 4281153839
0.0013321763 0.034594648 0.37 4280696618
0.0025339369 0.034594648 0.37 4280238629
0.0037256009 0.034501147 0.36900002 4278993177
0.004897425 0.034314148 0.36700001 4279058970
0.006072849 0.034220651 0.36600003 4278993947
0.0072417771 0.03412715 0.36500001 4278862361
0.0084042093 0.034033652 0.36400002 4278862361
0.0095074726 0.033753157 0.36100003 4278928154
0.010620832 0.033566158 0.35900003 4278862361
0.011786866 0.033566158 0.35900003 4278796566
0.012916816 0.033472657 0.35800001 4278664982
0.014040273 0.03337916 0.35700002 4278599189
0.015157233 0.033285659 0.35600001 4278198784
0.016313521 0.033285659 0.35600001 4279581469
0.01746981 0.033285659 0.35600001 4278596625
0.018626098 0.033285659 0.35600001 4278533394
-0.021341924 0.037635032 0.38900003 4286222210
-0.020026835 0.037538283 0.38800001 4286419076
-0.01876661 0.037538283 0.38800001 4283852379
-0.017461266 0.037441533 0.38700002 4282996810
-0.01620429 0.037441533 0.38700002 4284377946
-0.014908689 0.037344784 0.38600001 4280757532
-0.013654959 0.037344784 0.38600001 4280032012
-0.012401231 0.037344784 0.38600001 4279439875
-0.011147503 0.037344784 0.38600001 4279176704
-0.0098681422 0.037248038 0.38500002 4280559383
-0.0086176619 0.037248038 0.38500002 4282141499
-0.0073480452 0.037151288 0.384 4285564019
-0.006084925 0.037054539 0.38300002 4281878329
-0.0048030224 0.036764298 0.38000003 4280759335
-0.0035312155 0.036377303 0.37600002 4280364577
-0.0022976797 0.036183808 0.37400001 4279509268
-0.0010800316 0.036087058 0.37300003 4280298530
0.00013112061 0.035990309 0.37200001 4281285938
0.0013357768 0.035893563 0.37100002 4280696618
0.0025339369 0.035796814 0.37 4280172836
0.0037256009 0.035700068 0.36900002 4279058972
0.004897425 0.035506569 0.36700001 4278993179
0.006072849 0.035409823 0.36600003 4279124763
0.0072417771 0.035313074 0.36500001 4278664982
0.0084042093 0.035216328 0.36400002 4278928154
0.0094811358 0.034829333 0.36000001 4278928154
0.010620832 0.034732588 0.35900003 4278796568
0.011754032 0.034635838 0.35800001 4278664982
0.012916816 0.034635838 0.35800001 4278467603
0.014040273 0.034539089 0.35700002 4278664982
0.015157233 0.034442339 0.35600001 4279057174
0.016313521 0.034442339 0.35600001 4279055638
0.01746981 0.034442339 0.35600001 4278991383
0.018573778 0.034345593 0.35500002 4278663699
0.019726818 0.034345593 0.35500002 4278203661
0.020879859 0.034345593 0.35500002 4278664212
0.048349146 0.031926889 0.33000001 4284978292
0.05322009 0.031636644 0.32700002 4280437807
0.05461419 0.031830143 0.32900003 4280239401
0.055682778 0.031830143 0.32900003 4281226296
0.056923866 0.031926889 0.33000001 4281752640
0.057995707 0.031926889 0.33000001 4282607949
0.059246548 0.032023638 0.33100003 4284842604
-0.021341924 0.03889893 0.38900003 4286288003
-0.020026835 0.038798932 0.38800001 4287011726
-0.018718243 0.038698938 0.38700002 4282602312
-0.017461266 0.038698938 0.38700002 4282997070
-0.01620429 0.038698938 0.38700002 4282274371
-0.014908689 0.038598936 0.38600001 4286156158
-0.013654959 0.038598936 0.38600001 4283850573
-0.012401231 0.038598936 0.38600001 4281942576
-0.011147503 0.038598936 0.38600001 4282404158
-0.0098937741 0.038598936 0.38600001 4282733123
-0.0086176619 0.038498942 0.38500002 4282931531
-0.0073480452 0.038398944 0.384 4282866508
-0.006084925 0.038298946 0.38300002 4281746743
-0.0048156618 0.03809895 0.38100001 4281220397
-0.0035312155 0.037598968 0.37600002 4279838233
-0.0023038234 0.03749897 0.37500003 4280363807
-0.0010800316 0.037298974 0.37300003 4280628008
0.00013112061 0.037198976 0.37200001 4281417524
0.0013357768 0.037098981 0.37100002 4280828204
0.0025339369 0.03699898 0.37 4279975457
0.0037256009 0.036898986 0.36900002 4278993179
0.0049241139 0.036898986 0.36900002 4278928156
0.0061226264 0.036898986 0.36900002 4278928154
0.0073211393 0.036898986 0.36900002 4278928154
0.0085196523 0.036898986 0.36900002 4278664982
0.0094811358 0.035999011 0.36000001 4278993947
0.010620832 0.035899013 0.35900003 4278796568
0.011754032 0.035799015 0.35800001 4278796566
0.012880736 0.035699017 0.35700002 4278599189
0.014040273 0.035699017 0.35700002 4278533396
0.015157233 0.035599019 0.35600001 4278198275
0.016313521 0.035599019 0.35600001 4278195712
0.017420739 0.035499025 0.35500002 4278728724
0.018573778 0.035499025 0.35500002 4278861080
0.019726818 0.035499025 0.35500002 4278197248
0.020821042 0.035399023 0.354 4278393093
0.021908771 0.035299029 0.35300002 4278196486
0.023055315 0.035299029 0.35300002 4278195972
0.028298723 0.034699045 0.347 4278925336
0.029425781 0.034699045 0.347 4278859797
0.030552836 0.034699045 0.347 4278597906
0.031588595 0.034599047 0.34600002 4278729492
0.03455586 0.034199059 0.34200001 4278664980
0.035562389 0.034099061 0.34100002 4278599187
0.03656242 0.033999063 0.34 4278533394
0.037666742 0.033999063 0.34 4278599187
0.047045562 0.033599075 0.33600003 4278862359
0.048349146 0.032999091 0.33000001 4279322910
0.053115014 0.033299085 0.333 4283529564
0.054780185 0.032999091 0.33000001 4288069795
0.055852026 0.032999091 0.33000001 4284253539
0.057096366 0.033099093 0.33100003 4282477390
0.058171455 0.033099093 0.33100003 4280109094
0.059425537 0.033199087 0.33200002 4280372012
0.060868353 0.033399083 0.33400002 4280043047
0.062138673 0.033499077 0.33500001 4280832817
0.06341549 0.033599075 0.33600003 4281358393
-0.020026835 0.040059585 0.38800001 4286353796
-0.018718243 0.039956339 0.38700002 4286549632
-0.017461266 0.039956339 0.38700002 4282075454
-0.01620429 0.039956339 0.38700002 4283062351
-0.014947313 0.039956339 0.38700002 4282799693
-0.013654959 0.039853089 0.38600001 4282470980
-0.012433359 0.039956339 0.38700002 4282339394
-0.011176383 0.039956339 0.38700002 4282602566
-0.0098937741 0.039853089 0.38600001 4283063117
-0.0086400453 0.039853089 0.38600001 4283523666
-0.0073863165 0.039853089 0.38600001 4280694055
-0.0061167004 0.039749846 0.38500002 4281154091
-0.0048535801 0.039646596 0.384 4281680435
-0.0035312155 0.038820628 0.37600002 4280429600
-0.0023038234 0.038717382 0.37500003 4280429600
-0.001077136 0.038407642 0.37200001 4280825387
0.00013112061 0.038407642 0.37200001 4281352245
0.0013393773 0.038407642 0.37200001 4280697133
0.0025476338 0.038407642 0.37200001 4279779361
0.0037558903 0.038407642 0.37200001 4278796568
0.0049641472 0.038407642 0.37200001 4278993947
0.0061724037 0.038407642 0.37200001 4278993947
0.0073806606 0.038407642 0.37200001 4278862361
0.0085889176 0.038407642 0.37200001 4278862363
0.0094547998 0.037065443 0.35900003 4278796570
0.010620832 0.037065443 0.35900003 4278993947
0.011754032 0.036962193 0.35800001 4278796568
0.012880736 0.03685895 0.35700002 4278664982
0.014040273 0.03685895 0.35700002 4278664984
0.015157233 0.0367557 0.35600001 4278988051
0.016267698 0.036652453 0.35500002 4278919439
0.017420739 0.036652453 0.35500002 4278924820
0.018573778 0.036652453 0.35500002 4279254555
0.01967125 0.036549207 0.354 4278720777
0.020821042 0.036549207 0.354 4278786056
0.021908771 0.03644596 0.35300002 4278851338
0.022990003 0.036342718 0.35200003 4278720011
0.02406474 0.036239468 0.35100001 4278720011
0.02513298 0.036136225 0.35000002 4278720265
0.026194721 0.036032975 0.34900001 4278851338
0.027328275 0.036032975 0.34900001 4278851851
0.028380277 0.035929732 0.34800002 4278589193
0.029425781 0.035826482 0.347 4278392584
0.030552836 0.035826482 0.347 4278195972
0.031588595 0.035723239 0.34600002 4278196740
0.032712407 0.035723239 0.34600002 4278198530
0.033738423 0.035619993 0.34500003 4279123228
0.034656905 0.0354135 0.34300002 4278728211
0.035666678 0.03531025 0.34200001 4278859797
0.036669958 0.035207007 0.34100002 4278860308
0.037666742 0.035103757 0.34 4278926101
0.038657028 0.035000514 0.33900002 4278795285
0.039640825 0.034897268 0.33800003 4278927384
0.040618118 0.034794021 0.33700001 4278927382
0.041712694 0.034794021 0.33700001 4278993175
0.04280727 0.034794021 0.33700001 4278796566
0.044862907 0.034690775 0.33600003 4278862359
0.045954231 0.034690775 0.33600003 4278796566
0.047045562 0.034690775 0.33600003 4278599187
0.04813689 0.034690775 0.33600003 4278796566
0.049081706 0.034587529 0.33500001 4278533394
0.050169785 0.034587529 0.33500001 4278664980
0.051257867 0.034587529 0.33500001 4278862359
0.052189693 0.034484282 0.33400002 4279190554
0.053274523 0.034484282 0.33400002 4279255834
0.0541966 0.034381032 0.333 4279453213
0.054946192 0.034174543 0.33100003 4279320348
0.056190521 0.034277789 0.33200002 4279715106
0.057268862 0.034277789 0.33200002 4281687612
0.058347199 0.034277789 0.33200002 4284845676
0.059604526 0.034381032 0.333 4287411349
0.060868353 0.034484282 0.33400002 4284714352
0.062138673 0.034587529 0.33500001 4280570676
0.06341549 0.034690775 0.33600003 4279978026
0.0646988 0.034794021 0.33700001 4279978024
0.06579338 0.034794021 0.33700001 4280307243
0.06688796 0.034794021 0.33700001 4280503338
0.067982532 0.034794021 0.33700001 4280569131
0.069077104 0.034794021 0.33700001 4281357882
-0.019975219 0.04121374 0.38700002 4286419589
-0.018718243 0.04121374 0.38700002 4286419843
-0.017461266 0.04121374 0.38700002 4286287490
-0.01620429 0.04121374 0.38700002 4284970600
-0.014947313 0.04121374 0.38700002 4283654740
-0.013690336 0.04121374 0.38700002 4283194187
-0.012465486 0.041320235 0.38800001 4283194189
-0.011205262 0.041320235 0.38800001 4284576356
-0.0099194059 0.04121374 0.38700002 4283852631
-0.0086624296 0.04121374 0.38700002 4280232219
-0.0074054524 0.04121374 0.38700002 4282272570
-0.0061325878 0.041107245 0.38600001 4281022505
-0.0048662201 0.04100075 0.38500002 4280232989
-0.0036345224 0.04121374 0.38700002 4280495393
-0.0023775457 0.04121374 0.38700002 4281021483
-0.0010742405 0.039509814 0.37100002 4280956973
0.00013076815 0.039509814 0.37100002 4281549110
0.0013393773 0.039616309 0.37200001 4280631340
0.0025476338 0.039616309 0.37200001 4279779875
0.0037558903 0.039616309 0.37200001 4278928152
0.0049641472 0.039616309 0.37200001 4278928152
0.0061724037 0.039616309 0.37200001 4278533396
0.0073806606 0.039616309 0.37200001 4278731289
0.0085889176 0.039616309 0.37200001 4278731291
0.0094811358 0.038338363 0.36000001 4278731291
0.010620832 0.038231868 0.35900003 4278731291
0.011754032 0.03812537 0.35800001 4278533910
0.012880736 0.038018879 0.35700002 4278468119
0.014000944 0.03791238 0.35600001 4278467605
0.015157233 0.03791238 0.35600001 4278461453
0.016267698 0.037805885 0.35500002 4279381785
0.017420739 0.037805885 0.35500002 4279057176
0.018521456 0.03769939 0.354 4278794004
0.01967125 0.03769939 0.354 4278786058
0.020762227 0.037592895 0.35300002 4279378195
0.021908771 0.037592895 0.35300002 4278851084
0.022990003 0.0374864 0.35200003 4278654218
0.02406474 0.037379902 0.35100001 4278720011
0.02513298 0.037273411 0.35000002 4278850314
0.026194721 0.037166912 0.34900001 4278917131
0.027328275 0.037166912 0.34900001 4278785545
0.028380277 0.037060417 0.34800002 4278916361
0.029425781 0.036953922 0.347 4278917131
0.030552836 0.036953922 0.347 4278785291
0.031588595 0.036847427 0.34600002 4278785804
0.032712407 0.036847427 0.34600002 4278328072
0.033738423 0.036740933 0.34500003 4279186713
0.034656905 0.036527943 0.34300002 4279317529
0.035666678 0.036421444 0.34200001 4278198277
0.036669958 0.036314949 0.34100002 4278196484
0.037666742 0.036208451 0.34 4278195457
0.038657028 0.03610196 0.33900002 4278196738
0.039758105 0.03610196 0.33900002 4278197509
0.04073865 0.035995465 0.33800003 4278529294
0.04183647 0.035995465 0.33800003 4279187738
0.04280727 0.035888966 0.33700001 4279452445
0.043901846 0.035888966 0.33700001 4279715617
0.044996426 0.035888966 0.33700001 4279058455
0.046090998 0.035888966 0.33700001 4279124248
0.047045562 0.035782471 0.33600003 4279058968
0.04813689 0.035782471 0.33600003 4278928152
0.049228221 0.035782471 0.33600003 4278862359
0.050169785 0.035675976 0.33500001 4278796566
0.051257867 0.035675976 0.33500001 4278664980
0.052189693 0.035569482 0.33400002 4278664980
0.053274523 0.035569482 0.33400002 4278796566
0.054359358 0.035569482 0.33400002 4278862359
0.055278186 0.035462983 0.333 4278862359
0.056190521 0.035356492 0.33200002 4278796566
0.057441354 0.035462983 0.333 4278927384
0.05852294 0.035462983 0.333 4278795285
0.059783522 0.035569482 0.33400002 4279386652
0.060868353 0.035569482 0.33400002 4278926103
0.062138673 0.035675976 0.33500001 4280569131
0.06341549 0.035782471 0.33600003 4283069527
0.064506821 0.035782471 0.33600003 4286228361
0.06579338 0.035888966 0.33700001 4284387186
0.06688796 0.035888966 0.33700001 4281228604
0.067982532 0.035888966 0.33700001 4279979561
0.068872131 0.035782471 0.33600003 4279651107
0.069963463 0.035782471 0.33600003 4279190556
0.070843317 0.035675976 0.33500001 4280767024
-0.017461266 0.042471144 0.38700002 4286222210
-0.01620429 0.042471144 0.38700002 4282139701
-0.014947313 0.042471144 0.38700002 4281810990
-0.013690336 0.042471144 0.38700002 4282139435
-0.012497614 0.042690631 0.38900003 4284771927
-0.011234142 0.042690631 0.38900003 4283719500
-0.0099706687 0.042690631 0.38900003 4280889118
-0.008684813 0.042580888 0.38800001 4281415978
-0.0074245878 0.042580888 0.38800001 4280232217
-0.0061643627 0.042580888 0.38800001 4280298782
-0.0048914989 0.042471144 0.38700002 4280364575
-0.0036533056 0.042690631 0.38900003 4280430370
-0.0023898329 0.042690631 0.38900003 4280627749
-0.0010713449 0.040605485 0.37 4280693288
0.00013041566 0.040605485 0.37 4281220145
0.0013249754 0.040385999 0.36800003 4280894510
0.0025202399 0.040385999 0.36800003 4279582750
0.003705408 0.040276252 0.36700001 4278993177
0.0048840805 0.040166508 0.36600003 4279256349
0.0060562561 0.040056761 0.36500001 4278862361
0.0072219367 0.039947018 0.36400002 4278796568
0.0083580324 0.039727528 0.36200002 4278665496
0.0094811358 0.039508041 0.36000001 4278862361
0.010620832 0.039398298 0.35900003 4278796568
0.011754032 0.039288551 0.35800001 4278664982
0.012880736 0.039178807 0.35700002 4278796568
0.014000944 0.03906906 0.35600001 4278467603
0.015157233 0.03906906 0.35600001 4278197511
0.016267698 0.038959317 0.35500002 4278920720
0.017420739 0.038959317 0.35500002 4279188762
0.018521456 0.03884957 0.354 4278794004
0.01967125 0.03884957 0.354 4278851851
0.020762227 0.038739827 0.35300002 4280036639
0.021908771 0.038739827 0.35300002 4279181330
0.022990003 0.038630083 0.35200003 4279510295
0.02406474 0.038520336 0.35100001 4279905823
0.02513298 0.038410597 0.35000002 4279576858
0.02626978 0.038410597 0.35000002 4279840030
0.027328275 0.038300849 0.34900001 4279774750
0.028380277 0.038191106 0.34800002 4278852111
0.029510582 0.038191106 0.34800002 4278851597
0.030552836 0.038081359 0.347 4278654218
0.031679891 0.038081359 0.347 4278785804
0.032712407 0.037971616 0.34600002 4278854416
0.033738423 0.037861872 0.34500003 4279384090
0.034757942 0.037752125 0.34400001 4278991383
0.035770968 0.037642382 0.34300002 4278991383
0.036777493 0.037532635 0.34200001 4279188762
0.037777528 0.037422892 0.34100002 4279056152
0.038771059 0.037313148 0.34 4279318810
0.039875381 0.037313148 0.34 4279647777
0.040859174 0.037203405 0.33900002 4278594576
0.04183647 0.037093662 0.33800003 4278987797
0.042934295 0.037093662 0.33800003 4278593039
0.044032123 0.037093662 0.33800003 4278196482
0.044996426 0.036983915 0.33700001 4278195969
0.046090998 0.036983915 0.33700001 4278197254
0.047185577 0.036983915 0.33700001 4278198278
0.04813689 0.036874171 0.33600003 4279120918
0.049228221 0.036874171 0.33600003 4279319576
0.050169785 0.036764424 0.33500001 4279649311
0.051257867 0.036764424 0.33500001 4279452443
0.052345946 0.036764424 0.33500001 4278861076
0.053274523 0.036654681 0.33400002 4279124763
0.054359358 0.036654681 0.33400002 4278730005
0.055278186 0.036544934 0.333 4278795798
0.056359768 0.036544934 0.333 4278927384
0.057441354 0.036544934 0.333 4278993177
0.058698688 0.036654681 0.33400002 4278795798
0.059783522 0.036654681 0.33400002 4278927384
0.060868353 0.036654681 0.33400002 4279124763
0.062138673 0.036764424 0.33500001 4279058968
0.063226752 0.036764424 0.33500001 4279190041
0.064506821 0.036874171 0.33600003 4279124250
0.065598145 0.036874171 0.33600003 4279453217
0.066689476 0.036874171 0.33600003 4278795800
0.0677808 0.036874171 0.33600003 4279915311
0.068872131 0.036874171 0.33600003 4280244528
0.069755234 0.036764424 0.33500001 4279257633
0.070843317 0.036764424 0.33500001 4279453728
0.071716674 0.036654681 0.33400002 4278992664
-0.014947313 0.043728545 0.38700002 4282007597
-0.013725711 0.043841537 0.38800001 4282533164
-0.012529741 0.044067524 0.39000002 4282006820
-0.011263021 0.044067524 0.39000002 4281217304
-0.0099962996 0.044067524 0.39000002 4281348892
-0.0087295799 0.044067524 0.39000002 4281020184
-0.0074437237 0.043954533 0.38900003 4279573510
-0.0061802506 0.043954533 0.38900003 4281151518
-0.0049167783 0.043954533 0.38900003 4282929723
-0.003662697 0.044067524 0.39000002 4283324994
-0.0023959761 0.044067524 0.39000002 4282864189
-0.0010684495 0.04169466 0.36900002 4281614640
0.0001300632 0.04169466 0.36900002 4281286188
0.0013249754 0.041581668 0.36800003 4280895278
0.0025133914 0.041468672 0.36700001 4279517727
0.003705408 0.041468672 0.36700001 4278862361
0.0048840805 0.041355681 0.36600003 4278862361
0.0060562561 0.041242685 0.36500001 4278928154
0.0072219367 0.04112969 0.36400002 4278664982
0.0083580324 0.040903702 0.36200002 4278731289
0.0094811358 0.040677715 0.36000001 4278731289
0.010620832 0.040564723 0.35900003 4278664982
0.011754032 0.040451728 0.35800001 4278796568
0.012880736 0.040338736 0.35700002 4278533396
0.014000944 0.040225741 0.35600001 4278928154
0.015157233 0.040225741 0.35600001 4278196740
0.016267698 0.040112749 0.35500002 4280039203
0.017420739 0.040112749 0.35500002 4278794265
0.018521456 0.039999753 0.354 4278595603
0.01967125 0.039999753 0.354 4278720265
0.020762227 0.039886761 0.35300002 4279971614
0.021846708 0.03977377 0.35200003 4279314965
0.022990003 0.03977377 0.35200003 4278656265
0.02406474 0.039660774 0.35100001 4280037922
0.02513298 0.039547779 0.35000002 4278655756
0.02626978 0.039547779 0.35000002 4279445785
0.027328275 0.039434783 0.34900001 4278195715
0.028380277 0.039321791 0.34800002 4278524170
0.029510582 0.039321791 0.34800002 4278194951
0.030552836 0.039208796 0.347 4279446553
0.031679891 0.039208796 0.347 4278655756
0.032712407 0.039095804 0.34600002 4278854418
0.033738423 0.038982812 0.34500003 4279253017
0.034858983 0.038982812 0.34500003 4278925590
0.035875253 0.038869817 0.34400001 4278465039
0.036885031 0.038756825 0.34300002 4278198272
0.037888311 0.03864383 0.34200001 4279121172
0.038885094 0.038530838 0.34100002 4278991894
0.039875381 0.038417842 0.34 4278991894
0.040979702 0.038417842 0.34 4278925590
0.041960247 0.03830485 0.33900002 4279188762
0.04306132 0.03830485 0.33900002 4279320348
0.044032123 0.038191859 0.33800003 4279254555
0.045129947 0.038191859 0.33800003 4279845922
0.046227768 0.038191859 0.33800003 4279713822
0.047185577 0.038078863 0.33700001 4280239653
0.048280153 0.038078863 0.33700001 4279647516
0.049228221 0.037965868 0.33600003 4278856978
0.050319545 0.037965868 0.33600003 4278197507
0.051257867 0.037852872 0.33500001 4278196480
0.052345946 0.037852872 0.33500001 4278194688
0.053434025 0.037852872 0.33500001 4278195969
0.054359358 0.03773988 0.33400002 4278198278
0.055444192 0.03773988 0.33400002 4278923539
0.056529019 0.03773988 0.33400002 4279121685
0.057613853 0.03773988 0.33400002 4279320348
0.058698688 0.03773988 0.33400002 4279123482
0.059783522 0.03773988 0.33400002 4279058457
0.060868353 0.03773988 0.33400002 4278729492
0.062138673 0.037852872 0.33500001 4278729490
0.063226752 0.037852872 0.33500001 4278861076
0.064314827 0.037852872 0.33500001 4278730003
0.06540291 0.037852872 0.33500001 4278993177
0.066490993 0.037852872 0.33500001 4279058970
0.067579068 0.037852872 0.33500001 4278862361
0.068667151 0.037852872 0.33500001 4278665496
0.069547012 0.03773988 0.33400002 4278731802
0.070631847 0.03773988 0.33400002 4278862875
0.071501955 0.037626885 0.333 4279124763
-0.012593997 0.045567162 0.39200002 4282006304
-0.01132078 0.045567162 0.39200002 4281808158
-0.010047563 0.045567162 0.39200002 4281610779
-0.0010684495 0.042893577 0.36900002 4281941034
0.00012971072 0.042777337 0.36800003 4279769865
0.0013249754 0.042777337 0.36800003 4281093425
0.0025133914 0.042661093 0.36700001 4279386141
0.0036953117 0.042544849 0.36600003 4278796570
0.0048840805 0.042544849 0.36600003 4278993949
0.0060562561 0.042428605 0.36500001 4278664982
0.0072020958 0.042196121 0.36300001 4278796568
0.0083580324 0.042079877 0.36200002 4278862361
0.0094811358 0.041847393 0.36000001 4278796568
0.010620832 0.041731153 0.35900003 4278533396
0.011754032 0.041614905 0.35800001 4278599189
0.012880736 0.041498665 0.35700002 4278796568
0.014000944 0.041382421 0.35600001 4278927384
0.015157233 0.041382421 0.35600001 4278590474
0.016267698 0.041266181 0.35500002 4278195459
0.017420739 0.041266181 0.35500002 4279320607
0.018521456 0.041149933 0.354 4278464015
0.01967125 0.041149933 0.354 4278786572
0.020762227 0.041033693 0.35300002 4278786572
0.021846708 0.040917452 0.35200003 4278786056
0.022990003 0.040917452 0.35200003 4279181328
0.02406474 0.040801208 0.35100001 4279247121
0.02513298 0.040684965 0.35000002 4278720779
0.02626978 0.040684965 0.35000002 4279576858
0.027328275 0.040568721 0.34900001 4278589709
0.028380277 0.04045248 0.34800002 4279116307
0.029510582 0.04045248 0.34800002 4279578652
0.030552836 0.040336236 0.347 4278196742
0.031679891 0.040336236 0.347 4278458375
0.032712407 0.040219992 0.34600002 4279052308
0.033836212 0.040219992 0.34600002 4279253017
0.034858983 0.040103752 0.34500003 4278661648
0.035875253 0.039987508 0.34400001 4278197508
0.036992565 0.039987508 0.34400001 4278655754
0.037999097 0.039871268 0.34300002 4278524681
0.038999125 0.03975502 0.34200001 4279055125
0.039992664 0.03963878 0.34100002 4278397962
0.041100234 0.03963878 0.34100002 4278332169
0.042084023 0.039522536 0.34 4278200072
0.043188341 0.039522536 0.34 4279123482
0.044162393 0.039406296 0.33900002 4279649826
0.045263465 0.039406296 0.33900002 4279188762
0.046227768 0.039290052 0.33800003 4279386139
0.047325596 0.039290052 0.33800003 4279254553
0.048280153 0.039173808 0.33700001 4279386139
0.049374733 0.039173808 0.33700001 4279451932
0.050319545 0.039057568 0.33600003 4279188760
0.051410876 0.039057568 0.33600003 4279516441
0.052345946 0.038941324 0.33500001 4279582234
0.053434025 0.038941324 0.33500001 4279581469
0.054522108 0.038941324 0.33500001 4279647264
0.055444192 0.03882508 0.33400002 4279251736
0.056529019 0.03882508 0.33400002 4278659086
0.057613853 0.03882508 0.33400002 4278198283
0.058698688 0.03882508 0.33400002 4278195713
0.059783522 0.03882508 0.33400002 4278195200
0.060868353 0.03882508 0.33400002 4278196740
0.062138673 0.038941324 0.33500001 4278728211
0.063226752 0.038941324 0.33500001 4278729490
0.064314827 0.038941324 0.33500001 4278730003
0.06540291 0.038941324 0.33500001 4278795796
0.066490993 0.038941324 0.33500001 4278927382
0.067377344 0.03882508 0.33400002 4278730003
0.068462178 0.03882508 0.33400002 4278993175
0.069338784 0.038708836 0.333 4278795796
0.07042037 0.038708836 0.333 4278795283
0.071287237 0.038592596 0.33200002 4279190041
0.072147608 0.038476355 0.33100003 4279320859
0.073222697 0.038476355 0.33100003 4279056924
-0.012690379 0.047199283 0.39500001 4282399777
-0.01137854 0.047079794 0.39400002 4281939228
-0.010073194 0.046960298 0.39300001 4282005791
-0.0010684495 0.044092495 0.36900002 4281151513
0.00012971072 0.043973006 0.36800003 4280493585
0.0013213749 0.04385351 0.36700001 4281750839
0.0025133914 0.04385351 0.36700001 4279319574
0.0036953117 0.043734021 0.36600003 4278862361
0.004870736 0.043614529 0.36500001 4278862361
0.0060396637 0.043495037 0.36400002 4278862363
0.0072020958 0.043375544 0.36300001 4278862363
0.0083580324 0.043256052 0.36200002 4278796570
0.0094811358 0.043017067 0.36000001 4278599189
0.010620832 0.042897578 0.35900003 4278599189
0.011754032 0.042778086 0.35800001 4278599189
0.012880736 0.042658594 0.35700002 4278599189
0.014000944 0.042539101 0.35600001 4278993177
0.015157233 0.042539101 0.35600001 4279251734
0.016267698 0.042419609 0.35500002 4279317527
0.017420739 0.042419609 0.35500002 4278795287
0.018521456 0.042300116 0.354 4278728211
0.01967125 0.042300116 0.354 4278851336
0.020762227 0.042180628 0.35300002 4278851851
0.021846708 0.042061135 0.35200003 4278851338
0.022990003 0.042061135 0.35200003 4278785545
0.02406474 0.041941643 0.35100001 4278785545
0.02513298 0.04182215 0.35000002 4278719752
0.02626978 0.04182215 0.35000002 4278785291
0.027328275 0.041702658 0.34900001 4278719498
0.028380277 0.041583166 0.34800002 4278851597
0.029510582 0.041583166 0.34800002 4278260996
0.030552836 0.041463673 0.347 4279183379
0.031679891 0.041463673 0.347 4278787853
0.032712407 0.041344184 0.34600002 4279512857
0.033836212 0.041344184 0.34600002 4279056152
0.034858983 0.041224692 0.34500003 4278197250
0.035979543 0.041224692 0.34500003 4278458377
0.036992565 0.0411052 0.34400001 4278786318
0.037999097 0.040985707 0.34300002 4278852365
0.03911316 0.040985707 0.34300002 4279118613
0.040109944 0.040866215 0.34200001 4279185943
0.041100234 0.040746726 0.34100002 4279385371
0.0422078 0.040746726 0.34100002 4279056406
0.043188341 0.04062723 0.34 4278857748
0.044292662 0.04062723 0.34 4278331404
0.045263465 0.040507741 0.33900002 4279318812
0.046364535 0.040507741 0.33900002 4278199817
0.047325596 0.040388249 0.33800003 4278991383
0.048423421 0.040388249 0.33800003 4279255066
0.049374733 0.040268756 0.33700001 4278860308
0.050469305 0.040268756 0.33700001 4278991894
0.051410876 0.040149264 0.33600003 4278991894
0.052502207 0.040149264 0.33600003 4278991894
0.053434025 0.040029772 0.33500001 4279123480
0.054522108 0.040029772 0.33500001 4279255066
0.055610187 0.040029772 0.33500001 4278991894
0.056529019 0.039910283 0.33400002 4278926103
0.057613853 0.039910283 0.33400002 4278991129
0.058698688 0.039910283 0.33400002 4278991129
0.059783522 0.039910283 0.33400002 4279121945
0.060868353 0.039910283 0.33400002 4279318812
0.061953187 0.039910283 0.33400002 4278196226
0.063038021 0.039910283 0.33400002 4278924566
0.064122848 0.039910283 0.33400002 4278598417
0.065207683 0.039910283 0.33400002 4278598417
0.066292517 0.039910283 0.33400002 4278598419
0.067377344 0.039910283 0.33400002 4278664212
0.068257198 0.039790787 0.333 4278664210
0.069338784 0.039790787 0.333 4278730003
0.0702089 0.039671298 0.33200002 4278663697
0.071287237 0.039671298 0.33200002 4278860306
0.072147608 0.039551806 0.33100003 4278926101
0.073222697 0.039551806 0.33100003 4278794517
-0.011436298 0.04860542 0.39600003 4281873433
0.00012971072 0.045168675 0.36800003 4280361997
0.0013213749 0.045045931 0.36700001 4281421874
0.0025133914 0.045045931 0.36700001 4279386139
0.0036953117 0.044923194 0.36600003 4278993175
0.004870736 0.044800449 0.36500001 4279058968
0.0060396637 0.044677708 0.36400002 4278664980
0.0072020958 0.044554967 0.36300001 4278862359
0.0083580324 0.044432227 0.36200002 4278664980
0.0094811358 0.044186745 0.36000001 4278533394
0.010620832 0.044064008 0.35900003 4278401808
0.011754032 0.043941263 0.35800001 4278664210
0.012880736 0.043818522 0.35700002 4278664210
0.014000944 0.043695781 0.35600001 4278200065
0.015157233 0.043695781 0.35600001 4278462988
0.016267698 0.043573041 0.35500002 4278200074
0.017420739 0.043573041 0.35500002 4278729492
0.018521456 0.0434503 0.354 4278992664
0.01967125 0.0434503 0.354 4278987797
0.020762227 0.043327559 0.35300002 4278656269
0.021846708 0.043204818 0.35200003 4278522886
0.02292469 0.043082077 0.35100001 4278982924
0.02406474 0.043082077 0.35100001 4278851338
0.02513298 0.042959336 0.35000002 4278851084
0.026194721 0.042836595 0.34900001 4278851084
0.027328275 0.042836595 0.34900001 4278916877
0.028380277 0.042713854 0.34800002 4278981902
0.029510582 0.042713854 0.34800002 4278785291
0.030552836 0.04259111 0.347 4278654218
0.031679891 0.04259111 0.347 4278654218
0.032712407 0.042468373 0.34600002 4279119383
0.033836212 0.042468373 0.34600002 4278991383
0.034858983 0.042345632 0.34500003 4278988564
0.035979543 0.042345632 0.34500003 4278589193
0.036992565 0.042222891 0.34400001 4278917390
0.03810988 0.042222891 0.34400001 4278785804
0.03911316 0.04210015 0.34300002 4279381787
0.040227227 0.04210015 0.34300002 4278527759
0.041220758 0.041977406 0.34200001 4279056152
0.0422078 0.041854668 0.34100002 4278398222
0.04331537 0.041854668 0.34100002 4278857748
0.044292662 0.041731924 0.34 4279186713
0.045396984 0.041731924 0.34 4279450912
0.046364535 0.041609187 0.33900002 4279516189
0.047465611 0.041609187 0.33900002 4279317527
0.048423421 0.041486446 0.33800003 4278198788
0.049521249 0.041486446 0.33800003 4278199818
0.050469305 0.041363701 0.33700001 4278923539
0.051410876 0.041240964 0.33600003 4278199815
0.052502207 0.041240964 0.33600003 4279121945
0.053593531 0.041240964 0.33600003 4278266636
0.054522108 0.041118219 0.33500001 4278727187
0.055610187 0.041118219 0.33500001 4278925588
0.056698266 0.041118219 0.33500001 4278991381
0.057786349 0.041118219 0.33500001 4279189273
0.058874432 0.041118219 0.33500001 4278926101
0.059783522 0.040995482 0.33400002 4278794515
0.060868353 0.040995482 0.33400002 4278794515
0.061953187 0.040995482 0.33400002 4278195971
0.063038021 0.040995482 0.33400002 4279514908
0.064122848 0.040995482 0.33400002 4278795283
0.065207683 0.040995482 0.33400002 4278664210
0.066094033 0.040872738 0.333 4278730003
0.067175612 0.040872738 0.333 4278664212
0.068257198 0.040872738 0.333 4278598419
0.069130562 0.040750001 0.33200002 4278532624
0.0702089 0.040750001 0.33200002 4278728720
0.071072519 0.04062726 0.33100003 4278794513
0.072147608 0.04062726 0.33100003 4278728209
0.073001474 0.040504515 0.33000001 4278859797
0.074073315 0.040504515 0.33000001 4280368682
-0.01015009 0.049892068 0.39600003 4281808664
0.00012935825 0.046238355 0.36700001 4280033032
0.0013213749 0.046238355 0.36700001 4279972631
0.002506543 0.046112366 0.36600003 4279582236
0.0036953117 0.046112366 0.36600003 4279123478
0.004870736 0.045986373 0.36500001 4278992662
0.0060396637 0.045860387 0.36400002 4278992662
0.0072020958 0.045734394 0.36300001 4278795283
0.008334944 0.045482416 0.36100003 4278597904
0.0094811358 0.045356423 0.36000001 4278795283
0.010620832 0.045230437 0.35900003 4278795796
0.011754032 0.045104444 0.35800001 4278664210
0.012880736 0.044978455 0.35700002 4278598419
0.014000944 0.044852462 0.35600001 4278730005
0.015157233 0.044852462 0.35600001 4279056406
0.016267698 0.044726476 0.35500002 4278661648
0.017420739 0.044726476 0.35500002 4278861078
0.018521456 0.044600483 0.354 4278729492
0.01967125 0.044600483 0.354 4278729492
0.020762227 0.044474494 0.35300002 4279255068
0.021846708 0.044348504 0.35200003 4279187992
0.02292469 0.044222515 0.35100001 4279122199
0.02406474 0.044222515 0.35100001 4279909666
0.02513298 0.044096526 0.35000002 4279250969
0.026194721 0.043970533 0.34900001 4279052308
0.027328275 0.043970533 0.34900001 4278393867
0.028380277 0.043844543 0.34800002 4278522632
0.029510582 0.043844543 0.34800002 4278456839
0.030552836 0.04371855 0.347 4278720011
0.031679891 0.04371855 0.347 4278720013
0.032712407 0.043592565 0.34600002 4279514141
0.033836212 0.043592565 0.34600002 4279187478
0.034858983 0.043466575 0.34500003 4279186711
0.035979543 0.043466575 0.34500003 4278922258
0.036992565 0.043340582 0.34400001 4279050512
0.03810988 0.043340582 0.34400001 4279445783
0.03911316 0.043214593 0.34300002 4279318812
0.040227227 0.043214593 0.34300002 4279253019
0.041220758 0.043088604 0.34200001 4278197504
0.042331576 0.043088604 0.34200001 4278660369
0.04331537 0.042962614 0.34100002 4279318810
0.044422939 0.042962614 0.34100002 4278198274
0.045396984 0.042836621 0.34 4279384092
0.046501301 0.042836621 0.34 4278199045
0.047465611 0.042710632 0.33900002 4279581469
0.048566684 0.042710632 0.33900002 4278397195
0.049521249 0.042584646 0.33800003 4278461707
0.050469305 0.042458653 0.33700001 4278789902
0.051563885 0.042458653 0.33700001 4278264587
0.052502207 0.042332664 0.33600003 4278197766
0.053593531 0.042332664 0.33600003 4279317529
0.054684862 0.042332664 0.33600003 4278264841
0.055610187 0.042206671 0.33500001 4279120918
0.056698266 0.042206671 0.33500001 4278198274
0.057786349 0.042206671 0.33500001 4278197504
0.058874432 0.042206671 0.33500001 4278595855
0.059962511 0.042206671 0.33500001 4278860308
0.060868353 0.042080685 0.33400002 4278794515
0.061953187 0.042080685 0.33400002 4278194176
0.063038021 0.042080685 0.33400002 4279186459
0.064122848 0.042080685 0.33400002 4278729492
0.065207683 0.042080685 0.33400002 4278597904
0.066094033 0.041954692 0.333 4278861076
0.067175612 0.041954692 0.333 4278729490
0.068052225 0.041828703 0.33200002 4278663697
0.069130562 0.041828703 0.33200002 4278663697
0.06999743 0.041702714 0.33100003 4278728720
0.071072519 0.041702714 0.33100003 4278596623
0.071929634 0.041576721 0.33000001 4278727441
0.073001474 0.041576721 0.33000001 4278858773
0.074073315 0.041576721 0.33000001 4279710752
-0.011494058 0.051437188 0.39800003 4281874203
-0.010175721 0.051307946 0.39700001 4281808410
-0.0088638812 0.051178709 0.39600003 4281808923
-0.0062596882 0.050920229 0.39400002 4281808923
-0.0011437332 0.051049467 0.39500001 4281808671
0.0013213749 0.047430772 0.36700001 4280297233
0.002506543 0.047301535 0.36600003 4279970321
0.003685215 0.047172293 0.36500001 4279317779
0.004870736 0.047172293 0.36500001 4279187476
0.0060396637 0.047043055 0.36400002 4278991379
0.0072020958 0.046913814 0.36300001 4279057172
0.008334944 0.046655338 0.36100003 4278860306
0.0094811358 0.046526097 0.36000001 4278794513
0.010620832 0.046396859 0.35900003 4278794513
0.011754032 0.046267621 0.35800001 4278794515
0.012880736 0.046138383 0.35700002 4278729492
0.014000944 0.046009142 0.35600001 4278992664
0.015157233 0.046009142 0.35600001 4278729492
0.016267698 0.045879904 0.35500002 4278926101
0.017420739 0.045879904 0.35500002 4278861078
0.018521456 0.045750663 0.354 4278861078
0.019615682 0.045621425 0.35300002 4278729492
0.020762227 0.045621425 0.35300002 4278795285
0.021846708 0.045492187 0.35200003 4278861078
0.02292469 0.045362946 0.35100001 4278663699
0.02406474 0.045362946 0.35100001 4278992664
0.02513298 0.045233708 0.35000002 4278861078
0.026194721 0.045104466 0.34900001 4278926101
0.027328275 0.045104466 0.34900001 4278991896
0.028380277 0.044975229 0.34800002 4278925590
0.029510582 0.044975229 0.34800002 4279187738
0.030552836 0.044845987 0.347 4279384090
0.031588595 0.044716749 0.34600002 4279054355
0.032712407 0.044716749 0.34600002 4278857748
0.033738423 0.044587512 0.34500003 4278199818
0.034858983 0.044587512 0.34500003 4278195712
0.035875253 0.04445827 0.34400001 4278195712
0.036992565 0.04445827 0.34400001 4278196486
0.03810988 0.04445827 0.34400001 4278525451
0.03911316 0.044329032 0.34300002 4278329351
0.040227227 0.044329032 0.34300002 4279317527
0.041220758 0.044199791 0.34200001 4279253017
0.042331576 0.044199791 0.34200001 4279385371
0.04331537 0.044070557 0.34100002 4279187990
0.044422939 0.044070557 0.34100002 4279187990
0.045396984 0.043941315 0.34 4279121685
0.046501301 0.043941315 0.34 4279450396
0.047465611 0.043812077 0.33900002 4279318810
0.048566684 0.043812077 0.33900002 4279187224
0.049521249 0.04368284 0.33800003 4279120920
0.050619069 0.04368284 0.33800003 4278264841
0.051563885 0.043553598 0.33700001 4279120666
0.052658461 0.043553598 0.33700001 4278198536
0.053593531 0.04342436 0.33600003 4279251736
0.054684862 0.04342436 0.33600003 4278856978
0.055610187 0.043295119 0.33500001 4278922258
0.056698266 0.043295119 0.33500001 4278922258
0.057786349 0.043295119 0.33500001 4278197510
0.058874432 0.043295119 0.33500001 4278856976
0.059962511 0.043295119 0.33500001 4278662929
0.060868353 0.043165881 0.33400002 4278662929
0.061953187 0.043165881 0.33400002 4278198277
0.063038021 0.043165881 0.33400002 4279186713
0.064122848 0.043165881 0.33400002 4278795287
0.065012448 0.04303664 0.333 4278663699
0.066094033 0.04303664 0.333 4278861078
0.066973887 0.042907402 0.33200002 4278663699
0.068052225 0.042907402 0.33200002 4278663697
0.068922341 0.042778164 0.33100003 4278794513
0.06999743 0.042778164 0.33100003 4278728720
0.071072519 0.042778164 0.33100003 4278794515
0.071929634 0.042648923 0.33000001 4278728211
0.073001474 0.042648923 0.33000001 4278991383
0.074073315 0.042648923 0.33000001 4279118615
-0.011522937 0.052862819 0.39900002 4281742617
-0.0088638812 0.052465357 0.39600003 4281808410
0.003685215 0.048358217 0.36500001 4279377160
0.004870736 0.048358217 0.36500001 4279115271
0.0060396637 0.048225731 0.36400002 4279183631
0.0072020958 0.048093241 0.36300001 4279119119
0.008334944 0.047828268 0.36100003 4278923791
0.0094811358 0.047695778 0.36000001 4279055377
0.010620832 0.047563292 0.35900003 4278990611
0.011754032 0.047430802 0.35800001 4278990611
0.012880736 0.047298312 0.35700002 4278925588
0.014000944 0.047165822 0.35600001 4279057174
0.015157233 0.047165822 0.35600001 4278991894
0.016267698 0.047033336 0.35500002 4278991894
0.017420739 0.047033336 0.35500002 4278992664
0.018521456 0.046900846 0.354 4278861078
0.019615682 0.04676836 0.35300002 4279058459
0.020762227 0.04676836 0.35300002 4278795287
0.021846708 0.046635874 0.35200003 4278861080
0.02292469 0.046503384 0.35100001 4278861080
0.02399618 0.046370897 0.35000002 4278729492
0.02513298 0.046370897 0.35000002 4278992662
0.026194721 0.046238404 0.34900001 4278597904
0.027328275 0.046238404 0.34900001 4278795283
0.028380277 0.046105918 0.34800002 4278729490
0.029425781 0.045973428 0.347 4278992662
0.030552836 0.045973428 0.347 4278729490
0.031588595 0.045840941 0.34600002 4278861076
0.032712407 0.045840941 0.34600002 4278795283
0.033738423 0.045708455 0.34500003 4278597906
0.034858983 0.045708455 0.34500003 4278925849
0.035875253 0.045575965 0.34400001 4278991129
0.036992565 0.045575965 0.34400001 4279253019
0.037999097 0.045443479 0.34300002 4279253019
0.03911316 0.045443479 0.34300002 4279514908
0.040227227 0.045443479 0.34300002 4278395914
0.041220758 0.045310989 0.34200001 4278195457
0.042331576 0.045310989 0.34200001 4278195969
0.04331537 0.045178503 0.34100002 4278195712
0.044422939 0.045178503 0.34100002 4278196997
0.045396984 0.045046009 0.34 4278527500
0.046501301 0.045046009 0.34 4278922771
0.047465611 0.044913523 0.33900002 4279647262
0.048566684 0.044913523 0.33900002 4278924820
0.049521249 0.044781037 0.33800003 4279187992
0.050619069 0.044781037 0.33800003 4279122199
0.051563885 0.044648547 0.33700001 4278991383
0.052658461 0.044648547 0.33700001 4278925590
0.053593531 0.044516061 0.33600003 4279450910
0.054684862 0.044516061 0.33600003 4279187224
0.055610187 0.044383571 0.33500001 4279121431
0.056698266 0.044383571 0.33500001 4278331915
0.057786349 0.044383571 0.33500001 4278197506
0.058874432 0.044383571 0.33500001 4278593806
0.059783522 0.044251084 0.33400002 4278925590
0.060868353 0.044251084 0.33400002 4279451934
0.061953187 0.044251084 0.33400002 4278197510
0.063038021 0.044251084 0.33400002 4278990359
0.063930862 0.044118594 0.333 4278795033
0.065012448 0.044118594 0.333 4278861080
0.066094033 0.044118594 0.333 4278729492
0.066973887 0.043986108 0.33200002 4278663699
0.068052225 0.043986108 0.33200002 4278729492
0.068922341 0.043853618 0.33100003 4278795285
0.06999743 0.043853618 0.33100003 4278532111
0.071072519 0.043853618 0.33100003 4278728722
0.071929634 0.043721128 0.33000001 4278860308
0.073001474 0.043721128 0.33000001 4279123482
0.074073315 0.043721128 0.33000001 4278922006
-0.0075776721 0.053751998 0.39600003 4282005789
-0.0049926154 0.053616259 0.39500001 4281808410
0.0060396637 0.049408402 0.36400002 4279179270
0.0072020958 0.049272664 0.36300001 4279113477
0.0083580324 0.049136925 0.36200002 4278852101
0.0095074726 0.049001191 0.36100003 4278917894
0.010680002 0.049001191 0.36100003 4278919689
0.011852531 0.049001191 0.36100003 4278986252
0.013025058 0.049001191 0.36100003 4279250451
0.014000944 0.048322503 0.35600001 4279251475
0.015157233 0.048322503 0.35600001 4279187478
0.016267698 0.048186764 0.35500002 4279318810
0.017420739 0.048186764 0.35500002 4279385887
0.018521456 0.048051026 0.354 4279320607
0.019615682 0.047915291 0.35300002 4279254814
0.020762227 0.047915291 0.35300002 4279320607
0.021846708 0.047779553 0.35200003 4279123998
0.02292469 0.047643814 0.35100001 4279058459
0.02399618 0.04750808 0.35000002 4278992664
0.02513298 0.04750808 0.35000002 4278795285
0.026194721 0.047372341 0.34900001 4278861078
0.027249973 0.047236603 0.34800002 4278795285
0.028380277 0.047236603 0.34800002 4278795285
0.029425781 0.047100864 0.347 4278729492
0.030552836 0.047100864 0.347 4278795285
0.031588595 0.04696513 0.34600002 4278861078
0.032617863 0.046829391 0.34500003 4278795285
0.033738423 0.046829391 0.34500003 4278729492
0.034757942 0.046693653 0.34400001 4278861078
0.035875253 0.046693653 0.34400001 4278729494
0.036992565 0.046693653 0.34400001 4278729240
0.037999097 0.046557918 0.34300002 4278729240
0.03911316 0.046557918 0.34300002 4278663701
0.040227227 0.046557918 0.34300002 4278991896
0.041220758 0.04642218 0.34200001 4279057176
0.042331576 0.04642218 0.34200001 4279385371
0.04331537 0.046286441 0.34100002 4279779615
0.044422939 0.046286441 0.34100002 4279581469
0.045396984 0.046150703 0.34 4279712287
0.046501301 0.046150703 0.34 4279053844
0.047465611 0.046014968 0.33900002 4278592269
0.048566684 0.046014968 0.33900002 4278196997
0.049521249 0.04587923 0.33800003 4278194944
0.050619069 0.04587923 0.33800003 4278195456
0.051563885 0.045743492 0.33700001 4278197767
0.052658461 0.045743492 0.33700001 4278528013
0.053593531 0.045607757 0.33600003 4279186711
0.054684862 0.045607757 0.33600003 4279186965
0.055776194 0.045607757 0.33600003 4279187992
0.056698266 0.045472018 0.33500001 4279056406
0.057786349 0.045472018 0.33500001 4278924820
