# .PCD v0.7 - Point Cloud Data file format
VERSION 0.7
FIELDS x y z rgb
SIZE 4 4 4 4
TYPE F F F U
COUNT 1 1 1 1
WIDTH 704
HEIGHT 1
VIEWPOINT 0 0 0 1 0 0 0
POINTS 704
DATA ascii
0.062366456 -0.058112599 0.45600003 4285830273
0.063987561 -0.058240037 0.45700002 4283858277
0.065471902 -0.058240037 0.45700002 4281754698
0.067102753 -0.05836748 0.45800003 4280772166
0.068590336 -0.05836748 0.45800003 4280442940
0.06061833 -0.056382626 0.45400003 4283331933
0.062229685 -0.056506816 0.45500001 4281820743
0.063847549 -0.05663101 0.45600003 4280442938
0.065328635 -0.05663101 0.45600003 4280115258
0.066956237 -0.056755196 0.45700002 4279459123
0.068440571 -0.056755196 0.45700002 4279590709
0.058622643 -0.054423768 0.45000002 4281820491
0.06035129 -0.054665651 0.45200002 4280639547
0.062092919 -0.054907534 0.45400003 4280048945
0.063567512 -0.054907534 0.45400003 4279919156
0.065185368 -0.055028476 0.45500001 4279064617
0.066809729 -0.055149417 0.45600003 4279393582
0.068290815 -0.055149417 0.45600003 4279393584
0.070077918 -0.0553913 0.45800003 4279651887
0.056906991 -0.052726284 0.44800001 4280836926
0.058492374 -0.05284398 0.44900003 4279982900
0.060217768 -0.053079367 0.45100003 4279589678
0.061819382 -0.053197056 0.45200002 4279196203
0.063427493 -0.053314749 0.45300001 4279196203
0.065042108 -0.053432442 0.45400003 4279196203
0.066516705 -0.053432442 0.45400003 4279458605
0.068141051 -0.053550132 0.45500001 4279326506
0.052307121 -0.051041797 0.44600001 4281491528
0.053755727 -0.051041797 0.44600001 4280115006
0.055204336 -0.051041797 0.44600001 4279655221
0.056779969 -0.051156241 0.44700003 4279392301
0.0583621 -0.051270686 0.44800001 4279524400
0.060084246 -0.051499572 0.45000002 4279064617
0.061682615 -0.051614016 0.45100003 4279064617
0.063147463 -0.051614016 0.45100003 4279195431
0.064755581 -0.051728461 0.45200002 4279063845
0.066370189 -0.051842902 0.45300001 4279127841
0.067991294 -0.051957346 0.45400003 4280771133
0.049299117 -0.049481504 0.44500002 4281754700
0.050744478 -0.049481504 0.44500002 4280508733
0.052189842 -0.049481504 0.44500002 4279655219
0.053635199 -0.049481504 0.44500002 4279393584
0.055204336 -0.049592696 0.44600001 4279130412
0.056652941 -0.049592696 0.44600001 4279196201
0.058231827 -0.049703892 0.44700003 4278735650
0.059817206 -0.049815089 0.44800001 4279064615
0.061409075 -0.049926285 0.44900003 4279655982
0.063007444 -0.050037477 0.45000002 4278732572
0.064612314 -0.050148673 0.45100003 4278467603
0.066223674 -0.050259866 0.45200002 4279453476
0.067691766 -0.050259866 0.45200002 4280966717
0.04630411 -0.047927711 0.44400004 4282740310
0.047746222 -0.047927711 0.44400004 4279850033
0.049188334 -0.047927711 0.44400004 4280181563
0.050630447 -0.047927711 0.44400004 4279262511
0.052072562 -0.047927711 0.44400004 4279130923
0.053514674 -0.047927711 0.44400004 4278867749
0.055080559 -0.048035655 0.44500002 4279065128
0.056652941 -0.048143599 0.44600001 4278999335
0.058101553 -0.048143599 0.44600001 4278933029
0.059683688 -0.048251547 0.44700003 4279852848
0.061272305 -0.048359491 0.44800001 4278666007
0.062867433 -0.048467435 0.44900003 4279256097
0.064469047 -0.048575379 0.45000002 4280045613
0.066077165 -0.048683327 0.45100003 4280177201
0.067691766 -0.048791271 0.45200002 4279781676
0.04332209 -0.046380412 0.44300002 4284647282
0.044760954 -0.046380412 0.44300002 4281427266
0.046199817 -0.046380412 0.44300002 4280771387
0.047638681 -0.046380412 0.44300002 4279655984
0.049077548 -0.046380412 0.44300002 4279262509
0.050516412 -0.046380412 0.44300002 4278868519
0.051955279 -0.046380412 0.44300002 4278736933
0.053514674 -0.046485111 0.44400004 4278736933
0.054956786 -0.046485111 0.44400004 4279131691
0.05652592 -0.046589803 0.44500002 4278867236
0.058101553 -0.046694499 0.44600001 4279326504
0.059683688 -0.046799198 0.44700003 4278203919
0.061135538 -0.046799198 0.44700003 4279913768
0.062727414 -0.046903893 0.44800001 4280045613
0.064325787 -0.047008589 0.44900003 4278532376
0.06593065 -0.047113284 0.45000002 4280045615
0.067542009 -0.047217984 0.45100003 4282148943
-0.0011466288 -0.040173046 0.39600003 4286027648
0.00014028497 -0.040375941 0.39800003 4286290822
0.0014365901 -0.040477388 0.39900002 4286356617
0.0027325428 -0.040477388 0.39900002 4286027652
0.040353063 -0.044839613 0.44200003 4286226060
0.041883226 -0.04494106 0.44300002 4282019153
0.04332209 -0.04494106 0.44300002 4280836415
0.044659916 -0.044839613 0.44200003 4279655471
0.046095531 -0.044839613 0.44200003 4279393582
0.047531147 -0.044839613 0.44200003 4279130923
0.048966765 -0.044839613 0.44200003 4279328300
0.050402381 -0.044839613 0.44200003 4278933796
0.051837999 -0.044839613 0.44200003 4278604831
0.053394143 -0.04494106 0.44300002 4278539038
0.054833006 -0.04494106 0.44300002 4278933029
0.056398895 -0.045042507 0.44400004 4278336533
0.057971284 -0.045143954 0.44500002 4279059742
0.059550162 -0.045245402 0.44600001 4279783465
0.061135538 -0.045346849 0.44700003 4278993949
0.062727414 -0.045448296 0.44800001 4280374065
0.06418252 -0.045448296 0.44800001 4279518756
0.065784141 -0.045549743 0.44900003 4280900157
-0.0011495242 -0.0389846 0.39700001 4286355843
0.00014028497 -0.039082799 0.39800003 4286290820
0.0014365901 -0.039180998 0.39900002 4286685582
0.0027325428 -0.039180998 0.39900002 4283263324
0.0040385919 -0.039279193 0.40000001 4282077772
0.0053511374 -0.039377391 0.40100002 4282209869
0.0066535855 -0.039377391 0.40100002 4284249444
0.0079560345 -0.039377391 0.40100002 4283526230
0.0092584835 -0.039377391 0.40100002 4283329369
0.010587269 -0.03947559 0.40200001 4285960835
0.011892965 -0.03947559 0.40200001 4287015060
0.040353063 -0.04340351 0.44200003 4280769856
0.041788682 -0.04340351 0.44200003 4279984186
0.043224297 -0.04340351 0.44200003 4279655732
0.044457834 -0.043207116 0.44000003 4279262761
0.045886952 -0.043207116 0.44000003 4278670624
0.047316074 -0.043207116 0.44000003 4278933796
0.048745196 -0.043207116 0.44000003 4278933796
0.050288346 -0.043305311 0.44100001 4278735650
0.051720716 -0.043305311 0.44100001 4278604064
0.053273614 -0.04340351 0.44200003 4279194406
0.05470923 -0.04340351 0.44200003 4278202122
0.05627187 -0.043501709 0.44300002 4279454246
0.05784101 -0.043599907 0.44400004 4279717418
0.059416644 -0.043698102 0.44500002 4278862109
0.060998768 -0.043796301 0.44600001 4279059490
0.062587395 -0.0438945 0.44700003 4280440373
0.06418252 -0.043992698 0.44800001 4280176688
0.065784141 -0.044090897 0.44900003 4282213714
-0.0011495242 -0.037694708 0.39700001 4286817168
0.00014028497 -0.037789658 0.39800003 4282080333
0.0014365901 -0.037884604 0.39900002 4282210636
0.0027325428 -0.037884604 0.39900002 4282407501
0.0040385919 -0.037979554 0.40000001 4282868052
0.0066535855 -0.038074505 0.40100002 4282011979
0.0079560345 -0.038074505 0.40100002 4282143565
0.010587269 -0.038169451 0.40200001 4283196502
0.038917448 -0.041967407 0.44200003 4280179766
0.040261764 -0.041872457 0.44100001 4279655732
0.041694134 -0.041872457 0.44100001 4279525679
0.043224297 -0.041967407 0.44200003 4278999335
0.044255752 -0.041587614 0.43800002 4278868001
0.045678377 -0.041587614 0.43800002 4278802208
0.047100998 -0.041587614 0.43800002 4278735902
0.04863441 -0.04168256 0.43900001 4278866720
0.050060283 -0.04168256 0.43900001 4278931232
0.05160344 -0.04177751 0.44000003 4278204943
0.053153086 -0.041872457 0.44100001 4279124765
0.054585453 -0.041872457 0.44100001 4279519523
0.056144848 -0.041967407 0.44200003 4278927132
0.057710737 -0.042062357 0.44300002 4278203152
0.059283126 -0.042157307 0.44400004 4280242479
0.060862001 -0.042252254 0.44500002 4278597654
0.06244738 -0.0423472 0.44600001 4280110895
0.064039253 -0.04244215 0.44700003 4281491526
-0.0011495242 -0.036404815 0.39700001 4282275400
0.00014028497 -0.036496516 0.39800003 4282078021
0.0014365901 -0.036588214 0.39900002 4282078275
0.0066535855 -0.036771614 0.40100002 4282406218
0.040170468 -0.040347904 0.44000003 4279132207
0.041694134 -0.040439606 0.44100001 4278671654
0.043224297 -0.040531304 0.44200003 4278605861
0.043952633 -0.039889406 0.43500003 4278802980
0.045469798 -0.039981104 0.43600002 4278408222
0.046885926 -0.039981104 0.43600002 4278669341
0.048412841 -0.040072802 0.43700001 4279062818
0.049946252 -0.040164504 0.43800002 4278796830
0.051486157 -0.040256202 0.43900001 4279586086
0.053032558 -0.040347904 0.44000003 4279058972
0.054585453 -0.040439606 0.44100001 4278927386
0.056144848 -0.040531304 0.44200003 4279321631
0.057710737 -0.040623005 0.44300002 4279781928
0.059283126 -0.040714704 0.44400004 4278400277
0.060862001 -0.040806405 0.44500002 4279846951
0.06244738 -0.040898103 0.44600001 4283002455
0.0066701779 -0.035557173 0.40200001 4283261779
0.040079173 -0.038829848 0.43900001 4278606115
0.040181424 -0.037591539 0.42500001 4278606115
0.041757409 -0.037768442 0.42700002 4278408222
0.04364951 -0.038210694 0.43200001 4278406939
0.045156933 -0.038299147 0.43300003 4278472732
0.046670854 -0.038387597 0.43400002 4278795033
0.048191275 -0.038476046 0.43500003 4278200076
0.049718186 -0.038564496 0.43600002 4279914029
0.051368877 -0.038741399 0.43800002 4278200071
0.052912027 -0.038829848 0.43900001 4279650596
0.054461677 -0.038918301 0.44000003 4279058459
0.05601782 -0.039006751 0.44100001 4278663701
0.057580467 -0.039095201 0.44200003 4279584549
0.059149604 -0.03918365 0.44300002 4279780910
0.0066701779 -0.034251034 0.40200001 4283787606
0.019874364 -0.034506641 0.40500003 4278929183
0.021189803 -0.034506641 0.40500003 4278734884
0.030547999 -0.034677044 0.40700001 4279327789
0.038527131 -0.035955068 0.42200002 4278277150
0.04008688 -0.03612547 0.42400002 4278473245
0.041659616 -0.036295872 0.42600003 4278472732
0.043447427 -0.036636677 0.43000001 4279323426
0.044948358 -0.036721881 0.43100002 4278200582
0.04656332 -0.036892284 0.43300003 4278527248
0.048080489 -0.036977485 0.43400002 4279383068
0.049604155 -0.03706269 0.43500003 4278199822
0.051134314 -0.037147891 0.43600002 4279977004
0.052791502 -0.037318293 0.43800002 4279649574
0.0543379 -0.037403494 0.43900001 4278202641
0.055890799 -0.037488695 0.44000003 4279979307
0.05745019 -0.037573896 0.44100001 4279321125
0.0053644818 -0.032944895 0.40200001 4282406468
0.0066867708 -0.033026848 0.40300003 4282734918
0.015928041 -0.033190753 0.40500003 4282799166
0.017243482 -0.033190753 0.40500003 4282535994
0.018558923 -0.033190753 0.40500003 4282536761
0.019874364 -0.033190753 0.40500003 4279254553
0.021189803 -0.033190753 0.40500003 4278666779
0.022505244 -0.033190753 0.40500003 4278537503
0.023820685 -0.033190753 0.40500003 4278670372
0.033518083 -0.033682469 0.41100001 4278475042
0.035192218 -0.03401028 0.41500002 4278539808
0.036716234 -0.034174185 0.41700003 4278406685
0.038435835 -0.034501996 0.42100003 4278208022
0.039992332 -0.034665897 0.42300001 4278995744
0.041561823 -0.034829803 0.42500001 4278203150
0.043245349 -0.035075661 0.42800003 4278854929
0.044844069 -0.035239566 0.43000001 4278789136
0.046348244 -0.035321519 0.43100002 4279381787
0.047969706 -0.035485424 0.43300003 4280568114
0.04949012 -0.035567377 0.43400002 4278198024
0.051017039 -0.035649329 0.43500003 4279055388
0.052670971 -0.035813231 0.43700001 4279255332
0.054214124 -0.035895187 0.43800002 4279716137
0.055890799 -0.036059093 0.44000003 4280701499
-0.0036814802 -0.030851722 0.39200002 4282734918
-0.0024144067 -0.030930424 0.39300001 4282538054
0.0053778263 -0.031717457 0.40300003 4283064396
0.01464868 -0.03195357 0.40600002 4282470714
0.015967369 -0.03195357 0.40600002 4282733886
0.017286059 -0.03195357 0.40600002 4282667834
0.018604746 -0.03195357 0.40600002 4282668345
0.019923436 -0.03195357 0.40600002 4279712537
0.021242123 -0.03195357 0.40600002 4278927384
0.022560813 -0.03195357 0.40600002 4278600986
0.023879502 -0.03195357 0.40600002 4278602269
0.025198191 -0.03195357 0.40600002 4278604066
0.026582189 -0.03203227 0.40700001 4279196201
0.027904129 -0.03203227 0.40700001 4278802726
0.030698113 -0.032189678 0.40900001 4278738214
0.032104854 -0.032268383 0.41000003 4278343456
0.033599637 -0.032425791 0.41200003 4278342943
0.035192218 -0.0326619 0.41500002 4278604831
0.036716234 -0.032819305 0.41700003 4278931748
0.03834454 -0.033055414 0.42000002 4278600218
0.039992332 -0.033291526 0.42300001 4278990359
0.041561823 -0.033448931 0.42500001 4278658062
0.043144308 -0.033606339 0.42700002 4279183894
0.044739779 -0.033763744 0.42900002 4278921236
0.046240706 -0.033842448 0.43000001 4278856726
0.047748134 -0.033921152 0.43100002 4280371246
0.049376089 -0.034078561 0.43300003 4278529556
0.051017039 -0.034235965 0.43500003 4279715367
0.052670971 -0.03439337 0.43700001 4279255586
0.054090347 -0.03439337 0.43700001 4283661412
0.0027325428 -0.030106254 0.39900002 4282473033
0.01468476 -0.030709887 0.40700001 4282733886
0.016006697 -0.030709887 0.40700001 4282733886
0.017328633 -0.030709887 0.40700001 4282734140
0.018650571 -0.030709887 0.40700001 4282932033
0.019923436 -0.030634433 0.40600002 4279712537
0.021242123 -0.030634433 0.40600002 4278991894
0.022560813 -0.030634433 0.40600002 4278797082
0.023938317 -0.030709887 0.40700001 4278535193
0.025260255 -0.030709887 0.40700001 4278733855
0.026582189 -0.030709887 0.40700001 4279260199
0.027972691 -0.030785341 0.40800002 4278340122
0.02936968 -0.030860795 0.40900001 4278604831
0.03077317 -0.03093625 0.41000003 4278802210
0.032183155 -0.031011704 0.41100001 4278802210
0.033681188 -0.031162612 0.41300002 4278275353
0.035277016 -0.031388976 0.41600001 4278800927
0.036804281 -0.031539883 0.41800001 4279062050
0.03834454 -0.031690791 0.42000002 4278533912
0.039897792 -0.031841703 0.42200002 4278331915
0.041464031 -0.031992611 0.42400002 4278592269
0.043043267 -0.032143518 0.42600003 4279249176
0.044635493 -0.032294426 0.42800003 4278920211
0.046133172 -0.032369882 0.42900002 4278198025
0.047637347 -0.032445334 0.43000001 4280240428
0.049262054 -0.032596242 0.43200001 4279584297
0.050899755 -0.032747153 0.43400002 4278860574
0.012040887 -0.029387502 0.40700001 4283062338
0.013362825 -0.029387502 0.40700001 4282733627
0.01468476 -0.029387502 0.40700001 4282997308
0.016006697 -0.029387502 0.40700001 4283194687
0.017328633 -0.029387502 0.40700001 4283128896
0.019972509 -0.029387502 0.40700001 4279516441
0.021294443 -0.029387502 0.40700001 4279123480
0.022616381 -0.029387502 0.40700001 4278928154
0.023938317 -0.029387502 0.40700001 4278862875
0.02532232 -0.029459707 0.40800002 4279061537
0.026647503 -0.029459707 0.40800002 4279325222
0.028041249 -0.029531913 0.40900001 4278865955
0.029441491 -0.029604118 0.41000003 4279129892
0.030848226 -0.029676324 0.41100001 4279129892
0.032261461 -0.029748529 0.41200003 4279064099
0.033762742 -0.02989294 0.41400003 4278866207
0.035277016 -0.030037349 0.41600001 4278734367
0.036804281 -0.03018176 0.41800001 4279389480
0.03834454 -0.030326169 0.42000002 4279979307
0.039897792 -0.03047058 0.42200002 4279581469
0.041464031 -0.030614991 0.42400002 4279382809
0.043043267 -0.030759402 0.42600003 4279116820
0.044531204 -0.030831605 0.42700002 4278854418
0.046133172 -0.030976016 0.42900002 4279650344
0.047637347 -0.031048222 0.43000001 4279848236
0.049148023 -0.031120427 0.43100002 4280504633
-0.0099450368 -0.026754953 0.38800001 4285828474
-0.008684813 -0.026754953 0.38800001 4282210120
0.009397014 -0.028065117 0.40700001 4282602300
0.012040887 -0.028065117 0.40700001 4282930752
0.013395658 -0.028134074 0.40800002 4282799420
0.014720841 -0.028134074 0.40800002 4283062588
0.016046027 -0.028134074 0.40800002 4283063101
0.017371211 -0.028134074 0.40800002 4283063615
0.018696396 -0.028134074 0.40800002 4280565536
0.020021582 -0.028134074 0.40800002 4279254555
0.021346765 -0.028134074 0.40800002 4279058459
0.022671949 -0.028134074 0.40800002 4278928668
0.023997135 -0.028134074 0.40800002 4278929181
0.025384383 -0.028203029 0.40900001 4279193123
0.026712814 -0.028203029 0.40900001 4279062050
0.028109811 -0.028271988 0.41000003 4279063332
0.029513298 -0.028340943 0.41100001 4279326758
0.030923283 -0.0284099 0.41200003 4278998306
0.032418072 -0.028547812 0.41400003 4279326758
0.033844296 -0.028616767 0.41500002 4278866207
0.035361819 -0.028754679 0.41700003 4278931232
0.036892332 -0.028892592 0.41900003 4278665498
0.03834454 -0.028961547 0.42000002 4279453476
0.039897792 -0.029099459 0.42200002 4278659086
0.041366238 -0.029168414 0.42300001 4278657550
0.042942226 -0.029306328 0.42500001 4280436526
0.044426914 -0.029375285 0.42600003 4279321379
0.046025638 -0.029513197 0.42800003 4280374067
0.047526564 -0.029582152 0.42900002 4284187756
0.0027051489 -0.02595425 0.39500001 4279181328
0.0040890742 -0.026611321 0.40500003 4279247371
0.0054045157 -0.026611321 0.40500003 4282275132
0.01071895 -0.026742734 0.40700001 4282866240
0.012070472 -0.026808441 0.40800002 4282668345
0.013395658 -0.026808441 0.40800002 4282734138
0.014720841 -0.026808441 0.40800002 4282931517
0.016046027 -0.026808441 0.40800002 4283128894
0.017371211 -0.026808441 0.40800002 4282670140
0.018696396 -0.026808441 0.40800002 4279513877
0.020021582 -0.026808441 0.40800002 4279190043
0.021399084 -0.026874147 0.40900001 4278993177
0.022727517 -0.026874147 0.40900001 4278928668
0.02405595 -0.026874147 0.40900001 4279192353
0.025446448 -0.026939856 0.41000003 4279127843
0.026778128 -0.026939856 0.41000003 4279127841
0.028178371 -0.027005563 0.41100001 4279260197
0.029585108 -0.027071269 0.41200003 4279260711
0.03099834 -0.027136976 0.41300002 4278537501
0.032496374 -0.027268389 0.41500002 4279327271
0.033925846 -0.027334096 0.41600001 4278997279
0.035446618 -0.027465511 0.41800001 4279127841
0.036892332 -0.027531218 0.41900003 4278202124
0.03834454 -0.027596924 0.42000002 4278267919
0.039897792 -0.02772834 0.42200002 4278725392
0.041366238 -0.027794044 0.42300001 4280503346
0.042942226 -0.02792546 0.42500001 4279716137
0.044426914 -0.027991166 0.42600003 4281228606
-0.0074245878 -0.02423365 0.38800001 4282077770
0.00013746516 -0.024358567 0.39000002 4282406988
0.0014077864 -0.024421025 0.39100003 4280298782
0.009397014 -0.025420349 0.40700001 4282866240
0.01071895 -0.025420349 0.40700001 4282800447
0.012070472 -0.025482807 0.40800002 4282603066
0.013395658 -0.025482807 0.40800002 4282668345
0.014720841 -0.025482807 0.40800002 4282997308
0.016085355 -0.025545266 0.40900001 4282800443
0.017413788 -0.025545266 0.40900001 4282144568
0.01874222 -0.025545266 0.40900001 4280106012
0.020070653 -0.025545266 0.40900001 4278991894
0.021399084 -0.025545266 0.40900001 4278993177
0.022783088 -0.025607724 0.41000003 4279059740
0.024114769 -0.025607724 0.41000003 4279192353
0.025508514 -0.025670182 0.41100001 4279193636
0.026908753 -0.02573264 0.41200003 4278469913
0.028246932 -0.02573264 0.41200003 4279261226
0.029656915 -0.025795097 0.41300002 4279196201
0.031073397 -0.025857557 0.41400003 4278998822
0.03257468 -0.025982469 0.41600001 4279063845
0.0340074 -0.026044929 0.41700003 4278931748
0.035446618 -0.026107386 0.41800001 4278864671
0.036892332 -0.026169846 0.41900003 4279585062
0.03834454 -0.026232302 0.42000002 4279914797
0.039803248 -0.02629476 0.42100003 4279914029
0.041366238 -0.026419675 0.42300001 4279584551
0.0080552371 -0.024038756 0.40600002 4282733888
0.0093739256 -0.024038756 0.40600002 4282734654
0.01071895 -0.024097964 0.40700001 4282866240
0.012040887 -0.024097964 0.40700001 4282931519
0.013395658 -0.024157174 0.40800002 4282602554
0.014720841 -0.024157174 0.40800002 4282602554
0.016085355 -0.024216382 0.40900001 4282734654
0.018788045 -0.024275592 0.41000003 4279844123
0.020119727 -0.024275592 0.41000003 4279255066
0.021451406 -0.024275592 0.41000003 4279058970
0.022838654 -0.024334799 0.41100001 4278928668
0.024173584 -0.024334799 0.41100001 4279193123
0.025570579 -0.024394009 0.41200003 4279193636
0.026974065 -0.024453219 0.41300002 4278931234
0.028315492 -0.024453219 0.41300002 4279590191
0.029728726 -0.024512429 0.41400003 4278866468
0.031148452 -0.024571637 0.41500002 4279458605
0.03257468 -0.024630845 0.41600001 4278865955
0.0340074 -0.024690054 0.41700003 4278930464
0.035446618 -0.024749262 0.41800001 4278929951
0.036892332 -0.024808472 0.41900003 4279126562
0.03834454 -0.02486768 0.42000002 4279388967
0.039803248 -0.02492689 0.42100003 4281687874
0.010692614 -0.022719622 0.40600002 4282997826
0.012040887 -0.022775581 0.40700001 4282997826
0.013395658 -0.022831541 0.40800002 4282405689
0.014720841 -0.022831541 0.40800002 4282537275
0.016085355 -0.0228875 0.40900001 4282669631
0.017456364 -0.022943461 0.41000003 4279054096
0.018788045 -0.022943461 0.41000003 4279516443
0.020168798 -0.022999419 0.41100001 4278927384
0.021503726 -0.022999419 0.41100001 4278928154
0.022838654 -0.022999419 0.41100001 4278862875
0.024232401 -0.02305538 0.41200003 4279127330
0.025632642 -0.02311134 0.41300002 4279062820
0.027039379 -0.023167299 0.41400003 4279391785
0.028384054 -0.023167299 0.41400003 4279392299
0.029800532 -0.023223259 0.41500002 4278734369
0.031223508 -0.023279218 0.41600001 4280444471
0.032652985 -0.023335177 0.41700003 4279062818
0.034088951 -0.023391137 0.41800001 4279194404
0.03553142 -0.023447098 0.41900003 4278337044
0.036892332 -0.023447098 0.41900003 4281689157
0.03834454 -0.023503058 0.42000002 4284713325
0.014720841 -0.021505907 0.40800002 4282537275
0.016085355 -0.021558616 0.40900001 4282604349
0.017456364 -0.021611327 0.41000003 4279976479
0.018788045 -0.021611327 0.41000003 4279254553
0.020168798 -0.021664038 0.41100001 4278993179
0.021556048 -0.021716749 0.41200003 4278928156
0.022894224 -0.021716749 0.41200003 4279389219
0.024291217 -0.021769458 0.41300002 4279389732
0.025694707 -0.021822169 0.41400003 4278930464
0.027039379 -0.021822169 0.41400003 4279523371
0.028452614 -0.02187488 0.41500002 4279589678
0.029872341 -0.02192759 0.41600001 4279129127
0.031298567 -0.021980301 0.41700003 4279787057
0.032652985 -0.021980301 0.41700003 4279522601
0.034088951 -0.022033012 0.41800001 4280835899
0.03553142 -0.022085723 0.41900003 4281624132
0.013395658 -0.020180274 0.40800002 4282340162
0.016085355 -0.020229734 0.40900001 4279776535
0.017456364 -0.020279195 0.41000003 4279780129
0.01883387 -0.020328658 0.41100001 4279057176
0.020168798 -0.020328658 0.41100001 4279058459
0.021556048 -0.020378118 0.41200003 4278993179
0.022949792 -0.020427579 0.41300002 4279652391
0.024291217 -0.020427579 0.41300002 4279586598
0.025694707 -0.020477042 0.41400003 4279193636
0.027104691 -0.020526502 0.41500002 4279720748
0.028521173 -0.020575963 0.41600001 4279655982
0.029872341 -0.020575963 0.41600001 4279327019
0.031298567 -0.020625426 0.41700003 4280181815
0.032731287 -0.020674886 0.41800001 4280311604
0.017456364 -0.018947065 0.41000003 4279320094
0.01883387 -0.018993275 0.41100001 4279254814
0.020217871 -0.019039489 0.41200003 4278927386
0.021556048 -0.019039489 0.41200003 4278993949
0.022949792 -0.019085702 0.41300002 4279586598
0.024350034 -0.019131914 0.41400003 4279587111
0.025756771 -0.019178126 0.41500002 4279457578
0.027104691 -0.019178126 0.41500002 4279523885
0.028521173 -0.019224338 0.41600001 4279063847
0.029872341 -0.019224338 0.41600001 4280181815
0.031298567 -0.01927055 0.41700003 4280703030
0.017456364 -0.017614933 0.41000003 4281949767
0.01883387 -0.017657895 0.41100001 4278989593
0.020217871 -0.01770086 0.41200003 4279255586
0.021556048 -0.01770086 0.41200003 4278664730
0.022949792 -0.017743822 0.41300002 4279652904
0.024350034 -0.017786786 0.41400003 4279784490
0.025756771 -0.017829748 0.41500002 4279851566
0.027170002 -0.017872712 0.41600001 4279720752
0.028521173 -0.017872712 0.41600001 4279784240
0.01883387 -0.016322514 0.41100001 4286883474
0.022949792 -0.016401943 0.41300002 4280898104
0.024350034 -0.016441658 0.41400003 4280635704
0.025756771 -0.016481372 0.41500002 4281030973
0.035579696 -0.0344771 0.42376664 4294967295
0.035579696 -0.0344771 0.42376664 4294901760
0.035579696 -0.0344771 0.42426664 4294901760
0.035579696 -0.0344771 0.42476663 4294901760
0.035579696 -0.0344771 0.42526665 4294901760
0.035579696 -0.0344771 0.42576665 4294901760
0.035579696 -0.0344771 0.42626664 4294901760
0.035579696 -0.0344771 0.42676663 4294901760
0.035579696 -0.0344771 0.42726666 4294901760
0.035579696 -0.0344771 0.42776665 4294901760
0.035579696 -0.0344771 0.42826664 4294901760
0.035579696 -0.0344771 0.42876664 4294901760
0.035579696 -0.0344771 0.42926663 4294901760
0.035579696 -0.0344771 0.42976665 4294901760
0.035579696 -0.0344771 0.43026665 4294901760
0.035579696 -0.0344771 0.43076664 4294901760
0.035579696 -0.0344771 0.43126664 4294901760
0.035579696 -0.0344771 0.43176663 4294901760
0.035579696 -0.0344771 0.43226665 4294901760
0.035579696 -0.0344771 0.43276665 4294901760
0.035579696 -0.0344771 0.43326664 4294901760
0.035579696 -0.0344771 0.43376663 4294901760
0.035579696 -0.0344771 0.43426666 4294901760
0.035579696 -0.0344771 0.43476665 4294901760
0.035579696 -0.0344771 0.43526664 4294901760
0.035579696 -0.0344771 0.43576664 4294901760
0.035579696 -0.0344771 0.43626666 4294901760
0.035579696 -0.0344771 0.43676665 4294901760
0.035579696 -0.0344771 0.43726665 4294901760
0.035579696 -0.0344771 0.43776664 4294901760
0.035579696 -0.0344771 0.43826663 4294901760
0.035579696 -0.0344771 0.43876666 4294901760
0.035579696 -0.0344771 0.43926665 4294901760
0.035579696 -0.0344771 0.43976665 4294901760
0.035579696 -0.0344771 0.44026664 4294901760
0.035579696 -0.0344771 0.44076663 4294901760
0.035579696 -0.0344771 0.44126666 4294901760
0.035579696 -0.0344771 0.44176665 4294901760
0.035579696 -0.0344771 0.44226664 4294901760
0.035579696 -0.0344771 0.44276664 4294901760
0.035579696 -0.0344771 0.44326666 4294901760
0.035579696 -0.0344771 0.44376665 4294901760
0.035579696 -0.0344771 0.44426665 4294901760
0.035579696 -0.0344771 0.44476664 4294901760
0.035579696 -0.0344771 0.44526666 4294901760
0.035579696 -0.0344771 0.44576666 4294901760
0.035579696 -0.0344771 0.44626665 4294901760
0.035579696 -0.0344771 0.44676664 4294901760
0.035579696 -0.0344771 0.44726664 4294901760
0.035579696 -0.0344771 0.44776666 4294901760
0.035579696 -0.0344771 0.44826666 4294901760
0.035579696 -0.0344771 0.44876665 4294901760
0.035579696 -0.0344771 0.44926664 4294901760
0.035579696 -0.0344771 0.44976664 4294901760
0.035579696 -0.0344771 0.45026666 4294901760
0.035579696 -0.0344771 0.45076665 4294901760
0.035579696 -0.0344771 0.45126665 4294901760
0.035579696 -0.0344771 0.45176664 4294901760
0.035579696 -0.0344771 0.45226663 4294901760
0.035579696 -0.0344771 0.45276666 4294901760
0.035579696 -0.0344771 0.45326665 4294901760
0.035579696 -0.0344771 0.45376664 4294901760
0.035579696 -0.0344771 0.45426664 4294901760
0.035579696 -0.0344771 0.45476666 4294901760
0.035579696 -0.0344771 0.45526665 4294901760
0.035579696 -0.0344771 0.45576665 4294901760
0.035579696 -0.0344771 0.45626664 4294901760
0.035579696 -0.0344771 0.45676666 4294901760
0.035579696 -0.0344771 0.45726666 4294901760
0.035579696 -0.0344771 0.45776665 4294901760
0.035579696 -0.0344771 0.45826665 4294901760
0.035579696 -0.0344771 0.45876664 4294901760
0.035579696 -0.0344771 0.45926666 4294901760
0.035579696 -0.0344771 0.45976666 4294901760
0.035579696 -0.0344771 0.46026665 4294901760
0.035579696 -0.0344771 0.46076664 4294901760
0.035579696 -0.0344771 0.46126664 4294901760
0.035579696 -0.0344771 0.46176666 4294901760
0.035579696 -0.0344771 0.46226665 4294901760
0.035579696 -0.0344771 0.46276665 4294901760
0.035579696 -0.0344771 0.46326664 4294901760
0.035579696 -0.0344771 0.46376666 4294901760
0.035579696 -0.0344771 0.46426666 4294901760
0.035579696 -0.0344771 0.46476665 4294901760
0.035579696 -0.0344771 0.46526664 4294901760
0.035579696 -0.0344771 0.46576664 4294901760
0.035579696 -0.0344771 0.46626666 4294901760
0.035579696 -0.0344771 0.46676666 4294901760
0.035579696 -0.0344771 0.46726665 4294901760
0.035579696 -0.0344771 0.46776664 4294901760
0.035579696 -0.0344771 0.46826667 4294901760
0.035579696 -0.0344771 0.46876666 4294901760
0.035579696 -0.0344771 0.46926665 4294901760
0.035579696 -0.0344771 0.46976665 4294901760
0.035579696 -0.0344771 0.47026664 4294901760
0.035579696 -0.0344771 0.47076666 4294901760
0.035579696 -0.0344771 0.47126666 4294901760
0.035579696 -0.0344771 0.47176665 4294901760
0.035579696 -0.0344771 0.47226664 4294901760
0.035579696 -0.0344771 0.47276667 4294901760
0.035579696 -0.0344771 0.47326666 4294901760
0.035579696 -0.0344771 0.47376665 4294901760
0.035579696 -0.0344771 0.42376664 4278255360
0.035393231 -0.034215748 0.42414996 4278255360
0.035206765 -0.033954397 0.42453325 4278255360
0.035020303 -0.033693045 0.42491657 4278255360
0.034833837 -0.033431694 0.42529988 4278255360
0.034647372 -0.033170342 0.4256832 4278255360
0.034460906 -0.032908987 0.42606649 4278255360
0.03427444 -0.032647636 0.42644981 4278255360
0.034087978 -0.032386284 0.42683312 4278255360
0.033901513 -0.032124933 0.42721644 4278255360
0.033715047 -0.031863581 0.42759973 4278255360
0.033528581 -0.03160223 0.42798305 4278255360
0.033342116 -0.031340878 0.42836636 4278255360
0.033155654 -0.031079527 0.42874965 4278255360
0.032969188 -0.030818176 0.42913297 4278255360
0.032782722 -0.030556822 0.42951629 4278255360
0.032596257 -0.030295471 0.4298996 4278255360
0.032409795 -0.030034119 0.43028289 4278255360
0.032223329 -0.029772768 0.43066621 4278255360
0.032036863 -0.029511414 0.43104953 4278255360
0.031850398 -0.029250063 0.43143284 4278255360
0.031663932 -0.028988712 0.43181613 4278255360
0.031477466 -0.02872736 0.43219945 4278255360
0.031291004 -0.028466009 0.43258277 4278255360
0.031104539 -0.028204657 0.43296605 4278255360
0.030918073 -0.027943306 0.43334937 4278255360
0.030731609 -0.027681954 0.43373269 4278255360
0.030545143 -0.027420601 0.43411601 4278255360
0.03035868 -0.027159249 0.43449929 4278255360
0.030172214 -0.026897898 0.43488261 4278255360
0.029985748 -0.026636545 0.43526593 4278255360
0.029799284 -0.026375193 0.43564925 4278255360
0.029612819 -0.026113842 0.43603253 4278255360
0.029426355 -0.02585249 0.43641585 4278255360
0.029239889 -0.025591139 0.43679917 4278255360
0.029053424 -0.025329787 0.43718249 4278255360
0.028866958 -0.025068436 0.43756577 4278255360
0.028680494 -0.024807084 0.43794909 4278255360
0.02849403 -0.024545731 0.43833241 4278255360
0.028307565 -0.02428438 0.4387157 4278255360
0.028121099 -0.024023026 0.43909901 4278255360
0.027934635 -0.023761675 0.43948233 4278255360
0.027748171 -0.023500323 0.43986565 4278255360
0.027561706 -0.023238972 0.44024894 4278255360
0.02737524 -0.02297762 0.44063225 4278255360
0.027188774 -0.022716269 0.44101557 4278255360
0.02700231 -0.022454917 0.44139889 4278255360
0.026815847 -0.022193566 0.44178218 4278255360
0.026629381 -0.021932214 0.44216549 4278255360
0.026442915 -0.021670861 0.44254881 4278255360
0.02625645 -0.02140951 0.44293213 4278255360
0.026069986 -0.021148158 0.44331542 4278255360
0.025883522 -0.020886807 0.44369873 4278255360
0.025697056 -0.020625455 0.44408205 4278255360
0.025510591 -0.020364102 0.44446534 4278255360
0.025324125 -0.020102751 0.44484866 4278255360
0.025137661 -0.019841399 0.44523197 4278255360
0.024951197 -0.019580048 0.44561529 4278255360
0.024764732 -0.019318696 0.44599858 4278255360
0.024578266 -0.019057345 0.4463819 4278255360
0.0243918 -0.018795991 0.44676521 4278255360
0.024205336 -0.01853464 0.44714853 4278255360
0.024018873 -0.018273288 0.44753182 4278255360
0.023832407 -0.018011937 0.44791514 4278255360
0.023645941 -0.017750585 0.44829845 4278255360
0.023459477 -0.017489234 0.44868174 4278255360
0.023273012 -0.017227881 0.44906506 4278255360
0.023086548 -0.016966529 0.44944838 4278255360
0.022900082 -0.016705178 0.44983169 4278255360
0.022713616 -0.016443826 0.45021498 4278255360
0.022527153 -0.016182475 0.4505983 4278255360
0.022340689 -0.015921123 0.45098162 4278255360
0.022154221 -0.01565977 0.45136493 4278255360
0.021967757 -0.015398419 0.45174822 4278255360
0.021781292 -0.015137067 0.45213154 4278255360
0.021594828 -0.014875714 0.45251486 4278255360
0.021408364 -0.014614362 0.45289814 4278255360
0.021221898 -0.014353011 0.45328146 4278255360
0.021035433 -0.014091659 0.45366478 4278255360
0.020848967 -0.013830306 0.4540481 4278255360
0.020662501 -0.013568955 0.45443138 4278255360
0.020476038 -0.013307603 0.4548147 4278255360
0.020289574 -0.013046252 0.45519802 4278255360
0.020103108 -0.0127849 0.45558134 4278255360
0.019916644 -0.012523549 0.45596462 4278255360
0.019730179 -0.012262195 0.45634794 4278255360
0.019543713 -0.012000844 0.45673126 4278255360
0.019357249 -0.011739492 0.45711458 4278255360
0.019170783 -0.011478141 0.45749786 4278255360
0.01898432 -0.011216789 0.45788118 4278255360
0.018797854 -0.010955438 0.4582645 4278255360
0.018611388 -0.010694085 0.45864779 4278255360
0.018424924 -0.010432733 0.45903111 4278255360
0.018238459 -0.010171382 0.45941442 4278255360
0.018051995 -0.0099100303 0.45979774 4278255360
0.017865529 -0.0096486788 0.46018103 4278255360
0.017679065 -0.0093873274 0.46056435 4278255360
0.017492598 -0.009125974 0.46094766 4278255360
0.017306134 -0.0088646226 0.46133098 4278255360
0.017119668 -0.0086032711 0.46171427 4278255360
0.016933205 -0.0083419196 0.46209759 4278255360
