# .PCD v0.7 - Point Cloud Data file format
VERSION 0.7
FIELDS x y z rgb
SIZE 4 4 4 4
TYPE F F F U
COUNT 1 1 1 1
WIDTH 882
HEIGHT 1
VIEWPOINT 0 0 0 1 0 0 0
POINTS 882
DATA ascii
-0.13813344 0.019118302 0.546 4280111143
-0.13636003 0.019118302 0.546 4279980324
-0.13458663 0.019118302 0.546 4279915301
-0.13305648 0.019153317 0.54700005 4279915299
-0.13127981 0.019153317 0.54700005 4279849506
-0.13888191 0.020739255 0.54200006 4279913768
-0.13712148 0.020739255 0.54200006 4279586082
-0.13536108 0.020739255 0.54200006 4279389471
-0.12973991 0.02096884 0.54800004 4279323676
-0.1286605 0.021083632 0.551 4279389469
-0.12733138 0.021160161 0.55300003 4279257883
-0.12598924 0.02123669 0.55500001 4279389469
-0.12463412 0.021313218 0.55700004 4279455262
-0.1230455 0.021351483 0.55800003 4279323676
-0.12166764 0.021428011 0.56 4279389471
-0.12027679 0.02150454 0.56200004 4279849508
-0.11887294 0.021581069 0.56400001 4280111395
-0.11745612 0.021657597 0.56600004 4280374567
-0.13785695 0.022334214 0.53800005 4279453217
-0.13585651 0.0222927 0.537 4279387933
-0.12710112 0.022915402 0.55200005 4279192090
-0.12576224 0.022998428 0.55400002 4278994713
-0.12441037 0.023081455 0.55600005 4278929433
-0.1230455 0.023164481 0.55800003 4278929433
-0.12145038 0.023205994 0.55900002 4279061017
-0.12006278 0.023289023 0.56100005 4279126810
-0.11866218 0.023372049 0.56300002 4279127064
-0.11745612 0.023496589 0.56600004 4279192857
-0.13683198 0.02390318 0.53400004 4279386654
-0.13484456 0.023858419 0.53300005 4279453728
-0.13286363 0.023813654 0.53200001 4279059740
-0.12576224 0.024798431 0.55400002 4278994713
-0.12441037 0.024887957 0.55600005 4278928920
-0.12282499 0.024932718 0.55700004 4278863127
-0.12123311 0.024977481 0.55800003 4278994713
-0.11984876 0.025067003 0.56 4278928920
-0.11845142 0.025156531 0.56200004 4279257371
-0.088430658 0.022202205 0.49600002 4279586598
-0.086819649 0.022202205 0.49600002 4280310323
-0.082923457 0.022023154 0.49200001 4279914027
-0.081325442 0.022023154 0.49200001 4281160503
-0.079727426 0.022023154 0.49200001 4283264855
-0.078129411 0.022023154 0.49200001 4285303925
-0.076375842 0.021978391 0.49100003 4286355843
-0.074781075 0.021978391 0.49100003 4285697401
-0.13606326 0.025494168 0.53100002 4279649826
-0.13383259 0.025398144 0.52900004 4279519008
-0.13186465 0.025350131 0.528 4279585314
-0.13014971 0.025350131 0.528 4279453728
-0.12819152 0.02530212 0.52700001 4279322912
-0.12623982 0.02525411 0.52600002 4279453215
-0.12382111 0.025110073 0.523 4279320348
-0.12282499 0.02674247 0.55700004 4279190556
-0.12123311 0.026790481 0.55800003 4279059740
-0.098430984 0.024293877 0.50600004 4278928666
-0.096596204 0.024245864 0.505 4278994459
-0.094767936 0.024197852 0.50400001 4279191838
-0.092761382 0.024101831 0.50200003 4278928666
-0.090404741 0.023909785 0.49800003 4278994459
-0.088430658 0.02381376 0.49600002 4279060765
-0.086644612 0.02376575 0.49500003 4279258146
-0.084865063 0.023717737 0.49400002 4278797595
-0.083092004 0.023669727 0.49300003 4279587111
-0.081325442 0.023621714 0.49200001 4279652902
-0.079727426 0.023621714 0.49200001 4279849770
-0.078129411 0.023621714 0.49200001 4280507702
-0.076531388 0.023621714 0.49200001 4279783725
-0.074781075 0.023573702 0.49100003 4279848236
-0.073186301 0.023573702 0.49100003 4281491778
-0.13529454 0.027065657 0.528 4279715617
-0.1333266 0.027014397 0.52700001 4279649824
-0.13111542 0.026911877 0.52500004 4279519008
-0.12916373 0.026860617 0.52400005 4279453728
-0.12721851 0.026809353 0.523 4279387935
-0.12551981 0.026809353 0.523 4278465552
-0.12311087 0.026655573 0.52000004 4278199301
-0.1211884 0.026604313 0.51900005 4279780129
-0.11858166 0.02639927 0.51500005 4278592269
-0.11668193 0.026348006 0.514 4278657037
-0.11411743 0.026142966 0.51000005 4278787853
-0.11224042 0.026091704 0.509 4278524681
-0.11015267 0.025989184 0.50700003 4278393863
-0.10829192 0.025937922 0.50600004 4278263304
-0.10664843 0.025937922 0.50600004 4278197507
-0.10479741 0.02588666 0.505 4279187478
-0.1029529 0.0258354 0.50400001 4279254555
-0.10131591 0.0258354 0.50400001 4279584033
-0.099481143 0.02578414 0.50300002 4279256351
-0.098041922 0.0258354 0.50400001 4278993179
-0.096213654 0.02578414 0.50300002 4278993947
-0.094391875 0.02573288 0.50200003 4279059740
-0.092576601 0.02568162 0.50100005 4279125531
-0.090404741 0.025527837 0.49800003 4279125531
-0.088430658 0.025425315 0.49600002 4279059738
-0.086644612 0.025374055 0.49500003 4279257117
-0.084865063 0.025322793 0.49400002 4278994459
-0.083092004 0.025271533 0.49300003 4278994459
-0.081325442 0.025220271 0.49200001 4278928666
-0.079727426 0.025220271 0.49200001 4279191838
-0.078129411 0.025220271 0.49200001 4279192353
-0.076531388 0.025220271 0.49200001 4279258146
-0.07493338 0.025220271 0.49200001 4279784492
-0.073335357 0.025220271 0.49200001 4279652906
-0.071737342 0.025220271 0.49200001 4280178737
-0.070139319 0.025220271 0.49200001 4282083915
-0.068541311 0.025220271 0.49200001 4280437039
-0.13478206 0.028672164 0.52600002 4279517977
-0.13282062 0.028617654 0.52500004 4279715869
-0.13086569 0.028563146 0.52400005 4279716385
-0.12867074 0.028454125 0.52200001 4279519006
-0.12673202 0.028399615 0.52100003 4279453213
-0.12479982 0.028345106 0.52000004 4279715106
-0.12263735 0.028236084 0.51800001 4280173860
-0.12072138 0.028181575 0.51700002 4280437545
-0.11835139 0.028018044 0.514 4278985232
-0.11645492 0.027963536 0.51300001 4278984721
-0.11411743 0.027800009 0.51000005 4279049744
-0.11224042 0.027745496 0.509 4278786572
-0.11015267 0.027636478 0.50700003 4278983183
-0.10829192 0.027581969 0.50600004 4278852111
-0.10643765 0.027527457 0.505 4278852111
-0.10479741 0.027527457 0.505 4279116566
-0.1029529 0.027472947 0.50400001 4279319326
-0.10111488 0.027418438 0.50300002 4279779877
-0.099481143 0.027418438 0.50300002 4278990361
-0.097847402 0.027418438 0.50300002 4278199303
-0.096022375 0.027363928 0.50200003 4278197248
-0.094203845 0.02730942 0.50100005 4278198018
-0.092207029 0.027200399 0.49900001 4278198275
-0.090223201 0.027091378 0.49700001 4278792468
-0.088430658 0.02703687 0.49600002 4278924820
-0.086469568 0.026927849 0.49400002 4279517725
-0.084693268 0.026873341 0.49300003 4279255836
-0.083092004 0.026873341 0.49300003 4279321629
-0.081325442 0.026818831 0.49200001 4279256601
-0.079727426 0.026818831 0.49200001 4279257371
-0.078129411 0.026818831 0.49200001 4279322912
-0.076531388 0.026818831 0.49200001 4279257119
-0.07493338 0.026818831 0.49200001 4279454498
-0.073335357 0.026818831 0.49200001 4279191840
-0.071737342 0.026818831 0.49200001 4279126560
-0.070139319 0.026818831 0.49200001 4278205203
-0.068402 0.02676432 0.49100003 4284454262
-0.066807225 0.02676432 0.49100003 4279124259
-0.065212458 0.02676432 0.49100003 4279778596
-0.13675 0.03043895 0.52700001 4280764712
-0.13452582 0.030323433 0.52500004 4279517977
-0.13256763 0.030265674 0.52400005 4279650076
-0.13061593 0.030207913 0.523 4279519006
-0.12842424 0.030092398 0.52100003 4279519006
-0.12648879 0.030034639 0.52000004 4279453213
-0.12455983 0.02997688 0.51900005 4280175655
-0.1224006 0.029861361 0.51700002 4279844895
-0.12025438 0.029745845 0.51500005 4280108580
-0.11812114 0.029630324 0.51300001 4279051025
-0.11622792 0.029572567 0.51200002 4279774748
-0.11411743 0.029457049 0.51000005 4279577371
-0.11201991 0.02934153 0.50800002 4278260998
-0.11015267 0.029283771 0.50700003 4279511578
-0.10829192 0.029226014 0.50600004 4279313686
-0.10643765 0.029168252 0.505 4280432167
-0.10479741 0.029168252 0.505 4279379992
-0.1029529 0.029110495 0.50400001 4279582750
-0.10111488 0.029052736 0.50300002 4278727187
-0.099283367 0.028994977 0.50200003 4278727187
-0.097652875 0.028994977 0.50200003 4279582496
-0.095831096 0.028937221 0.50100005 4279648289
-0.094015807 0.028879458 0.5 4279517473
-0.092022248 0.028763942 0.49800003 4279320094
-0.090223201 0.028706182 0.49700001 4279714852
-0.088252373 0.028590666 0.49500003 4279845920
-0.086469568 0.028532906 0.49400002 4280306471
-0.084693268 0.028475147 0.49300003 4279450650
-0.083092004 0.028475147 0.49300003 4278397962
-0.081325442 0.028417388 0.49200001 4278200072
-0.079727426 0.028417388 0.49200001 4278198787
-0.078129411 0.028417388 0.49200001 4278199817
-0.076531388 0.028417388 0.49200001 4278464785
-0.074781075 0.028359629 0.49100003 4279256349
-0.073186301 0.028359629 0.49100003 4279257119
-0.071591534 0.028359629 0.49100003 4279059740
-0.069996759 0.028359629 0.49100003 4279322914
-0.068402 0.028359629 0.49100003 4279257635
-0.066807225 0.028359629 0.49100003 4278928670
-0.065212458 0.028359629 0.49100003 4279451682
-0.13675 0.032151226 0.52700001 4280633126
-0.13452582 0.032029212 0.52500004 4279584029
-0.13256763 0.031968202 0.52400005 4279519006
-0.13036619 0.031846184 0.52200001 4279453215
-0.12842424 0.031785179 0.52100003 4279453215
-0.12648879 0.03172417 0.52000004 4279453215
-0.12431981 0.031602152 0.51800001 4278333453
-0.12216385 0.031480137 0.51600003 4279186965
-0.12025438 0.031419132 0.51500005 4280108580
-0.11812114 0.031297114 0.51300001 4278985230
-0.11600091 0.031175099 0.51100004 4278260996
-0.11389366 0.031053081 0.509 4279248404
-0.11201991 0.030992074 0.50800002 4278524683
-0.11015267 0.030931067 0.50700003 4278589709
-0.10829192 0.03087006 0.50600004 4280037920
-0.10643765 0.030809049 0.505 4279051025
-0.10479741 0.030809049 0.505 4279578139
-0.1029529 0.030748041 0.50400001 4279779875
-0.10111488 0.030687034 0.50300002 4278461707
-0.099283367 0.030626027 0.50200003 4278197511
-0.097652875 0.030626027 0.50200003 4278198022
-0.095831096 0.03056502 0.50100005 4279845668
-0.093827777 0.030443002 0.49900001 4280306219
-0.092022248 0.030381994 0.49800003 4278858773
-0.090041667 0.030259978 0.49600002 4279385887
-0.088252373 0.030198971 0.49500003 4279386650
-0.086469568 0.030137962 0.49400002 4279386650
-0.084693268 0.030076955 0.49300003 4279584029
-0.083092004 0.030076955 0.49300003 4279320857
-0.081325442 0.030015945 0.49200001 4279584031
-0.079727426 0.030015945 0.49200001 4279584033
-0.078129411 0.030015945 0.49200001 4279452193
-0.076531388 0.030015945 0.49200001 4279978024
-0.074781075 0.029954938 0.49100003 4279715619
-0.073186301 0.029954938 0.49100003 4279322914
-0.071591534 0.029954938 0.49100003 4279125535
-0.069996759 0.029954938 0.49100003 4279059742
-0.068402 0.029954938 0.49100003 4278993949
-0.066807225 0.029954938 0.49100003 4278928156
-0.065212458 0.029954938 0.49100003 4279189275
-0.13700949 0.033927761 0.528 4279712535
-0.13478206 0.03379925 0.52600002 4279452697
-0.13282062 0.033734992 0.52500004 4279650846
-0.13061593 0.033606477 0.523 4279453726
-0.12867074 0.03354222 0.52200001 4279387933
-0.12648879 0.033413704 0.52000004 4279190556
-0.12431981 0.033285189 0.51800001 4279519010
-0.12216385 0.033156678 0.51600003 4280108580
-0.12002087 0.033028159 0.514 4279516443
-0.11812114 0.032963905 0.51300001 4278919439
-0.11600091 0.03283539 0.51100004 4278983435
-0.11389366 0.032706875 0.509 4279180816
-0.11201991 0.032642618 0.50800002 4279114769
-0.11015267 0.032578364 0.50700003 4279114769
-0.10829192 0.032514106 0.50600004 4278983437
-0.10643765 0.032449845 0.505 4278655756
-0.10479741 0.032449845 0.505 4279841824
-0.1029529 0.032385591 0.50400001 4279055386
-0.10111488 0.032321334 0.50300002 4278658064
-0.099283367 0.032257076 0.50200003 4278328583
-0.097458348 0.032192823 0.50100005 4278660115
-0.09563981 0.032128561 0.5 4279516703
-0.093827777 0.032064304 0.49900001 4278661394
-0.092022248 0.03200005 0.49800003 4279516703
-0.090041667 0.031871535 0.49600002 4278200843
-0.088252373 0.031807277 0.49500003 4278858259
-0.086469568 0.03174302 0.49400002 4279186711
-0.084693268 0.031678762 0.49300003 4278727441
-0.083092004 0.031678762 0.49300003 4278530062
-0.081325442 0.031614505 0.49200001 4279977508
-0.079727426 0.031614505 0.49200001 4278399246
-0.078129411 0.031614505 0.49200001 4279320861
-0.076375842 0.031550247 0.49100003 4279584033
-0.074781075 0.031550247 0.49100003 4279781158
-0.073186301 0.031550247 0.49100003 4279190558
-0.071591534 0.031550247 0.49100003 4279256351
-0.069996759 0.031550247 0.49100003 4279256351
-0.068402 0.031550247 0.49100003 4279190558
-0.066807225 0.031550247 0.49100003 4278993179
-0.065212458 0.031550247 0.49100003 4279123482
-0.063617691 0.031550247 0.49100003 4282344007
-0.13752846 0.035778299 0.53000003 4280435745
-0.13529454 0.035643287 0.528 4279584029
-0.13307361 0.035508275 0.52600002 4279388187
-0.13111542 0.035440769 0.52500004 4279388187
-0.12891723 0.035305757 0.523 4279256601
-0.12673202 0.035170745 0.52100003 4279124761
-0.12479982 0.035103239 0.52000004 4278201866
-0.1224006 0.034900717 0.51700002 4278727957
-0.12025438 0.034765709 0.51500005 4279649059
-0.11812114 0.034630693 0.51300001 4280108326
-0.11600091 0.034495682 0.51100004 4280238629
-0.11411743 0.034428179 0.51000005 4279776283
-0.11201991 0.034293164 0.50800002 4279513111
-0.11015267 0.034225658 0.50700003 4278657035
-0.10829192 0.034158152 0.50600004 4278458888
-0.10643765 0.034090642 0.505 4278918928
-0.10479741 0.034090642 0.505 4280565547
-0.1029529 0.034023136 0.50400001 4279647010
-0.10111488 0.033955634 0.50300002 4280040487
-0.099283367 0.033888128 0.50200003 4280435243
-0.097458348 0.033820622 0.50100005 4279713570
-0.09563981 0.033753112 0.5 4279845668
-0.093827777 0.033685606 0.49900001 4279450910
-0.091837466 0.033550594 0.49700001 4278858773
-0.090041667 0.033483088 0.49600002 4280108840
-0.088252373 0.033415582 0.49500003 4278266638
-0.086469568 0.033348076 0.49400002 4278462736
-0.084693268 0.03328057 0.49300003 4278792720
-0.083092004 0.03328057 0.49300003 4279779615
-0.081325442 0.033213064 0.49200001 4279384090
-0.079727426 0.033213064 0.49200001 4279186713
-0.078129411 0.033213064 0.49200001 4279451934
-0.076375842 0.033145558 0.49100003 4279057176
-0.074781075 0.033145558 0.49100003 4279517727
-0.073186301 0.033145558 0.49100003 4279190045
-0.071591534 0.033145558 0.49100003 4279387937
-0.069996759 0.033145558 0.49100003 4279387935
-0.068262681 0.033078052 0.49000001 4279190556
-0.066671163 0.033078052 0.49000001 4279058970
-0.065212458 0.033145558 0.49100003 4279452447
-0.13606326 0.03757108 0.53100002 4279780125
-0.13408558 0.037500326 0.53000003 4279386137
-0.13186465 0.037358813 0.528 4279386650
-0.12965672 0.037217304 0.52600002 4279190041
-0.12746178 0.037075795 0.52400005 4279124761
-0.12527981 0.036934283 0.52200001 4279190554
-0.12263735 0.036651257 0.51800001 4279256349
-0.12048788 0.036509749 0.51600003 4279058970
-0.11835139 0.036368236 0.514 4279255836
-0.11622792 0.036226727 0.51200002 4279124252
-0.11411743 0.036085218 0.51000005 4279320859
-0.11224042 0.03601446 0.509 4279452445
-0.11015267 0.035872951 0.50700003 4279451932
-0.10829192 0.035802197 0.50600004 4279517725
-0.10643765 0.035731439 0.505 4279385887
-0.10479741 0.035731439 0.505 4279582496
-0.1029529 0.035660684 0.50400001 4280239912
-0.10111488 0.03558993 0.50300002 4280239912
-0.099283367 0.035519175 0.50200003 4279317529
-0.097458348 0.035448421 0.50100005 4278593806
-0.09563981 0.035377663 0.5 4278196992
-0.093827777 0.035306908 0.49900001 4278196736
-0.091837466 0.035165396 0.49700001 4278198538
-0.090041667 0.035094641 0.49600002 4278725908
-0.088252373 0.035023887 0.49500003 4279450144
-0.086469568 0.034953132 0.49400002 4279713570
-0.084693268 0.034882378 0.49300003 4279977254
-0.083092004 0.034882378 0.49300003 4279845922
-0.081325442 0.03481162 0.49200001 4279648543
-0.079727426 0.03481162 0.49200001 4280108580
-0.078129411 0.03481162 0.49200001 4279648543
-0.076375842 0.034740865 0.49100003 4278464269
-0.074781075 0.034740865 0.49100003 4279320607
-0.073186301 0.034740865 0.49100003 4279058972
-0.071445726 0.034670111 0.49000001 4279256351
-0.0698542 0.034670111 0.49000001 4279190556
-0.068262681 0.034670111 0.49000001 4279124763
-0.066671163 0.034670111 0.49000001 4279058457
-0.065079637 0.034670111 0.49000001 4279451934
-0.12287412 0.038408302 0.51900005 4279386137
-0.12072138 0.038260289 0.51700002 4279451930
-0.11835139 0.038038276 0.514 4279189271
-0.11622792 0.037890267 0.51200002 4278992662
-0.11411743 0.037742261 0.51000005 4279058457
-0.11224042 0.037668254 0.509 4279124250
-0.11036994 0.037594251 0.50800002 4279321629
-0.10850593 0.037520245 0.50700003 4279321629
-0.10664843 0.037446242 0.50600004 4279255836
-0.10479741 0.037372235 0.505 4279124250
-0.1029529 0.037298232 0.50400001 4279124250
-0.10111488 0.037224229 0.50300002 4279321629
-0.099283367 0.037150223 0.50200003 4279255836
-0.097458348 0.03707622 0.50100005 4279453215
-0.09563981 0.037002213 0.5 4279321631
-0.093827777 0.03692821 0.49900001 4279320607
-0.091837466 0.036780201 0.49700001 4279451680
-0.090041667 0.036706198 0.49600002 4279714852
-0.088252373 0.036632195 0.49500003 4280306221
-0.086469568 0.036558188 0.49400002 4280108842
-0.084693268 0.036484186 0.49300003 4279515678
-0.083092004 0.036484186 0.49300003 4278331404
-0.081325442 0.036410179 0.49200001 4278198019
-0.079727426 0.036410179 0.49200001 4278197762
-0.078129411 0.036410179 0.49200001 4278265611
-0.076375842 0.036336176 0.49100003 4278198790
-0.074781075 0.036336176 0.49100003 4279255586
-0.073186301 0.036336176 0.49100003 4279387937
-0.071445726 0.036262169 0.49000001 4279256351
-0.0698542 0.036262169 0.49000001 4279124765
-0.068262681 0.036262169 0.49000001 4279256349
-0.066671163 0.036262169 0.49000001 4279255066
-0.065079637 0.036262169 0.49000001 4278726673
-0.11645492 0.039631061 0.51300001 4279581723
-0.11434118 0.039476555 0.51100004 4279385371
-0.11224042 0.039322045 0.509 4279319576
-0.11036994 0.039244793 0.50800002 4279188760
-0.10850593 0.039167542 0.50700003 4278925588
-0.10664843 0.039090287 0.50600004 4279320859
-0.10479741 0.039013032 0.505 4279189273
-0.1029529 0.038935781 0.50400001 4279255066
-0.10111488 0.038858525 0.50300002 4279386652
-0.099283367 0.038781274 0.50200003 4279321629
-0.097458348 0.038704023 0.50100005 4279321629
-0.09563981 0.038626764 0.5 4279453215
-0.093827777 0.038549513 0.49900001 4279453215
-0.091837466 0.038395002 0.49700001 4279453215
-0.090041667 0.038317751 0.49600002 4279453215
-0.088252373 0.0382405 0.49500003 4279255838
-0.086469568 0.038163245 0.49400002 4279584803
-0.084693268 0.038085993 0.49300003 4279715619
-0.083092004 0.038085993 0.49300003 4279649826
-0.081325442 0.038008738 0.49200001 4279846692
-0.079727426 0.038008738 0.49200001 4279780899
-0.078129411 0.038008738 0.49200001 4279845668
-0.076375842 0.037931483 0.49100003 4279779875
-0.074781075 0.037931483 0.49100003 4279518756
-0.073186301 0.037931483 0.49100003 4279387683
-0.071445726 0.037854228 0.49000001 4279453730
-0.0698542 0.037854228 0.49000001 4279190558
-0.068262681 0.037854228 0.49000001 4279190556
-0.066671163 0.037854228 0.49000001 4279058457
-0.065079637 0.037854228 0.49000001 4278527500
-0.11434118 0.041136846 0.51100004 4278720515
-0.11224042 0.040975839 0.509 4278984201
-0.11036994 0.040895335 0.50800002 4278788103
-0.10850593 0.040814836 0.50700003 4279249424
-0.10664843 0.040734332 0.50600004 4279579670
-0.10479741 0.040653829 0.505 4279054609
-0.1029529 0.040573325 0.50400001 4279449113
-0.10111488 0.040492825 0.50300002 4279515676
-0.099283367 0.040412322 0.50200003 4279648291
-0.097458348 0.040331822 0.50100005 4279911463
-0.09563981 0.040251315 0.5 4280306219
-0.093827777 0.040170815 0.49900001 4279977254
-0.091837466 0.040009808 0.49700001 4279977508
-0.090041667 0.039929304 0.49600002 4280043299
-0.088252373 0.039848804 0.49500003 4279781412
-0.086469568 0.039768301 0.49400002 4279781412
-0.084865063 0.039768301 0.49400002 4279649826
-0.083092004 0.039687797 0.49300003 4279715619
-0.081490733 0.039687797 0.49300003 4279781412
-0.079727426 0.039607294 0.49200001 4279781412
-0.078129411 0.039607294 0.49200001 4279584033
-0.076375842 0.039526794 0.49100003 4279584033
-0.074781075 0.039526794 0.49100003 4279781412
-0.073186301 0.039526794 0.49100003 4279584033
-0.071591534 0.039526794 0.49100003 4279453217
-0.0698542 0.039446291 0.49000001 4279255838
-0.068262681 0.039446291 0.49000001 4279321631
-0.066671163 0.039446291 0.49000001 4279386141
-0.065079637 0.039446291 0.49000001 4281420858
-0.09563981 0.041875865 0.5 4285170542
-0.093827777 0.041792113 0.49900001 4284775786
-0.091837466 0.041624609 0.49700001 4283592025
-0.090041667 0.041540861 0.49600002 4282803023
-0.088252373 0.041457109 0.49500003 4281356860
-0.086469568 0.041373357 0.49400002 4281158968
-0.084865063 0.041373357 0.49400002 4280500266
-0.083092004 0.041289605 0.49300003 4280040485
-0.081490733 0.041289605 0.49300003 4279974946
-0.079727426 0.041205853 0.49200001 4279908383
-0.078129411 0.041205853 0.49200001 4279383322
-0.076375842 0.041122101 0.49100003 4279647264
-0.074781075 0.041122101 0.49100003 4279844643
-0.073186301 0.041122101 0.49100003 4279844391
-0.071591534 0.041122101 0.49100003 4279713318
-0.069996759 0.041122101 0.49100003 4279516453
-0.068402 0.041122101 0.49100003 4279252254
-0.066671163 0.041038349 0.49000001 4282145865
-0.090041667 0.043152414 0.49600002 4286090876
-0.088252373 0.043065414 0.49500003 4286222460
-0.086644612 0.043065414 0.49500003 4286288253
-0.084865063 0.042978413 0.49400002 4285959288
-0.083260544 0.042978413 0.49400002 4285761909
-0.081490733 0.042891413 0.49300003 4285828474
-0.079727426 0.042804409 0.49200001 4285894265
-0.078129411 0.042804409 0.49200001 4286157437
-0.076531388 0.042804409 0.49200001 4285762679
-0.074781075 0.042717412 0.49100003 4286091644
-0.073186301 0.042717412 0.49100003 4286091644
-0.071591534 0.042717412 0.49100003 4285828474
-0.069996759 0.042717412 0.49100003 4285960060
-0.068402 0.042717412 0.49100003 4285631095
-0.086644612 0.044673722 0.49500003 4286156156
-0.084865063 0.044583473 0.49400002 4286156158
-0.083260544 0.044583473 0.49400002 4286287744
-0.081490733 0.044493224 0.49300003 4286222464
-0.079889476 0.044493224 0.49300003 4286090878
-0.078129411 0.044402972 0.49200001 4286222462
-0.076531388 0.044402972 0.49200001 4286025083
-0.074781075 0.044312723 0.49100003 4285893499
-0.097784989 0.032112624 0.50566661 4294967295
-0.097784989 0.032112624 0.50566661 4294901760
-0.097745717 0.031614564 0.50564677 4294901760
-0.097706452 0.031116502 0.50562692 4294901760
-0.097667187 0.030618442 0.50560713 4294901760
-0.097627915 0.030120382 0.50558728 4294901760
-0.097588643 0.02962232 0.50556743 4294901760
-0.097549379 0.02912426 0.50554758 4294901760
-0.097510114 0.0286262 0.50552773 4294901760
-0.097470842 0.028128138 0.50550795 4294901760
-0.09743157 0.027630078 0.5054881 4294901760
-0.097392306 0.027132016 0.50546825 4294901760
-0.097353041 0.026633956 0.5054484 4294901760
-0.097313769 0.026135895 0.50542861 4294901760
-0.097274497 0.025637835 0.50540876 4294901760
-0.097235233 0.025139773 0.50538892 4294901760
-0.097195968 0.024641713 0.50536907 4294901760
-0.097156696 0.024143651 0.50534922 4294901760
-0.097117424 0.023645591 0.50532943 4294901760
-0.097078159 0.023147531 0.50530958 4294901760
-0.097038895 0.022649471 0.50528973 4294901760
-0.096999623 0.022151409 0.50526989 4294901760
-0.096960351 0.021653349 0.50525004 4294901760
-0.096921086 0.021155287 0.50523025 4294901760
-0.096881822 0.020657226 0.5052104 4294901760
-0.09684255 0.020159166 0.50519055 4294901760
-0.096803278 0.019661106 0.5051707 4294901760
-0.096764013 0.019163046 0.50515085 4294901760
-0.096724749 0.018664982 0.50513107 4294901760
-0.096685477 0.018166922 0.50511122 4294901760
-0.096646205 0.017668862 0.50509137 4294901760
-0.09660694 0.017170802 0.50507152 4294901760
-0.096567675 0.016672742 0.50505173 4294901760
-0.096528403 0.01617468 0.50503188 4294901760
-0.096489131 0.015676618 0.50501204 4294901760
-0.096449867 0.015178557 0.50499219 4294901760
-0.096410602 0.014680497 0.50497234 4294901760
-0.09637133 0.014182435 0.50495255 4294901760
-0.096332058 0.013684375 0.5049327 4294901760
-0.096292794 0.013186315 0.50491285 4294901760
-0.096253529 0.012688255 0.504893 4294901760
-0.096214257 0.012190193 0.50487316 4294901760
-0.096174985 0.011692133 0.50485337 4294901760
-0.096135721 0.011194073 0.50483352 4294901760
-0.096096456 0.010696011 0.50481367 4294901760
-0.096057184 0.010197951 0.50479382 4294901760
-0.096017912 0.0096998904 0.50477397 4294901760
-0.095978647 0.0092018284 0.50475419 4294901760
-0.095939383 0.0087037683 0.50473434 4294901760
-0.095900111 0.0082057081 0.50471449 4294901760
-0.095860839 0.0077076461 0.50469464 4294901760
-0.095821574 0.007209586 0.50467479 4294901760
-0.09578231 0.0067115258 0.504655 4294901760
-0.095743038 0.0062134657 0.50463516 4294901760
-0.095703766 0.0057154056 0.50461531 4294901760
-0.095664501 0.0052173417 0.50459546 4294901760
-0.095625237 0.0047192816 0.50457567 4294901760
-0.095585965 0.0042212214 0.50455582 4294901760
-0.095546693 0.0037231613 0.50453597 4294901760
-0.095507428 0.0032251012 0.50451612 4294901760
-0.095468163 0.002727041 0.50449628 4294901760
-0.095428891 0.0022289772 0.50447649 4294901760
-0.095389619 0.001730917 0.50445664 4294901760
-0.095350355 0.0012328569 0.50443679 4294901760
-0.09531109 0.00073479488 0.50441694 4294901760
-0.095271818 0.00023673475 0.50439709 4294901760
-0.095232546 -0.00026132539 0.50437731 4294901760
-0.095193282 -0.00075938925 0.50435746 4294901760
-0.095154017 -0.0012574494 0.50433761 4294901760
-0.095114745 -0.0017555095 0.50431776 4294901760
-0.095075473 -0.0022535697 0.50429791 4294901760
-0.095036209 -0.0027516298 0.50427812 4294901760
-0.094996944 -0.0032496899 0.50425828 4294901760
-0.094957672 -0.0037477538 0.50423843 4294901760
-0.0949184 -0.0042458139 0.50421858 4294901760
-0.094879135 -0.0047438741 0.50419879 4294901760
-0.094839871 -0.0052419342 0.50417894 4294901760
-0.094800599 -0.0057399943 0.50415909 4294901760
-0.094761327 -0.0062380545 0.50413924 4294901760
-0.094722062 -0.0067361146 0.5041194 4294901760
-0.094682798 -0.0072341785 0.50409961 4294901760
-0.094643526 -0.0077322386 0.50407976 4294901760
-0.094604254 -0.0082302988 0.50405991 4294901760
-0.094564989 -0.0087283589 0.50404006 4294901760
-0.094525725 -0.009226419 0.50402021 4294901760
-0.094486453 -0.0097244792 0.50400043 4294901760
-0.094447181 -0.010222543 0.50398058 4294901760
-0.094407916 -0.010720603 0.50396073 4294901760
-0.094368652 -0.011218663 0.50394088 4294901760
-0.094329379 -0.011716723 0.50392103 4294901760
-0.094290107 -0.012214784 0.50390124 4294901760
-0.094250843 -0.012712844 0.50388139 4294901760
-0.094211578 -0.013210908 0.50386155 4294901760
-0.094172306 -0.013708968 0.5038417 4294901760
-0.094133034 -0.014207028 0.50382191 4294901760
-0.09409377 -0.014705088 0.50380206 4294901760
-0.094054505 -0.015203148 0.50378221 4294901760
-0.094015233 -0.015701208 0.50376236 4294901760
-0.093975961 -0.016199272 0.50374252 4294901760
-0.093936697 -0.016697332 0.50372273 4294901760
-0.093897432 -0.017195392 0.50370288 4294901760
-0.09385816 -0.017693453 0.50368303 4294901760
-0.097784989 0.032112624 0.50566661 4278255360
-0.097399607 0.032155581 0.50535095 4278255360
-0.097014219 0.032198537 0.50503534 4278255360
-0.096628837 0.03224149 0.50471967 4278255360
-0.096243449 0.032284446 0.50440401 4278255360
-0.095858067 0.032327402 0.5040884 4278255360
-0.095472679 0.032370359 0.50377274 4278255360
-0.095087297 0.032413315 0.50345707 4278255360
-0.094701916 0.032456268 0.5031414 4278255360
-0.094316527 0.032499224 0.5028258 4278255360
-0.093931146 0.03254218 0.50251013 4278255360
-0.093545757 0.032585137 0.50219446 4278255360
-0.093160376 0.032628093 0.50187886 4278255360
-0.092774987 0.032671049 0.50156319 4278255360
-0.092389606 0.032714002 0.50124753 4278255360
-0.092004217 0.032756958 0.50093192 4278255360
-0.091618836 0.032799914 0.50061625 4278255360
-0.091233447 0.032842871 0.50030059 4278255360
-0.090848066 0.032885827 0.49998495 4278255360
-0.090462685 0.03292878 0.49966931 4278255360
-0.090077296 0.032971736 0.49935365 4278255360
-0.089691915 0.033014692 0.49903801 4278255360
-0.089306526 0.033057649 0.49872234 4278255360
-0.088921145 0.033100605 0.49840671 4278255360
-0.088535756 0.033143558 0.49809107 4278255360
-0.088150375 0.033186514 0.49777541 4278255360
-0.087764993 0.03322947 0.49745977 4278255360
-0.087379605 0.033272427 0.4971441 4278255360
-0.086994223 0.033315383 0.49682847 4278255360
-0.086608835 0.033358335 0.49651283 4278255360
-0.086223453 0.033401292 0.49619716 4278255360
-0.085838065 0.033444248 0.49588153 4278255360
-0.085452683 0.033487204 0.49556589 4278255360
-0.085067295 0.033530161 0.49525023 4278255360
-0.084681913 0.033573117 0.49493459 4278255360
-0.084296532 0.03361607 0.49461892 4278255360
-0.083911143 0.033659026 0.49430329 4278255360
-0.083525762 0.033701982 0.49398765 4278255360
-0.083140373 0.033744939 0.49367198 4278255360
-0.082754992 0.033787895 0.49335635 4278255360
-0.082369603 0.033830848 0.49304068 4278255360
-0.081984222 0.033873804 0.49272504 4278255360
-0.081598833 0.03391676 0.49240941 4278255360
-0.081213452 0.033959717 0.49209374 4278255360
-0.080828071 0.034002673 0.49177811 4278255360
-0.080442682 0.034045625 0.49146244 4278255360
-0.080057301 0.034088582 0.4911468 4278255360
-0.079671912 0.034131538 0.49083117 4278255360
-0.079286531 0.034174494 0.4905155 4278255360
-0.078901142 0.034217451 0.49019986 4278255360
-0.078515761 0.034260407 0.4898842 4278255360
-0.078130379 0.03430336 0.48956856 4278255360
-0.077744991 0.034346316 0.48925292 4278255360
-0.077359609 0.034389272 0.48893726 4278255360
-0.076974221 0.034432229 0.48862162 4278255360
-0.076588839 0.034475185 0.48830599 4278255360
-0.076203451 0.034518138 0.48799032 4278255360
-0.075818069 0.034561094 0.48767468 4278255360
-0.075432688 0.03460405 0.48735902 4278255360
-0.075047299 0.034647007 0.48704338 4278255360
-0.074661911 0.034689963 0.48672774 4278255360
-0.074276529 0.034732915 0.48641208 4278255360
-0.073891148 0.034775872 0.48609644 4278255360
-0.073505759 0.034818828 0.48578078 4278255360
-0.073120378 0.034861784 0.48546514 4278255360
-0.072734997 0.034904741 0.4851495 4278255360
-0.072349608 0.034947693 0.48483384 4278255360
-0.071964219 0.03499065 0.4845182 4278255360
-0.071578838 0.035033606 0.48420256 4278255360
-0.071193457 0.035076562 0.4838869 4278255360
-0.070808068 0.035119519 0.48357126 4278255360
-0.070422687 0.035162471 0.48325559 4278255360
-0.070037298 0.035205428 0.48293996 4278255360
-0.069651917 0.035248384 0.48262429 4278255360
-0.069266528 0.03529134 0.48230866 4278255360
-0.068881147 0.035334297 0.48199302 4278255360
-0.068495765 0.035377253 0.48167735 4278255360
-0.068110377 0.035420205 0.48136172 4278255360
-0.067724995 0.035463162 0.48104608 4278255360
-0.067339607 0.035506118 0.48073041 4278255360
-0.066954225 0.035549074 0.48041478 4278255360
-0.066568837 0.035592031 0.48009911 4278255360
-0.066183455 0.035634983 0.47978348 4278255360
-0.065798074 0.03567794 0.47946784 4278255360
-0.065412685 0.035720896 0.47915217 4278255360
-0.065027297 0.035763852 0.47883654 4278255360
-0.064641915 0.035806809 0.47852087 4278255360
-0.064256534 0.035849765 0.47820523 4278255360
-0.063871145 0.035892718 0.4778896 4278255360
-0.063485764 0.035935674 0.47757393 4278255360
-0.063100383 0.03597863 0.47725829 4278255360
-0.062714994 0.036021587 0.47694266 4278255360
-0.062329609 0.036064543 0.47662699 4278255360
-0.061944224 0.036107495 0.47631136 4278255360
-0.061558839 0.036150452 0.47599569 4278255360
-0.061173458 0.036193408 0.47568005 4278255360
-0.060788073 0.036236364 0.47536442 4278255360
-0.060402684 0.036279321 0.47504875 4278255360
-0.060017303 0.036322273 0.47473311 4278255360
-0.059631918 0.03636523 0.47441745 4278255360
-0.059246533 0.036408186 0.47410181 4278255360
-0.097784989 0.032112624 0.50566661 4278190335
-0.097544976 0.032114077 0.50610524 4278190335
-0.097304963 0.032115534 0.50654387 4278190335
-0.09706495 0.032116987 0.50698251 4278190335
-0.096824937 0.032118443 0.50742114 4278190335
-0.096584924 0.032119896 0.50785971 4278190335
-0.096344911 0.032121353 0.50829834 4278190335
-0.096104898 0.032122806 0.50873697 4278190335
-0.095864885 0.032124259 0.5091756 4278190335
-0.095624872 0.032125715 0.50961423 4278190335
-0.095384859 0.032127168 0.51005286 4278190335
-0.095144846 0.032128625 0.51049149 4278190335
-0.09490484 0.032130077 0.51093012 4278190335
-0.094664827 0.032131534 0.51136875 4278190335
-0.094424814 0.032132987 0.51180738 4278190335
-0.094184801 0.03213444 0.51224601 4278190335
-0.093944788 0.032135896 0.51268458 4278190335
-0.093704775 0.032137349 0.51312321 4278190335
-0.093464762 0.032138806 0.51356184 4278190335
-0.093224749 0.032140259 0.51400048 4278190335
-0.092984736 0.032141715 0.51443911 4278190335
-0.092744723 0.032143168 0.51487774 4278190335
-0.09250471 0.032144621 0.51531637 4278190335
-0.092264697 0.032146078 0.515755 4278190335
-0.092024684 0.03214753 0.51619363 4278190335
-0.091784671 0.032148987 0.5166322 4278190335
-0.091544658 0.03215044 0.51707083 4278190335
-0.091304645 0.032151897 0.51750946 4278190335
-0.091064632 0.032153349 0.51794809 4278190335
-0.090824619 0.032154802 0.51838672 4278190335
-0.090584606 0.032156259 0.51882535 4278190335
-0.090344593 0.032157712 0.51926398 4278190335
-0.09010458 0.032159168 0.51970261 4278190335
-0.089864567 0.032160621 0.52014124 4278190335
-0.089624554 0.032162078 0.52057987 4278190335
-0.089384541 0.032163531 0.52101851 4278190335
-0.089144528 0.032164983 0.52145708 4278190335
-0.088904515 0.03216644 0.52189571 4278190335
-0.088664502 0.032167893 0.52233434 4278190335
-0.088424496 0.032169349 0.52277297 4278190335
-0.088184483 0.032170802 0.5232116 4278190335
-0.08794447 0.032172259 0.52365023 4278190335
-0.087704457 0.032173712 0.52408886 4278190335
-0.087464444 0.032175165 0.52452749 4278190335
-0.087224431 0.032176621 0.52496612 4278190335
-0.086984418 0.032178074 0.52540469 4278190335
-0.086744405 0.032179531 0.52584332 4278190335
-0.086504392 0.032180984 0.52628195 4278190335
-0.086264379 0.03218244 0.52672058 4278190335
-0.086024366 0.032183893 0.52715921 4278190335
-0.085784353 0.032185346 0.52759784 4278190335
-0.08554434 0.032186802 0.52803648 4278190335
-0.085304327 0.032188255 0.52847511 4278190335
-0.085064314 0.032189712 0.52891374 4278190335
-0.084824301 0.032191165 0.52935237 4278190335
-0.084584288 0.032192621 0.529791 4278190335
-0.084344275 0.032194074 0.53022957 4278190335
-0.084104262 0.032195531 0.5306682 4278190335
-0.083864249 0.032196984 0.53110683 4278190335
-0.083624244 0.032198437 0.53154546 4278190335
-0.083384223 0.032199893 0.53198409 4278190335
-0.08314421 0.032201346 0.53242272 4278190335
-0.082904205 0.032202803 0.53286135 4278190335
-0.082664192 0.032204255 0.53329998 4278190335
-0.082424179 0.032205712 0.53373861 4278190335
-0.082184166 0.032207165 0.53417718 4278190335
-0.081944153 0.032208618 0.53461581 4278190335
-0.08170414 0.032210074 0.53505445 4278190335
-0.081464127 0.032211527 0.53549308 4278190335
-0.081224114 0.032212984 0.53593171 4278190335
-0.080984101 0.032214437 0.53637034 4278190335
-0.080744088 0.032215893 0.53680897 4278190335
-0.080504075 0.032217346 0.5372476 4278190335
-0.080264062 0.032218799 0.53768623 4278190335
-0.080024049 0.032220256 0.53812486 4278190335
-0.079784036 0.032221708 0.53856349 4278190335
-0.079544023 0.032223165 0.53900206 4278190335
-0.07930401 0.032224618 0.53944069 4278190335
-0.079063997 0.032226074 0.53987932 4278190335
-0.078823984 0.032227527 0.54031795 4278190335
-0.078583971 0.03222898 0.54075658 4278190335
-0.078343958 0.032230437 0.54119521 4278190335
-0.078103945 0.03223189 0.54163384 4278190335
-0.077863932 0.032233346 0.54207247 4278190335
-0.077623919 0.032234799 0.54251111 4278190335
-0.077383906 0.032236256 0.54294968 4278190335
-0.077143893 0.032237709 0.54338831 4278190335
-0.07690388 0.032239161 0.54382694 4278190335
-0.076663867 0.032240618 0.54426557 4278190335
-0.076423854 0.032242071 0.5447042 4278190335
-0.076183848 0.032243527 0.54514283 4278190335
-0.075943828 0.03224498 0.54558146 4278190335
-0.075703822 0.032246437 0.54602009 4278190335
-0.075463809 0.03224789 0.54645872 4278190335
-0.075223796 0.032249343 0.54689735 4278190335
-0.074983783 0.032250799 0.54733598 4278190335
-0.07474377 0.032252252 0.54777455 4278190335
-0.074503757 0.032253709 0.54821318 4278190335
-0.074263744 0.032255162 0.54865181 4278190335
-0.074023731 0.032256618 0.54909045 4278190335
-0.073783718 0.032258071 0.54952908 4278190335
-0.097784989 0.032112624 0.50566661 4294967295
-0.099225067 0.032103896 0.50303489 4294967295
-0.10066514 0.032095172 0.50040311 4294967295
-0.10210522 0.032086443 0.49777135 4294967295
-0.10354529 0.032077719 0.49513963 4294967295
-0.10498537 0.03206899 0.49250787 4294967295
-0.10642545 0.032060266 0.48987612 4294967295
-0.10786552 0.032051537 0.48724437 4294967295
-0.1093056 0.032042809 0.48461261 4294967295
-0.11074568 0.032034084 0.48198086 4294967295
-0.11218575 0.032025356 0.47934911 4294967295
-0.11362582 0.032016631 0.47671738 4294967295
-0.1150659 0.032007903 0.47408563 4294967295
-0.11650598 0.031999175 0.47145388 4294967295
-0.11794606 0.03199045 0.46882212 4294967295
-0.11938614 0.031981722 0.46619037 4294967295
-0.12082621 0.031972997 0.46355861 4294967295
-0.12226629 0.031964269 0.46092686 4294967295
-0.12370636 0.031955544 0.45829511 4294967295
-0.12514643 0.031946816 0.45566338 4294967295
-0.12658651 0.031938087 0.45303163 4294967295
-0.12802659 0.031929363 0.45039988 4294967295
-0.12946667 0.031920634 0.44776812 4294967295
-0.13090675 0.03191191 0.44513637 4294967295
-0.13234681 0.031903181 0.44250464 4294967295
-0.13378689 0.031894453 0.43987286 4294967295
-0.13522696 0.031885728 0.43724114 4294967295
-0.13666704 0.031877 0.43460938 4294967295
-0.13810712 0.031868275 0.43197763 4294967295
-0.1395472 0.031859547 0.42934588 4294967295
-0.14098728 0.031850822 0.42671412 4294967295
-0.14242736 0.031842094 0.42408237 4294967295
-0.14386743 0.031833366 0.42145061 4294967295
-0.14530751 0.031824641 0.41881889 4294967295
-0.14674759 0.031815913 0.41618714 4294967295
-0.14818765 0.031807188 0.41355538 4294967295
-0.14962773 0.03179846 0.41092363 4294967295
-0.15106781 0.031789735 0.40829188 4294967295
-0.15250789 0.031781007 0.40566012 4294967295
-0.15394796 0.031772278 0.40302837 4294967295
-0.15538804 0.031763554 0.40039665 4294967295
-0.15682811 0.031754825 0.39776489 4294967295
-0.15826818 0.031746101 0.39513314 4294967295
-0.15970826 0.031737372 0.39250138 4294967295
-0.16114834 0.031728644 0.38986963 4294967295
-0.16258842 0.031719919 0.38723791 4294967295
-0.1640285 0.031711191 0.38460612 4294967295
-0.16546857 0.031702466 0.3819744 4294967295
-0.16690865 0.031693738 0.37934265 4294967295
-0.16834873 0.031685013 0.37671089 4294967295
-0.16978881 0.031676285 0.37407914 4294967295
-0.17122889 0.031667557 0.37144738 4294967295
-0.17266895 0.031658832 0.36881566 4294967295
-0.17410903 0.031650104 0.36618388 4294967295
-0.1755491 0.031641379 0.36355215 4294967295
-0.17698918 0.031632651 0.36092037 4294967295
-0.17842926 0.031623926 0.35828865 4294967295
-0.17986932 0.031615198 0.35565689 4294967295
-0.1813094 0.031606469 0.35302514 4294967295
-0.18274948 0.031597745 0.35039341 4294967295
-0.18418956 0.031589016 0.34776163 4294967295
-0.18562964 0.031580292 0.34512991 4294967295
-0.18706971 0.031571563 0.34249812 4294967295
-0.18850979 0.031562835 0.3398664 4294967295
-0.18994987 0.03155411 0.33723465 4294967295
-0.19138995 0.031545382 0.33460289 4294967295
-0.19283003 0.031536657 0.33197114 4294967295
-0.1942701 0.031527929 0.32933939 4294967295
-0.19571018 0.031519204 0.32670766 4294967295
-0.19715025 0.031510476 0.32407588 4294967295
-0.19859032 0.031501748 0.32144415 4294967295
-0.2000304 0.031493023 0.3188124 4294967295
-0.20147048 0.031484295 0.31618065 4294967295
-0.20291056 0.03147557 0.31354889 4294967295
-0.20435062 0.031466842 0.31091714 4294967295
-0.2057907 0.031458117 0.30828542 4294967295
-0.20723078 0.031449389 0.30565363 4294967295
-0.20867085 0.03144066 0.30302191 4294967295
-0.21011093 0.031431936 0.30039015 4294967295
-0.21155101 0.031423207 0.2977584 4294967295
-0.21299109 0.031414483 0.29512665 4294967295
-0.21443117 0.031405754 0.29249489 4294967295
-0.21587124 0.031397026 0.28986317 4294967295
-0.21731132 0.031388301 0.28723142 4294967295
-0.21875139 0.031379573 0.28459966 4294967295
-0.22019148 0.031370848 0.28196788 4294967295
-0.22163156 0.03136212 0.27933615 4294967295
-0.22307163 0.031353395 0.2767044 4294967295
-0.22451168 0.031344667 0.27407265 4294967295
-0.22595176 0.031335939 0.27144092 4294967295
-0.22739184 0.031327214 0.26880917 4294967295
-0.22883192 0.031318486 0.26617742 4294967295
-0.230272 0.031309761 0.26354563 4294967295
-0.23171207 0.031301033 0.26091391 4294967295
-0.23315215 0.031292304 0.25828215 4294967295
-0.23459223 0.03128358 0.2556504 4294967295
-0.23603231 0.031274851 0.25301868 4294967295
-0.23747239 0.031266127 0.25038689 4294967295
-0.23891246 0.031257398 0.24775517 4294967295
-0.24035254 0.031248672 0.24512342 4294967295
-0.24179262 0.031239945 0.24249166 4294967295
