# .PCD v0.7 - Point Cloud Data file format
VERSION 0.7
FIELDS x y z rgb
SIZE 4 4 4 4
TYPE F F F U
COUNT 1 1 1 1
WIDTH 1067
HEIGHT 1
VIEWPOINT 0 0 0 1 0 0 0
POINTS 1067
DATA ascii
0.1117656 0.041363701 0.33700001 4279122197
0.11352996 0.041609187 0.33900002 4279122197
0.11496918 0.041731924 0.34 4278859025
0.1160735 0.041731924 0.34 4279056404
0.11752246 0.041854668 0.34100002 4279056404
0.11863004 0.041854668 0.34100002 4279121172
0.12008874 0.041977406 0.34200001 4278194432
0.12119956 0.041977406 0.34200001 4278989845
0.12266801 0.04210015 0.34300002 4278925590
0.12450383 0.042345632 0.34500003 4279057172
0.12598851 0.042468373 0.34600002 4278925586
0.1274797 0.04259111 0.347 4278794000
0.12860675 0.04259111 0.347 4278859793
0.035040949 0.042332664 0.33600003 4285236337
0.036024738 0.042206671 0.33500001 4285828989
0.037112817 0.042206671 0.33500001 4285828989
0.038314931 0.042332664 0.33600003 4285237366
0.039406262 0.042332664 0.33600003 4283921252
0.05047087 0.040694792 0.32300001 4279054357
0.051519971 0.040694792 0.32300001 4278989847
0.052569076 0.040694792 0.32300001 4278989847
0.053618181 0.040694792 0.32300001 4278727441
0.054667283 0.040694792 0.32300001 4278596625
0.055716392 0.040694792 0.32300001 4278794515
0.056765497 0.040694792 0.32300001 4278728722
0.057814602 0.040694792 0.32300001 4278730005
0.058863703 0.040694792 0.32300001 4278466833
0.059912808 0.040694792 0.32300001 4278335247
0.060961917 0.040694792 0.32300001 4278532626
0.062011018 0.040694792 0.32300001 4278203661
0.06306012 0.040694792 0.32300001 4278598419
0.064109229 0.040694792 0.32300001 4278598419
0.06515833 0.040694792 0.32300001 4278664212
0.066207439 0.040694792 0.32300001 4278532628
0.06725654 0.040694792 0.32300001 4278598421
0.068305649 0.040694792 0.32300001 4278532628
0.06935475 0.040694792 0.32300001 4278532115
0.070403859 0.040694792 0.32300001 4279382809
0.071674176 0.040820781 0.324 4278853644
0.072726525 0.040820781 0.324 4278859025
0.073778875 0.040820781 0.324 4278727437
0.074831232 0.040820781 0.324 4278260998
0.076117791 0.040946774 0.32500002 4278786572
0.077173397 0.040946774 0.32500002 4278194947
0.078469701 0.04107276 0.32600001 4279183383
0.079528548 0.04107276 0.32600001 4278657037
0.080834597 0.041198753 0.32700002 4278590474
0.081896693 0.041198753 0.32700002 4278195205
0.083212487 0.041324742 0.32800001 4278590474
0.084277831 0.041324742 0.32800001 4278325767
0.085603371 0.041450735 0.32900003 4279708955
0.086671971 0.041450735 0.32900003 4278657548
0.088007249 0.041576721 0.33000001 4278458377
0.089079089 0.041576721 0.33000001 4278458373
0.090150923 0.041576721 0.33000001 4279186195
0.091499202 0.041702714 0.33100003 4279055379
0.092574291 0.041702714 0.33100003 4278196740
0.09364938 0.041702714 0.33100003 4278457093
0.095010646 0.041828703 0.33200002 4278589193
0.096088983 0.041828703 0.33200002 4278920974
0.097167313 0.041828703 0.33200002 4279185941
0.098541565 0.041954692 0.333 4279318551
0.099623151 0.041954692 0.333 4278199816
0.10070474 0.041954692 0.333 4278264839
0.10209199 0.042080685 0.33400002 4279185943
0.10317682 0.042080685 0.33400002 4278856978
0.10457382 0.042206671 0.33500001 4278856976
0.10566189 0.042206671 0.33500001 4278661134
0.10706864 0.042332664 0.33600003 4278198784
0.10815997 0.042332664 0.33600003 4279187990
0.10957644 0.042458653 0.33700001 4278661646
0.11099943 0.042584646 0.33800003 4278198528
0.11209726 0.042584646 0.33800003 4278726925
0.11386485 0.042836621 0.34 4278794000
0.11496918 0.042836621 0.34 4278596621
0.1164149 0.042962614 0.34100002 4278859793
0.11752246 0.042962614 0.34100002 4278859793
0.11897792 0.043088604 0.34200001 4278990611
0.12008874 0.043088604 0.34200001 4278195712
0.12155395 0.043214593 0.34300002 4278924820
0.12302563 0.043340582 0.34400001 4278991381
0.12450383 0.043466575 0.34500003 4278991379
0.12598851 0.043592565 0.34600002 4279057172
0.1274797 0.04371855 0.347 4278991379
0.12860675 0.04371855 0.347 4278728207
0.1301077 0.043844543 0.34800002 4279515930
0.034936655 0.043295119 0.33500001 4285368438
0.036024738 0.043295119 0.33500001 4285171319
0.037112817 0.043295119 0.33500001 4285368184
0.038314931 0.04342436 0.33600003 4285303159
0.039406262 0.04342436 0.33600003 4285237366
0.040618118 0.043553598 0.33700001 4285237366
0.041960247 0.043812077 0.33900002 4285500538
0.04331537 0.044070557 0.34100002 4285828735
0.043127138 0.041744251 0.32300001 4279771670
0.04417624 0.041744251 0.32300001 4280429087
0.046417713 0.041873489 0.324 4280100635
0.047470067 0.041873489 0.324 4280826153
0.048522417 0.041873489 0.324 4279708953
0.04957477 0.041873489 0.324 4279119637
0.050627124 0.041873489 0.324 4279185943
0.051679473 0.041873489 0.324 4279055640
0.052569076 0.041744251 0.32300001 4278989847
0.053618181 0.041744251 0.32300001 4278727957
0.054667283 0.041744251 0.32300001 4278728211
0.055716392 0.041744251 0.32300001 4278728724
0.056765497 0.041744251 0.32300001 4278860308
0.057814602 0.041744251 0.32300001 4278663699
0.058863703 0.041744251 0.32300001 4278597906
0.059912808 0.041744251 0.32300001 4278532626
0.060961917 0.041744251 0.32300001 4278664212
0.062011018 0.041744251 0.32300001 4278664212
0.06306012 0.041744251 0.32300001 4278532626
0.064109229 0.041744251 0.32300001 4278466833
0.06515833 0.041744251 0.32300001 4278598419
0.066207439 0.041744251 0.32300001 4278730005
0.06725654 0.041744251 0.32300001 4278598419
0.068305649 0.041744251 0.32300001 4278598419
0.06935475 0.041744251 0.32300001 4278400529
0.070621818 0.041873489 0.324 4278195970
0.071674176 0.041873489 0.324 4278589191
0.072726525 0.041873489 0.324 4278859025
0.073778875 0.041873489 0.324 4279121683
0.0750622 0.04200273 0.32500002 4278260744
0.076117791 0.04200273 0.32500002 4278522886
0.077173397 0.04200273 0.32500002 4278522632
0.078469701 0.042131964 0.32600001 4278391046
0.079528548 0.042131964 0.32600001 4278456839
0.080834597 0.042261206 0.32700002 4278391046
0.081896693 0.042261206 0.32700002 4278456839
0.083212487 0.042390443 0.32800001 4278325253
0.084277831 0.042390443 0.32800001 4278522632
0.085603371 0.042519685 0.32900003 4278656267
0.086671971 0.042519685 0.32900003 4278460171
0.088007249 0.042648923 0.33000001 4278392582
0.089079089 0.042648923 0.33000001 4278459656
0.090150923 0.042648923 0.33000001 4279055379
0.091499202 0.042778164 0.33100003 4278197249
0.092574291 0.042778164 0.33100003 4278391812
0.09364938 0.042778164 0.33100003 4278917644
0.095010646 0.042907402 0.33200002 4278851851
0.096088983 0.042907402 0.33200002 4279118613
0.097459979 0.04303664 0.333 4279054357
0.098541565 0.04303664 0.333 4279121172
0.099922322 0.043165881 0.33400002 4278725644
0.10100716 0.043165881 0.33400002 4278330119
0.10209199 0.043165881 0.33400002 4279252504
0.10348573 0.043295119 0.33500001 4278857748
0.10457382 0.043295119 0.33500001 4279383320
0.1059773 0.04342436 0.33600003 4278330886
0.10706864 0.04342436 0.33600003 4278330119
0.10848186 0.043553598 0.33700001 4278527498
0.1099016 0.04368284 0.33800003 4278198021
0.11099943 0.04368284 0.33800003 4279448600
0.1124289 0.043812077 0.33900002 4278659086
0.11386485 0.043941315 0.34 4278922258
0.11530732 0.044070557 0.34100002 4279251221
0.1164149 0.044070557 0.34100002 4278199813
0.1178671 0.044199791 0.34200001 4279056402
0.11897792 0.044199791 0.34200001 4279121683
0.12043988 0.044329032 0.34300002 4278594574
0.12155395 0.044329032 0.34300002 4278924818
0.12302563 0.04445827 0.34400001 4278990609
0.12450383 0.044587512 0.34500003 4278925586
0.12598851 0.044716749 0.34600002 4278925586
0.1274797 0.044845987 0.347 4278925586
0.12860675 0.044845987 0.347 4278925586
0.1301077 0.044975229 0.34800002 4279515930
0.033646494 0.044118594 0.333 4285169522
0.034936655 0.044383571 0.33500001 4285105526
0.036024738 0.044383571 0.33500001 4285171319
0.036558896 0.043721128 0.33000001 4285237112
0.037630737 0.043721128 0.33000001 4285105526
0.040618118 0.044648547 0.33700001 4285237366
0.041960247 0.044913523 0.33900002 4285237366
0.04331537 0.045178503 0.34100002 4285303159
0.04194776 0.042661224 0.32200003 4285368438
0.04299362 0.042661224 0.32200003 4285301878
0.04417624 0.04279371 0.32300001 4284971884
0.045225345 0.04279371 0.32300001 4280298784
0.046417713 0.0429262 0.324 4280363807
0.047470067 0.0429262 0.324 4280365088
0.048522417 0.0429262 0.324 4279511574
0.04957477 0.0429262 0.324 4278988564
0.050627124 0.0429262 0.324 4279055127
0.051679473 0.0429262 0.324 4279120918
0.052731827 0.0429262 0.324 4279055892
0.053618181 0.04279371 0.32300001 4278728211
0.054667283 0.04279371 0.32300001 4278859797
0.055716392 0.04279371 0.32300001 4278795285
0.056765497 0.04279371 0.32300001 4278663699
0.057814602 0.04279371 0.32300001 4278597906
0.058863703 0.04279371 0.32300001 4278663699
0.059912808 0.04279371 0.32300001 4278203148
0.060961917 0.04279371 0.32300001 4278597906
0.062011018 0.04279371 0.32300001 4278598419
0.06306012 0.04279371 0.32300001 4278664212
0.064109229 0.04279371 0.32300001 4278401810
0.06515833 0.04279371 0.32300001 4278467603
0.066207439 0.04279371 0.32300001 4278598419
0.06725654 0.04279371 0.32300001 4278466833
0.068305649 0.04279371 0.32300001 4278598419
0.069569468 0.0429262 0.324 4278663699
0.070621818 0.0429262 0.324 4278658832
0.071674176 0.0429262 0.324 4279052820
0.072726525 0.0429262 0.324 4278859797
0.073778875 0.0429262 0.324 4279187992
0.0750622 0.04305869 0.32500002 4278523400
0.076117791 0.04305869 0.32500002 4278522886
0.077410847 0.043191176 0.32600001 4278587912
0.078469701 0.043191176 0.32600001 4278719498
0.079528548 0.043191176 0.32600001 4278587144
0.080834597 0.043323666 0.32700002 4278652937
0.081896693 0.043323666 0.32700002 4278718730
0.083212487 0.043456152 0.32800001 4278718730
0.084277831 0.043456152 0.32800001 4278652935
0.085603371 0.043588642 0.32900003 4278522119
0.086671971 0.043588642 0.32900003 4278522373
0.088007249 0.043721128 0.33000001 4278522886
0.089079089 0.043721128 0.33000001 4279184406
0.090150923 0.043721128 0.33000001 4279121685
0.091499202 0.043853618 0.33100003 4278988562
0.092574291 0.043853618 0.33100003 4278195205
0.093932308 0.043986108 0.33200002 4278522886
0.095010646 0.043986108 0.33200002 4279379477
0.096088983 0.043986108 0.33200002 4279054355
0.097459979 0.044118594 0.333 4278198020
0.098541565 0.044118594 0.333 4278198534
0.099922322 0.044251084 0.33400002 4279252504
0.10100716 0.044251084 0.33400002 4278331656
0.10239765 0.044383571 0.33500001 4278198532
0.10348573 0.044383571 0.33500001 4278265863
0.10488598 0.044516061 0.33600003 4279186963
0.1059773 0.044516061 0.33600003 4278195200
0.10738729 0.044648547 0.33700001 4279513623
0.10848186 0.044648547 0.33700001 4278198278
0.1099016 0.044781037 0.33800003 4278330121
0.11132782 0.044913523 0.33900002 4279382807
0.11276054 0.045046009 0.34 4278196736
0.11386485 0.045046009 0.34 4278922258
0.11530732 0.045178503 0.34100002 4278988051
0.11675628 0.045310989 0.34200001 4278195968
0.1178671 0.045310989 0.34200001 4278924818
0.11897792 0.045310989 0.34200001 4278988816
0.12043988 0.045443479 0.34300002 4279250453
0.12190833 0.045575965 0.34400001 4279187988
0.12302563 0.045575965 0.34400001 4278925586
0.12450383 0.045708455 0.34500003 4278859793
0.12598851 0.045840941 0.34600002 4278794000
0.1274797 0.045973428 0.347 4278925586
0.12897739 0.046105918 0.34800002 4279057172
0.033151668 0.046014968 0.33900002 4284312157
0.03425274 0.046014968 0.33900002 4285367671
0.035353813 0.046014968 0.33900002 4285236598
0.036454882 0.046014968 0.33900002 4285105526
0.037555959 0.046014968 0.33900002 4285237112
0.038657028 0.046014968 0.33900002 4285171319
0.037412491 0.043300219 0.31900001 4285302905
0.038448602 0.043300219 0.31900001 4285434491
0.039608493 0.043435957 0.32000002 4285171573
0.040647853 0.043435957 0.32000002 4285237366
0.041817486 0.043571692 0.32100001 4285302645
0.04299362 0.043707434 0.32200003 4285302645
0.044039473 0.043707434 0.32200003 4285236852
0.045225345 0.043843169 0.32300001 4285696636
0.04627445 0.043843169 0.32300001 4280695598
0.047323558 0.043843169 0.32300001 4279905821
0.048522417 0.043978903 0.324 4279314965
0.04957477 0.043978903 0.324 4279053590
0.050627124 0.043978903 0.324 4279251482
0.051679473 0.043978903 0.324 4279120918
0.052569076 0.043843169 0.32300001 4278990099
0.053618181 0.043843169 0.32300001 4278859027
0.054667283 0.043843169 0.32300001 4278859027
0.055716392 0.043843169 0.32300001 4278795285
0.056765497 0.043843169 0.32300001 4278795285
0.057814602 0.043843169 0.32300001 4278795285
0.058863703 0.043843169 0.32300001 4278664212
0.059912808 0.043843169 0.32300001 4278532628
0.060961917 0.043843169 0.32300001 4278598421
0.062011018 0.043843169 0.32300001 4278532626
0.06306012 0.043843169 0.32300001 4278598419
0.064109229 0.043843169 0.32300001 4278467603
0.06515833 0.043843169 0.32300001 4278467603
0.066207439 0.043843169 0.32300001 4278401810
0.06725654 0.043843169 0.32300001 4278466833
0.068305649 0.043843169 0.32300001 4278663699
0.069569468 0.043978903 0.324 4278200067
0.070621818 0.043978903 0.324 4278462220
0.071674176 0.043978903 0.324 4278265611
0.072726525 0.043978903 0.324 4278860310
0.074006595 0.044114646 0.32500002 4278662931
0.0750622 0.044114646 0.32500002 4278856978
0.076117791 0.044114646 0.32500002 4278657550
0.077410847 0.04425038 0.32600001 4278853648
0.078469701 0.04425038 0.32600001 4278918928
0.079772502 0.044386119 0.32700002 4278720779
0.080834597 0.044386119 0.32700002 4278326021
0.081896693 0.044386119 0.32700002 4278522119
0.083212487 0.044521853 0.32800001 4278390533
0.084277831 0.044521853 0.32800001 4278850314
0.085603371 0.044657595 0.32900003 4278718728
0.086671971 0.044657595 0.32900003 4278850314
0.088007249 0.04479333 0.33000001 4278587912
0.089079089 0.04479333 0.33000001 4279644957
0.090150923 0.04479333 0.33000001 4278593806
0.091499202 0.044929069 0.33100003 4278659086
0.092574291 0.044929069 0.33100003 4279644957
0.093932308 0.045064807 0.33200002 4279710236
0.095010646 0.045064807 0.33200002 4279710236
0.096088983 0.045064807 0.33200002 4279383320
0.097459979 0.045200542 0.333 4279646492
0.098541565 0.045200542 0.333 4278857746
0.099922322 0.04533628 0.33400002 4279121431
0.10100716 0.04533628 0.33400002 4279055892
0.10239765 0.045472018 0.33500001 4279121685
0.10348573 0.045472018 0.33500001 4279055892
0.10488598 0.045607757 0.33600003 4279056404
0.1059773 0.045607757 0.33600003 4279122197
0.10738729 0.045743492 0.33700001 4278990611
0.10880377 0.04587923 0.33800003 4279055890
0.1099016 0.04587923 0.33800003 4279055890
0.11132782 0.046014968 0.33900002 4279055379
0.11276054 0.046150703 0.34 4279251988
0.11419976 0.046286441 0.34100002 4279251734
0.11530732 0.046286441 0.34100002 4278988562
0.11675628 0.04642218 0.34200001 4279055890
0.1178671 0.04642218 0.34200001 4278991381
0.11932582 0.046557918 0.34300002 4278198533
0.12043988 0.046557918 0.34300002 4279579416
0.12190833 0.046693653 0.34400001 4278991633
0.12338327 0.046829391 0.34500003 4278925840
0.1248647 0.04696513 0.34600002 4278860047
0.12598851 0.04696513 0.34600002 4279057426
0.1274797 0.047100864 0.347 4278860047
0.12897739 0.047236603 0.34800002 4279057172
0.032050595 0.047116414 0.33900002 4279902743
0.033249456 0.047255401 0.34 4285432694
0.034353778 0.047255401 0.34 4285368184
0.035458099 0.047255401 0.34 4285302391
0.03656242 0.047255401 0.34 4285237112
0.037666742 0.047255401 0.34 4285237112
0.038771059 0.047255401 0.34 4285237112
0.037412491 0.044336684 0.31900001 4285302905
0.038448602 0.044336684 0.31900001 4285237112
0.039484713 0.044336684 0.31900001 4285302905
0.040647853 0.044475675 0.32000002 4285237366
0.041687217 0.044475675 0.32000002 4285237366
0.042860094 0.044614658 0.32100001 4285302645
0.043902703 0.044614658 0.32100001 4285368438
0.04508533 0.044753648 0.32200003 4285368438
0.04627445 0.044892631 0.32300001 4285434231
0.047323558 0.044892631 0.32300001 4284315750
0.048372656 0.044892631 0.32300001 4279315482
0.049421765 0.044892631 0.32300001 4278657550
0.05047087 0.044892631 0.32300001 4279184408
0.051519971 0.044892631 0.32300001 4279185943
0.052569076 0.044892631 0.32300001 4279055125
0.053618181 0.044892631 0.32300001 4279056406
0.054667283 0.044892631 0.32300001 4278925590
0.055716392 0.044892631 0.32300001 4278926101
0.056765497 0.044892631 0.32300001 4278794515
0.057814602 0.044892631 0.32300001 4278664212
0.058863703 0.044892631 0.32300001 4278598419
0.059912808 0.044892631 0.32300001 4278664212
0.060961917 0.044892631 0.32300001 4278664214
0.062011018 0.044892631 0.32300001 4278664212
0.06306012 0.044892631 0.32300001 4278664212
0.064109229 0.044892631 0.32300001 4278466833
0.06515833 0.044892631 0.32300001 4278664214
0.066207439 0.044892631 0.32300001 4278532626
0.06725654 0.044892631 0.32300001 4278532626
0.068517119 0.045031615 0.324 4278663699
0.069569468 0.045031615 0.324 4278199297
0.070621818 0.045031615 0.324 4278397197
0.071674176 0.045031615 0.324 4278397456
0.072726525 0.045031615 0.324 4278597654
0.074006595 0.045170605 0.32500002 4278664214
0.0750622 0.045170605 0.32500002 4278729494
0.076117791 0.045170605 0.32500002 4278663701
0.077410847 0.045309588 0.32600001 4278859797
0.078469701 0.045309588 0.32600001 4278990613
0.079772502 0.045448579 0.32700002 4279122199
0.080834597 0.045448579 0.32700002 4279056406
0.081896693 0.045448579 0.32700002 4279122199
0.083212487 0.045587562 0.32800001 4279056406
0.084277831 0.045587562 0.32800001 4279186711
0.085343175 0.045587562 0.32800001 4279186711
0.086671971 0.045726553 0.32900003 4279382555
0.087740563 0.045726553 0.32900003 4279316762
0.089079089 0.045865536 0.33000001 4279055640
0.090150923 0.045865536 0.33000001 4279252506
0.091499202 0.046004526 0.33100003 4278987797
0.092574291 0.046004526 0.33100003 4278922004
0.09364938 0.046004526 0.33100003 4278263304
0.095010646 0.046143509 0.33200002 4278195969
0.096088983 0.046143509 0.33200002 4278327300
0.097459979 0.046282496 0.333 4278195200
0.098541565 0.046282496 0.333 4278194432
0.099922322 0.046421483 0.33400002 4278194946
0.10100716 0.046421483 0.33400002 4278193920
0.10239765 0.046560466 0.33500001 4278194176
0.10348573 0.046560466 0.33500001 4278194176
0.10488598 0.046699457 0.33600003 4278196226
0.10629271 0.04683844 0.33700001 4278197767
0.10738729 0.04683844 0.33700001 4278198278
0.10880377 0.046977431 0.33800003 4278593804
0.1099016 0.046977431 0.33800003 4278858000
0.11132782 0.047116414 0.33900002 4278594828
0.11276054 0.047255401 0.34 4278858000
0.11419976 0.047394387 0.34100002 4279186963
0.11530732 0.047394387 0.34100002 4279055377
0.11675628 0.047533374 0.34200001 4279055375
0.1178671 0.047533374 0.34200001 4278990095
0.11932582 0.047672361 0.34300002 4278194176
0.12043988 0.047672361 0.34300002 4279121172
0.12190833 0.047811348 0.34400001 4278925586
0.12338327 0.047950335 0.34500003 4278794000
0.1248647 0.048089322 0.34600002 4278926353
0.12635264 0.048228305 0.347 4278860560
0.1274797 0.048228305 0.347 4278663697
0.12897739 0.048367295 0.34800002 4278991894
0.032145139 0.048360098 0.34 4281088559
0.033249456 0.048360098 0.34 4285236085
0.034353778 0.048360098 0.34 4285236598
0.035458099 0.048360098 0.34 4285368184
0.03656242 0.048360098 0.34 4285368184
0.037666742 0.048360098 0.34 4285368184
0.038771059 0.048360098 0.34 4285302391
0.037412491 0.045373149 0.31900001 4285368184
0.038448602 0.045373149 0.31900001 4285236598
0.039484713 0.045373149 0.31900001 4285368184
0.040520824 0.045373149 0.31900001 4285302645
0.041687217 0.045515388 0.32000002 4285434231
0.042726576 0.045515388 0.32000002 4285434231
0.043902703 0.04565762 0.32100001 4285236852
0.044945311 0.04565762 0.32100001 4285302645
0.046131186 0.045799859 0.32200003 4285236852
0.047177047 0.045799859 0.32200003 4285302645
0.048372656 0.045942094 0.32300001 4285171573
0.049421765 0.045942094 0.32300001 4285105526
0.05047087 0.045942094 0.32300001 4280631602
0.051519971 0.045942094 0.32300001 4278723855
0.052569076 0.045942094 0.32300001 4279250453
0.053618181 0.045942094 0.32300001 4279120918
0.054667283 0.045942094 0.32300001 4279319578
0.055716392 0.045942094 0.32300001 4279254553
0.056765497 0.045942094 0.32300001 4278926101
0.057814602 0.045942094 0.32300001 4278860308
0.058863703 0.045942094 0.32300001 4278729492
0.059727322 0.045799859 0.32200003 4278795798
0.060773183 0.045799859 0.32200003 4278532626
0.062011018 0.045942094 0.32300001 4278532628
0.06306012 0.045942094 0.32300001 4278730007
0.064109229 0.045942094 0.32300001 4278927384
0.06515833 0.045942094 0.32300001 4278597906
0.066207439 0.045942094 0.32300001 4278663699
0.06725654 0.045942094 0.32300001 4278729492
0.068517119 0.046084326 0.324 4278663699
0.069569468 0.046084326 0.324 4278795285
0.070621818 0.046084326 0.324 4278728724
0.071674176 0.046084326 0.324 4278860310
0.072726525 0.046084326 0.324 4278729494
0.074006595 0.046226565 0.32500002 4278730007
0.0750622 0.046226565 0.32500002 4278532628
0.076117791 0.046226565 0.32500002 4278532626
0.077410847 0.0463688 0.32600001 4278795285
0.078469701 0.0463688 0.32600001 4278597906
0.079528548 0.0463688 0.32600001 4278728722
0.080834597 0.046511035 0.32700002 4278662929
0.081896693 0.046511035 0.32700002 4278728722
0.082958788 0.046511035 0.32700002 4278794515
0.084277831 0.046653271 0.32800001 4278728722
0.085343175 0.046653271 0.32800001 4278794515
0.086671971 0.04679551 0.32900003 4278794517
0.087740563 0.04679551 0.32900003 4278926103
0.089079089 0.046937741 0.33000001 4278729494
0.090150923 0.046937741 0.33000001 4278926103
0.091222763 0.046937741 0.33000001 4278925590
0.092574291 0.04707998 0.33100003 4278794004
0.09364938 0.04707998 0.33100003 4278925336
0.095010646 0.047222216 0.33200002 4278858773
0.096088983 0.047222216 0.33200002 4279187224
0.097459979 0.047364447 0.333 4279055125
0.098541565 0.047364447 0.333 4279120918
0.099922322 0.047506686 0.33400002 4279186711
0.10100716 0.047506686 0.33400002 4279383322
0.10239765 0.047648918 0.33500001 4279449115
0.10348573 0.047648918 0.33500001 4279382809
0.10488598 0.047791157 0.33600003 4279711774
0.10629271 0.047933392 0.33700001 4279251223
0.10738729 0.047933392 0.33700001 4279251223
0.10880377 0.048075628 0.33800003 4279382039
0.11022675 0.048217863 0.33900002 4278921488
0.11132782 0.048217863 0.33900002 4278723855
0.11276054 0.048360098 0.34 4278263044
0.11419976 0.048502333 0.34100002 4278195456
0.11530732 0.048502333 0.34100002 4278196224
0.11675628 0.048644569 0.34200001 4278193152
0.1178671 0.048644569 0.34200001 4278195200
0.11932582 0.048786808 0.34300002 4279184658
0.12043988 0.048786808 0.34300002 4279253269
0.12190833 0.048929039 0.34400001 4278860306
0.12338327 0.049071278 0.34500003 4278991892
0.1248647 0.049213514 0.34600002 4278860560
0.12598851 0.049213514 0.34600002 4278926353
0.1274797 0.049355745 0.347 4278860560
0.12897739 0.049497984 0.34800002 4278266888
0.032145139 0.049464788 0.34 4280628522
0.033347253 0.049610276 0.34100002 4285105014
0.034454823 0.049610276 0.34100002 4285171319
0.035562389 0.049610276 0.34100002 4285302905
0.036669958 0.049610276 0.34100002 4285433977
0.037777528 0.049610276 0.34100002 4285302391
0.038885094 0.049610276 0.34100002 4285368184
0.037412491 0.046409611 0.31900001 4285565563
0.038328078 0.046264127 0.31800002 4285565563
0.039484713 0.046409611 0.31900001 4285368184
0.040520824 0.046409611 0.31900001 4285368438
0.041556939 0.046409611 0.31900001 4285434231
0.042726576 0.046555098 0.32000002 4285302645
0.043765936 0.046555098 0.32000002 4285368438
0.044945311 0.046700582 0.32100001 4285368438
0.045987923 0.046700582 0.32100001 4285368438
0.047177047 0.046846069 0.32200003 4285368438
0.048222899 0.046846069 0.32200003 4285236852
0.049421765 0.046991549 0.32300001 4285237366
0.05047087 0.046991549 0.32300001 4285039987
0.051519971 0.046991549 0.32300001 4285960835
0.052569076 0.046991549 0.32300001 4283921252
0.053618181 0.046991549 0.32300001 4280302627
0.054667283 0.046991549 0.32300001 4279118351
0.055716392 0.046991549 0.32300001 4279318551
0.056765497 0.046991549 0.32300001 4279450650
0.057814602 0.046991549 0.32300001 4278991383
0.058681466 0.046846069 0.32200003 4279254555
0.059727322 0.046846069 0.32200003 4279123482
0.060773183 0.046846069 0.32200003 4278992666
0.062011018 0.046991549 0.32300001 4279058459
0.06306012 0.046991549 0.32300001 4278861080
0.064109229 0.046991549 0.32300001 4278795285
0.06515833 0.046991549 0.32300001 4278729492
0.066207439 0.046991549 0.32300001 4278729492
0.06725654 0.046991549 0.32300001 4278795285
0.068517119 0.047137033 0.324 4278729494
0.069569468 0.047137033 0.324 4278861080
0.070621818 0.047137033 0.324 4278860308
0.071674176 0.047137033 0.324 4278860308
0.072726525 0.047137033 0.324 4278729492
0.074006595 0.047282521 0.32500002 4278795285
0.0750622 0.047282521 0.32500002 4278729492
0.076117791 0.047282521 0.32500002 4278729492
0.077410847 0.047428004 0.32600001 4278532113
0.078469701 0.047428004 0.32600001 4278663699
0.079528548 0.047428004 0.32600001 4278794515
0.080834597 0.047573492 0.32700002 4278794515
0.081896693 0.047573492 0.32700002 4278926101
0.082958788 0.047573492 0.32700002 4278597906
0.08402089 0.047573492 0.32700002 4278597906
0.085343175 0.047718972 0.32800001 4278663699
0.086408526 0.047718972 0.32800001 4278729492
0.087740563 0.047864459 0.32900003 4278597906
0.088809155 0.047864459 0.32900003 4278663699
0.090150923 0.048009943 0.33000001 4278663699
0.091222763 0.048009943 0.33000001 4278926101
0.092294604 0.048009943 0.33000001 4278794515
0.09364938 0.048155431 0.33100003 4278663699
0.094724469 0.048155431 0.33100003 4278663699
0.096088983 0.048300914 0.33200002 4278662929
0.097167313 0.048300914 0.33200002 4278926101
0.098541565 0.048446395 0.333 4278926101
0.099623151 0.048446395 0.333 4278926101
0.10100716 0.048591882 0.33400002 4279057174
0.10239765 0.048737366 0.33500001 4278794002
0.10348573 0.048737366 0.33500001 4278925588
0.10488598 0.048882853 0.33600003 4278991381
0.10629271 0.049028337 0.33700001 4278991894
0.10738729 0.049028337 0.33700001 4278860308
0.10880377 0.049173824 0.33800003 4278925588
0.11022675 0.049319305 0.33900002 4278991381
0.11132782 0.049319305 0.33900002 4278925590
0.11276054 0.049464788 0.34 4278991383
0.11419976 0.049610276 0.34100002 4279187992
0.11530732 0.049610276 0.34100002 4279319064
0.11675628 0.04975576 0.34200001 4279319064
0.1178671 0.04975576 0.34200001 4279253271
0.11932582 0.049901247 0.34300002 4279253267
0.12043988 0.049901247 0.34300002 4279187988
0.12190833 0.050046727 0.34400001 4279188758
0.12338327 0.050192215 0.34500003 4278860306
0.12450383 0.050192215 0.34500003 4278926353
0.12598851 0.050337698 0.34600002 4279320598
0.1274797 0.050483182 0.347 4279385367
0.12897739 0.05062867 0.34800002 4282408515
0.032239683 0.050718222 0.34100002 4281813566
0.033347253 0.050718222 0.34100002 4285302393
0.034454823 0.050718222 0.34100002 4285302393
0.035562389 0.050718222 0.34100002 4285236600
0.036669958 0.050718222 0.34100002 4285302391
0.037777528 0.050718222 0.34100002 4285433977
0.038885094 0.050718222 0.34100002 4285302391
0.039992664 0.050718222 0.34100002 4285631356
0.038328078 0.047297344 0.31800002 4285433977
0.03936094 0.047297344 0.31800002 4285433464
0.040520824 0.047446076 0.31900001 4285367925
0.041556939 0.047446076 0.31900001 4285367925
0.042593054 0.047446076 0.31900001 4285368438
0.043765936 0.047594812 0.32000002 4285434231
0.044945311 0.047743544 0.32100001 4285368438
0.045987923 0.047743544 0.32100001 4285434231
0.047177047 0.04789228 0.32200003 4285368438
0.048222899 0.04789228 0.32200003 4285368438
0.049421765 0.048041012 0.32300001 4285368438
0.05047087 0.048041012 0.32300001 4285302645
0.051519971 0.048041012 0.32300001 4285434231
0.052569076 0.048041012 0.32300001 4285499511
0.053618181 0.048041012 0.32300001 4285302645
0.054667283 0.048041012 0.32300001 4285631610
0.055716392 0.048041012 0.32300001 4285763194
0.056765497 0.048041012 0.32300001 4284250469
0.057635613 0.04789228 0.32200003 4281751105
0.058681466 0.04789228 0.32200003 4280040485
0.059727322 0.04789228 0.32200003 4279777567
0.060773183 0.04789228 0.32200003 4279448602
0.061819036 0.04789228 0.32200003 4279515678
0.06306012 0.048041012 0.32300001 4279318812
0.064109229 0.048041012 0.32300001 4279319064
0.06515833 0.048041012 0.32300001 4279187478
0.066207439 0.048041012 0.32300001 4279319578
0.06725654 0.048041012 0.32300001 4279187992
0.068517119 0.048189744 0.324 4279450910
0.069569468 0.048189744 0.324 4279385119
0.070621818 0.048189744 0.324 4279385119
0.071674176 0.048189744 0.324 4279319324
0.072726525 0.048189744 0.324 4279122199
0.074006595 0.04833848 0.32500002 4279122199
0.0750622 0.04833848 0.32500002 4278990613
0.076117791 0.04833848 0.32500002 4278991383
0.077410847 0.048487213 0.32600001 4278925590
0.078469701 0.048487213 0.32600001 4278925590
0.079528548 0.048487213 0.32600001 4279188762
0.080587395 0.048487213 0.32600001 4278925590
0.081896693 0.048635948 0.32700002 4278925588
0.082958788 0.048635948 0.32700002 4278925588
0.08402089 0.048635948 0.32700002 4278728722
0.085343175 0.048784681 0.32800001 4278926101
0.086408526 0.048784681 0.32800001 4278794515
0.087473869 0.048784681 0.32800001 4278860308
0.088809155 0.048933417 0.32900003 4278991894
0.08987774 0.048933417 0.32900003 4278794515
0.091222763 0.049082149 0.33000001 4278926101
0.092294604 0.049082149 0.33000001 4278794515
0.093366444 0.049082149 0.33000001 4278729492
0.094724469 0.049230885 0.33100003 4278532113
0.095799558 0.049230885 0.33100003 4278860308
0.097167313 0.049379617 0.33200002 4278794515
0.098245651 0.049379617 0.33200002 4278794515
0.099623151 0.049528349 0.333 4278794515
0.10100716 0.049677085 0.33400002 4278860308
0.10209199 0.049677085 0.33400002 4278859795
0.10348573 0.049825817 0.33500001 4278794002
0.10488598 0.049974553 0.33600003 4278859795
0.10629271 0.050123286 0.33700001 4278860308
0.10738729 0.050123286 0.33700001 4278794515
0.10880377 0.050272021 0.33800003 4278860308
0.11022675 0.050420754 0.33900002 4278728722
0.11132782 0.050420754 0.33900002 4279123480
0.11276054 0.050569486 0.34 4278728209
0.11386485 0.050569486 0.34 4278991381
0.11530732 0.050718222 0.34100002 4278925588
0.1164149 0.050718222 0.34100002 4279057174
0.1178671 0.050866954 0.34200001 4278925586
0.11897792 0.050866954 0.34200001 4279057172
0.12043988 0.05101569 0.34300002 4278991379
0.12155395 0.05101569 0.34300002 4279057172
0.12338327 0.051313158 0.34500003 4279057172
0.12450383 0.051313158 0.34500003 4278991379
0.12598851 0.05146189 0.34600002 4279713818
0.1274797 0.051610623 0.347 4280959526
0.12897739 0.051759358 0.34800002 4286484603
0.033445042 0.051978145 0.34200001 4285236600
0.03455586 0.051978145 0.34200001 4285368186
0.035666678 0.051978145 0.34200001 4285433979
0.036777493 0.051978145 0.34200001 4285433977
0.037888311 0.051978145 0.34200001 4285368184
0.038999125 0.051978145 0.34200001 4285302391
0.037295211 0.048330557 0.31800002 4285565563
0.038328078 0.048330557 0.31800002 4285433718
0.03936094 0.048330557 0.31800002 4285367925
0.040520824 0.048482537 0.31900001 4285631097
0.041556939 0.048482537 0.31900001 4285433718
0.042593054 0.048482537 0.31900001 4285433718
0.043765936 0.048634522 0.32000002 4285499511
0.044805296 0.048634522 0.32000002 4285499511
0.045987923 0.048786502 0.32100001 4285631097
0.047177047 0.04893849 0.32200003 4285368438
0.048222899 0.04893849 0.32200003 4285565817
0.049268756 0.04893849 0.32200003 4285434231
0.05047087 0.049090471 0.32300001 4285434231
0.051519971 0.049090471 0.32300001 4285433718
0.052569076 0.049090471 0.32300001 4285631097
0.053618181 0.049090471 0.32300001 4285433718
0.054667283 0.049090471 0.32300001 4285631097
0.055716392 0.049090471 0.32300001 4285367925
0.056765497 0.049090471 0.32300001 4285236852
0.057635613 0.04893849 0.32200003 4285236852
0.058681466 0.04893849 0.32200003 4285105266
0.059727322 0.04893849 0.32200003 4285368438
0.060773183 0.04893849 0.32200003 4285565815
0.061819036 0.04893849 0.32200003 4285894780
0.06306012 0.049090471 0.32300001 4285631608
0.064109229 0.049090471 0.32300001 4285697401
0.06515833 0.049090471 0.32300001 4285566329
0.066207439 0.049090471 0.32300001 4285039985
0.06725654 0.049090471 0.32300001 4284711020
0.068517119 0.049242452 0.324 4283329367
0.069569468 0.049242452 0.324 4282803023
0.070621818 0.049242452 0.324 4281816126
0.071674176 0.049242452 0.324 4280829231
0.072726525 0.049242452 0.324 4280172071
0.074006595 0.049394436 0.32500002 4279711520
0.0750622 0.049394436 0.32500002 4279645211
0.076117791 0.049394436 0.32500002 4279317014
0.077410847 0.049546417 0.32600001 4279251734
0.078469701 0.049546417 0.32600001 4279449113
0.079528548 0.049546417 0.32600001 4279843871
0.080587395 0.049546417 0.32600001 4279778078
0.081896693 0.049698401 0.32700002 4279384344
0.082958788 0.049698401 0.32700002 4278990099
0.08402089 0.049698401 0.32700002 4279450650
0.085082985 0.049698401 0.32700002 4279516443
0.086408526 0.049850386 0.32800001 4279253271
0.087473869 0.049850386 0.32800001 4279319064
0.088809155 0.05000237 0.32900003 4279516441
0.08987774 0.05000237 0.32900003 4279122197
0.090946332 0.05000237 0.32900003 4278924818
0.092294604 0.050154351 0.33000001 4279254553
0.093366444 0.050154351 0.33000001 4278991381
0.094724469 0.050306335 0.33100003 4278925588
0.095799558 0.050306335 0.33100003 4279188760
0.097167313 0.050458316 0.33200002 4279056404
0.098245651 0.050458316 0.33200002 4279122197
0.099623151 0.050610296 0.333 4279056404
0.10100716 0.050762285 0.33400002 4279056404
0.10209199 0.050762285 0.33400002 4279319062
0.10348573 0.050914265 0.33500001 4279450648
0.10488598 0.05106625 0.33600003 4279187990
0.10629271 0.05121823 0.33700001 4279187990
0.10738729 0.05121823 0.33700001 4279122197
0.10880377 0.051370215 0.33800003 4279319576
0.11022675 0.051522195 0.33900002 4279911713
0.11132782 0.051522195 0.33900002 4279385369
0.11276054 0.051674176 0.34 4279516955
0.11386485 0.051674176 0.34 4279648027
0.11530732 0.051826164 0.34100002 4279516441
0.1164149 0.051826164 0.34100002 4279582234
0.1178671 0.051978145 0.34200001 4280502823
0.11897792 0.051978145 0.34200001 4279647514
0.12043988 0.052130129 0.34300002 4279713307
0.12155395 0.052130129 0.34300002 4279779100
0.12338327 0.052434094 0.34500003 4279515158
0.12450383 0.052434094 0.34500003 4279381523
0.12598851 0.052586075 0.34600002 4283328074
0.1274797 0.052738059 0.347 4286286710
0.032334227 0.053089339 0.34200001 4284774253
0.033445042 0.053089339 0.34200001 4285236600
0.03455586 0.053089339 0.34200001 4285433979
0.035666678 0.053089339 0.34200001 4285302393
0.036777493 0.053089339 0.34200001 4285302393
0.037888311 0.053089339 0.34200001 4285368186
0.038999125 0.053089339 0.34200001 4285433979
0.037295211 0.049363773 0.31800002 4285302391
0.038328078 0.049363773 0.31800002 4285433977
0.03936094 0.049363773 0.31800002 4285302645
0.040520824 0.049519002 0.31900001 4285368438
0.041556939 0.049519002 0.31900001 4285302645
0.042593054 0.049519002 0.31900001 4285499257
0.043765936 0.049674239 0.32000002 4285499257
0.044805296 0.049674239 0.32000002 4285631097
0.045987923 0.049829468 0.32100001 4285499511
0.047030531 0.049829468 0.32100001 4285499511
0.048222899 0.049984701 0.32200003 4285499511
0.049268756 0.049984701 0.32200003 4285696890
0.05047087 0.050139934 0.32300001 4285499511
0.051519971 0.050139934 0.32300001 4285499511
0.08987774 0.051071327 0.32900003 4281026610
0.090946332 0.051071327 0.32900003 4280171553
0.092014931 0.051071327 0.32900003 4279974174
0.093366444 0.051226556 0.33000001 4279974176
0.094724469 0.051381789 0.33100003 4279645211
0.095799558 0.051381789 0.33100003 4279974174
0.097167313 0.051537022 0.33200002 4279711002
0.098245651 0.051537022 0.33200002 4279645211
0.099623151 0.051692251 0.333 4279842590
0.10100716 0.051847484 0.33400002 4280039455
0.10209199 0.051847484 0.33400002 4280302627
0.10348573 0.052002717 0.33500001 4280697385
0.10488598 0.05215795 0.33600003 4280500006
0.10629271 0.052313179 0.33700001 4280894764
0.10738729 0.052313179 0.33700001 4280697385
0.10880377 0.052468415 0.33800003 4281026864
0.11022675 0.052623644 0.33900002 4281026862
0.11132782 0.052623644 0.33900002 4281421620
0.11276054 0.052778874 0.34 4282342724
0.11386485 0.052778874 0.34 4283131724
0.11530732 0.05293411 0.34100002 4283065418
0.1164149 0.05293411 0.34100002 4283394383
0.1178671 0.053089339 0.34200001 4284249692
0.11897792 0.053089339 0.34200001 4284972386
0.12008874 0.053089339 0.34200001 4285235558
0.12155395 0.053244572 0.34300002 4285697140
0.12338327 0.053555038 0.34500003 4285631093
0.12450383 0.053555038 0.34500003 4286220665
0.12598851 0.053710267 0.34600002 4286615421
0.1274797 0.0538655 0.347 4286352249
0.032334227 0.05420053 0.34200001 4285234802
0.033445042 0.05420053 0.34200001 4285499259
0.03455586 0.05420053 0.34200001 4285433979
0.035666678 0.05420053 0.34200001 4285368186
0.036777493 0.05420053 0.34200001 4285368186
0.037888311 0.05420053 0.34200001 4285433979
0.038999125 0.05420053 0.34200001 4285368186
0.040109944 0.05420053 0.34200001 4285433979
0.038328078 0.050396986 0.31800002 4285565563
0.03936094 0.050396986 0.31800002 4285368184
0.040520824 0.050555464 0.31900001 4285368184
0.041556939 0.050555464 0.31900001 4285565563
0.042593054 0.050555464 0.31900001 4285302391
0.043765936 0.050713949 0.32000002 4285565563
0.044805296 0.050713949 0.32000002 4285433718
0.045987923 0.050872426 0.32100001 4285499511
0.032334227 0.055311725 0.34200001 4286090624
0.033445042 0.055311725 0.34200001 4285433466
0.03455586 0.055311725 0.34200001 4285499259
0.035666678 0.055311725 0.34200001 4285433466
0.036777493 0.055311725 0.34200001 4285630845
0.037888311 0.055311725 0.34200001 4285565565
0.038999125 0.055311725 0.34200001 4285565565
0.040109944 0.055311725 0.34200001 4285565565
0.038328078 0.051430203 0.31800002 4285433979
0.039484713 0.051591929 0.31900001 4285368184
0.040520824 0.051591929 0.31900001 4285565563
0.041556939 0.051591929 0.31900001 4285368184
0.032334227 0.056422915 0.34200001 4285762429
0.033445042 0.056422915 0.34200001 4285630845
0.03455586 0.056422915 0.34200001 4285499259
0.035666678 0.056422915 0.34200001 4285630843
0.036777493 0.056422915 0.34200001 4285499257
0.037888311 0.056422915 0.34200001 4285499257
0.038999125 0.056422915 0.34200001 4285565563
0.032334227 0.05753411 0.34200001 4285894017
0.033445042 0.05753411 0.34200001 4285630845
0.03455586 0.05753411 0.34200001 4285696636
0.035666678 0.05753411 0.34200001 4285565563
0.036777493 0.05753411 0.34200001 4285565563
0.032428775 0.058816779 0.34300002 4285433977
0.033542838 0.058816779 0.34300002 4285434493
0.034656905 0.058816779 0.34300002 4285565563
0.032428775 0.059931226 0.34300002 4285434491
0.032428775 0.061045669 0.34300002 4285565312
0.029425781 0.066267319 0.347 4283523414
0.030552836 0.066267319 0.347 4285564282
0.028380277 0.067588978 0.34800002 4283589726
0.029510582 0.067588978 0.34800002 4285236347
0.030640885 0.067588978 0.34800002 4285105014
0.029680183 0.069114611 0.35000002 4282800463
0.030816983 0.069114611 0.35000002 4285236087
0.07652092 0.042453535 0.32924977 4294967295
0.07652092 0.042453535 0.32924977 4294901760
0.07652092 0.042453535 0.32974976 4294901760
0.07652092 0.042453535 0.33024976 4294901760
0.07652092 0.042453535 0.33074978 4294901760
0.07652092 0.042453535 0.33124977 4294901760
0.07652092 0.042453535 0.33174977 4294901760
0.07652092 0.042453535 0.33224976 4294901760
0.07652092 0.042453535 0.33274978 4294901760
0.07652092 0.042453535 0.33324978 4294901760
0.07652092 0.042453535 0.33374977 4294901760
0.07652092 0.042453535 0.33424976 4294901760
0.07652092 0.042453535 0.33474976 4294901760
0.07652092 0.042453535 0.33524978 4294901760
0.07652092 0.042453535 0.33574978 4294901760
0.07652092 0.042453535 0.33624977 4294901760
0.07652092 0.042453535 0.33674976 4294901760
0.07652092 0.042453535 0.33724976 4294901760
0.07652092 0.042453535 0.33774978 4294901760
0.07652092 0.042453535 0.33824977 4294901760
0.07652092 0.042453535 0.33874977 4294901760
0.07652092 0.042453535 0.33924976 4294901760
0.07652092 0.042453535 0.33974978 4294901760
0.07652092 0.042453535 0.34024978 4294901760
0.07652092 0.042453535 0.34074977 4294901760
0.07652092 0.042453535 0.34124976 4294901760
0.07652092 0.042453535 0.34174979 4294901760
0.07652092 0.042453535 0.34224978 4294901760
0.07652092 0.042453535 0.34274977 4294901760
0.07652092 0.042453535 0.34324977 4294901760
0.07652092 0.042453535 0.34374976 4294901760
0.07652092 0.042453535 0.34424978 4294901760
0.07652092 0.042453535 0.34474978 4294901760
0.07652092 0.042453535 0.34524977 4294901760
0.07652092 0.042453535 0.34574977 4294901760
0.07652092 0.042453535 0.34624976 4294901760
0.07652092 0.042453535 0.34674978 4294901760
0.07652092 0.042453535 0.34724978 4294901760
0.07652092 0.042453535 0.34774977 4294901760
0.07652092 0.042453535 0.34824976 4294901760
0.07652092 0.042453535 0.34874979 4294901760
0.07652092 0.042453535 0.34924978 4294901760
0.07652092 0.042453535 0.34974977 4294901760
0.07652092 0.042453535 0.35024977 4294901760
0.07652092 0.042453535 0.35074979 4294901760
0.07652092 0.042453535 0.35124978 4294901760
0.07652092 0.042453535 0.35174978 4294901760
0.07652092 0.042453535 0.35224977 4294901760
0.07652092 0.042453535 0.35274976 4294901760
0.07652092 0.042453535 0.35324979 4294901760
0.07652092 0.042453535 0.35374978 4294901760
0.07652092 0.042453535 0.35424978 4294901760
0.07652092 0.042453535 0.35474977 4294901760
0.07652092 0.042453535 0.35524976 4294901760
0.07652092 0.042453535 0.35574979 4294901760
0.07652092 0.042453535 0.35624978 4294901760
0.07652092 0.042453535 0.35674977 4294901760
0.07652092 0.042453535 0.35724977 4294901760
0.07652092 0.042453535 0.35774976 4294901760
0.07652092 0.042453535 0.35824978 4294901760
0.07652092 0.042453535 0.35874978 4294901760
0.07652092 0.042453535 0.35924977 4294901760
0.07652092 0.042453535 0.35974976 4294901760
0.07652092 0.042453535 0.36024979 4294901760
0.07652092 0.042453535 0.36074978 4294901760
0.07652092 0.042453535 0.36124977 4294901760
0.07652092 0.042453535 0.36174977 4294901760
0.07652092 0.042453535 0.36224979 4294901760
0.07652092 0.042453535 0.36274979 4294901760
0.07652092 0.042453535 0.36324978 4294901760
0.07652092 0.042453535 0.36374977 4294901760
0.07652092 0.042453535 0.36424977 4294901760
0.07652092 0.042453535 0.36474979 4294901760
0.07652092 0.042453535 0.36524978 4294901760
0.07652092 0.042453535 0.36574978 4294901760
0.07652092 0.042453535 0.36624977 4294901760
0.07652092 0.042453535 0.36674976 4294901760
0.07652092 0.042453535 0.36724979 4294901760
0.07652092 0.042453535 0.36774978 4294901760
0.07652092 0.042453535 0.36824977 4294901760
0.07652092 0.042453535 0.36874977 4294901760
0.07652092 0.042453535 0.36924979 4294901760
0.07652092 0.042453535 0.36974978 4294901760
0.07652092 0.042453535 0.37024978 4294901760
0.07652092 0.042453535 0.37074977 4294901760
0.07652092 0.042453535 0.37124977 4294901760
0.07652092 0.042453535 0.37174979 4294901760
0.07652092 0.042453535 0.37224978 4294901760
0.07652092 0.042453535 0.37274978 4294901760
0.07652092 0.042453535 0.37324977 4294901760
0.07652092 0.042453535 0.37374979 4294901760
0.07652092 0.042453535 0.37424979 4294901760
0.07652092 0.042453535 0.37474978 4294901760
0.07652092 0.042453535 0.37524977 4294901760
0.07652092 0.042453535 0.37574977 4294901760
0.07652092 0.042453535 0.37624979 4294901760
0.07652092 0.042453535 0.37674978 4294901760
0.07652092 0.042453535 0.37724978 4294901760
0.07652092 0.042453535 0.37774977 4294901760
0.07652092 0.042453535 0.37824979 4294901760
0.07652092 0.042453535 0.37874979 4294901760
0.07652092 0.042453535 0.37924978 4294901760
0.07652092 0.042453535 0.32924977 4278255360
0.076503947 0.042452946 0.32974949 4278255360
0.076486982 0.042452354 0.33024919 4278255360
0.07647001 0.042451765 0.33074892 4278255360
0.076453045 0.042451173 0.33124861 4278255360
0.076436073 0.042450584 0.33174834 4278255360
0.076419108 0.042449996 0.33224803 4278255360
0.076402135 0.042449404 0.33274776 4278255360
0.076385163 0.042448815 0.33324745 4278255360
0.076368198 0.042448226 0.33374718 4278255360
0.076351225 0.042447634 0.33424687 4278255360
0.07633426 0.042447045 0.3347466 4278255360
0.076317288 0.042446453 0.33524629 4278255360
0.076300323 0.042445865 0.33574602 4278255360
0.076283351 0.042445276 0.33624575 4278255360
0.076266378 0.042444684 0.33674544 4278255360
0.076249413 0.042444095 0.33724517 4278255360
0.076232441 0.042443506 0.33774486 4278255360
0.076215476 0.042442914 0.33824459 4278255360
0.076198503 0.042442326 0.33874428 4278255360
0.076181538 0.042441733 0.33924401 4278255360
0.076164566 0.042441145 0.3397437 4278255360
0.076147594 0.042440556 0.34024343 4278255360
0.076130629 0.042439964 0.34074312 4278255360
0.076113656 0.042439375 0.34124285 4278255360
0.076096691 0.042438783 0.34174258 4278255360
0.076079719 0.042438194 0.34224227 4278255360
0.076062754 0.042437606 0.342742 4278255360
0.076045781 0.042437013 0.34324169 4278255360
0.076028809 0.042436425 0.34374142 4278255360
0.076011844 0.042435836 0.34424111 4278255360
0.075994872 0.042435244 0.34474084 4278255360
0.075977907 0.042434655 0.34524053 4278255360
0.075960934 0.042434063 0.34574026 4278255360
0.075943969 0.042433474 0.34623995 4278255360
0.075926997 0.042432886 0.34673968 4278255360
0.075910024 0.042432293 0.34723938 4278255360
0.075893059 0.042431705 0.3477391 4278255360
0.075876087 0.042431116 0.34823883 4278255360
0.075859122 0.042430524 0.34873852 4278255360
0.07584215 0.042429935 0.34923825 4278255360
0.075825185 0.042429343 0.34973794 4278255360
0.075808212 0.042428754 0.35023767 4278255360
0.07579124 0.042428166 0.35073736 4278255360
0.075774275 0.042427573 0.35123709 4278255360
0.075757302 0.042426985 0.35173678 4278255360
0.075740337 0.042426396 0.35223651 4278255360
0.075723365 0.042425804 0.3527362 4278255360
0.0757064 0.042425215 0.35323593 4278255360
0.075689428 0.042424623 0.35373563 4278255360
0.075672463 0.042424034 0.35423535 4278255360
0.07565549 0.042423446 0.35473508 4278255360
0.075638518 0.042422853 0.35523477 4278255360
0.075621553 0.042422265 0.3557345 4278255360
0.07560458 0.042421672 0.35623419 4278255360
0.075587615 0.042421084 0.35673392 4278255360
0.075570643 0.042420495 0.35723361 4278255360
0.075553678 0.042419903 0.35773334 4278255360
0.075536706 0.042419314 0.35823303 4278255360
0.075519733 0.042418726 0.35873276 4278255360
0.075502768 0.042418133 0.35923246 4278255360
0.075485796 0.042417545 0.35973218 4278255360
0.075468831 0.042416953 0.36023188 4278255360
0.075451858 0.042416364 0.3607316 4278255360
0.075434893 0.042415775 0.36123133 4278255360
0.075417921 0.042415183 0.36173102 4278255360
0.075400949 0.042414594 0.36223075 4278255360
0.075383984 0.042414006 0.36273044 4278255360
0.075367011 0.042413414 0.36323017 4278255360
0.075350046 0.042412825 0.36372986 4278255360
0.075333074 0.042412233 0.36422959 4278255360
0.075316109 0.042411644 0.36472929 4278255360
0.075299136 0.042411055 0.36522901 4278255360
0.075282164 0.042410463 0.36572874 4278255360
0.075265199 0.042409874 0.36622843 4278255360
0.075248227 0.042409286 0.36672813 4278255360
0.075231262 0.042408694 0.36722785 4278255360
0.075214289 0.042408105 0.36772758 4278255360
0.075197324 0.042407513 0.36822727 4278255360
0.075180352 0.042406924 0.368727 4278255360
0.075163379 0.042406335 0.36922669 4278255360
0.075146414 0.042405743 0.36972642 4278255360
0.075129442 0.042405155 0.37022611 4278255360
0.075112477 0.042404562 0.37072584 4278255360
0.075095505 0.042403974 0.37122554 4278255360
0.07507854 0.042403385 0.37172526 4278255360
0.075061567 0.042402793 0.37222499 4278255360
0.075044595 0.042402204 0.37272468 4278255360
0.07502763 0.042401616 0.37322438 4278255360
0.075010657 0.042401023 0.3737241 4278255360
0.074993692 0.042400435 0.37422383 4278255360
0.07497672 0.042399842 0.37472352 4278255360
0.074959755 0.042399254 0.37522325 4278255360
0.074942783 0.042398665 0.37572294 4278255360
0.07492581 0.042398073 0.37622267 4278255360
0.074908845 0.042397484 0.37672237 4278255360
0.074891873 0.042396896 0.37722209 4278255360
0.074874908 0.042396303 0.37772179 4278255360
