# .PCD v0.7 - Point Cloud Data file format
VERSION 0.7
FIELDS x y z rgb
SIZE 4 4 4 4
TYPE F F F U
COUNT 1 1 1 1
WIDTH 1017
HEIGHT 1
VIEWPOINT 0 0 0 1 0 0 0
POINTS 1017
DATA ascii
-0.0068887929 -0.00026097128 0.36000001 4284956982
-0.0057195118 -0.00026097128 0.36000001 4286133024
-0.0045502316 -0.00026097128 0.36000001 4286460704
-0.0033903427 -0.0002616962 0.36100003 4286853665
-0.0022178141 -0.0002616962 0.36100003 4287445032
-0.0010481807 -0.00026242112 0.36200002 4287378726
0.00012794834 -0.00026314604 0.36300001 4287115554
0.0013069729 -0.00026314604 0.36300001 4291989878
0.002492846 -0.00026387096 0.36400002 4289553486
0.0036650221 -0.00026314604 0.36300001 4288168755
0.0050175255 -0.00027257 0.37600002 4287511600
0.0062553659 -0.00027329492 0.377 4287186233
0.0074997037 -0.00027401984 0.37800002 4287052843
0.0087505365 -0.00027474476 0.37900001 4287644208
0.010007866 -0.00027546968 0.38000003 4287184427
0.011242107 -0.00027546968 0.38000003 4286789669
0.01250918 -0.00027619459 0.38100001 4286461989
0.013746668 -0.00027619459 0.38100001 4285478183
0.014984156 -0.00027619459 0.38100001 4287789165
-0.0092017232 0.00090618141 0.35900003 4286555279
-0.0080356905 0.00090618141 0.35900003 4283319864
-0.0068696574 0.00090618141 0.35900003 4285020974
-0.0057036243 0.00090618141 0.35900003 4285607707
-0.0045502316 0.00090870552 0.36000001 4285804059
-0.003380951 0.00090870552 0.36000001 4286328350
-0.0022178141 0.00091122976 0.36100003 4286590750
-0.0010452853 0.00091122976 0.36100003 4286853665
0.00012759588 0.00091375393 0.36200002 4286919458
0.0013033724 0.00091375393 0.36200002 4287312681
0.0024859975 0.00091627805 0.36300001 4292117628
0.0036751186 0.00091880228 0.36400002 4288102962
0.0050175255 0.00094909244 0.37600002 4288037169
0.0062719584 0.00095414085 0.37800002 4287773997
0.0075195436 0.00095666497 0.37900001 4287905583
0.0087736258 0.0009591892 0.38000003 4285999901
0.010034202 0.00096171338 0.38100001 4285079060
0.011271691 0.00096171338 0.38100001 4285213726
0.012542013 0.00096423761 0.38200003 4285215009
0.013782749 0.00096423761 0.38200003 4284428577
0.015023486 0.00096423761 0.38200003 4290028437
-0.010338875 0.0020668358 0.35800001 4286818451
-0.0091760904 0.0020668358 0.35800001 4287147414
-0.0080133062 0.0020668358 0.35800001 4282923559
-0.0068696574 0.002072609 0.35900003 4284627240
-0.0057036243 0.002072609 0.35900003 4285279260
-0.0045375922 0.002072609 0.35900003 4285540635
-0.003380951 0.0020783823 0.36000001 4285670936
-0.0022116704 0.0020783823 0.36000001 4285867799
-0.0010423897 0.0020783823 0.36000001 4286327578
0.0001272434 0.0020841558 0.36100003 4286656286
0.0012997721 0.0020841558 0.36100003 4286918690
0.0024723008 0.0020841558 0.36100003 4287642929
0.0036347327 0.0020783823 0.36000001 4287576616
0.0050308695 0.0021765281 0.377 4288892476
0.0062885508 0.0021880746 0.37900001 4287116837
0.0075393845 0.0021938481 0.38000003 4286130717
0.0087967133 0.0021996212 0.38100001 4285543461
0.010060539 0.0022053947 0.38200003 4284162837
0.011301276 0.0022053947 0.38200003 4284164122
0.012574845 0.0022111679 0.38300002 4284296478
0.013818828 0.0022111679 0.38300002 4284889128
0.015062814 0.0022111679 0.38300002 4286273094
-0.010338875 0.0032300141 0.35800001 4286621072
-0.0091760904 0.0032300141 0.35800001 4287476381
-0.0080133062 0.0032300141 0.35800001 4283249959
-0.0068505215 0.0032300141 0.35800001 4284560163
-0.0056877369 0.0032300141 0.35800001 4285279008
-0.0045375922 0.0032390368 0.35900003 4285081627
-0.0033715598 0.0032390368 0.35900003 4285080341
-0.0022116704 0.003248059 0.36000001 4285080084
-0.0010423897 0.003248059 0.36000001 4285671701
0.00012689093 0.003248059 0.36000001 4286000153
0.0012997721 0.0032570816 0.36100003 4286394139
0.0024723008 0.0032570816 0.36100003 4286327319
0.0036448294 0.0032570816 0.36100003 4286984220
0.0048173582 0.0032570816 0.36100003 4288431925
0.0062885508 0.0034194842 0.37900001 4286130201
0.007559225 0.0034375291 0.38100001 4285409049
0.0088198027 0.0034465517 0.38200003 4284429620
0.010086875 0.0034555739 0.38300002 4283047452
0.01133086 0.0034555739 0.38300002 4283243538
0.012607677 0.0034645961 0.384 4284033306
0.013854909 0.0034645961 0.384 4283573266
0.015102142 0.0034645961 0.384 4284626470
-0.011469533 0.0043809214 0.35700002 4287672988
-0.010309996 0.0043809214 0.35700002 4286818449
-0.0091760904 0.0043931929 0.35800001 4287671705
-0.0080133062 0.0043931929 0.35800001 4284036907
-0.0068505215 0.0043931929 0.35800001 4284888615
-0.0056877369 0.0043931929 0.35800001 4285411875
-0.0045249527 0.0043931929 0.35800001 4284688152
-0.0033715598 0.0044054645 0.35900003 4284292624
-0.0022055269 0.0044054645 0.35900003 4284423699
-0.0010423897 0.0044177361 0.36000001 4284949525
0.00012689093 0.0044177361 0.36000001 4285476121
0.0012997721 0.0044300077 0.36100003 4286001436
0.0024723008 0.0044300077 0.36100003 4286131739
0.0036448294 0.0044300077 0.36100003 4286722336
0.0048173582 0.0044300077 0.36100003 4286590750
0.0063051437 0.0046631657 0.38000003 4285868315
0.0075790659 0.0046877088 0.38200003 4286794559
0.0088428911 0.0046999799 0.38300002 4288326553
0.010113211 0.0047122515 0.384 4286020718
0.011360444 0.0047122515 0.384 4283441430
0.01264051 0.0047245231 0.38500002 4283834903
0.01389099 0.0047245231 0.38500002 4284428062
0.01514147 0.0047245231 0.38500002 4284625441
-0.011469533 0.005540851 0.35700002 4282601017
-0.010309996 0.005540851 0.35700002 4281878577
-0.0091504594 0.005540851 0.35700002 4282468918
-0.0079909237 0.005540851 0.35700002 4284495913
-0.0068505215 0.0055563715 0.35800001 4284953121
-0.0056877369 0.0055563715 0.35800001 4285542945
-0.0045249527 0.0055563715 0.35800001 4285542945
-0.0033715598 0.0055718925 0.35900003 4284688154
-0.0022055269 0.0055718925 0.35900003 4284030739
-0.0010423897 0.005587413 0.36000001 4284424984
0.0001272434 0.0056029335 0.36100003 4285213728
0.0012997721 0.0056029335 0.36100003 4285411359
0.002479149 0.005618454 0.36200002 4285740322
0.0036549256 0.005618454 0.36200002 4286331176
0.0048307027 0.005618454 0.36200002 4285804832
0.0063217357 0.0059133451 0.38100001 4284950554
0.0075989058 0.0059443866 0.38300002 4290290578
0.0088659786 0.0059599066 0.384 4287540119
0.010139548 0.0059754276 0.38500002 4288658086
0.011390029 0.0059754276 0.38500002 4282522895
0.012673343 0.0059909481 0.38600001 4283770393
0.013927069 0.0059909481 0.38600001 4284823333
0.015180798 0.0059909481 0.38600001 4284889126
0.016477104 0.006006469 0.38700002 4285941301
-0.011469533 0.0067007807 0.35700002 4282469168
-0.010309996 0.0067007807 0.35700002 4282468652
-0.0091504594 0.0067007807 0.35700002 4282858533
-0.0079909237 0.0067007807 0.35700002 4284954406
-0.0068313861 0.0067007807 0.35700002 4285083677
-0.0056877369 0.0067195501 0.35800001 4285870879
-0.0045249527 0.0067195501 0.35800001 4285674016
-0.0033715598 0.00673832 0.35900003 4283111952
-0.0022116704 0.0067570894 0.36000001 4283506456
-0.0010423897 0.0067570894 0.36000001 4283834390
0.0001272434 0.0067758597 0.36100003 4285412904
0.0013033724 0.0067946292 0.36200002 4284886558
0.0024859975 0.0068133986 0.36300001 4285347363
0.0036549256 0.0067946292 0.36200002 4285085474
0.0048307027 0.0067946292 0.36200002 4283967509
0.0060230712 0.0068133986 0.36300001 4282986274
0.0076187463 0.0072075622 0.384 4288720538
0.0088659786 0.0072075622 0.384 4287409816
0.010139548 0.0072263321 0.38500002 4287738783
0.011419613 0.0072451015 0.38600001 4282460191
0.012706175 0.0072638714 0.38700002 4283705632
0.013963151 0.0072638714 0.38700002 4284362784
0.015220128 0.0072638714 0.38700002 4284560161
0.016519681 0.0072826408 0.38800001 4286069035
-0.011469533 0.0078607099 0.35700002 4282797869
-0.010281117 0.0078386907 0.35600001 4281544468
-0.0091248276 0.0078386907 0.35600001 4283316002
-0.0079685394 0.0078386907 0.35600001 4285282086
-0.0068313861 0.0078607099 0.35700002 4285147672
-0.0056877369 0.0078827282 0.35800001 4287119917
-0.0045249527 0.0078827282 0.35800001 4287781188
-0.0033715598 0.0079047475 0.35900003 4287801483
-0.0022116704 0.0079267658 0.36000001 4288063887
-0.0010452853 0.0079487851 0.36100003 4284365872
0.00012759588 0.0079708034 0.36200002 4283573014
0.0013069729 0.0079928227 0.36300001 4284360214
0.002492846 0.0080148419 0.36400002 4285346849
0.0036650221 0.0079928227 0.36300001 4282652164
0.0048440467 0.0079928227 0.36300001 4284499515
0.006354921 0.0084331986 0.38300002 4280030995
0.0076187463 0.0084552169 0.384 4287864209
0.0088890679 0.0084772361 0.38500002 4287409818
0.010165884 0.0084992545 0.38600001 4287278232
0.011449198 0.0085212737 0.38700002 4283122233
0.012706175 0.0085212737 0.38700002 4283444258
0.013999231 0.0085432921 0.38800001 4284033817
0.015259456 0.0085432921 0.38800001 4284757027
0.016519681 0.0085432921 0.38800001 4285542432
-0.010281117 0.0089953709 0.35600001 4282001939
-0.0091248276 0.0089953709 0.35600001 4284038183
-0.0079685394 0.0089953709 0.35600001 4285215523
-0.0068313861 0.0090206396 0.35700002 4285279258
-0.0056877369 0.0090459064 0.35800001 4287055153
-0.0045249527 0.0090459064 0.35800001 4290091652
-0.0033715598 0.009071175 0.35900003 4287801485
-0.0022178141 0.0091217114 0.36100003 4286677355
-0.0010481807 0.0091469781 0.36200002 4283708196
0.00012794834 0.0091722459 0.36300001 4283706397
0.0013105734 0.0091975145 0.36400002 4285346336
0.002506543 0.0092480499 0.36600003 4286662709
0.0036751186 0.0091975145 0.36400002 4281274624
0.0050175255 0.0095007289 0.37600002 4280557841
0.0063383286 0.0096523371 0.38200003 4284508514
0.0076187463 0.0097028716 0.384 4280364325
0.0088890679 0.0097281402 0.38500002 4287278748
0.010165884 0.0097534079 0.38600001 4287016089
0.011449198 0.0097786766 0.38700002 4285690210
0.012739007 0.0098039433 0.38800001 4282852121
0.014035312 0.009829212 0.38900003 4283770647
0.015298785 0.009829212 0.38900003 4284362271
0.016562259 0.009829212 0.38900003 4286001443
-0.0091248276 0.010152051 0.35600001 4284431655
-0.0079685394 0.010152051 0.35600001 4285280543
-0.0068313861 0.010180569 0.35700002 4286001441
-0.0056877369 0.010209085 0.35800001 4284755994
-0.0045249527 0.010209085 0.35800001 4289106556
-0.0033715598 0.010237603 0.35900003 4284891693
-0.0022178141 0.010294638 0.36100003 4285218607
-0.0010481807 0.010323154 0.36200002 4284100644
0.00012830083 0.010380188 0.36400002 4284362271
0.0013177744 0.010437222 0.36600003 4285279773
0.0025202399 0.010494256 0.36800003 4285544488
0.003765987 0.010636841 0.37300003 4281079562
0.0050175255 0.010722392 0.37600002 4279241729
0.0063217357 0.010864977 0.38100001 4279506963
0.0075989058 0.010922011 0.38300002 4281284655
0.0088890679 0.010979045 0.38500002 4287738529
0.010192221 0.011036079 0.38700002 4287081369
0.011478783 0.011064596 0.38800001 4286019943
0.01277184 0.011093114 0.38900003 4282786840
0.014035312 0.011093114 0.38900003 4283835927
0.015338113 0.01112163 0.39000002 4284624671
0.016604833 0.01112163 0.39000002 4285935648
0.017963205 0.011178664 0.39200002 4287511852
0.019236421 0.011178664 0.39200002 4290999919
-0.012593693 0.011308732 0.35600001 4281348372
-0.011437405 0.011308732 0.35600001 4281282066
-0.010281117 0.011308732 0.35600001 4282526225
-0.0091248276 0.011308732 0.35600001 4285021224
-0.0079685394 0.011308732 0.35600001 4285278490
-0.0068122507 0.011308732 0.35600001 4285540635
-0.0056559616 0.011308732 0.35600001 4285543461
-0.0045249527 0.011372264 0.35800001 4285085990
-0.0033715598 0.011404031 0.35900003 4286071602
-0.0022178141 0.011467564 0.36100003 4284558876
-0.0010510762 0.011531095 0.36300001 4284493087
0.00012830083 0.011562862 0.36400002 4285083425
0.0013213749 0.01165816 0.36700001 4286463793
0.0025270884 0.011721692 0.36900002 4283702804
0.003765987 0.011848757 0.37300003 4284769881
0.0050308695 0.01197582 0.377 4284575327
0.0063051437 0.01207112 0.38000003 4279574037
0.0075989058 0.012166417 0.38300002 4281349935
0.0088890679 0.01222995 0.38500002 4287738270
0.010192221 0.012293482 0.38700002 4287278232
0.011508367 0.012357014 0.38900003 4284372552
0.012804672 0.01238878 0.39000002 4283179801
0.014071392 0.01238878 0.39000002 4284294425
0.015377442 0.012420547 0.39100003 4285017630
0.016647412 0.012420547 0.39100003 4285804062
0.017963205 0.012452313 0.39200002 4286130717
0.019236421 0.012452313 0.39200002 4286656811
0.020561956 0.012484078 0.39300001 4286264111
-0.012593693 0.012465413 0.35600001 4280953101
-0.011437405 0.012465413 0.35600001 4280360966
-0.010281117 0.012465413 0.35600001 4284103202
-0.0091248276 0.012465413 0.35600001 4285085472
-0.0079685394 0.012465413 0.35600001 4286000414
-0.0068122507 0.012465413 0.35600001 4286592553
-0.0056718495 0.012500429 0.35700002 4286133799
-0.0045249527 0.012535443 0.35800001 4285674531
-0.0033715598 0.012570458 0.35900003 4285477668
-0.0022178141 0.012640489 0.36100003 4284623386
-0.0010510762 0.012710519 0.36300001 4284689179
0.00012865329 0.012780549 0.36500001 4285477152
0.0013213749 0.01285058 0.36700001 4286333231
0.0025339369 0.012955626 0.37 4287063387
0.003765987 0.013060671 0.37300003 4285366642
0.0050308695 0.013200732 0.377 4282339394
0.0063051437 0.013305778 0.38000003 4281680696
0.0075989058 0.013410823 0.38300002 4282009661
0.0089121563 0.013515868 0.38600001 4287738270
0.010218557 0.013585899 0.38800001 4288199332
0.011508367 0.013620915 0.38900003 4283184938
0.012804672 0.01365593 0.39000002 4283704862
0.014107473 0.013690946 0.39100003 4285017630
0.01541677 0.013725961 0.39200002 4285083164
0.016689988 0.013725961 0.39200002 4285606685
0.017963205 0.013725961 0.39200002 4286001186
0.019285493 0.013760975 0.39300001 4286198822
0.020561956 0.013760975 0.39300001 4285084970
-0.012593693 0.013622093 0.35600001 4280426759
-0.011437405 0.013622093 0.35600001 4280031232
-0.010281117 0.013622093 0.35600001 4285350443
-0.0091248276 0.013622093 0.35600001 4285346334
-0.0079685394 0.013622093 0.35600001 4286065948
-0.0068313861 0.013660357 0.35700002 4287119919
-0.0056718495 0.013660357 0.35700002 4285213465
-0.0045249527 0.013698622 0.35800001 4285477922
-0.0033715598 0.013736886 0.35900003 4284820765
-0.0022178141 0.013813416 0.36100003 4283899149
-0.0010510762 0.013889942 0.36300001 4284820251
0.00012865329 0.013966472 0.36500001 4285674018
0.0013213749 0.014043001 0.36700001 4284560161
0.0025339369 0.014157793 0.37 4285886045
0.003765987 0.014272586 0.37300003 4282536259
0.0050175255 0.014387379 0.37600002 4281351218
0.0062885508 0.014502171 0.37900001 4282996556
0.0075989058 0.01465523 0.38300002 4281022507
0.0089121563 0.014770022 0.38600001 4287869084
0.010218557 0.01484655 0.38800001 4286553224
0.011537951 0.014923079 0.39000002 4282720020
0.012837506 0.014961344 0.39100003 4283703319
0.014143554 0.014999609 0.39200002 4284687382
0.01541677 0.014999609 0.39200002 4285345053
0.016732562 0.015037872 0.39300001 4285804834
0.018009027 0.015037872 0.39300001 4285674018
0.019285493 0.015037872 0.39300001 4283512870
-0.013749982 0.014778772 0.35600001 4280821517
-0.012593693 0.014778772 0.35600001 4280426509
-0.011437405 0.014778772 0.35600001 4280884491
-0.010281117 0.014778772 0.35600001 4285083937
-0.0091248276 0.014778772 0.35600001 4285148185
-0.0079685394 0.014778772 0.35600001 4286723106
-0.0068313861 0.014820287 0.35700002 4286855462
-0.0056718495 0.014820287 0.35700002 4285016853
-0.0045249527 0.0148618 0.35800001 4286466873
-0.0033715598 0.014903313 0.35900003 4284756257
-0.0022178141 0.014986341 0.36100003 4284097812
-0.0010481807 0.015027854 0.36200002 4284886298
0.00012865329 0.015152394 0.36500001 4285477922
0.0013213749 0.01523542 0.36700001 4283311378
0.0025339369 0.01535996 0.37 4284305212
0.003765987 0.015484502 0.37300003 4282600756
0.0050041811 0.015567528 0.37500003 4292997583
0.0062719584 0.015692068 0.37800002 4283717697
0.0075989058 0.015899636 0.38300002 4282533425
0.0089352448 0.016065689 0.38700002 4285497194
0.010244895 0.016148716 0.38900003 4282666810
0.011567537 0.016231744 0.39100003 4283705114
0.012870338 0.016273256 0.39200002 4284360216
0.014179633 0.016314769 0.39300001 4285081629
0.015456098 0.016314769 0.39300001 4285213213
0.016732562 0.016314769 0.39300001 4285344283
0.018009027 0.016314769 0.39300001 4285614396
-0.013749982 0.015935453 0.35600001 4280624397
-0.012593693 0.015935453 0.35600001 4280688911
-0.011437405 0.015935453 0.35600001 4283249959
-0.010281117 0.015935453 0.35600001 4285543463
-0.0091248276 0.015935453 0.35600001 4286066982
-0.0079685394 0.015935453 0.35600001 4286459934
-0.0068313861 0.015980216 0.35700002 4286854692
-0.0056718495 0.015980216 0.35700002 4284622359
-0.0045249527 0.016024979 0.35800001 4285414957
-0.0033715598 0.016069742 0.35900003 4284033817
-0.0022178141 0.016159266 0.36100003 4284099095
-0.0010481807 0.016204027 0.36200002 4285017884
0.00012865329 0.016338315 0.36500001 4285543713
0.0013213749 0.016427841 0.36700001 4283378969
0.0025339369 0.016562128 0.37 4282067482
0.0037558903 0.016651653 0.37200001 4281280281
0.0049908361 0.016741179 0.37400001 4286348642
0.0062387735 0.016830703 0.37600002 4288191846
0.0074401824 0.016785942 0.37500003 4287336537
0.0089583332 0.017367853 0.38800001 4281479447
0.010271231 0.017457379 0.39000002 4281804310
0.011567537 0.017502142 0.39100003 4284099612
0.01290317 0.017591666 0.39300001 4284886044
0.014179633 0.017591666 0.39300001 4285344029
0.015495427 0.01763643 0.39400002 4285343259
0.016775141 0.01763643 0.39400002 4284953638
-0.012593693 0.017092135 0.35600001 4281147665
-0.011437405 0.017092135 0.35600001 4285022005
-0.010281117 0.017092135 0.35600001 4285870627
-0.0091248276 0.017092135 0.35600001 4286526760
-0.0079685394 0.017092135 0.35600001 4287446831
-0.0068313861 0.017140146 0.35700002 4286131741
-0.0056718495 0.017140146 0.35700002 4284556566
-0.0045249527 0.017188158 0.35800001 4285481263
-0.0033715598 0.017236169 0.35900003 4283969310
-0.0022116704 0.017284181 0.36000001 4283836952
-0.0010481807 0.017380204 0.36200002 4284951324
0.00012865329 0.017524239 0.36500001 4285543715
0.0013213749 0.017620262 0.36700001 4283248415
0.0025339369 0.017764296 0.37 4282067484
0.0037558903 0.017860319 0.37200001 4281147665
0.0049774921 0.017908333 0.37300003 4282925869
0.0062221815 0.018004356 0.37500003 4281938953
0.0074401824 0.018004356 0.37500003 4283385627
0.0089583332 0.018628506 0.38800001 4282529820
0.010271231 0.018724529 0.39000002 4282067219
0.01159712 0.018820552 0.39200002 4284425497
0.012936003 0.018916577 0.39400002 4285344283
0.014215714 0.018916577 0.39400002 4285804059
0.015495427 0.018916577 0.39400002 4285672473
0.016775141 0.018916577 0.39400002 4285747265
-0.013749982 0.018248815 0.35600001 4280755987
-0.012593693 0.018248815 0.35600001 4281473546
-0.011437405 0.018248815 0.35600001 4284888874
-0.010281117 0.018248815 0.35600001 4286197541
-0.0091248276 0.018248815 0.35600001 4286524707
-0.0079685394 0.018248815 0.35600001 4288696898
-0.0068313861 0.018300075 0.35700002 4287511597
-0.0056718495 0.018300075 0.35700002 4286853413
-0.0045249527 0.018351335 0.35800001 4286526247
-0.0033715598 0.018402597 0.35900003 4284227603
-0.0022116704 0.018453857 0.36000001 4284951326
-0.0010481807 0.018556379 0.36200002 4285147933
0.00012865329 0.018710161 0.36500001 4286465076
0.0013213749 0.018812682 0.36700001 4282656791
0.0025339369 0.018966464 0.37 4281870875
0.0037457941 0.019017726 0.37100002 4281279251
0.0049774921 0.019120248 0.37300003 4282464805
0.0062055886 0.019171508 0.37400001 4282136344
0.0074203415 0.019171508 0.37400001 4281807377
0.0089583332 0.019889157 0.38800001 4282530336
0.010271231 0.019991679 0.39000002 4282264084
0.012968834 0.020247983 0.39500001 4285607201
0.014251795 0.020247983 0.39500001 4286131487
0.015534755 0.020247983 0.39500001 4286328866
0.016817717 0.020247983 0.39500001 4288383099
-0.014906271 0.019405494 0.35600001 4281547298
-0.013749982 0.019405494 0.35600001 4280756757
-0.012593693 0.019405494 0.35600001 4282588686
-0.011437405 0.019405494 0.35600001 4286071602
-0.010281117 0.019405494 0.35600001 4286592038
-0.0091248276 0.019405494 0.35600001 4287445807
-0.0079685394 0.019405494 0.35600001 4289220932
-0.0068313861 0.019460006 0.35700002 4287969323
-0.0056718495 0.019460006 0.35700002 4287903275
-0.0045249527 0.019514514 0.35800001 4288100911
-0.0033715598 0.019569024 0.35900003 4287773486
-0.0022116704 0.019623535 0.36000001 4287971894
-0.0010452853 0.019678045 0.36100003 4289685849
0.00012900577 0.019950593 0.36600003 4286529327
0.0013249754 0.020059614 0.36800003 4281999377
0.0025339369 0.020168632 0.37 4281607449
0.0037457941 0.020223143 0.37100002 4282925619
0.0049641472 0.020277651 0.37200001 4282598191
0.0061889961 0.020332163 0.37300003 4285493833
0.0074203415 0.020386672 0.37400001 4284638013
0.0091892183 0.021694908 0.39800003 4282527772
0.010481923 0.021694908 0.39800003 4283115032
0.011745043 0.021640398 0.39700001 4285607971
0.012968834 0.021531377 0.39500001 4285935391
0.014251795 0.021531377 0.39500001 4286459166
0.015574085 0.021585887 0.39600003 4286723624
-0.016107678 0.020619934 0.35700002 4281745449
-0.014906271 0.020562174 0.35600001 4281679654
-0.013749982 0.020562174 0.35600001 4281941286
-0.012593693 0.020562174 0.35600001 4284626986
-0.011437405 0.020562174 0.35600001 4285741353
-0.010281117 0.020562174 0.35600001 4286788901
-0.0091248276 0.020562174 0.35600001 4287051044
-0.0079685394 0.020562174 0.35600001 4287311391
-0.0068313861 0.020619934 0.35700002 4287705892
-0.0056718495 0.020619934 0.35700002 4288100909
-0.0045249527 0.020677693 0.35800001 4290998374
-0.0033621681 0.020677693 0.35800001 4287774515
-0.0022055269 0.020735452 0.35900003 4288102451
-0.0010423897 0.020793211 0.36000001 4288234548
0.00012935825 0.021197524 0.36700001 4286460965
0.0013285758 0.021313041 0.36900002 4281012995
0.0025407854 0.021428559 0.37100002 4281937949
0.0037558903 0.021486318 0.37200001 4282993465
0.0049641472 0.021486318 0.37200001 4283127361
0.0061889961 0.021544077 0.37300003 4282072617
0.007817151 0.022757014 0.39400002 4287336060
0.0091892183 0.022988051 0.39800003 4282261266
0.010455586 0.022930291 0.39700001 4284952101
0.011745043 0.022930291 0.39700001 4286132000
0.013001667 0.022872532 0.39600003 4286590752
0.014287875 0.022872532 0.39600003 4286984481
0.015574085 0.022872532 0.39600003 4286328866
-0.016107678 0.021779863 0.35700002 4281154604
-0.014906271 0.021718854 0.35600001 4281812273
-0.013749982 0.021718854 0.35600001 4281810472
-0.012593693 0.021718854 0.35600001 4284825130
-0.011437405 0.021718854 0.35600001 4285347363
-0.010281117 0.021718854 0.35600001 4286723108
-0.0091248276 0.021718854 0.35600001 4287051044
-0.0079685394 0.021718854 0.35600001 4286787354
-0.0068313861 0.021779863 0.35700002 4287247138
-0.0056718495 0.021779863 0.35700002 4287707691
-0.0045249527 0.02184087 0.35800001 4288760127
-0.0033621681 0.02184087 0.35800001 4291793532
-0.0022055269 0.021901879 0.35900003 4287317296
-0.0010423897 0.021962887 0.36000001 4288036654
0.00012935825 0.022389943 0.36700001 4286460706
0.0013321763 0.022572966 0.37 4281276687
0.0025476338 0.022694983 0.37200001 4280951831
0.0037558903 0.022694983 0.37200001 4281677607
0.0049641472 0.022694983 0.37200001 4282730550
0.0065208455 0.023976151 0.39300001 4283582004
0.007817151 0.02403716 0.39400002 4289306765
0.0091430414 0.024159176 0.39600003 4282913801
0.010455586 0.024220183 0.39700001 4286066984
0.011715459 0.024159176 0.39600003 4286393116
0.013001667 0.024159176 0.39600003 4287051046
0.014287875 0.024159176 0.39600003 4286787620
0.015574085 0.024159176 0.39600003 4286527535
-0.016107678 0.022939794 0.35700002 4287607195
-0.014906271 0.022875536 0.35600001 4287540119
-0.013749982 0.022875536 0.35600001 4285827704
-0.012593693 0.022875536 0.35600001 4284233765
-0.011437405 0.022875536 0.35600001 4284821535
-0.010281117 0.022875536 0.35600001 4286132252
-0.0091248276 0.022875536 0.35600001 4286065946
-0.0079685394 0.022875536 0.35600001 4286393114
-0.0068313861 0.022939794 0.35700002 4286787104
-0.0056718495 0.022939794 0.35700002 4287049761
-0.0045249527 0.023004051 0.35800001 4287378726
-0.0033621681 0.023004051 0.35800001 4287776312
-0.0022055269 0.023068309 0.35900003 4289882203
-0.0010423897 0.023132564 0.36000001 4287576103
0.00012935825 0.023582365 0.36700001 4287972146
0.0013357768 0.023839394 0.37100002 4281473296
0.0025544823 0.023967909 0.37300003 4281543714
0.0037558903 0.023903649 0.37200001 4281282849
0.0052043479 0.025060279 0.39000002 4281543966
0.0065042535 0.025188792 0.39200002 4287319876
0.0077973106 0.02525305 0.39300001 4286529588
0.0091199521 0.025381563 0.39500001 4284686099
0.01042925 0.025445823 0.39600003 4286526758
0.011685873 0.025381563 0.39500001 4287116839
0.012968834 0.025381563 0.39500001 4287116839
0.014251795 0.025381563 0.39500001 4287314223
0.015574085 0.025445823 0.39600003 4289031007
-0.014906271 0.024032217 0.35600001 4287014545
-0.013749982 0.024032217 0.35600001 4284972393
-0.012593693 0.024032217 0.35600001 4283774759
-0.011437405 0.024032217 0.35600001 4284559648
-0.010281117 0.024032217 0.35600001 4285541144
-0.0091504594 0.024099724 0.35700002 4285606680
-0.0079909237 0.024099724 0.35700002 4285802776
-0.0068313861 0.024099724 0.35700002 4286327580
-0.0056718495 0.024099724 0.35700002 4286524698
-0.0045249527 0.024167228 0.35800001 4286918686
-0.0033715598 0.024234736 0.35900003 4286785821
-0.0022055269 0.024234736 0.35900003 4287706923
-0.0010423897 0.024302242 0.36000001 4288168240
0.00012900577 0.02470728 0.36600003 4288169780
0.0013429777 0.025179824 0.37300003 4282654229
0.0025681793 0.025314836 0.37500003 4281148181
0.003765987 0.025179824 0.37300003 4281543455
0.0051910039 0.026259923 0.38900003 4284497462
0.006487661 0.026394935 0.39100003 4287579194
0.0077774702 0.026462441 0.39200002 4287577393
0.0090968646 0.026597453 0.39400002 4288105531
0.010402913 0.026664959 0.39500001 4287182632
0.011685873 0.026664959 0.39500001 4287576620
0.012968834 0.026664959 0.39500001 4287511597
0.014251795 0.026664959 0.39500001 4287448378
-0.014906271 0.025188897 0.35600001 4286949267
-0.013749982 0.025188897 0.35600001 4283590490
-0.012593693 0.025188897 0.35600001 4283577639
-0.011437405 0.025188897 0.35600001 4284232482
-0.010309996 0.025259653 0.35700002 4284819222
-0.0091504594 0.025259653 0.35700002 4285016086
-0.0079909237 0.025259653 0.35700002 4285014546
-0.0068313861 0.025259653 0.35700002 4285606680
-0.0056877369 0.025330408 0.35800001 4286131739
-0.0045249527 0.025330408 0.35800001 4286524955
-0.0033715598 0.025401164 0.35900003 4286919456
-0.0022116704 0.025471918 0.36000001 4287181347
-0.0010452853 0.025542675 0.36100003 4286983970
0.00012865329 0.025825694 0.36500001 4287380014
0.0013465782 0.026462493 0.37400001 4282130197
0.0025818762 0.026674759 0.377 4281014290
0.0038669517 0.027099291 0.38300002 4282588438
0.0051643145 0.027382312 0.38700002 4287188290
0.0064544762 0.027523823 0.38900003 4287445807
0.0077576302 0.027665334 0.39100003 4287774772
0.0090737753 0.027806843 0.39300001 4290277213
0.010376576 0.027877599 0.39400002 4287776566
0.01165629 0.027877599 0.39400002 4287774772
0.012936003 0.027877599 0.39400002 4287708981
0.014215714 0.027877599 0.39400002 4286072119
-0.014906271 0.026345577 0.35600001 4286949267
-0.013749982 0.026345577 0.35600001 4284249957
-0.012629069 0.026419582 0.35700002 4283249961
-0.011469533 0.026419582 0.35700002 4283772192
-0.010309996 0.026419582 0.35700002 4284359702
-0.0091504594 0.026419582 0.35700002 4284359700
-0.0080133062 0.026493585 0.35800001 4284292365
-0.0068505215 0.026493585 0.35800001 4284883732
-0.0056877369 0.026493585 0.35800001 4285145875
-0.0045375922 0.026567591 0.35900003 4286001438
-0.003380951 0.026641594 0.36000001 4286263836
-0.0022178141 0.026715601 0.36100003 4286329118
-0.0010481807 0.026789604 0.36200002 4286393891
0.00012865329 0.027011616 0.36500001 4286594868
0.0013141739 0.027011616 0.36500001 4287992200
0.0025955732 0.028047679 0.37900001 4283121721
0.0038770481 0.028417701 0.384 4285084459
0.0051643145 0.028639715 0.38700002 4286001191
0.0064378832 0.028713718 0.38800001 4287774772
0.0077377893 0.028861728 0.39000002 4289814355
0.0090506868 0.029009737 0.39200002 4288303423
0.010350239 0.02908374 0.39300001 4290015584
0.011626705 0.02908374 0.39300001 4289427828
0.01290317 0.02908374 0.39300001 4293376173
0.014179633 0.02908374 0.39300001 4286142023
-0.014906271 0.027502256 0.35600001 4287015060
-0.013788607 0.027579511 0.35700002 4287013261
-0.012629069 0.027579511 0.35700002 4283184168
-0.011469533 0.027579511 0.35700002 4283970089
-0.010338875 0.027656764 0.35800001 4284230946
-0.0091760904 0.027656764 0.35800001 4283835927
-0.0080133062 0.027656764 0.35800001 4284360984
-0.0068696574 0.027734019 0.35900003 4284360214
-0.0057036243 0.027734019 0.35900003 4284951324
-0.0045502316 0.027811272 0.36000001 4285148703
-0.0033903427 0.027888525 0.36100003 4285871910
-0.0022239573 0.027965778 0.36200002 4286003496
-0.0010510762 0.028043032 0.36300001 4286727219
0.00012865329 0.028197538 0.36500001 4284952605
0.0013141739 0.028197538 0.36500001 4288655258
0.0025955732 0.029279089 0.37900001 4287142283
0.0038770481 0.029665355 0.384 4284560943
0.0051509701 0.029819863 0.38600001 4286332981
0.0064378832 0.029974369 0.38800001 4288103480
0.0077179489 0.030051624 0.38900003 4288101679
0.01159712 0.030283384 0.39200002 4294957513
0.01290317 0.030360637 0.39300001 4288041542
0.014179633 0.030360637 0.39300001 4287777345
-0.014906271 0.028658936 0.35600001 4287015576
-0.013788607 0.028739441 0.35700002 4288133028
-0.012629069 0.028739441 0.35700002 4283581752
-0.01150166 0.028819943 0.35800001 4284432437
-0.010338875 0.028819943 0.35800001 4284429609
-0.0092017232 0.028900446 0.35900003 4284297251
-0.0080356905 0.028900446 0.35900003 4284362782
-0.0068887929 0.028980948 0.36000001 4284625441
-0.0057195118 0.028980948 0.36000001 4284822820
-0.0045628715 0.029061452 0.36100003 4285283371
-0.0033997342 0.029141953 0.36200002 4285283371
-0.0022301008 0.029222455 0.36300001 4285414957
-0.0010539718 0.029302958 0.36400002 4284754976
0.00012865329 0.02938346 0.36500001 4284754722
0.0013177744 0.029463964 0.36600003 4288589465
0.0025955732 0.030510496 0.37900001 4287802775
0.0038871446 0.030993514 0.38500002 4286546037
0.0051643145 0.031154519 0.38700002 4284956732
0.0064378832 0.031235021 0.38800001 4288234296
0.0077179489 0.031315524 0.38900003 4288429872
0.0089814216 0.031315524 0.38900003 4288364076
0.010271231 0.031396028 0.39000002 4288758834
0.011567537 0.031476531 0.39100003 4288890170
0.012870338 0.031557031 0.39200002 4288429876
0.014143554 0.031557031 0.39200002 4288037171
0.01541677 0.031557031 0.39200002 4286200360
-0.013788607 0.02989937 0.35700002 4287672736
-0.012664445 0.02998312 0.35800001 4288391321
-0.011533787 0.030066874 0.35900003 4286015328
-0.010367756 0.030066874 0.35900003 4284562478
-0.0092273541 0.030150624 0.36000001 4284627499
-0.0080580739 0.030150624 0.36000001 4284890158
-0.0069079287 0.030234378 0.36100003 4285020974
-0.0057353997 0.030234378 0.36100003 4283971884
-0.004575511 0.030318128 0.36200002 4284763970
-0.0034091256 0.030401878 0.36300001 4285222986
-0.0022362445 0.030485632 0.36400002 4283903526
-0.0010568673 0.030569382 0.36500001 4284558880
0.00012865329 0.030569382 0.36500001 4285873457
0.0013177744 0.030653136 0.36600003 4289442206
0.0025887247 0.031658158 0.37800002 4287736982
0.0038972411 0.03232817 0.38600001 4288195737
0.0051643145 0.032411922 0.38700002 4287397998
0.0064378832 0.032495674 0.38800001 4287773486
0.0077179489 0.032579426 0.38900003 4288429617
0.0089814216 0.032579426 0.38900003 4288429615
0.010271231 0.032663178 0.39000002 4288429869
0.011567537 0.03274693 0.39100003 4288693298
0.012837506 0.03274693 0.39100003 4288100907
0.014143554 0.032830682 0.39200002 4287970861
0.01541677 0.032830682 0.39200002 4286921770
-0.01382723 0.031146299 0.35800001 4287606943
-0.012699821 0.031233301 0.35900003 4287935649
-0.011565915 0.0313203 0.36000001 4284838499
-0.010396635 0.0313203 0.36000001 4283839528
-0.0092529859 0.031407304 0.36100003 4284430120
-0.0080804573 0.031407304 0.36100003 4285087021
-0.0069270642 0.031494305 0.36200002 4283245081
-0.0057512871 0.031494305 0.36200002 4288787358
-0.00458815 0.031581301 0.36300001 4288197020
-0.0034185173 0.031668305 0.36400002 4289641388
-0.002242388 0.031755306 0.36500001 4284766028
-0.0010568673 0.031755306 0.36500001 4284494118
0.00012900577 0.031842306 0.36600003 4285808180
0.0013177744 0.031842306 0.36600003 4288384378
0.0026435126 0.033582322 0.38600001 4288260752
0.0038972411 0.033582322 0.38600001 4289237892
0.0051643145 0.033669323 0.38700002 4286594868
0.0064378832 0.033756323 0.38800001 4288102449
0.0077179489 0.033843327 0.38900003 4288298029
0.0089814216 0.033843327 0.38900003 4288494638
0.010271231 0.033930324 0.39000002 4288561201
0.011567537 0.034017328 0.39100003 4288232493
0.012837506 0.034017328 0.39100003 4287574563
0.014143554 0.034104329 0.39200002 4287510823
0.01541677 0.034104329 0.39200002 4286462246
-0.012735196 0.032489982 0.36000001 4287803809
-0.011598043 0.03258023 0.36100003 4288921520
-0.010425515 0.03258023 0.36100003 4283512879
-0.0092786169 0.032670479 0.36200002 4284693040
-0.0081028407 0.032670479 0.36200002 4284823595
-0.0069461991 0.032760728 0.36300001 4284296739
-0.0057671745 0.032760728 0.36300001 4288589725
-0.0046007899 0.032850981 0.36400002 4287935647
-0.0034279088 0.03294123 0.36500001 4288724395
-0.002242388 0.03294123 0.36500001 4283917658
-0.0010597629 0.033031482 0.36600003 4283772971
0.00012935825 0.033121731 0.36700001 4285414966
0.0013213749 0.033121731 0.36700001 4285610283
0.0026435126 0.034836479 0.38600001 4286465078
0.0038972411 0.034836479 0.38600001 4287578165
0.0051643145 0.034926727 0.38700002 4287774515
0.0064378832 0.035016976 0.38800001 4292246888
0.0077179489 0.035107229 0.38900003 4287903523
0.0089814216 0.035107229 0.38900003 4288494379
0.010271231 0.035197478 0.39000002 4288101161
0.011537951 0.035197478 0.39000002 4286985251
0.012837506 0.03528773 0.39100003 4286853924
0.014107473 0.03528773 0.39100003 4286724137
0.01541677 0.035377979 0.39200002 4286335807
-0.012735196 0.033659656 0.36000001 4287935908
-0.01163017 0.033846654 0.36200002 4287870115
-0.010483273 0.033940151 0.36300001 4285622880
-0.0093042487 0.033940151 0.36300001 4284365874
-0.0081252242 0.033940151 0.36300001 4284890160
-0.006965335 0.034033652 0.36400002 4285086769
-0.005783062 0.034033652 0.36400002 4289572765
-0.0046134293 0.03412715 0.36500001 4288131740
-0.0034373004 0.034220651 0.36600003 4287804063
-0.0022485317 0.034220651 0.36600003 4288526762
-0.0010626584 0.034314148 0.36700001 4285293402
0.00012935825 0.034314148 0.36700001 4283970091
0.0013249754 0.034407649 0.36800003 4286200110
0.0026298154 0.035903633 0.384 4286592553
0.0038972411 0.036090631 0.38600001 4289880143
0.0051643145 0.036184132 0.38700002 4289353029
0.0064378832 0.036277629 0.38800001 4288495410
0.007698108 0.036277629 0.38800001 4288626478
0.0089814216 0.03637113 0.38900003 4288628791
0.010244895 0.03637113 0.38900003 4286591520
0.011537951 0.036464628 0.39000002 4285805604
0.012837506 0.036558129 0.39100003 4285740070
0.014107473 0.036558129 0.39100003 4285679935
-0.011694426 0.035216328 0.36400002 4287935908
-0.010512154 0.035216328 0.36400002 4288985003
-0.0093298806 0.035216328 0.36400002 4283580217
-0.008169991 0.035313074 0.36500001 4284362792
-0.0069844704 0.035313074 0.36500001 4285480498
-0.0057989494 0.035313074 0.36500001 4284367155
-0.0046260692 0.035409823 0.36600003 4288523670
-0.0034373004 0.035409823 0.36600003 4287869854
-0.0022546751 0.035506569 0.36700001 4287804063
-0.0010626584 0.035506569 0.36700001 4288196252
0.00012971072 0.035603318 0.36800003 4283583297
0.0013249754 0.035603318 0.36800003 4284950304
0.0026298154 0.037151288 0.384 4286789678
0.0038871446 0.037248038 0.38500002 4287773486
0.0051643145 0.037441533 0.38700002 4288299060
0.0064378832 0.037538283 0.38800001 4288561462
0.007698108 0.037538283 0.38800001 4287773486
0.0089814216 0.037635032 0.38900003 4286135598
0.010244895 0.037635032 0.38900003 4285479980
0.011537951 0.037731778 0.39000002 4284757036
0.012804672 0.037731778 0.39000002 4285024576
0.014107473 0.037828527 0.39100003 4287339146
-0.011726553 0.036498994 0.36500001 4288067494
-0.010541032 0.036498994 0.36500001 4288527016
-0.0093555115 0.036498994 0.36500001 4283322182
-0.0081923753 0.036598995 0.36600003 4284232489
-0.0070036063 0.036598995 0.36600003 4284692009
-0.0058148373 0.036598995 0.36600003 4284623906
-0.0046387082 0.03669899 0.36700001 4290420881
-0.0034466919 0.03669899 0.36700001 4288000406
-0.0022608186 0.036798988 0.36800003 4287869082
-0.001065554 0.036798988 0.36800003 4289116069
0.0001300632 0.036898986 0.36900002 4284961095
0.0013285758 0.036898986 0.36900002 4285540642
0.0025407854 0.037098981 0.37100002 4287118645
0.0038871446 0.038498942 0.38500002 4288431162
0.0051643145 0.038698938 0.38700002 4287970611
0.0064212908 0.038698938 0.38700002 4285740338
0.007698108 0.038798932 0.38800001 4286539098
0.0089814216 0.03889893 0.38900003 4285491798
0.010244895 0.03889893 0.38900003 4287202416
0.011508367 0.03889893 0.38900003 4287273353
-0.011726553 0.037684917 0.36500001 4288067496
-0.010569912 0.037788164 0.36600003 4287870117
-0.0093811434 0.037788164 0.36600003 4285037423
-0.0081923753 0.037788164 0.36600003 4284299054
-0.0070227417 0.03789141 0.36700001 4284495402
-0.0058307247 0.03789141 0.36700001 4285479469
-0.0046387082 0.03789141 0.36700001 4285478185
-0.0034560836 0.037994657 0.36800003 4284363046
-0.0022608186 0.037994657 0.36800003 4284298023
-0.0010684495 0.038097903 0.36900002 4285147937
0.0001300632 0.038097903 0.36900002 4286526508
0.0013321763 0.03820115 0.37 4287973439
0.0025407854 0.038304396 0.37100002 4291921532
0.0037558903 0.038407642 0.37200001 4289023814
0.0051643145 0.039956339 0.38700002 4287710271
0.0064212908 0.039956339 0.38700002 4289895570
0.007698108 0.040059585 0.38800001 4287602830
0.010244895 0.040162832 0.38900003 4287276431
-0.01175868 0.038977336 0.36600003 4287739299
-0.010598792 0.039083831 0.36700001 4287936678
-0.0094067743 0.039083831 0.36700001 4288592557
-0.0082147587 0.039083831 0.36700001 4284694073
-0.0070227417 0.039083831 0.36700001 4284627501
-0.0058466126 0.03919033 0.36800003 4285676846
-0.0046513481 0.03919033 0.36800003 4285741353
-0.0034560836 0.03919033 0.36800003 4284884248
-0.0022669621 0.039296821 0.36900002 4285344029
-0.0010684495 0.039296821 0.36900002 4286066209
0.00013041566 0.039403316 0.37 4286788649
0.0013321763 0.039403316 0.37 4287445034
0.0025407854 0.039509814 0.37100002 4288234035
0.0037558903 0.039616309 0.37200001 4288037169
0.0049774921 0.039722804 0.37300003 4287511343
-0.010598792 0.040276252 0.36700001 4288067494
-0.0094067743 0.040276252 0.36700001 4288922290
-0.0082371421 0.040385999 0.36800003 4284236604
-0.0070418776 0.040385999 0.36800003 4284430642
-0.0058466126 0.040385999 0.36800003 4285481265
-0.0046639876 0.040495742 0.36900002 4285282088
-0.0034654748 0.040495742 0.36900002 4284884248
-0.0022669621 0.040495742 0.36900002 4285344029
-0.0010713449 0.040605485 0.37 4285738017
0.00013041566 0.040605485 0.37 4286264358
0.0013357768 0.040715229 0.37100002 4287117866
0.0025476338 0.040824972 0.37200001 4286853667
0.0037558903 0.040824972 0.37200001 4287380011
0.0049774921 0.040934719 0.37300003 4286592551
0.0061889961 0.040934719 0.37300003 4289177237
-0.010598792 0.041468672 0.36700001 4288133287
-0.0094324071 0.041581668 0.36800003 4288659631
-0.0082371421 0.041581668 0.36800003 4283778366
-0.0070610126 0.04169466 0.36900002 4284300083
-0.0058624996 0.04169466 0.36900002 4284758572
-0.0046639876 0.04169466 0.36900002 4283966489
-0.0034654748 0.04169466 0.36900002 4284425757
-0.0022731056 0.041807652 0.37 4284622874
-0.0010713449 0.041807652 0.37 4284950556
0.00013076815 0.041920647 0.37100002 4285739559
0.0013357768 0.041920647 0.37100002 4286200108
0.0025476338 0.042033639 0.37200001 4287120440
0.0037558903 0.042033639 0.37200001 4286856498
0.0049641472 0.042033639 0.37200001 4285872430
-0.009458038 0.042893577 0.36900002 4288199080
-0.0082595255 0.042893577 0.36900002 4284899931
-0.0070610126 0.042893577 0.36900002 4284695870
-0.0058624996 0.042893577 0.36900002 4284890419
-0.004676627 0.043009818 0.37 4284231460
-0.0034748663 0.043009818 0.37 4284560423
-0.0022731056 0.043009818 0.37 4284560677
-0.0010713449 0.043009818 0.37 4285349679
0.00013076815 0.043126062 0.37100002 4285348912
0.0013357768 0.043126062 0.37100002 4286137145
0.0025476338 0.043242306 0.37200001 4286071352
0.0037558903 0.043242306 0.37200001 4284825911
-0.009458038 0.044092495 0.36900002 4288264875
-0.0082595255 0.044092495 0.36900002 4289314483
-0.007080148 0.044211987 0.37 4283189311
-0.005878387 0.044211987 0.37 4284694589
-0.004676627 0.044211987 0.37 4284760118
-0.0034748663 0.044211987 0.37 4284891443
-0.0022731056 0.044211987 0.37 4285220408
-0.0010742405 0.04433148 0.37100002 4284825396
0.00013076815 0.04433148 0.37100002 4285022775
0.0013393773 0.044450969 0.37200001 4285154876
0.0025476338 0.044450969 0.37200001 4285948504
0.0037558903 0.044450969 0.37200001 4287801496
-0.009458038 0.045291413 0.36900002 4288067496
-0.0082595255 0.045291413 0.36900002 4288133289
-0.007080148 0.045414153 0.37 4288592809
-0.005878387 0.045414153 0.37 4287601805
-0.004676627 0.045414153 0.37 4286482556
-0.0034748663 0.045414153 0.37 4286350453
-0.0022792493 0.045536898 0.37100002 4287007613
-0.0010742405 0.045536898 0.37100002 4286349683
0.00013076815 0.045536898 0.37100002 4287535240
0.0013393773 0.045659635 0.37200001 4288063381
0.0025476338 0.045659635 0.37200001 4287736469
-0.007080148 0.046616323 0.37 4287935395
-0.005878387 0.046616323 0.37 4287738529
-0.004676627 0.046616323 0.37 4287672736
-0.003484258 0.046742316 0.37100002 4287409564
-0.0022792493 0.046742316 0.37100002 4287344025
-0.0010742405 0.046742316 0.37100002 4287409305
0.00013076815 0.046742316 0.37100002 4287014547
0.0013393773 0.046868306 0.37200001 4287475098
0.0029339045 0.018479869 0.37423161 4294967295
0.0029339045 0.018479869 0.37423161 4294901760
0.0029339045 0.018479869 0.3747316 4294901760
0.0029339045 0.018479869 0.37523159 4294901760
0.0029339045 0.018479869 0.37573162 4294901760
0.0029339045 0.018479869 0.37623161 4294901760
0.0029339045 0.018479869 0.3767316 4294901760
0.0029339045 0.018479869 0.3772316 4294901760
0.0029339045 0.018479869 0.37773162 4294901760
0.0029339045 0.018479869 0.37823161 4294901760
0.0029339045 0.018479869 0.37873161 4294901760
0.0029339045 0.018479869 0.3792316 4294901760
0.0029339045 0.018479869 0.3797316 4294901760
0.0029339045 0.018479869 0.38023162 4294901760
0.0029339045 0.018479869 0.38073161 4294901760
0.0029339045 0.018479869 0.38123161 4294901760
0.0029339045 0.018479869 0.3817316 4294901760
0.0029339045 0.018479869 0.38223159 4294901760
0.0029339045 0.018479869 0.38273162 4294901760
0.0029339045 0.018479869 0.38323161 4294901760
0.0029339045 0.018479869 0.3837316 4294901760
0.0029339045 0.018479869 0.3842316 4294901760
0.0029339045 0.018479869 0.38473162 4294901760
0.0029339045 0.018479869 0.38523161 4294901760
0.0029339045 0.018479869 0.38573161 4294901760
0.0029339045 0.018479869 0.3862316 4294901760
0.0029339045 0.018479869 0.38673162 4294901760
0.0029339045 0.018479869 0.38723162 4294901760
0.0029339045 0.018479869 0.38773161 4294901760
0.0029339045 0.018479869 0.38823161 4294901760
0.0029339045 0.018479869 0.3887316 4294901760
0.0029339045 0.018479869 0.38923162 4294901760
0.0029339045 0.018479869 0.38973162 4294901760
0.0029339045 0.018479869 0.39023161 4294901760
0.0029339045 0.018479869 0.3907316 4294901760
0.0029339045 0.018479869 0.3912316 4294901760
0.0029339045 0.018479869 0.39173162 4294901760
0.0029339045 0.018479869 0.39223161 4294901760
0.0029339045 0.018479869 0.39273161 4294901760
0.0029339045 0.018479869 0.3932316 4294901760
0.0029339045 0.018479869 0.39373162 4294901760
0.0029339045 0.018479869 0.39423162 4294901760
0.0029339045 0.018479869 0.39473161 4294901760
0.0029339045 0.018479869 0.3952316 4294901760
0.0029339045 0.018479869 0.39573163 4294901760
0.0029339045 0.018479869 0.39623162 4294901760
0.0029339045 0.018479869 0.39673162 4294901760
0.0029339045 0.018479869 0.39723161 4294901760
0.0029339045 0.018479869 0.3977316 4294901760
0.0029339045 0.018479869 0.39823163 4294901760
0.0029339045 0.018479869 0.39873162 4294901760
0.0029339045 0.018479869 0.39923161 4294901760
0.0029339045 0.018479869 0.39973161 4294901760
0.0029339045 0.018479869 0.4002316 4294901760
0.0029339045 0.018479869 0.40073162 4294901760
0.0029339045 0.018479869 0.40123162 4294901760
0.0029339045 0.018479869 0.40173161 4294901760
0.0029339045 0.018479869 0.4022316 4294901760
0.0029339045 0.018479869 0.4027316 4294901760
0.0029339045 0.018479869 0.40323162 4294901760
0.0029339045 0.018479869 0.40373161 4294901760
0.0029339045 0.018479869 0.40423161 4294901760
0.0029339045 0.018479869 0.4047316 4294901760
0.0029339045 0.018479869 0.40523162 4294901760
0.0029339045 0.018479869 0.40573162 4294901760
0.0029339045 0.018479869 0.40623161 4294901760
0.0029339045 0.018479869 0.40673161 4294901760
0.0029339045 0.018479869 0.40723163 4294901760
0.0029339045 0.018479869 0.40773162 4294901760
0.0029339045 0.018479869 0.40823162 4294901760
0.0029339045 0.018479869 0.40873161 4294901760
0.0029339045 0.018479869 0.4092316 4294901760
0.0029339045 0.018479869 0.40973163 4294901760
0.0029339045 0.018479869 0.41023162 4294901760
0.0029339045 0.018479869 0.41073161 4294901760
0.0029339045 0.018479869 0.41123161 4294901760
0.0029339045 0.018479869 0.4117316 4294901760
0.0029339045 0.018479869 0.41223162 4294901760
0.0029339045 0.018479869 0.41273162 4294901760
0.0029339045 0.018479869 0.41323161 4294901760
0.0029339045 0.018479869 0.4137316 4294901760
0.0029339045 0.018479869 0.41423163 4294901760
0.0029339045 0.018479869 0.41473162 4294901760
0.0029339045 0.018479869 0.41523162 4294901760
0.0029339045 0.018479869 0.41573161 4294901760
0.0029339045 0.018479869 0.4162316 4294901760
0.0029339045 0.018479869 0.41673163 4294901760
0.0029339045 0.018479869 0.41723162 4294901760
0.0029339045 0.018479869 0.41773161 4294901760
0.0029339045 0.018479869 0.41823161 4294901760
0.0029339045 0.018479869 0.41873163 4294901760
0.0029339045 0.018479869 0.41923162 4294901760
0.0029339045 0.018479869 0.41973162 4294901760
0.0029339045 0.018479869 0.42023161 4294901760
0.0029339045 0.018479869 0.4207316 4294901760
0.0029339045 0.018479869 0.42123163 4294901760
0.0029339045 0.018479869 0.42173162 4294901760
0.0029339045 0.018479869 0.42223161 4294901760
0.0029339045 0.018479869 0.42273161 4294901760
0.0029339045 0.018479869 0.42323163 4294901760
0.0029339045 0.018479869 0.42373163 4294901760
0.0029339045 0.018479869 0.42423162 4294901760
0.0029339045 0.018479869 0.37423161 4278255360
0.0025280342 0.018376948 0.37450486 4278255360
0.0021221638 0.018274026 0.37477815 4278255360
0.0017162932 0.018171106 0.37505141 4278255360
0.0013104228 0.018068183 0.3753247 4278255360
0.00090455217 0.017965263 0.37559795 4278255360
0.00049868179 0.017862342 0.37587121 4278255360
9.2811417e-05 0.01775942 0.3761445 4278255360
-0.00031305896 0.0176565 0.37641776 4278255360
-0.0007189298 0.017553577 0.37669104 4278255360
-0.0011248002 0.017450657 0.3769643 4278255360
-0.0015306706 0.017347736 0.37723759 4278255360
-0.0019365409 0.017244814 0.37751085 4278255360
-0.0023424113 0.017141894 0.3777841 4278255360
-0.0027482817 0.017038971 0.37805739 4278255360
-0.0031541525 0.016936051 0.37833065 4278255360
-0.0035600225 0.01683313 0.37860394 4278255360
-0.0039658933 0.016730208 0.37887719 4278255360
-0.0043717641 0.016627287 0.37915045 4278255360
-0.0047776341 0.016524365 0.37942374 4278255360
-0.0051835049 0.016421445 0.379697 4278255360
-0.0055893743 0.016318524 0.37997028 4278255360
-0.0059952457 0.016215602 0.38024354 4278255360
-0.006401116 0.016112681 0.3805168 4278255360
-0.0068069864 0.016009759 0.38079008 4278255360
-0.0072128568 0.015906839 0.38106334 4278255360
-0.0076187272 0.015803918 0.38133663 4278255360
-0.0080245985 0.015700996 0.38160989 4278255360
