# .PCD v0.7 - Point Cloud Data file format
VERSION 0.7
FIELDS x y z rgb
SIZE 4 4 4 4
TYPE F F F U
COUNT 1 1 1 1
WIDTH 936
HEIGHT 1
VIEWPOINT 0 0 0 1 0 0 0
POINTS 936
DATA ascii
-0.012176645 0.04202592 0.54400003 4278600986
-0.010428866 0.042103175 0.54500002 4278798365
-0.0086745927 0.042180426 0.546 4278732572
-0.0051841252 0.042643949 0.55200005 4278470683
-0.013866662 0.043551922 0.54100001 4279058459
-0.012109494 0.043551922 0.54100001 4278863390
-0.010352325 0.043551922 0.54100001 4278731802
-0.008611043 0.043632429 0.54200006 4278797595
-0.012064727 0.045142185 0.53900003 4278862877
-0.010294919 0.045058437 0.53800005 4278862877
-0.015566073 0.046893451 0.53900003 4279386402
-0.013789768 0.046806451 0.53800005 4278927902
-0.011997576 0.046632446 0.53600001 4278797343
-0.010237511 0.046545446 0.53500003 4278863390
-0.003194635 0.045240436 0.52000004 4278731291
-0.0014998829 0.045066431 0.51800001 4278201356
0.00018222946 0.044979431 0.51700002 4278992412
0.0018578459 0.04489243 0.51600003 4278664980
0.0035269663 0.044805434 0.51500005 4278796566
-0.015537194 0.048554473 0.53800005 4279583779
-0.013738505 0.048373971 0.53600001 4278992925
-0.01195281 0.048193473 0.53400004 4278862623
-0.010180105 0.048012968 0.53200001 4278796830
-0.0084203929 0.04783247 0.53000003 4278731037
-0.0066357548 0.047381222 0.52500004 4278731037
-0.0049023791 0.047110472 0.52200001 4278796830
-0.0031884916 0.046839725 0.51900005 4278467351
-0.0014998829 0.046749469 0.51800001 4278196736
0.000181877 0.046568971 0.51600003 4279320607
0.0018542454 0.046478722 0.51500005 4278200072
0.0035201176 0.04638847 0.514 4278197765
0.0051693977 0.046207972 0.51200002 4278195969
0.0068190307 0.046117723 0.51100004 4278196996
0.0084621664 0.046027474 0.51000005 4278266124
0.010078967 0.045846973 0.50800002 4279121947
0.011705863 0.045756724 0.50700003 4279123230
0.0133526 0.045756724 0.50700003 4278795033
0.014969753 0.045666475 0.50600004 4278664214
0.016580408 0.045576219 0.505 4278927386
0.018184567 0.04548597 0.50400001 4278664984
0.019782232 0.045395721 0.50300002 4278533912
0.021373402 0.045305472 0.50200003 4278468632
0.022958076 0.045215223 0.50100005 4278468632
0.02453625 0.04512497 0.5 4278600218
0.02610793 0.045034721 0.49900001 4278600218
0.030411609 0.04422247 0.49000001 4278863136
-0.015508313 0.050208986 0.537 4279452193
-0.013712874 0.050021991 0.53500003 4279058718
-0.011908042 0.049741492 0.53200001 4278993949
-0.010141834 0.049554497 0.53000003 4278862877
-0.0083727296 0.049273998 0.52700001 4278862877
-0.006610475 0.048900001 0.523 4278862877
-0.0048929877 0.048713002 0.52100003 4278665498
-0.0031884916 0.048526008 0.51900005 4279454246
-0.0014969874 0.048339006 0.51700002 4278199817
0.000181877 0.048245508 0.51600003 4279188508
0.0018542454 0.048152011 0.51500005 4278196226
0.0035132691 0.047965009 0.51300001 4278655756
0.0051693977 0.047871511 0.51200002 4278588939
0.0068190307 0.047778014 0.51100004 4278654732
0.0084621664 0.047684517 0.51000005 4278589709
0.010078967 0.047497515 0.50800002 4278589709
0.011728952 0.047497515 0.50800002 4278458636
0.0133526 0.047404017 0.50700003 4278392843
0.014969753 0.04731052 0.50600004 4278195200
0.016580408 0.047217015 0.505 4278199303
0.018184567 0.047123518 0.50400001 4278198016
0.019782232 0.047030021 0.50300002 4278266636
0.021373402 0.046936523 0.50200003 4279123482
0.022958076 0.046843026 0.50100005 4279190045
0.024487179 0.046656024 0.49900001 4278993177
0.02605561 0.046562526 0.49800003 4278664982
0.027506409 0.046282031 0.49500003 4278599189
0.02893772 0.046001531 0.49200001 4278533910
0.030473674 0.045908034 0.49100003 4278600216
0.032003127 0.045814533 0.49000001 4278666009
0.033388969 0.045534037 0.48700002 4278600218
0.035042554 0.045627534 0.48800004 4278600218
0.036552522 0.045534037 0.48700002 4278534941
0.038134299 0.045534037 0.48700002 4278731552
0.039552972 0.045347035 0.48500001 4279586348
0.04287963 0.045534037 0.48700002 4281360708
0.044461407 0.045534037 0.48700002 4285703300
0.046137732 0.045627534 0.48800004 4285571462
0.050015066 0.046282031 0.49500003 4279846186
-0.015479434 0.051857006 0.53600001 4279649313
-0.013661611 0.051566765 0.53300005 4278928156
-0.011885659 0.051373266 0.53100002 4278862877
-0.010103562 0.051083021 0.528 4278731291
-0.0083409548 0.05079278 0.52500004 4278533912
-0.006597836 0.050502531 0.52200001 4278731291
-0.0048835962 0.05030904 0.52000004 4278731291
-0.0031823479 0.050115541 0.51800001 4279783465
-0.0014940919 0.049922045 0.51600003 4278200845
0.00018152452 0.0498253 0.51500005 4279056924
0.0018506448 0.049728546 0.514 4278657037
0.0035132691 0.049631801 0.51300001 4279445785
0.0051693977 0.049535051 0.51200002 4279313686
0.0068190307 0.049438305 0.51100004 4279708957
0.0084621664 0.049341559 0.51000005 4279775520
0.010098807 0.049244806 0.509 4279249176
0.011728952 0.049148057 0.50800002 4279116053
0.0133526 0.049051311 0.50700003 4278458123
0.014969753 0.048954565 0.50600004 4278194690
0.016580408 0.048857812 0.505 4279318299
0.018184567 0.048761066 0.50400001 4279254301
0.019782232 0.048664317 0.50300002 4279188508
0.021373402 0.048567571 0.50200003 4278924566
0.022958076 0.048470825 0.50100005 4279253017
0.02453625 0.048374072 0.5 4278792466
0.02605561 0.048180576 0.49800003 4278198530
0.027561978 0.047987081 0.49600002 4278195712
0.029055353 0.047793586 0.49400002 4278199044
0.030597804 0.047696836 0.49300003 4278200843
0.032133754 0.047600087 0.49200001 4279123228
0.033594649 0.047406591 0.49000001 4278729753
0.035186172 0.047406591 0.49000001 4278795800
0.036702633 0.047309846 0.48900002 4278664984
0.038212605 0.047213096 0.48800004 4278665498
0.03979763 0.047213096 0.48800004 4278731291
0.041382656 0.047213096 0.48800004 4278797084
0.043055728 0.047309846 0.48900002 4278862877
0.044643998 0.047309846 0.48900002 4278796316
0.046326816 0.047406591 0.49000001 4278796064
0.048211716 0.047696836 0.49300003 4278993445
0.050015066 0.047890335 0.49500003 4282150478
0.051622823 0.047890335 0.49500003 4281820743
0.053230584 0.047890335 0.49500003 4279321379
-0.015450555 0.053498529 0.53500003 4279584033
-0.013635978 0.053198535 0.53200001 4278993949
-0.011863275 0.052998543 0.53000003 4278862877
-0.010084427 0.052698549 0.52700001 4278862877
-0.0083250673 0.052398562 0.52400005 4278862877
-0.0065851966 0.052098569 0.52100003 4278731291
-0.0048742048 0.051898576 0.51900005 4278731291
-0.0031762044 0.051698577 0.51700002 4278795033
-0.0014940919 0.051598582 0.51600003 4279055640
0.00018152452 0.051498584 0.51500005 4279385117
0.0018506448 0.051398583 0.514 4278655756
0.0035132691 0.051298589 0.51300001 4278985234
0.0051693977 0.051198591 0.51200002 4279708955
0.0068056863 0.050998598 0.51000005 4280038690
0.0084621664 0.050998598 0.51000005 4278195204
0.010098807 0.050898597 0.509 4278327304
0.011728952 0.050798602 0.50800002 4278328074
0.0133526 0.050698604 0.50700003 4279249176
0.014969753 0.05059861 0.50600004 4278459658
0.016580408 0.050498608 0.505 4279187226
0.018184567 0.050398611 0.50400001 4278464785
0.019782232 0.050298616 0.50300002 4278199815
0.021373402 0.050198622 0.50200003 4278726927
0.022958076 0.050098624 0.50100005 4278727441
0.02453625 0.049998622 0.5 4278728211
0.02610793 0.049898628 0.49900001 4279057176
0.027617546 0.049698632 0.49700001 4279057176
0.029114172 0.04949864 0.49500003 4279187992
0.030659867 0.049398642 0.49400002 4279516703
0.032199066 0.049298644 0.49300003 4279450910
0.033731773 0.049198646 0.49200001 4279582498
0.03525798 0.049098648 0.49100003 4278726675
0.036852747 0.049098648 0.49100003 4278196992
0.038369212 0.04899865 0.49000001 4278196992
0.039960731 0.04899865 0.49000001 4278196992
0.041552257 0.04899865 0.49000001 4278595089
0.043231826 0.049098648 0.49100003 4279386400
0.044826593 0.049098648 0.49100003 4278796316
0.046515908 0.049198646 0.49200001 4278862623
0.048309509 0.049398642 0.49400002 4278796830
0.050015066 0.04949864 0.49500003 4278796830
0.051622823 0.04949864 0.49500003 4278731037
0.053230584 0.04949864 0.49500003 4278796830
0.054838348 0.04949864 0.49500003 4278862623
0.056446105 0.04949864 0.49500003 4280568889
-0.015450555 0.055236798 0.53500003 4279255838
-0.013635978 0.054927059 0.53200001 4278928156
-0.011840892 0.054617323 0.52900004 4278928670
-0.010065292 0.05430758 0.52600002 4278797082
-0.0083091799 0.053997841 0.523 4278731287
-0.0065851966 0.053791348 0.52100003 4278665494
-0.0048742048 0.053584859 0.51900005 4278665496
-0.0031762044 0.053378362 0.51700002 4279124252
-0.0014940919 0.05327512 0.51600003 4278989845
0.00018152452 0.053171873 0.51500005 4279582496
0.0018506448 0.053068623 0.514 4278721549
0.0035132691 0.052965377 0.51300001 4278655756
0.0051593012 0.052758887 0.51100004 4278786318
0.0068056863 0.052655641 0.51000005 4278786318
0.0084621664 0.052655641 0.51000005 4278720525
0.010098807 0.052552391 0.509 4278720525
0.011728952 0.052449144 0.50800002 4279249176
0.0133526 0.052345902 0.50700003 4279643934
0.014969753 0.052242655 0.50600004 4278195969
0.016580408 0.052139405 0.505 4279253017
0.018184567 0.052036159 0.50400001 4278196997
0.019782232 0.051932916 0.50300002 4278656267
0.021373402 0.05182967 0.50200003 4278197513
0.022958076 0.051726423 0.50100005 4279186713
0.02453625 0.051623173 0.5 4279450398
0.02610793 0.051519927 0.49900001 4278726421
0.027673116 0.051416684 0.49800003 4278924568
0.029231803 0.051313434 0.49700001 4278200588
0.030783996 0.051210191 0.49600002 4278794263
0.032329693 0.051106945 0.49500003 4279189791
0.033868894 0.051003698 0.49400002 4278861080
0.035401598 0.050900452 0.49300003 4278861080
0.036927804 0.050797205 0.49200001 4278861080
0.038525824 0.050797205 0.49200001 4278992666
0.040123839 0.050797205 0.49200001 4279452447
0.041721858 0.050797205 0.49200001 4279517727
0.043319874 0.050797205 0.49200001 4280503600
0.045009185 0.050900452 0.49300003 4278595089
0.046610452 0.050900452 0.49300003 4278927132
0.048407301 0.051106945 0.49500003 4278927902
0.050015066 0.051106945 0.49500003 4279125281
0.051622823 0.051106945 0.49500003 4278927902
0.053230584 0.051106945 0.49500003 4278796570
0.054838348 0.051106945 0.49500003 4278664984
0.056446105 0.051106945 0.49500003 4278201105
-0.015450555 0.056975067 0.53500003 4278993179
-0.013661611 0.056762081 0.53300005 4278796830
-0.011863275 0.056442592 0.53000003 4278731291
-0.010084427 0.0561231 0.52700001 4278665496
-0.0083091799 0.055697121 0.523 4278665494
-0.0065851966 0.055484131 0.52100003 4278665494
-0.0048742048 0.055271141 0.51900005 4278665496
-0.0031762044 0.055058148 0.51700002 4278201868
-0.0014940919 0.054951653 0.51600003 4278266636
0.00018117203 0.054738659 0.514 4279254814
0.0018470443 0.054632165 0.51300001 4280306219
0.0035064209 0.054525673 0.51200002 4278856211
0.0051593012 0.054419179 0.51100004 4278525451
0.0068056863 0.054312684 0.51000005 4278524170
0.0084621664 0.054312684 0.51000005 4278786572
0.010098807 0.054206181 0.509 4278654986
0.011728952 0.05409969 0.50800002 4278786318
0.0133526 0.053993195 0.50700003 4278786572
0.014969753 0.0538867 0.50600004 4278196226
0.016580408 0.053780202 0.505 4279318812
0.018184567 0.053673707 0.50400001 4278657550
0.019782232 0.053567212 0.50300002 4278259974
0.021373402 0.053460717 0.50200003 4279448350
0.022958076 0.053354222 0.50100005 4278265357
0.02453625 0.053247724 0.5 4278660882
0.026160249 0.053247724 0.5 4278595089
0.027673116 0.053034734 0.49800003 4279319326
0.029231803 0.052928239 0.49700001 4278595603
0.030783996 0.052821744 0.49600002 4278464017
0.032395005 0.052821744 0.49600002 4278198792
0.033937454 0.052715249 0.49500003 4278200588
0.035473406 0.052608754 0.49400002 4278198787
0.037077915 0.052608754 0.49400002 4278199298
0.038604129 0.05250226 0.49300003 4278794004
0.040205393 0.05250226 0.49300003 4278859795
0.041806657 0.05250226 0.49300003 4279189273
0.043495968 0.052608754 0.49400002 4279517727
0.04510048 0.052608754 0.49400002 4278397962
0.046704996 0.052608754 0.49400002 4279255838
0.048407301 0.052715249 0.49500003 4279124763
0.050015066 0.052715249 0.49500003 4279058970
0.051727112 0.052821744 0.49600002 4278862361
0.053230584 0.052715249 0.49500003 4278664982
0.054838348 0.052715249 0.49500003 4278599191
0.056446105 0.052715249 0.49500003 4278201104
-0.013687242 0.058603592 0.53400004 4279124252
-0.011885659 0.058274359 0.53100002 4278795798
-0.010103562 0.057945121 0.528 4278927384
-0.0083091799 0.057396401 0.523 4278730003
-0.0065851966 0.057176914 0.52100003 4278796566
-0.0048742048 0.056957427 0.51900005 4278533908
-0.0031762044 0.056737933 0.51700002 4278796568
-0.0014940919 0.05662819 0.51600003 4278927384
0.00018117203 0.0564087 0.514 4278795800
0.0018470443 0.056298956 0.51300001 4278993179
0.0035064209 0.056189213 0.51200002 4279058459
0.0051593012 0.05607947 0.51100004 4279189275
0.0068190307 0.05607947 0.51100004 4279123482
0.0084621664 0.055969726 0.51000005 4279451680
0.010098807 0.055859976 0.509 4279319326
0.011728952 0.055750232 0.50800002 4279647010
0.0133526 0.055640489 0.50700003 4279317275
0.014969753 0.055530746 0.50600004 4278725908
0.016580408 0.055420995 0.505 4278194944
0.018184567 0.055311255 0.50400001 4278197768
0.019782232 0.055201512 0.50300002 4278790420
0.021373402 0.055091769 0.50200003 4279119383
0.022958076 0.054982025 0.50100005 4279843619
0.02453625 0.054872274 0.5 4279581984
0.026160249 0.054872274 0.5 4279582496
0.027728682 0.054762531 0.49900001 4278727187
0.02929062 0.054652788 0.49800003 4279121945
0.030846059 0.054543041 0.49700001 4278925338
0.032395005 0.054433297 0.49600002 4279780647
0.033937454 0.054323554 0.49500003 4278792214
0.035545215 0.054323554 0.49500003 4278397710
0.037152976 0.054323554 0.49500003 4278660369
0.038682431 0.054213811 0.49400002 4278462990
0.040286943 0.054213811 0.49400002 4278791955
0.041891459 0.054213811 0.49400002 4279451164
0.043495968 0.054213811 0.49400002 4279451680
0.04519178 0.054323554 0.49500003 4279187738
0.046799541 0.054323554 0.49500003 4279386652
0.048505094 0.054433297 0.49600002 4279320859
0.050116103 0.054433297 0.49600002 4278993177
0.051727112 0.054433297 0.49600002 4278927384
0.053338118 0.054433297 0.49600002 4278730005
0.054949131 0.054433297 0.49600002 4278663699
0.056446105 0.054323554 0.49500003 4278727959
-0.0083250673 0.05920868 0.52400005 4278859027
-0.0065851966 0.058869693 0.52100003 4278728211
-0.0048742048 0.05864371 0.51900005 4278729494
-0.0031823479 0.058530711 0.51800001 4278598419
-0.0014940919 0.058304727 0.51600003 4278862361
0.00018152452 0.058191735 0.51500005 4278796570
0.0018470443 0.057965744 0.51300001 4278927902
0.0035064209 0.057852753 0.51200002 4278927902
0.0051593012 0.057739761 0.51100004 4278927902
0.0068190307 0.057739761 0.51100004 4278862109
0.0084621664 0.057626769 0.51000005 4278927902
0.010098807 0.05751377 0.509 4278796316
0.011728952 0.057400778 0.50800002 4278992925
0.0133526 0.057287782 0.50700003 4278992925
0.014969753 0.057174791 0.50600004 4279058718
0.016580408 0.057061791 0.505 4278795546
0.018184567 0.0569488 0.50400001 4279189021
0.019782232 0.056835808 0.50300002 4279254301
0.021373402 0.056722816 0.50200003 4279647777
0.022958076 0.056609824 0.50100005 4279516191
0.02453625 0.056496825 0.5 4278331150
0.02610793 0.056383833 0.49900001 4278196994
0.027728682 0.056383833 0.49900001 4278196224
0.02929062 0.056270842 0.49800003 4278195968
0.030846059 0.056157846 0.49700001 4278529296
0.032395005 0.056044854 0.49600002 4279582498
0.034006014 0.056044854 0.49600002 4279385117
0.035545215 0.055931862 0.49500003 4278991129
0.037152976 0.055931862 0.49500003 4279451680
0.038760737 0.055931862 0.49500003 4279056922
0.040368497 0.055931862 0.49500003 4278793750
0.041976258 0.055931862 0.49500003 4279254303
0.043584019 0.055931862 0.49500003 4280240428
0.04519178 0.055931862 0.49500003 4279318812
0.046894085 0.056044854 0.49600002 4279320859
0.048505094 0.056044854 0.49600002 4279190043
0.050116103 0.056044854 0.49600002 4279190556
0.051727112 0.056044854 0.49600002 4278927384
0.053338118 0.056044854 0.49600002 4278795798
0.054949131 0.056044854 0.49600002 4278993177
0.056560136 0.056044854 0.49600002 4279056924
-0.0048742048 0.060329996 0.51900005 4278657289
-0.0031884916 0.060329996 0.51900005 4279315732
-0.0014940919 0.059981264 0.51600003 4278791953
0.00018152452 0.059865024 0.51500005 4278792468
0.0018470443 0.059632532 0.51300001 4279121693
0.0035064209 0.059516292 0.51200002 4279385635
0.0051593012 0.059400052 0.51100004 4279583529
0.0068190307 0.059400052 0.51100004 4279386148
0.0084621664 0.059283808 0.51000005 4279452711
0.010098807 0.05916756 0.509 4279189539
0.011705863 0.05893508 0.50700003 4279123746
0.013326264 0.058818836 0.50600004 4279058720
0.014940167 0.058702588 0.505 4278992925
0.016547576 0.058586348 0.50400001 4278927132
0.018148487 0.058470108 0.50300002 4278927386
0.019742904 0.058353864 0.50200003 4278927386
0.021373402 0.058353864 0.50200003 4278795800
0.022958076 0.058237623 0.50100005 4278861080
0.02453625 0.058121376 0.5 4278795033
0.02610793 0.058005136 0.49900001 4278991642
0.027673116 0.057888892 0.49800003 4279123228
0.02929062 0.057888892 0.49800003 4279189021
0.030846059 0.057772648 0.49700001 4279254301
0.032395005 0.057656407 0.49600002 4279649059
0.034006014 0.057656407 0.49600002 4278858773
0.035545215 0.057540167 0.49500003 4278199046
0.037152976 0.057540167 0.49500003 4278196992
0.038760737 0.057540167 0.49500003 4278196224
0.040368497 0.057540167 0.49500003 4278198276
0.041976258 0.057540167 0.49500003 4279120666
0.043584019 0.057540167 0.49500003 4279055640
0.045283075 0.057656407 0.49600002 4279911463
0.046894085 0.057656407 0.49600002 4279124250
0.048602883 0.057772648 0.49700001 4279190556
0.050217144 0.057772648 0.49700001 4279058970
0.051831398 0.057772648 0.49700001 4278993177
0.053445652 0.057772648 0.49700001 4278927384
0.054949131 0.057656407 0.49600002 4278664214
0.056560136 0.057656407 0.49600002 4278463763
0.0035064209 0.061179832 0.51200002 4285632894
0.0051593012 0.061060343 0.51100004 4285303675
0.0068190307 0.061060343 0.51100004 4283658852
0.0084621664 0.060940851 0.51000005 4280436789
0.010098807 0.060821354 0.509 4279450148
0.011705863 0.060582373 0.50700003 4279319072
0.013326264 0.060462881 0.50600004 4279582244
0.014940167 0.060343385 0.505 4279254564
0.016547576 0.060223896 0.50400001 4279189539
0.018148487 0.060104404 0.50300002 4279255586
0.019742904 0.059984915 0.50200003 4279124000
0.021330826 0.059865423 0.50100005 4279123998
0.022912249 0.059745926 0.5 4278927132
0.02453625 0.059745926 0.5 4279058718
0.02610793 0.059626438 0.49900001 4278927132
0.027673116 0.059506945 0.49800003 4279058718
0.029231803 0.059387453 0.49700001 4278795546
0.030846059 0.059387453 0.49700001 4278862109
0.032395005 0.05926796 0.49600002 4278862363
0.034006014 0.05926796 0.49600002 4279058972
0.035545215 0.059148472 0.49500003 4278993179
0.037152976 0.059148472 0.49500003 4279123482
0.038760737 0.059148472 0.49500003 4279255068
0.040368497 0.059148472 0.49500003 4279320094
0.041976258 0.059148472 0.49500003 4279779875
0.043672066 0.05926796 0.49600002 4279517475
0.045283075 0.05926796 0.49600002 4279189021
0.046988629 0.059387453 0.49700001 4278993179
0.048602883 0.059387453 0.49700001 4279058968
0.050217144 0.059387453 0.49700001 4278928152
0.051831398 0.059387453 0.49700001 4278664980
0.053445652 0.059387453 0.49700001 4278796568
0.055059914 0.059387453 0.49700001 4278729240
0.056560136 0.05926796 0.49600002 4279844139
0.011705863 0.062229667 0.50700003 4285895296
0.013326264 0.06210693 0.50600004 4285961089
0.014910583 0.061861441 0.50400001 4285303929
0.016514745 0.061738703 0.50300002 4283528801
0.018148487 0.061738703 0.50300002 4281423936
0.019742904 0.061615963 0.50200003 4279515424
0.021330826 0.061493225 0.50100005 4279384865
0.022912249 0.061370477 0.5 4279187488
0.024487179 0.061247736 0.49900001 4279254051
0.02605561 0.061124999 0.49800003 4278990879
0.027673116 0.061124999 0.49800003 4279714600
0.029231803 0.061002254 0.49700001 4279451941
0.030846059 0.061002254 0.49700001 4279189793
0.032395005 0.060879517 0.49600002 4279255586
0.034006014 0.060879517 0.49600002 4279189793
0.035545215 0.060756776 0.49500003 4279124000
0.037152976 0.060756776 0.49500003 4279190306
0.038760737 0.060756776 0.49500003 4278992927
0.040368497 0.060756776 0.49500003 4279124000
0.042061061 0.060879517 0.49600002 4279124000
0.043672066 0.060879517 0.49600002 4279058207
0.045283075 0.060879517 0.49600002 4279124000
0.046988629 0.061002254 0.49700001 4278993695
0.048602883 0.061002254 0.49700001 4278862109
0.050318185 0.061124999 0.49800003 4278927902
0.051935688 0.061124999 0.49800003 4278664730
0.053553194 0.061124999 0.49800003 4278795546
0.055059914 0.061002254 0.49700001 4278399507
0.056674168 0.061002254 0.49700001 4283329885
0.014910583 0.063498996 0.50400001 4285105266
0.016514745 0.063373007 0.50300002 4284842094
0.018112408 0.063247018 0.50200003 4284710506
0.019742904 0.063247018 0.50200003 4284644713
0.021330826 0.063121028 0.50100005 4284579434
0.022912249 0.062995031 0.5 4284842606
0.024487179 0.062869042 0.49900001 4285105264
0.02605561 0.062743053 0.49800003 4285236850
0.027673116 0.062743053 0.49800003 4284646510
0.029231803 0.062617064 0.49700001 4283988582
0.030846059 0.062617064 0.49700001 4282606925
0.032395005 0.062491074 0.49600002 4281751870
0.034006014 0.062491074 0.49600002 4280370215
0.035545215 0.062365085 0.49500003 4279383838
0.037152976 0.062365085 0.49500003 4278990111
0.038760737 0.062365085 0.49500003 4279055904
0.040368497 0.062365085 0.49500003 4279451432
0.042061061 0.062491074 0.49600002 4279517225
0.043672066 0.062491074 0.49600002 4279714602
0.045374371 0.062617064 0.49700001 4279648809
0.046988629 0.062617064 0.49700001 4279714602
0.048700679 0.062743053 0.49800003 4279583529
0.050318185 0.062743053 0.49800003 4279386150
0.051935688 0.062743053 0.49800003 4279254564
0.053553194 0.062743053 0.49800003 4279121697
0.0551707 0.062743053 0.49800003 4282804054
0.048700679 0.064361103 0.49800003 4285106550
0.050318185 0.064361103 0.49800003 4284579952
0.051935688 0.064361103 0.49800003 4284448879
0.053553194 0.064361103 0.49800003 4284119403
0.076981515 0.085457839 0.26900002 4287338381
0.077855229 0.085457839 0.26900002 4287338381
0.078728937 0.085457839 0.26900002 4287272588
0.079602651 0.085457839 0.26900002 4287404428
0.080476366 0.085457839 0.26900002 4287207049
0.076107807 0.086331837 0.26900002 4287404174
0.076981515 0.086331837 0.26900002 4287272588
0.077855229 0.086331837 0.26900002 4287535760
0.078728937 0.086331837 0.26900002 4287272588
0.079602651 0.086331837 0.26900002 4287272842
0.080476366 0.086331837 0.26900002 4287272842
0.081350081 0.086331837 0.26900002 4287404428
0.075234093 0.08720585 0.26900002 4287470480
0.076107807 0.08720585 0.26900002 4287207308
0.076981515 0.08720585 0.26900002 4287272588
0.077855229 0.08720585 0.26900002 4287404174
0.078728937 0.08720585 0.26900002 4287272588
0.079602651 0.08720585 0.26900002 4287272588
0.080476366 0.08720585 0.26900002 4287272588
0.081350081 0.08720585 0.26900002 4287338381
0.075234093 0.088079862 0.26900002 4287338381
0.076107807 0.088079862 0.26900002 4287338381
0.076981515 0.088079862 0.26900002 4287206795
0.077855229 0.088079862 0.26900002 4287272588
0.078728937 0.088079862 0.26900002 4287206795
0.079602651 0.088079862 0.26900002 4287272588
0.080476366 0.088079862 0.26900002 4287206795
0.081350081 0.088079862 0.26900002 4287206795
0.075234093 0.088953868 0.26900002 4287534990
0.076107807 0.088953868 0.26900002 4287337611
0.076981515 0.088953868 0.26900002 4287271818
0.077855229 0.088953868 0.26900002 4287272588
0.078728937 0.088953868 0.26900002 4287338381
0.079602651 0.088953868 0.26900002 4287272588
0.080476366 0.088953868 0.26900002 4287272588
0.081350081 0.088953868 0.26900002 4287272588
0.075234093 0.089827873 0.26900002 4287534992
0.076107807 0.089827873 0.26900002 4287337613
0.076981515 0.089827873 0.26900002 4287338383
0.077855229 0.089827873 0.26900002 4287272588
0.078728937 0.089827873 0.26900002 4287272588
0.079602651 0.089827873 0.26900002 4287404174
0.080476366 0.089827873 0.26900002 4287338381
0.081350081 0.089827873 0.26900002 4287206795
0.076107807 0.090701886 0.26900002 4287536014
0.076981515 0.090701886 0.26900002 4287338635
0.077855229 0.090701886 0.26900002 4287338635
0.078728937 0.090701886 0.26900002 4287141002
0.079602651 0.090701886 0.26900002 4287141002
0.080476366 0.090701886 0.26900002 4287272588
0.081350081 0.090701886 0.26900002 4286943623
0.027184315 0.05710062 0.48246273 4294967295
0.027184315 0.05710062 0.48246273 4294901760
0.027090682 0.05758984 0.4825063 4294901760
0.02699705 0.05807906 0.48254985 4294901760
0.026903417 0.05856828 0.48259342 4294901760
0.026809784 0.059057496 0.48263696 4294901760
0.026716152 0.059546717 0.48268053 4294901760
0.026622519 0.060035937 0.48272407 4294901760
0.026528886 0.060525157 0.48276764 4294901760
0.026435254 0.061014377 0.48281118 4294901760
0.026341621 0.061503597 0.48285475 4294901760
0.026247989 0.061992817 0.48289829 4294901760
0.026154356 0.062482037 0.48294187 4294901760
0.026060723 0.062971257 0.48298541 4294901760
0.025967091 0.063460477 0.48302898 4294901760
0.025873458 0.063949697 0.48307252 4294901760
0.025779825 0.064438917 0.48311609 4294901760
0.025686193 0.064928129 0.48315963 4294901760
0.02559256 0.065417349 0.4832032 4294901760
0.025498927 0.065906569 0.48324674 4294901760
0.025405295 0.066395789 0.48329031 4294901760
0.025311662 0.066885009 0.48333386 4294901760
0.025218029 0.067374229 0.48337743 4294901760
0.025124397 0.067863449 0.48342097 4294901760
0.025030764 0.068352669 0.48346454 4294901760
0.024937131 0.06884189 0.48350808 4294901760
0.024843499 0.06933111 0.48355165 4294901760
0.024749866 0.06982033 0.48359522 4294901760
0.024656232 0.07030955 0.48363876 4294901760
0.024562601 0.07079877 0.48368233 4294901760
0.024468968 0.07128799 0.48372588 4294901760
0.024375334 0.07177721 0.48376945 4294901760
0.024281703 0.07226643 0.48381299 4294901760
0.02418807 0.072755642 0.48385656 4294901760
0.024094436 0.07324487 0.4839001 4294901760
0.024000805 0.073734082 0.48394367 4294901760
0.023907172 0.074223302 0.48398721 4294901760
0.023813538 0.074712522 0.48403078 4294901760
0.023719907 0.075201742 0.48407432 4294901760
0.023626273 0.075690962 0.4841179 4294901760
0.023532642 0.076180182 0.48416144 4294901760
0.023439009 0.076669402 0.48420501 4294901760
0.023345375 0.077158622 0.48424855 4294901760
0.023251744 0.077647842 0.48429212 4294901760
0.023158111 0.078137062 0.48433566 4294901760
0.023064479 0.078626275 0.48437923 4294901760
0.022970846 0.079115495 0.48442277 4294901760
0.022877213 0.079604715 0.48446634 4294901760
0.022783581 0.080093935 0.48450989 4294901760
0.022689948 0.080583155 0.48455346 4294901760
0.022596315 0.081072375 0.484597 4294901760
0.022502683 0.081561595 0.48464057 4294901760
0.02240905 0.082050815 0.48468414 4294901760
0.022315416 0.082540035 0.48472768 4294901760
0.022221785 0.083029255 0.48477125 4294901760
0.022128152 0.083518475 0.48481479 4294901760
0.022034518 0.084007695 0.48485836 4294901760
0.021940887 0.084496915 0.48490191 4294901760
0.021847254 0.084986135 0.48494548 4294901760
0.02175362 0.085475355 0.48498902 4294901760
0.021659989 0.085964575 0.48503259 4294901760
0.021566356 0.086453795 0.48507613 4294901760
0.021472722 0.086943015 0.4851197 4294901760
0.021379091 0.087432235 0.48516324 4294901760
0.021285458 0.087921448 0.48520681 4294901760
0.021191824 0.088410668 0.48525035 4294901760
0.021098193 0.088899888 0.48529392 4294901760
0.021004559 0.089389116 0.48533747 4294901760
0.020910926 0.089878336 0.48538104 4294901760
0.020817295 0.090367548 0.48542458 4294901760
0.020723661 0.090856768 0.48546815 4294901760
0.020630028 0.091345988 0.48551169 4294901760
0.020536397 0.091835201 0.48555526 4294901760
0.020442763 0.092324428 0.4855988 4294901760
0.02034913 0.092813648 0.48564237 4294901760
0.020255499 0.093302868 0.48568591 4294901760
0.020161865 0.093792081 0.48572949 4294901760
0.020068234 0.094281301 0.48577306 4294901760
0.019974601 0.094770521 0.4858166 4294901760
0.019880969 0.095259741 0.48586017 4294901760
0.019787334 0.095748961 0.48590371 4294901760
0.019693702 0.096238181 0.48594728 4294901760
0.019600069 0.096727401 0.48599082 4294901760
0.019506438 0.097216621 0.48603439 4294901760
0.019412804 0.097705841 0.48607793 4294901760
0.019319173 0.098195061 0.48612151 4294901760
0.019225538 0.098684281 0.48616505 4294901760
0.019131906 0.099173501 0.48620862 4294901760
0.019038275 0.099662721 0.48625216 4294901760
0.018944642 0.10015194 0.48629573 4294901760
0.018851008 0.10064116 0.48633927 4294901760
0.018757377 0.10113038 0.48638284 4294901760
0.018663742 0.1016196 0.48642638 4294901760
0.01857011 0.10210882 0.48646995 4294901760
0.018476479 0.10259804 0.4865135 4294901760
0.018382845 0.10308726 0.48655707 4294901760
0.018289212 0.10357647 0.48660061 4294901760
0.018195581 0.10406569 0.48664418 4294901760
0.018101947 0.10455492 0.48668772 4294901760
0.018008314 0.10504414 0.48673129 4294901760
0.017914683 0.10553335 0.48677483 4294901760
0.017821049 0.10602257 0.4868184 4294901760
0.027184315 0.05710062 0.48246273 4278255360
0.027046626 0.057031911 0.48293847 4278255360
0.026908938 0.056963202 0.4834142 4278255360
0.026771249 0.056894496 0.48388994 4278255360
0.026633561 0.056825787 0.48436567 4278255360
0.026495872 0.056757078 0.48484141 4278255360
0.026358183 0.056688368 0.48531711 4278255360
0.026220495 0.056619659 0.48579285 4278255360
0.026082806 0.056550954 0.48626858 4278255360
0.025945116 0.056482244 0.48674431 4278255360
0.025807427 0.056413535 0.48722005 4278255360
0.025669739 0.056344826 0.48769578 4278255360
0.02553205 0.05627612 0.48817152 4278255360
0.025394361 0.056207411 0.48864725 4278255360
0.025256673 0.056138702 0.48912299 4278255360
0.025118984 0.056069992 0.48959872 4278255360
0.024981296 0.056001283 0.49007446 4278255360
0.024843607 0.055932578 0.49055016 4278255360
0.024705919 0.055863868 0.49102589 4278255360
0.02456823 0.055795159 0.49150163 4278255360
0.024430541 0.05572645 0.49197736 4278255360
0.024292853 0.055657741 0.4924531 4278255360
0.024155164 0.055589035 0.49292883 4278255360
0.024017476 0.055520326 0.49340457 4278255360
0.023879787 0.055451617 0.4938803 4278255360
0.023742098 0.055382907 0.49435604 4278255360
0.02360441 0.055314198 0.49483177 4278255360
0.023466719 0.055245493 0.49530751 4278255360
0.023329031 0.055176783 0.49578321 4278255360
0.023191344 0.055108074 0.49625894 4278255360
0.023053654 0.055039365 0.49673468 4278255360
0.022915965 0.054970659 0.49721041 4278255360
0.022778276 0.05490195 0.49768615 4278255360
0.022640588 0.054833241 0.49816188 4278255360
0.022502899 0.054764532 0.49863762 4278255360
0.022365211 0.054695822 0.49911335 4278255360
0.022227522 0.054627117 0.49958909 4278255360
0.022089833 0.054558408 0.50006479 4278255360
0.021952145 0.054489698 0.50054055 4278255360
0.021814456 0.054420989 0.50101626 4278255360
0.021676768 0.05435228 0.50149202 4278255360
0.021539079 0.054283574 0.50196773 4278255360
0.02140139 0.054214865 0.50244349 4278255360
0.0212637 0.054146156 0.5029192 4278255360
0.021126013 0.054077446 0.50339496 4278255360
0.020988323 0.054008737 0.50387067 4278255360
0.020850636 0.053940032 0.50434637 4278255360
0.020712946 0.053871322 0.50482213 4278255360
0.020575259 0.053802613 0.50529784 4278255360
0.020437568 0.053733904 0.5057736 4278255360
0.02029988 0.053665198 0.50624931 4278255360
0.020162191 0.053596489 0.50672507 4278255360
0.020024503 0.05352778 0.50720078 4278255360
0.019886814 0.053459071 0.50767654 4278255360
0.019749125 0.053390361 0.50815225 4278255360
0.019611437 0.053321652 0.50862801 4278255360
0.019473748 0.053252947 0.50910372 4278255360
0.01933606 0.053184237 0.50957942 4278255360
0.019198371 0.053115528 0.51005518 4278255360
0.019060683 0.053046823 0.51053089 4278255360
0.018922992 0.052978113 0.51100665 4278255360
0.018785305 0.052909404 0.51148236 4278255360
0.018647615 0.052840695 0.51195812 4278255360
0.018509928 0.052771986 0.51243383 4278255360
0.018372238 0.052703276 0.51290959 4278255360
0.018234551 0.052634571 0.5133853 4278255360
0.01809686 0.052565861 0.51386106 4278255360
0.017959172 0.052497152 0.51433676 4278255360
0.017821483 0.052428443 0.51481247 4278255360
0.017683795 0.052359737 0.51528823 4278255360
0.017546106 0.052291028 0.51576394 4278255360
0.017408419 0.052222319 0.5162397 4278255360
0.017270729 0.05215361 0.51671541 4278255360
0.01713304 0.0520849 0.51719117 4278255360
0.016995352 0.052016191 0.51766688 4278255360
0.016857663 0.051947486 0.51814264 4278255360
0.016719975 0.051878776 0.51861835 4278255360
0.016582286 0.051810067 0.51909411 4278255360
0.016444597 0.051741358 0.51956981 4278255360
0.016306907 0.051672652 0.52004552 4278255360
0.01616922 0.051603943 0.52052128 4278255360
0.01603153 0.051535234 0.52099699 4278255360
0.015893843 0.051466525 0.52147275 4278255360
0.015756153 0.051397815 0.52194846 4278255360
0.015618465 0.05132911 0.52242422 4278255360
0.015480775 0.051260401 0.52289993 4278255360
0.015343087 0.051191691 0.52337569 4278255360
0.015205398 0.051122982 0.52385139 4278255360
0.01506771 0.051054277 0.52432716 4278255360
0.014930021 0.050985567 0.52480286 4278255360
0.014792332 0.050916858 0.52527857 4278255360
0.014654644 0.050848149 0.52575433 4278255360
0.014516955 0.05077944 0.52623004 4278255360
0.014379267 0.05071073 0.5267058 4278255360
0.014241578 0.050642025 0.52718151 4278255360
0.014103889 0.050573315 0.52765727 4278255360
0.013966201 0.050504606 0.52813298 4278255360
0.013828511 0.050435897 0.52860874 4278255360
0.013690823 0.050367191 0.52908444 4278255360
0.013553134 0.050298482 0.52956021 4278255360
0.013415446 0.050229773 0.53003591 4278255360
0.027184315 0.05710062 0.48246273 4278190335
0.027445307 0.057112616 0.48288906 4278190335
0.027706299 0.057124611 0.48331535 4278190335
0.027967293 0.05713661 0.48374167 4278190335
0.028228285 0.057148606 0.48416796 4278190335
0.028489277 0.057160601 0.48459429 4278190335
0.028750269 0.057172596 0.48502058 4278190335
0.029011263 0.057184592 0.4854469 4278190335
0.029272255 0.057196591 0.48587319 4278190335
0.029533247 0.057208586 0.48629951 4278190335
0.029794239 0.057220582 0.48672581 4278190335
0.03005523 0.057232577 0.48715213 4278190335
0.030316224 0.057244573 0.48757845 4278190335
0.030577216 0.057256572 0.48800474 4278190335
0.030838208 0.057268567 0.48843107 4278190335
0.0310992 0.057280563 0.48885736 4278190335
0.031360194 0.057292558 0.48928368 4278190335
0.031621184 0.057304554 0.48970997 4278190335
0.031882178 0.057316553 0.4901363 4278190335
0.032143172 0.057328548 0.49056259 4278190335
0.032404162 0.057340544 0.49098891 4278190335
0.032665156 0.057352539 0.49141523 4278190335
0.032926146 0.057364535 0.49184152 4278190335
0.03318714 0.057376534 0.49226785 4278190335
0.033448134 0.057388529 0.49269414 4278190335
0.033709124 0.057400525 0.49312046 4278190335
0.033970118 0.05741252 0.49354675 4278190335
0.034231111 0.057424515 0.49397308 4278190335
0.034492102 0.057436515 0.49439937 4278190335
0.034753095 0.05744851 0.49482569 4278190335
0.035014085 0.057460506 0.49525201 4278190335
0.035275079 0.057472501 0.49567831 4278190335
0.035536073 0.057484496 0.49610463 4278190335
0.035797063 0.057496496 0.49653092 4278190335
0.036058057 0.057508491 0.49695724 4278190335
0.036319047 0.057520486 0.49738353 4278190335
0.036580041 0.057532482 0.49780986 4278190335
0.036841035 0.057544477 0.49823615 4278190335
0.037102025 0.057556476 0.49866247 4278190335
0.037363019 0.057568472 0.49908876 4278190335
0.037624009 0.057580467 0.49951509 4278190335
0.037885003 0.057592463 0.49994141 4278190335
0.038145997 0.057604458 0.5003677 4278190335
0.038406987 0.057616457 0.50079399 4278190335
0.038667981 0.057628453 0.50122035 4278190335
0.038928971 0.057640448 0.50164664 4278190335
0.039189965 0.057652444 0.50207293 4278190335
0.039450958 0.057664439 0.50249922 4278190335
0.039711948 0.057676438 0.50292557 4278190335
0.039972942 0.057688434 0.50335187 4278190335
0.040233932 0.057700429 0.50377816 4278190335
0.040494926 0.057712425 0.50420451 4278190335
0.04075592 0.05772442 0.5046308 4278190335
0.04101691 0.057736419 0.5050571 4278190335
0.041277904 0.057748415 0.50548339 4278190335
0.041538898 0.05776041 0.50590974 4278190335
0.041799888 0.057772405 0.50633603 4278190335
0.042060882 0.057784401 0.50676233 4278190335
0.042321872 0.0577964 0.50718862 4278190335
0.042582866 0.057808395 0.50761497 4278190335
0.04284386 0.057820391 0.50804126 4278190335
0.04310485 0.057832386 0.50846756 4278190335
0.043365844 0.057844382 0.50889391 4278190335
0.043626837 0.057856381 0.5093202 4278190335
0.043887828 0.057868376 0.50974649 4278190335
0.044148818 0.057880372 0.51017278 4278190335
0.044409811 0.057892367 0.51059914 4278190335
0.044670805 0.057904363 0.51102543 4278190335
0.044931799 0.057916362 0.51145172 4278190335
0.045192789 0.057928357 0.51187801 4278190335
0.045453779 0.057940353 0.51230437 4278190335
0.045714773 0.057952348 0.51273066 4278190335
0.045975767 0.057964344 0.51315695 4278190335
0.046236761 0.057976343 0.5135833 4278190335
0.046497751 0.057988338 0.51400959 4278190335
0.046758745 0.058000334 0.51443589 4278190335
0.047019735 0.058012329 0.51486218 4278190335
0.047280729 0.058024324 0.51528853 4278190335
0.047541723 0.058036324 0.51571482 4278190335
0.047802716 0.058048319 0.51614112 4278190335
0.048063707 0.058060315 0.51656747 4278190335
0.048324697 0.05807231 0.51699376 4278190335
0.048585691 0.058084305 0.51742005 4278190335
0.048846684 0.058096305 0.51784635 4278190335
0.049107675 0.0581083 0.5182727 4278190335
0.049368668 0.058120295 0.51869899 4278190335
0.049629658 0.058132291 0.51912528 4278190335
0.049890652 0.058144286 0.51955158 4278190335
0.050151646 0.058156285 0.51997793 4278190335
0.050412636 0.058168281 0.52040422 4278190335
0.050673626 0.058180276 0.52083051 4278190335
0.05093462 0.058192272 0.52125686 4278190335
0.051195614 0.058204267 0.52168316 4278190335
0.051456608 0.058216266 0.52210945 4278190335
0.051717602 0.058228262 0.52253574 4278190335
0.051978592 0.058240257 0.52296209 4278190335
0.052239582 0.058252253 0.52338839 4278190335
0.052500576 0.058264248 0.52381468 4278190335
0.05276157 0.058276247 0.52424097 4278190335
0.053022563 0.058288243 0.52466732 4278190335
0.053283554 0.058300238 0.52509362 4278190335
0.027184315 0.05710062 0.48246273 4294967295
0.025618361 0.057028644 0.47990489 4294967295
0.024052406 0.056956667 0.47734702 4294967295
0.022486452 0.056884687 0.47478917 4294967295
0.020920498 0.056812711 0.47223133 4294967295
0.019354543 0.056740735 0.46967348 4294967295
0.017788589 0.056668758 0.46711561 4294967295
0.016222633 0.056596782 0.46455777 4294967295
0.014656681 0.056524802 0.46199992 4294967295
0.013090725 0.056452826 0.45944208 4294967295
0.01152477 0.056380849 0.45688421 4294967295
0.0099588167 0.056308873 0.45432636 4294967295
0.008392863 0.056236897 0.45176852 4294967295
0.0068269093 0.056164917 0.44921064 4294967295
0.0052609537 0.05609294 0.4466528 4294967295
0.0036949981 0.056020964 0.44409496 4294967295
0.0021290462 0.055948988 0.44153711 4294967295
0.00056309067 0.055877011 0.43897924 4294967295
-0.0010028649 0.055805031 0.43642139 4294967295
-0.0025688186 0.055733055 0.43386355 4294967295
-0.0041347742 0.055661079 0.43130571 4294967295
-0.0057007261 0.055589102 0.42874783 4294967295
-0.0072666816 0.055517126 0.42618999 4294967295
-0.0088326372 0.055445146 0.42363214 4294967295
-0.010398589 0.055373169 0.4210743 4294967295
-0.011964545 0.055301193 0.41851643 4294967295
-0.013530497 0.055229217 0.41595858 4294967295
-0.015096456 0.05515724 0.41340071 4294967295
-0.016662408 0.05508526 0.4108429 4294967295
-0.01822836 0.055013284 0.40828502 4294967295
-0.019794319 0.054941308 0.40572718 4294967295
-0.021360271 0.054869331 0.40316933 4294967295
-0.022926223 0.054797355 0.40061146 4294967295
-0.024492182 0.054725375 0.39805362 4294967295
-0.026058134 0.054653399 0.39549577 4294967295
-0.027624089 0.054581422 0.3929379 4294967295
-0.029190045 0.054509446 0.39038005 4294967295
-0.030755997 0.05443747 0.38782221 4294967295
-0.032321952 0.05436549 0.38526437 4294967295
-0.033887904 0.054293513 0.38270652 4294967295
-0.035453863 0.054221537 0.38014865 4294967295
-0.037019812 0.054149561 0.37759081 4294967295
-0.038585767 0.054077584 0.37503296 4294967295
-0.040151723 0.054005604 0.37247509 4294967295
-0.041717678 0.053933628 0.36991724 4294967295
-0.043283634 0.053861652 0.3673594 4294967295
-0.044849589 0.053789675 0.36480153 4294967295
-0.046415538 0.053717699 0.36224368 4294967295
-0.047981493 0.053645719 0.35968584 4294967295
-0.049547449 0.053573743 0.35712796 4294967295
-0.051113404 0.053501766 0.35457015 4294967295
-0.05267936 0.05342979 0.35201228 4294967295
-0.054245308 0.053357814 0.34945443 4294967295
-0.055811264 0.053285833 0.34689659 4294967295
-0.057377227 0.053213857 0.34433872 4294967295
-0.058943175 0.053141881 0.34178087 4294967295
-0.06050913 0.053069904 0.33922303 4294967295
-0.062075086 0.052997928 0.33666515 4294967295
-0.063641034 0.052925948 0.33410734 4294967295
-0.06520699 0.052853972 0.33154947 4294967295
-0.066772953 0.052781995 0.32899159 4294967295
-0.068338908 0.052710019 0.32643378 4294967295
-0.069904856 0.052638043 0.3238759 4294967295
-0.071470812 0.052566063 0.32131806 4294967295
-0.07303676 0.052494086 0.31876022 4294967295
-0.074602716 0.05242211 0.31620234 4294967295
-0.076168679 0.052350134 0.3136445 4294967295
-0.077734634 0.052278157 0.31108665 4294967295
-0.079300582 0.052206177 0.30852878 4294967295
-0.080866538 0.052134201 0.30597097 4294967295
-0.082432494 0.052062225 0.30341309 4294967295
-0.083998442 0.051990248 0.30085525 4294967295
-0.085564405 0.051918268 0.29829741 4294967295
-0.08713036 0.051846292 0.29573953 4294967295
-0.088696308 0.051774316 0.29318169 4294967295
-0.090262264 0.051702339 0.29062384 4294967295
-0.09182822 0.051630363 0.28806597 4294967295
-0.093394168 0.051558387 0.28550816 4294967295
-0.094960123 0.05148641 0.28295028 4294967295
-0.096526086 0.05141443 0.28039241 4294967295
-0.098092042 0.051342454 0.27783459 4294967295
-0.09965799 0.051270477 0.27527672 4294967295
-0.10122394 0.051198501 0.27271888 4294967295
-0.1027899 0.051126521 0.27016103 4294967295
-0.10435585 0.051054545 0.26760316 4294967295
-0.10592181 0.050982568 0.26504532 4294967295
-0.10748776 0.050910592 0.26248747 4294967295
-0.10905372 0.050838616 0.2599296 4294967295
-0.11061967 0.050766636 0.25737178 4294967295
-0.11218562 0.050694659 0.25481391 4294967295
-0.11375158 0.050622683 0.25225607 4294967295
-0.11531753 0.050550707 0.24969819 4294967295
-0.11688349 0.05047873 0.24714035 4294967295
-0.11844944 0.05040675 0.2445825 4294967295
-0.12001539 0.050334774 0.24202465 4294967295
-0.12158135 0.050262798 0.2394668 4294967295
-0.1231473 0.050190821 0.23690896 4294967295
-0.12471326 0.050118841 0.23435108 4294967295
-0.12627921 0.050046865 0.23179322 4294967295
-0.12784517 0.049974889 0.22923538 4294967295
-0.12941113 0.049902912 0.22667754 4294967295
