# .PCD v0.7 - Point Cloud Data file format
VERSION 0.7
FIELDS x y z rgb
SIZE 4 4 4 4
TYPE F F F U
COUNT 1 1 1 1
WIDTH 1054
HEIGHT 1
VIEWPOINT 0 0 0 1 0 0 0
POINTS 1054
DATA ascii
0.046872053 0.029705472 0.36900002 4278728722
0.048070569 0.029705472 0.36900002 4278663697
0.049269084 0.029705472 0.36900002 4278598417
0.050467592 0.029705472 0.36900002 4278204172
0.051666107 0.029705472 0.36900002 4278204172
0.052864619 0.029705472 0.36900002 4278204943
0.053916626 0.029624971 0.36800003 4278270736
0.04447503 0.03090439 0.36900002 4279122199
0.045673542 0.03090439 0.36900002 4278596625
0.046872053 0.03090439 0.36900002 4278926101
0.047940299 0.03082064 0.36800003 4278991894
0.049135566 0.03082064 0.36800003 4278597906
0.050330825 0.03082064 0.36800003 4278400527
0.051526092 0.03082064 0.36800003 4278269454
0.052721359 0.03082064 0.36800003 4278335247
0.05377011 0.030736886 0.36700001 4278336017
0.054962121 0.030736886 0.36700001 4278204174
0.059079178 0.030401878 0.36300001 4278204431
0.060258206 0.030401878 0.36300001 4278204431
0.061437227 0.030401878 0.36300001 4278204431
0.062616251 0.030401878 0.36300001 4278203917
0.063795276 0.030401878 0.36300001 4278204431
0.04447503 0.032103308 0.36900002 4278990613
0.045549769 0.032016307 0.36800003 4278596625
0.046745032 0.032016307 0.36800003 4278926101
0.047940299 0.032016307 0.36800003 4278729492
0.049135566 0.032016307 0.36800003 4278597906
0.050330825 0.032016307 0.36800003 4278400527
0.051386073 0.031929307 0.36700001 4278400527
0.052578092 0.031929307 0.36700001 4278400527
0.05377011 0.031929307 0.36700001 4278335247
0.054812364 0.031842306 0.36600003 4278335247
0.056001134 0.031842306 0.36600003 4278335247
0.058059659 0.031668305 0.36400002 4278335247
0.059079178 0.031581301 0.36300001 4278269454
0.060258206 0.031581301 0.36300001 4278268173
0.061437227 0.031581301 0.36300001 4278198784
0.062616251 0.031581301 0.36300001 4278201096
0.063795276 0.031581301 0.36300001 4278400529
0.064974301 0.031581301 0.36300001 4278532626
0.066153325 0.031581301 0.36300001 4278532626
0.06733235 0.031581301 0.36300001 4278466833
0.068511374 0.031581301 0.36300001 4278335247
0.069690399 0.031581301 0.36300001 4278532624
0.043159239 0.03321198 0.36800003 4279449113
0.044354506 0.03321198 0.36800003 4278925586
0.045549769 0.03321198 0.36800003 4278794513
0.046745032 0.03321198 0.36800003 4278861076
0.047940299 0.03321198 0.36800003 4278664210
0.04900204 0.033121731 0.36700001 4278466833
0.050194055 0.033121731 0.36700001 4278400527
0.051386073 0.033121731 0.36700001 4278334734
0.052578092 0.033121731 0.36700001 4278400527
0.053623598 0.033031482 0.36600003 4278334734
0.054812364 0.033031482 0.36600003 4278400527
0.055848122 0.03294123 0.36500001 4278400527
0.05687739 0.032850981 0.36400002 4278400527
0.058059659 0.032850981 0.36400002 4278334734
0.059241932 0.032850981 0.36400002 4278334734
0.060258206 0.032760728 0.36300001 4278198273
0.061437227 0.032760728 0.36300001 4279252506
0.062616251 0.032760728 0.36300001 4278198788
0.063795276 0.032760728 0.36300001 4278464785
0.064974301 0.032760728 0.36300001 4278400529
0.066335566 0.032850981 0.36400002 4278334736
0.067517839 0.032850981 0.36400002 4278334736
0.068511374 0.032760728 0.36300001 4278400529
0.069690399 0.032760728 0.36300001 4278400527
0.070869423 0.032760728 0.36300001 4278334734
0.042078007 0.034501147 0.36900002 4279053072
0.043159239 0.034407649 0.36800003 4279384344
0.044354506 0.034407649 0.36800003 4278859023
0.045549769 0.034407649 0.36800003 4278925586
0.046745032 0.034407649 0.36800003 4278861076
0.047940299 0.034407649 0.36800003 4278532624
0.04900204 0.034314148 0.36700001 4278335245
0.050194055 0.034314148 0.36700001 4278466831
0.051386073 0.034314148 0.36700001 4278466831
0.052434828 0.034220651 0.36600003 4278466831
0.053623598 0.034220651 0.36600003 4278269454
0.054812364 0.034220651 0.36600003 4278335247
0.055848122 0.03412715 0.36500001 4278269454
0.05687739 0.034033652 0.36400002 4278466833
0.058059659 0.034033652 0.36400002 4278268941
0.059241932 0.034033652 0.36400002 4278268943
0.060424209 0.034033652 0.36400002 4278595601
0.061606478 0.034033652 0.36400002 4278791955
0.062788747 0.034033652 0.36400002 4278726673
0.063971028 0.034033652 0.36400002 4278464785
0.065153301 0.034033652 0.36400002 4278333966
0.066335566 0.034033652 0.36400002 4278465039
0.067517839 0.034033652 0.36400002 4278661648
0.068511374 0.033940151 0.36300001 4278727441
0.069690399 0.033940151 0.36300001 4278595855
0.070869423 0.033940151 0.36300001 4278399246
0.072048448 0.033940151 0.36300001 4278333453
0.073227473 0.033940151 0.36300001 4278333964
0.074406497 0.033940151 0.36300001 4278334734
0.075585522 0.033940151 0.36300001 4278334734
0.076764546 0.033940151 0.36300001 4278334734
0.077943571 0.033940151 0.36300001 4278334734
0.079122595 0.033940151 0.36300001 4278334734
0.08030162 0.033940151 0.36300001 4278532113
0.081480645 0.033940151 0.36300001 4278334734
0.082887389 0.034033652 0.36400002 4278532111
0.084069662 0.034033652 0.36400002 4278400525
0.085251927 0.034033652 0.36400002 4278597904
0.0864342 0.034033652 0.36400002 4278532111
0.087616481 0.034033652 0.36400002 4278400525
0.088798746 0.034033652 0.36400002 4278335247
0.089981019 0.034033652 0.36400002 4278532626
0.042078007 0.035700068 0.36900002 4278988049
0.043276519 0.035700068 0.36900002 4279384342
0.04447503 0.035700068 0.36900002 4278794002
0.045549769 0.035603318 0.36800003 4278728722
0.046745032 0.035603318 0.36800003 4278861076
0.047940299 0.035603318 0.36800003 4278663697
0.04900204 0.035506569 0.36700001 4278532113
0.050194055 0.035506569 0.36700001 4278400527
0.051386073 0.035506569 0.36700001 4278400527
0.052434828 0.035409823 0.36600003 4278334734
0.053623598 0.035409823 0.36600003 4278334734
0.0546626 0.035313074 0.36500001 4278334734
0.055848122 0.035313074 0.36500001 4278334734
0.05687739 0.035216328 0.36400002 4278334734
0.058059659 0.035216328 0.36400002 4278334734
0.059241932 0.035216328 0.36400002 4278334736
0.060424209 0.035216328 0.36400002 4278196225
0.061606478 0.035216328 0.36400002 4278195715
0.062788747 0.035216328 0.36400002 4278792468
0.063971028 0.035216328 0.36400002 4278595601
0.065153301 0.035216328 0.36400002 4278195968
0.066335566 0.035216328 0.36400002 4278195716
0.067517839 0.035216328 0.36400002 4278195205
0.06870012 0.035216328 0.36400002 4278259974
0.069690399 0.035119578 0.36300001 4278195205
0.070869423 0.035119578 0.36300001 4278195204
0.072048448 0.035119578 0.36300001 4278195969
0.073227473 0.035119578 0.36300001 4278196224
0.074406497 0.035119578 0.36300001 4278196994
0.075585522 0.035119578 0.36300001 4278197765
0.076764546 0.035119578 0.36300001 4278528013
0.077943571 0.035119578 0.36300001 4278791955
0.079122595 0.035119578 0.36300001 4278924568
0.08030162 0.035119578 0.36300001 4278530578
0.081705116 0.035216328 0.36400002 4278596625
0.082887389 0.035216328 0.36400002 4278333966
0.084069662 0.035216328 0.36400002 4278399759
0.085251927 0.035216328 0.36400002 4278465552
0.0864342 0.035216328 0.36400002 4278662929
0.087616481 0.035216328 0.36400002 4278333964
0.088798746 0.035216328 0.36400002 4278399757
0.089981019 0.035216328 0.36400002 4278465550
0.091163293 0.035216328 0.36400002 4278333964
0.09889283 0.035022829 0.36200002 4278532113
0.10006861 0.035022829 0.36200002 4278598419
0.10242017 0.035022829 0.36200002 4278533396
0.10330977 0.034926083 0.36100003 4278664982
0.10477172 0.035022829 0.36200002 4278862361
0.10594749 0.035022829 0.36200002 4278993947
0.039788514 0.03699898 0.37 4279640084
0.040990278 0.03699898 0.37 4279312912
0.042078007 0.036898986 0.36900002 4278923539
0.043276519 0.036898986 0.36900002 4279056406
0.04447503 0.036898986 0.36900002 4278728209
0.045673542 0.036898986 0.36900002 4278794515
0.046745032 0.036798988 0.36800003 4278730005
0.047940299 0.036798988 0.36800003 4278664212
0.04900204 0.03669899 0.36700001 4278335247
0.050194055 0.03669899 0.36700001 4278598421
0.051246058 0.036598995 0.36600003 4278532115
0.052434828 0.036598995 0.36600003 4278334734
0.053623598 0.036598995 0.36600003 4278400527
0.0546626 0.036498994 0.36500001 4278334734
0.055848122 0.036498994 0.36500001 4278334734
0.05687739 0.036398999 0.36400002 4278400527
0.058059659 0.036398999 0.36400002 4278400527
0.059241932 0.036398999 0.36400002 4278597908
0.060424209 0.036398999 0.36400002 4279316762
0.061606478 0.036398999 0.36400002 4278919439
0.062788747 0.036398999 0.36400002 4278661394
0.063971028 0.036398999 0.36400002 4278398992
0.065153301 0.036398999 0.36400002 4278195459
0.066335566 0.036398999 0.36400002 4278457093
0.067517839 0.036398999 0.36400002 4278522119
0.06870012 0.036398999 0.36400002 4278391048
0.069882385 0.036398999 0.36400002 4278456328
0.070869423 0.036299001 0.36300001 4278522121
0.072048448 0.036299001 0.36300001 4278522121
0.073227473 0.036299001 0.36300001 4278456839
0.074406497 0.036299001 0.36300001 4278456326
0.075585522 0.036299001 0.36300001 4278522119
0.076764546 0.036299001 0.36300001 4278522119
0.077943571 0.036299001 0.36300001 4278194181
0.07934057 0.036398999 0.36400002 4278195207
0.080522843 0.036398999 0.36400002 4278195974
0.081705116 0.036398999 0.36400002 4278397197
0.082887389 0.036398999 0.36400002 4278194432
0.084069662 0.036398999 0.36400002 4278194944
0.085251927 0.036398999 0.36400002 4278194944
0.0864342 0.036398999 0.36400002 4278198534
0.087616481 0.036398999 0.36400002 4278330632
0.088798746 0.036398999 0.36400002 4278726160
0.089981019 0.036398999 0.36400002 4278726160
0.091163293 0.036398999 0.36400002 4278530062
0.092345566 0.036398999 0.36400002 4278661648
0.093527839 0.036398999 0.36400002 4278333966
0.094449915 0.036299001 0.36300001 4278399759
0.09562894 0.036299001 0.36300001 4278465552
0.096807972 0.036299001 0.36300001 4278465550
0.097717062 0.036199003 0.36200002 4278728722
0.09889283 0.036199003 0.36200002 4278399757
0.10006861 0.036199003 0.36200002 4278531343
0.10124438 0.036199003 0.36200002 4278334734
0.10242017 0.036199003 0.36200002 4278400527
0.10359594 0.036199003 0.36200002 4278400527
0.10477172 0.036199003 0.36200002 4278400527
0.10594749 0.036199003 0.36200002 4278597906
0.10712326 0.036199003 0.36200002 4278532113
0.10859821 0.036299001 0.36300001 4278663699
0.10977723 0.036299001 0.36300001 4278729492
0.11095626 0.036299001 0.36300001 4278730005
0.11244421 0.036398999 0.36400002 4279387935
0.11362648 0.036398999 0.36400002 4279058970
0.11480875 0.036398999 0.36400002 4279387933
0.11599102 0.036398999 0.36400002 4279190554
0.12019464 0.036598995 0.36600003 4279190554
0.12138341 0.036598995 0.36600003 4279124248
0.12257218 0.036598995 0.36600003 4279713307
0.040990278 0.03820115 0.37 4279577108
0.042192038 0.03820115 0.37 4279318551
0.043276519 0.038097903 0.36900002 4279057176
0.04447503 0.038097903 0.36900002 4278728209
0.045673542 0.038097903 0.36900002 4278860308
0.046872053 0.038097903 0.36900002 4278861078
0.047940299 0.037994657 0.36800003 4278532626
0.049135566 0.037994657 0.36800003 4278335247
0.050194055 0.03789141 0.36700001 4278335247
0.051386073 0.03789141 0.36700001 4278597906
0.052434828 0.037788164 0.36600003 4278334734
0.053477082 0.037684917 0.36500001 4278400527
0.0546626 0.037684917 0.36500001 4278334734
0.055848122 0.037684917 0.36500001 4278663699
0.05687739 0.037581671 0.36400002 4278532113
0.058059659 0.037581671 0.36400002 4278399757
0.059241932 0.037581671 0.36400002 4278399759
0.060424209 0.037581671 0.36400002 4278196228
0.061606478 0.037581671 0.36400002 4278920211
0.062788747 0.037581671 0.36400002 4278727187
0.063971028 0.037581671 0.36400002 4278661394
0.065153301 0.037581671 0.36400002 4278391814
0.066335566 0.037581671 0.36400002 4279443988
0.067517839 0.037581671 0.36400002 4278391560
0.06870012 0.037581671 0.36400002 4279180562
0.069882385 0.037581671 0.36400002 4278851599
0.071064658 0.037581671 0.36400002 4278785806
0.072048448 0.037478425 0.36300001 4279180049
0.073227473 0.037478425 0.36300001 4278391046
0.074406497 0.037478425 0.36300001 4278720011
0.075585522 0.037478425 0.36300001 4278456326
0.076764546 0.037478425 0.36300001 4278522119
0.078158297 0.037581671 0.36400002 4278719498
0.07934057 0.037581671 0.36400002 4278522632
0.080522843 0.037581671 0.36400002 4278919441
0.081705116 0.037581671 0.36400002 4278792468
0.082887389 0.037581671 0.36400002 4278792468
0.084069662 0.037581671 0.36400002 4278726675
0.085251927 0.037581671 0.36400002 4278858261
0.0864342 0.037581671 0.36400002 4279185689
0.087616481 0.037581671 0.36400002 4279317275
0.088798746 0.037581671 0.36400002 4279316762
0.089981019 0.037581671 0.36400002 4278592269
0.091163293 0.037581671 0.36400002 4278394376
0.092345566 0.037581671 0.36400002 4278194944
0.093527839 0.037581671 0.36400002 4278195712
0.094710112 0.037581671 0.36400002 4278194944
0.09562894 0.037478425 0.36300001 4278194432
0.096807972 0.037478425 0.36300001 4278196226
0.097717062 0.037375178 0.36200002 4278198280
0.09889283 0.037375178 0.36200002 4278593552
0.10006861 0.037375178 0.36200002 4278726675
0.10124438 0.037375178 0.36200002 4278726675
0.10242017 0.037375178 0.36200002 4278924820
0.10359594 0.037375178 0.36200002 4278727441
0.10477172 0.037375178 0.36200002 4278727441
0.10594749 0.037375178 0.36200002 4278661648
0.10741919 0.037478425 0.36300001 4278465039
0.10859821 0.037478425 0.36300001 4278596625
0.10977723 0.037478425 0.36300001 4278662931
0.11126193 0.037581671 0.36400002 4278465552
0.11244421 0.037581671 0.36400002 4278268943
0.11362648 0.037581671 0.36400002 4278730005
0.11480875 0.037581671 0.36400002 4278664212
0.11630967 0.037684917 0.36500001 4278730005
0.11749519 0.037684917 0.36500001 4278795796
0.11868072 0.037684917 0.36500001 4279058968
0.12019464 0.037788164 0.36600003 4279190556
0.12138341 0.037788164 0.36600003 4279124763
0.12257218 0.037788164 0.36600003 4279189271
0.12376095 0.037788164 0.36600003 4279450646
0.040990278 0.039403316 0.37 4279381525
0.042192038 0.039403316 0.37 4279120918
0.043393798 0.039403316 0.37 4278991129
0.044595558 0.039403316 0.37 4278794515
0.045673542 0.039296821 0.36900002 4278795285
0.046872053 0.039296821 0.36900002 4278730005
0.047940299 0.03919033 0.36800003 4278598419
0.049135566 0.03919033 0.36800003 4278532113
0.050194055 0.039083831 0.36700001 4278400527
0.051386073 0.039083831 0.36700001 4278532113
0.052434828 0.038977336 0.36600003 4278334734
0.053477082 0.038870838 0.36500001 4278400527
0.0546626 0.038870838 0.36500001 4278532113
0.055848122 0.038870838 0.36500001 4278334734
0.05687739 0.038764346 0.36400002 4278532113
0.058059659 0.038764346 0.36400002 4278465550
0.059241932 0.038764346 0.36400002 4278662929
0.060424209 0.038764346 0.36400002 4278194944
0.061606478 0.038764346 0.36400002 4279643930
0.062788747 0.038764346 0.36400002 4278661394
0.063971028 0.038764346 0.36400002 4278529296
0.065153301 0.038764346 0.36400002 4278522632
0.066335566 0.038764346 0.36400002 4279247123
0.067517839 0.038764346 0.36400002 4279445785
0.06870012 0.038764346 0.36400002 4278195718
0.069882385 0.038764346 0.36400002 4278787855
0.071064658 0.038764346 0.36400002 4278393095
0.072246931 0.038764346 0.36400002 4278260998
0.073429205 0.038764346 0.36400002 4278985232
0.074611478 0.038764346 0.36400002 4278589963
0.075793751 0.038764346 0.36400002 4279116307
0.076976024 0.038764346 0.36400002 4278260998
0.078158297 0.038764346 0.36400002 4279774235
0.07934057 0.038764346 0.36400002 4278720265
0.080522843 0.038764346 0.36400002 4279643932
0.081705116 0.038764346 0.36400002 4278727189
0.082887389 0.038764346 0.36400002 4278333201
0.084069662 0.038764346 0.36400002 4278200074
0.085251927 0.038764346 0.36400002 4278199818
0.0864342 0.038764346 0.36400002 4278858261
0.087616481 0.038764346 0.36400002 4278792468
0.088798746 0.038764346 0.36400002 4278726675
0.089981019 0.038764346 0.36400002 4278726675
0.091163293 0.038764346 0.36400002 4278858261
0.092345566 0.038764346 0.36400002 4279055640
0.093527839 0.038764346 0.36400002 4278857748
0.094710112 0.038764346 0.36400002 4279055127
0.09562894 0.038657848 0.36300001 4278857746
0.096807972 0.038657848 0.36300001 4278923541
0.097986996 0.038657848 0.36300001 4279383322
0.099166013 0.038657848 0.36300001 4279054357
0.10006861 0.038551353 0.36200002 4279053590
0.10124438 0.038551353 0.36200002 4278593039
0.10242017 0.038551353 0.36200002 4278197513
0.10359594 0.038551353 0.36200002 4278194432
0.10477172 0.038551353 0.36200002 4278193920
0.10624015 0.038657848 0.36300001 4278196740
0.10741919 0.038657848 0.36300001 4278194944
0.10859821 0.038657848 0.36300001 4278196482
0.11007966 0.038764346 0.36400002 4278197764
0.11126193 0.038764346 0.36400002 4278725390
0.11244421 0.038764346 0.36400002 4278464015
0.11362648 0.038764346 0.36400002 4278465552
0.11512415 0.038870838 0.36500001 4278400527
0.11630967 0.038870838 0.36500001 4278597906
0.11749519 0.038870838 0.36500001 4278663697
0.11900587 0.038977336 0.36600003 4278729490
0.12019464 0.038977336 0.36600003 4278597904
0.12138341 0.038977336 0.36600003 4278795283
0.12290706 0.039083831 0.36700001 4278861076
0.12409908 0.039083831 0.36700001 4279189273
0.040990278 0.040605485 0.37 4279183894
0.042192038 0.040605485 0.37 4279252504
0.043393798 0.040605485 0.37 4279057176
0.044595558 0.040605485 0.37 4278597906
0.045797318 0.040605485 0.37 4278861078
0.046872053 0.040495742 0.36900002 4278730005
0.048070569 0.040495742 0.36900002 4278466833
0.049135566 0.040385999 0.36800003 4278532626
0.050194055 0.040276252 0.36700001 4278466833
0.051386073 0.040276252 0.36700001 4278335247
0.052434828 0.040166508 0.36600003 4278532626
0.053477082 0.040056761 0.36500001 4278335247
0.0546626 0.040056761 0.36500001 4278269454
0.055848122 0.040056761 0.36500001 4278532626
0.05687739 0.039947018 0.36400002 4278334734
0.058059659 0.039947018 0.36400002 4278531343
0.059241932 0.039947018 0.36400002 4278200583
0.060424209 0.039947018 0.36400002 4278458373
0.061606478 0.039947018 0.36400002 4278920207
0.062788747 0.039947018 0.36400002 4278661396
0.063971028 0.039947018 0.36400002 4278594576
0.065153301 0.039947018 0.36400002 4278522632
0.066335566 0.039947018 0.36400002 4278785804
0.067517839 0.039947018 0.36400002 4278260744
0.06870012 0.039947018 0.36400002 4279642651
0.069882385 0.039947018 0.36400002 4279051027
0.071064658 0.039947018 0.36400002 4278392584
0.072246931 0.039947018 0.36400002 4278194691
0.073429205 0.039947018 0.36400002 4278787855
0.074611478 0.039947018 0.36400002 4278523400
0.075793751 0.039947018 0.36400002 4278985234
0.076976024 0.039947018 0.36400002 4279249687
0.078158297 0.039947018 0.36400002 4278195459
0.07934057 0.039947018 0.36400002 4278522886
0.080522843 0.039947018 0.36400002 4279512857
0.081705116 0.039947018 0.36400002 4278661396
0.082887389 0.039947018 0.36400002 4278200074
0.084069662 0.039947018 0.36400002 4278327302
0.085251927 0.039947018 0.36400002 4278392584
0.0864342 0.039947018 0.36400002 4278262277
0.087616481 0.039947018 0.36400002 4278922004
0.088798746 0.039947018 0.36400002 4278264841
0.089981019 0.039947018 0.36400002 4278528013
0.091163293 0.039947018 0.36400002 4278199563
0.092345566 0.039947018 0.36400002 4278726675
0.093527839 0.039947018 0.36400002 4278197762
0.094710112 0.039947018 0.36400002 4278264841
0.095892385 0.039947018 0.36400002 4278791953
0.096807972 0.039837271 0.36300001 4278792466
0.097986996 0.039837271 0.36300001 4278727187
0.099166013 0.039837271 0.36300001 4278727187
0.10034504 0.039837271 0.36300001 4278858259
0.10152406 0.039837271 0.36300001 4278989845
0.10270309 0.039837271 0.36300001 4278989845
0.10388211 0.039837271 0.36300001 4278792466
0.10506114 0.039837271 0.36300001 4278923539
0.10624015 0.039837271 0.36300001 4278857748
0.10741919 0.039837271 0.36300001 4278923541
0.10889738 0.039947018 0.36400002 4279318299
0.11007966 0.039947018 0.36400002 4279317529
0.11126193 0.039947018 0.36400002 4279448602
0.11244421 0.039947018 0.36400002 4278263044
0.11393864 0.040056761 0.36500001 4278857746
0.11512415 0.040056761 0.36500001 4278728722
0.11630967 0.040056761 0.36500001 4278531343
0.1178171 0.040166508 0.36600003 4278662929
0.11900587 0.040166508 0.36600003 4278728720
0.12052304 0.040276252 0.36700001 4278728720
0.12171506 0.040276252 0.36700001 4278794513
0.12290706 0.040276252 0.36700001 4278925588
0.12409908 0.040276252 0.36700001 4279057176
0.040990278 0.041807652 0.37 4281091378
0.042192038 0.041807652 0.37 4279384092
0.043393798 0.041807652 0.37 4279056152
0.044595558 0.041807652 0.37 4278729494
0.045797318 0.041807652 0.37 4278992664
0.046872053 0.04169466 0.36900002 4278795798
0.048070569 0.04169466 0.36900002 4278598419
0.049135566 0.041581668 0.36800003 4278598419
0.050330825 0.041581668 0.36800003 4278203661
0.051386073 0.041468672 0.36700001 4278335249
0.052434828 0.041355681 0.36600003 4278335249
0.053623598 0.041355681 0.36600003 4278466835
0.0546626 0.041242685 0.36500001 4278466835
0.055848122 0.041242685 0.36500001 4278532113
0.057033643 0.041242685 0.36500001 4278400527
0.058219161 0.041242685 0.36500001 4278728722
0.059241932 0.04112969 0.36400002 4278859027
0.060424209 0.04112969 0.36400002 4278458886
0.061606478 0.04112969 0.36400002 4279118613
0.062788747 0.04112969 0.36400002 4278858773
0.063971028 0.04112969 0.36400002 4278198790
0.065153301 0.04112969 0.36400002 4278720011
0.066335566 0.04112969 0.36400002 4278587912
0.067517839 0.04112969 0.36400002 4278719498
0.06870012 0.04112969 0.36400002 4278522119
0.069882385 0.04112969 0.36400002 4278456326
0.071064658 0.04112969 0.36400002 4278522119
0.072048448 0.041016694 0.36300001 4278456839
0.073227473 0.041016694 0.36300001 4278522632
0.074611478 0.04112969 0.36400002 4278391560
0.075793751 0.04112969 0.36400002 4278194948
0.076976024 0.04112969 0.36400002 4278328585
0.078158297 0.04112969 0.36400002 4278525451
0.07934057 0.04112969 0.36400002 4278260998
0.080522843 0.04112969 0.36400002 4278922004
0.081705116 0.04112969 0.36400002 4278529296
0.082887389 0.04112969 0.36400002 4278195712
0.084069662 0.04112969 0.36400002 4278654218
0.085251927 0.04112969 0.36400002 4278720011
0.0864342 0.04112969 0.36400002 4278392582
0.087616481 0.04112969 0.36400002 4278262277
0.088798746 0.04112969 0.36400002 4279581471
0.089981019 0.04112969 0.36400002 4278792468
0.091163293 0.04112969 0.36400002 4278198279
0.092345566 0.04112969 0.36400002 4278264587
0.093527839 0.04112969 0.36400002 4278857748
0.094710112 0.04112969 0.36400002 4278857746
0.095892385 0.04112969 0.36400002 4278198277
0.097074665 0.04112969 0.36400002 4278199047
0.098256938 0.04112969 0.36400002 4278792466
0.099166013 0.041016694 0.36300001 4278199816
0.10034504 0.041016694 0.36300001 4278660880
0.10152406 0.041016694 0.36300001 4278727187
0.10270309 0.041016694 0.36300001 4278529808
0.10388211 0.041016694 0.36300001 4278595601
0.10506114 0.041016694 0.36300001 4278858773
0.10653283 0.04112969 0.36400002 4278661394
0.10771511 0.04112969 0.36400002 4278661394
0.10889738 0.04112969 0.36400002 4278661394
0.11007966 0.04112969 0.36400002 4278858773
0.11156759 0.041242685 0.36500001 4278727187
0.11275312 0.041242685 0.36500001 4278193920
0.11393864 0.041242685 0.36500001 4278988049
0.11543956 0.041355681 0.36600003 4278596623
0.11662833 0.041355681 0.36600003 4278794515
0.1178171 0.041355681 0.36600003 4278794002
0.11933102 0.041468672 0.36700001 4278728209
0.12052304 0.041468672 0.36700001 4278728209
0.12171506 0.041468672 0.36700001 4278859795
0.12290706 0.041468672 0.36700001 4278596625
0.12409908 0.041468672 0.36700001 4278990359
0.042192038 0.043009818 0.37 4279316762
0.043393798 0.043009818 0.37 4279647777
0.044595558 0.043009818 0.37 4278992666
0.045797318 0.043009818 0.37 4278992664
0.046872053 0.042893577 0.36900002 4279058457
0.048070569 0.042893577 0.36900002 4278597906
0.049135566 0.042777337 0.36800003 4278664212
0.050330825 0.042777337 0.36800003 4278532626
0.051386073 0.042661093 0.36700001 4278598419
0.052434828 0.042544849 0.36600003 4278598419
0.053623598 0.042544849 0.36600003 4278532626
0.0546626 0.042428605 0.36500001 4278400527
0.055848122 0.042428605 0.36500001 4278597906
0.057033643 0.042428605 0.36500001 4278532113
0.058219161 0.042428605 0.36500001 4278399759
0.059404682 0.042428605 0.36500001 4278199815
0.060590208 0.042428605 0.36500001 4278264587
0.061775722 0.042428605 0.36500001 4279054357
0.062961243 0.042428605 0.36500001 4278530578
0.063971028 0.042312365 0.36400002 4278924566
0.065153301 0.042312365 0.36400002 4278525453
0.066335566 0.042312365 0.36400002 4278523400
0.067517839 0.042312365 0.36400002 4278720011
0.06870012 0.042312365 0.36400002 4278719498
0.069882385 0.042312365 0.36400002 4278587912
0.070869423 0.042196121 0.36300001 4278587912
0.072048448 0.042196121 0.36300001 4278719500
0.073227473 0.042196121 0.36300001 4278587914
0.074406497 0.042196121 0.36300001 4278587914
0.075793751 0.042312365 0.36400002 4278522121
0.076976024 0.042312365 0.36400002 4278456841
0.078158297 0.042312365 0.36400002 4278456841
0.07934057 0.042312365 0.36400002 4278195718
0.080522843 0.042312365 0.36400002 4278988564
0.081705116 0.042312365 0.36400002 4278792466
0.082887389 0.042312365 0.36400002 4278330121
0.084069662 0.042312365 0.36400002 4278522632
0.085251927 0.042312365 0.36400002 4278522632
0.0864342 0.042312365 0.36400002 4278722830
0.087616481 0.042312365 0.36400002 4278987027
0.088798746 0.042312365 0.36400002 4278198024
0.089981019 0.042312365 0.36400002 4278198023
0.091163293 0.042312365 0.36400002 4278725138
0.092345566 0.042312365 0.36400002 4278198023
0.093527839 0.042312365 0.36400002 4279251734
0.094710112 0.042312365 0.36400002 4278726160
0.095892385 0.042312365 0.36400002 4278396427
0.097074665 0.042312365 0.36400002 4278791185
0.098256938 0.042312365 0.36400002 4278394630
0.099439196 0.042312365 0.36400002 4278460169
0.10062148 0.042312365 0.36400002 4278196740
0.10180375 0.042312365 0.36400002 4279250969
0.10298602 0.042312365 0.36400002 4279317529
0.1041683 0.042312365 0.36400002 4279054357
0.10535057 0.042312365 0.36400002 4278527759
0.10653283 0.042312365 0.36400002 4278198019
0.10801102 0.042428605 0.36500001 4278198534
0.10919655 0.042428605 0.36500001 4278199817
0.11038207 0.042428605 0.36500001 4278661648
0.11156759 0.042428605 0.36500001 4278661648
0.11275312 0.042428605 0.36500001 4278197508
0.1142508 0.042544849 0.36600003 4279054357
0.11543956 0.042544849 0.36600003 4278596623
0.11662833 0.042544849 0.36600003 4278728209
0.11813901 0.042661093 0.36700001 4278728209
0.11933102 0.042661093 0.36700001 4278596623
0.12052304 0.042661093 0.36700001 4278794002
0.12204671 0.042777337 0.36800003 4278925588
0.12324197 0.042777337 0.36800003 4278924818
0.12443724 0.042777337 0.36800003 4278792720
0.12563249 0.042777337 0.36800003 4279579418
0.041101065 0.04433148 0.37100002 4284446823
0.042192038 0.044211987 0.37 4285105266
0.043393798 0.044211987 0.37 4281026360
0.044595558 0.044211987 0.37 4279647010
0.045797318 0.044211987 0.37 4279188510
0.046872053 0.044092495 0.36900002 4279058459
0.048070569 0.044092495 0.36900002 4278663701
0.049135566 0.043973006 0.36800003 4278729494
0.050330825 0.043973006 0.36800003 4278729494
0.051386073 0.04385351 0.36700001 4278795287
0.052434828 0.043734021 0.36600003 4278795287
0.053623598 0.043734021 0.36600003 4278861080
0.0546626 0.043614529 0.36500001 4279058459
0.055848122 0.043614529 0.36500001 4278729494
0.057033643 0.043614529 0.36500001 4278663701
0.058219161 0.043614529 0.36500001 4279189275
0.059404682 0.043614529 0.36500001 4278529294
0.060590208 0.043614529 0.36500001 4278199564
0.061775722 0.043614529 0.36500001 4279121433
0.062961243 0.043614529 0.36500001 4278728211
0.063971028 0.043495037 0.36400002 4278728211
0.065153301 0.043495037 0.36400002 4278859543
0.066335566 0.043495037 0.36400002 4278924566
0.067517839 0.043495037 0.36400002 4279581982
0.06870012 0.043495037 0.36400002 4279055127
0.069690399 0.043375544 0.36300001 4279317529
0.070869423 0.043375544 0.36300001 4279646240
0.072048448 0.043375544 0.36300001 4279710236
0.073227473 0.043375544 0.36300001 4279512857
0.074406497 0.043375544 0.36300001 4278853646
0.075585522 0.043375544 0.36300001 4278853135
0.076764546 0.043375544 0.36300001 4278259714
0.078158297 0.043495037 0.36400002 4278260228
0.07934057 0.043495037 0.36400002 4278459656
0.080522843 0.043495037 0.36400002 4278395914
0.081705116 0.043495037 0.36400002 4278197763
0.082887389 0.043495037 0.36400002 4279053074
0.084069662 0.043495037 0.36400002 4279578137
0.085251927 0.043495037 0.36400002 4279578137
0.0864342 0.043495037 0.36400002 4279249685
0.087616481 0.043495037 0.36400002 4279053590
0.088798746 0.043495037 0.36400002 4278988310
0.089981019 0.043495037 0.36400002 4278988310
0.091163293 0.043495037 0.36400002 4279121433
0.092345566 0.043495037 0.36400002 4278727187
0.093527839 0.043495037 0.36400002 4278791953
0.094970301 0.043614529 0.36500001 4278923541
0.095892385 0.043495037 0.36400002 4279055127
0.097074665 0.043495037 0.36400002 4278791953
0.098256938 0.043495037 0.36400002 4278856463
0.099439196 0.043495037 0.36400002 4278856465
0.10062148 0.043495037 0.36400002 4278922004
0.10180375 0.043495037 0.36400002 4278461966
0.10298602 0.043495037 0.36400002 4278527500
0.1041683 0.043495037 0.36400002 4278395914
0.10563999 0.043614529 0.36500001 4278922004
0.1068255 0.043614529 0.36500001 4278461453
0.10801102 0.043614529 0.36500001 4278460937
0.10919655 0.043614529 0.36500001 4278724109
0.11038207 0.043614529 0.36500001 4278858773
0.11187326 0.043734021 0.36600003 4278595341
0.11306203 0.043734021 0.36600003 4278196480
0.1142508 0.043734021 0.36600003 4278989845
0.11575497 0.04385351 0.36700001 4278794004
0.11694699 0.04385351 0.36700001 4278794002
0.11813901 0.04385351 0.36700001 4278794002
0.11965618 0.043973006 0.36800003 4278794002
0.12085145 0.043973006 0.36800003 4278728209
0.12204671 0.043973006 0.36800003 4278925588
0.12324197 0.043973006 0.36800003 4278924818
0.12443724 0.043973006 0.36800003 4279253271
0.12563249 0.043973006 0.36800003 4279711004
0.040990278 0.045414153 0.37 4284709995
0.042192038 0.045414153 0.37 4284709995
0.043393798 0.045414153 0.37 4284907374
0.044595558 0.045414153 0.37 4285172343
0.045797318 0.045414153 0.37 4281225276
0.046872053 0.045291413 0.36900002 4279120668
0.048070569 0.045291413 0.36900002 4279581730
0.049135566 0.045168675 0.36800003 4279451682
0.050330825 0.045168675 0.36800003 4279451682
0.051386073 0.045045931 0.36700001 4279189023
0.052434828 0.044923194 0.36600003 4279254814
0.053623598 0.044923194 0.36600003 4279123228
0.0546626 0.044800449 0.36500001 4278991896
0.055848122 0.044800449 0.36500001 4278926103
0.057033643 0.044800449 0.36500001 4279058459
0.058219161 0.044800449 0.36500001 4278992666
0.059404682 0.044800449 0.36500001 4279123482
0.060590208 0.044800449 0.36500001 4279057176
0.061775722 0.044800449 0.36500001 4279057176
0.062961243 0.044800449 0.36500001 4279057176
0.063971028 0.044677708 0.36400002 4279057176
0.065153301 0.044677708 0.36400002 4278925590
0.066335566 0.044677708 0.36400002 4279057176
0.067517839 0.044677708 0.36400002 4278991383
0.06870012 0.044677708 0.36400002 4278991383
0.069690399 0.044554967 0.36300001 4278728211
0.070869423 0.044554967 0.36300001 4278925590
0.072048448 0.044554967 0.36300001 4278925336
0.073227473 0.044554967 0.36300001 4279056152
0.074406497 0.044554967 0.36300001 4279121431
0.075585522 0.044554967 0.36300001 4279055638
0.076764546 0.044554967 0.36300001 4279121431
0.077943571 0.044554967 0.36300001 4279121431
0.07934057 0.044677708 0.36400002 4279120918
0.080522843 0.044677708 0.36400002 4278923541
0.081705116 0.044677708 0.36400002 4279055127
0.082887389 0.044677708 0.36400002 4279317529
0.084069662 0.044677708 0.36400002 4279184660
0.085251927 0.044677708 0.36400002 4278789388
0.0864342 0.044677708 0.36400002 4278460169
0.087616481 0.044677708 0.36400002 4278195715
0.088798746 0.044677708 0.36400002 4278193408
0.089981019 0.044677708 0.36400002 4278194176
0.091163293 0.044677708 0.36400002 4278194432
0.092345566 0.044677708 0.36400002 4278196482
0.093527839 0.044677708 0.36400002 4278197767
0.094970301 0.044800449 0.36500001 4278461707
0.096155822 0.044800449 0.36500001 4278922256
0.097341344 0.044800449 0.36500001 4279185941
0.098526873 0.044800449 0.36500001 4278922769
0.099712379 0.044800449 0.36500001 4279055125
0.1008979 0.044800449 0.36500001 4279318810
0.10208342 0.044800449 0.36500001 4278989845
0.10326895 0.044800449 0.36500001 4278989845
0.10445447 0.044800449 0.36500001 4278923539
0.10563999 0.044800449 0.36500001 4279120920
0.1068255 0.044800449 0.36500001 4278923541
0.10801102 0.044800449 0.36500001 4278922771
0.10949572 0.044923194 0.36600003 4278988564
0.11068449 0.044923194 0.36600003 4278661394
0.11187326 0.044923194 0.36600003 4278397708
0.11306203 0.044923194 0.36600003 4279053844
0.11456296 0.045045931 0.36700001 4278792468
0.11575497 0.045045931 0.36700001 4278596371
0.11694699 0.045045931 0.36700001 4278794004
0.11846092 0.045168675 0.36800003 4278859795
0.11965618 0.045168675 0.36800003 4278859795
0.12085145 0.045168675 0.36800003 4278991381
0.12237836 0.045291413 0.36900002 4278859795
0.12357686 0.045291413 0.36900002 4278727439
0.12443724 0.045168675 0.36800003 4279318551
0.040990278 0.046616323 0.37 4284578409
0.042192038 0.046616323 0.37 4284907374
0.043393798 0.046616323 0.37 4284775788
0.044595558 0.046616323 0.37 4284907887
0.045797318 0.046616323 0.37 4284842094
0.046872053 0.046490334 0.36900002 4285105012
0.048070569 0.046490334 0.36900002 4285367925
0.049135566 0.046364348 0.36800003 4284381541
0.050330825 0.046364348 0.36800003 4282409035
0.051386073 0.046238355 0.36700001 4280567342
0.052434828 0.046112366 0.36600003 4279054873
0.053623598 0.046112366 0.36600003 4278923287
0.0546626 0.045986373 0.36500001 4278857494
0.055848122 0.045986373 0.36500001 4279384092
0.057033643 0.045986373 0.36500001 4279121433
0.058219161 0.045986373 0.36500001 4279121947
0.059404682 0.045986373 0.36500001 4279056922
0.060590208 0.045986373 0.36500001 4279188508
0.061775722 0.045986373 0.36500001 4279056922
0.062961243 0.045986373 0.36500001 4279254555
0.063971028 0.045860387 0.36400002 4279188762
0.065153301 0.045860387 0.36400002 4278991383
0.066335566 0.045860387 0.36400002 4279188762
0.067517839 0.045860387 0.36400002 4279057176
0.068511374 0.045734394 0.36300001 4279255068
0.069690399 0.045734394 0.36300001 4278991896
0.070869423 0.045734394 0.36300001 4278991896
0.072048448 0.045734394 0.36300001 4278991896
0.073227473 0.045734394 0.36300001 4279123482
0.074406497 0.045734394 0.36300001 4278859797
0.075585522 0.045734394 0.36300001 4278991383
0.076764546 0.045734394 0.36300001 4279057176
0.077943571 0.045734394 0.36300001 4278991383
0.079122595 0.045734394 0.36300001 4278991383
0.08030162 0.045734394 0.36300001 4278925590
0.081705116 0.045860387 0.36400002 4278925590
0.082887389 0.045860387 0.36400002 4278859797
0.084069662 0.045860387 0.36400002 4279056406
0.085251927 0.045860387 0.36400002 4278990613
0.0864342 0.045860387 0.36400002 4279121685
0.087616481 0.045860387 0.36400002 4279186711
0.088798746 0.045860387 0.36400002 4279055125
0.089981019 0.045860387 0.36400002 4279055125
0.091163293 0.045860387 0.36400002 4278857746
0.092345566 0.045860387 0.36400002 4279055125
0.093527839 0.045860387 0.36400002 4278923541
0.094970301 0.045986373 0.36500001 4278922771
0.096155822 0.045986373 0.36500001 4279448602
0.097341344 0.045986373 0.36500001 4278987281
0.098526873 0.045986373 0.36500001 4278195970
0.099712379 0.045986373 0.36500001 4278196226
0.1008979 0.045986373 0.36500001 4278195456
0.10208342 0.045986373 0.36500001 4278194432
0.10326895 0.045986373 0.36500001 4278193152
0.10445447 0.045986373 0.36500001 4278195456
0.10563999 0.045986373 0.36500001 4278329867
0.1068255 0.045986373 0.36500001 4278593293
0.10830695 0.046112366 0.36600003 4279185943
0.10949572 0.046112366 0.36600003 4278988564
0.11068449 0.046112366 0.36600003 4278791953
0.11187326 0.046112366 0.36600003 4278197250
0.11337094 0.046238355 0.36700001 4278791953
0.11456296 0.046238355 0.36700001 4278859543
0.11575497 0.046238355 0.36700001 4278859797
0.11726565 0.046364348 0.36800003 4278728211
0.11846092 0.046364348 0.36800003 4278596625
0.11965618 0.046364348 0.36800003 4278728211
0.12117984 0.046490334 0.36900002 4278925588
0.12237836 0.046490334 0.36900002 4278728209
0.12357686 0.046490334 0.36900002 4279253271
0.042192038 0.047818489 0.37 4284709995
0.043393798 0.047818489 0.37 4284776047
0.044595558 0.047818489 0.37 4285105012
0.045673542 0.047689252 0.36900002 4285170805
0.046872053 0.047689252 0.36900002 4284973426
0.048070569 0.047689252 0.36900002 4284907633
0.049135566 0.047560014 0.36800003 4284842094
0.050330825 0.047560014 0.36800003 4284710508
0.051386073 0.047430772 0.36700001 4284315750
0.052434828 0.047301535 0.36600003 4283855199
0.053623598 0.047301535 0.36600003 4283986272
0.054812364 0.047301535 0.36600003 4283854684
0.055848122 0.047172293 0.36500001 4283065683
0.057033643 0.047172293 0.36500001 4283921506
0.058219161 0.047172293 0.36500001 4283790690
0.059404682 0.047172293 0.36500001 4283659104
0.060590208 0.047172293 0.36500001 4282343240
0.061775722 0.047172293 0.36500001 4280895794
0.062961243 0.047172293 0.36500001 4279712035
0.063971028 0.047043055 0.36400002 4279251484
0.065153301 0.047043055 0.36400002 4278922771
0.066335566 0.047043055 0.36400002 4278988564
0.067517839 0.047043055 0.36400002 4279252506
0.068511374 0.046913814 0.36300001 4279450398
0.069690399 0.046913814 0.36300001 4279319324
0.070869423 0.046913814 0.36300001 4279187738
0.072048448 0.046913814 0.36300001 4278991129
0.073227473 0.046913814 0.36300001 4278859543
0.074406497 0.046913814 0.36300001 4279056922
0.075585522 0.046913814 0.36300001 4279057176
0.076764546 0.046913814 0.36300001 4278991896
0.077943571 0.046913814 0.36300001 4278991896
0.079122595 0.046913814 0.36300001 4279123482
0.08030162 0.046913814 0.36300001 4279189275
0.081480645 0.046913814 0.36300001 4279123482
0.082659669 0.046913814 0.36300001 4278926103
0.083838694 0.046913814 0.36300001 4278926103
0.085017718 0.046913814 0.36300001 4279123482
0.0864342 0.047043055 0.36400002 4278991896
0.087616481 0.047043055 0.36400002 4279254555
0.088798746 0.047043055 0.36400002 4279057176
0.089981019 0.047043055 0.36400002 4278991383
0.091163293 0.047043055 0.36400002 4278991383
0.092345566 0.047043055 0.36400002 4278859797
0.093527839 0.047043055 0.36400002 4278925590
0.094710112 0.047043055 0.36400002 4279056406
0.096155822 0.047172293 0.36500001 4279056406
0.097341344 0.047172293 0.36500001 4279056406
0.098526873 0.047172293 0.36500001 4279122199
0.099712379 0.047172293 0.36500001 4279056406
0.1008979 0.047172293 0.36500001 4279187224
0.10208342 0.047172293 0.36500001 4279384090
0.10326895 0.047172293 0.36500001 4279449113
0.10445447 0.047172293 0.36500001 4279251734
0.10563999 0.047172293 0.36500001 4279711774
0.10711818 0.047301535 0.36600003 4279317016
0.10830695 0.047301535 0.36600003 4279053844
0.10949572 0.047301535 0.36600003 4278658832
0.11068449 0.047301535 0.36600003 4278197511
0.11217892 0.047430772 0.36700001 4278789648
0.11337094 0.047430772 0.36700001 4279055638
0.11456296 0.047430772 0.36700001 4278793750
0.11607038 0.047560014 0.36800003 4278859797
0.11726565 0.047560014 0.36800003 4278925590
0.11846092 0.047560014 0.36800003 4279057176
0.11998133 0.047689252 0.36900002 4278794004
0.12117984 0.047689252 0.36900002 4279188762
0.12237836 0.047689252 0.36900002 4278925590
0.12357686 0.047689252 0.36900002 4279581471
0.043393798 0.049020659 0.37 4284841840
0.04447503 0.048888173 0.36900002 4284841840
0.045673542 0.048888173 0.36900002 4284973426
0.048070569 0.048888173 0.36900002 4284907633
0.066335566 0.048225731 0.36400002 4285565817
0.067517839 0.048225731 0.36400002 4285434231
0.068511374 0.048093241 0.36300001 4285565817
0.069690399 0.048093241 0.36300001 4284514411
0.070869423 0.048093241 0.36300001 4282935892
0.072048448 0.048093241 0.36300001 4281291069
0.073227473 0.048093241 0.36300001 4279909414
0.074406497 0.048093241 0.36300001 4279382809
0.075585522 0.048093241 0.36300001 4278856465
0.076764546 0.048093241 0.36300001 4279055125
0.077943571 0.048093241 0.36300001 4279252504
0.079122595 0.048093241 0.36300001 4279318297
0.08030162 0.048093241 0.36300001 4279252504
0.081480645 0.048093241 0.36300001 4279121945
0.082659669 0.048093241 0.36300001 4279121945
0.083838694 0.048093241 0.36300001 4279057176
0.085017718 0.048093241 0.36300001 4278991381
0.086196743 0.048093241 0.36300001 4279057174
0.087616481 0.048225731 0.36400002 4279188760
0.088798746 0.048225731 0.36400002 4278991381
0.089981019 0.048225731 0.36400002 4279188760
0.091163293 0.048225731 0.36400002 4278991381
0.092345566 0.048225731 0.36400002 4279057174
0.093527839 0.048225731 0.36400002 4279188760
0.094710112 0.048225731 0.36400002 4279057174
0.096155822 0.048358217 0.36500001 4279057174
0.097341344 0.048358217 0.36500001 4279188760
0.098526873 0.048358217 0.36500001 4279057174
0.099712379 0.048358217 0.36500001 4279254553
0.1008979 0.048358217 0.36500001 4279188760
0.10208342 0.048358217 0.36500001 4279188760
0.10326895 0.048358217 0.36500001 4279188760
0.10445447 0.048358217 0.36500001 4279320346
0.10592942 0.048490711 0.36600003 4278728209
0.10711818 0.048490711 0.36600003 4279057176
0.10830695 0.048490711 0.36600003 4279254555
0.10949572 0.048490711 0.36600003 4279057176
0.1109869 0.048623197 0.36700001 4279319064
0.11217892 0.048623197 0.36700001 4279319064
0.11337094 0.048623197 0.36700001 4279187992
0.11456296 0.048623197 0.36700001 4278925590
0.11607038 0.048755687 0.36800003 4278859797
0.11726565 0.048755687 0.36800003 4278991383
0.11846092 0.048755687 0.36800003 4278794004
0.11998133 0.048888173 0.36900002 4279057176
0.12117984 0.048888173 0.36900002 4279254555
0.12237836 0.048888173 0.36900002 4279188508
0.077943571 0.049272664 0.36300001 4285828989
0.079122595 0.049272664 0.36300001 4285631608
0.08030162 0.049272664 0.36300001 4285171057
0.081480645 0.049272664 0.36300001 4283855197
0.082659669 0.049272664 0.36300001 4282868302
0.083838694 0.049272664 0.36300001 4281026610
0.085017718 0.049272664 0.36300001 4279842590
0.086196743 0.049272664 0.36300001 4279317016
0.087616481 0.049408402 0.36400002 4279053844
0.088798746 0.049408402 0.36400002 4278856465
0.089981019 0.049408402 0.36400002 4278922258
0.091163293 0.049408402 0.36400002 4278856465
0.092345566 0.049408402 0.36400002 4278988564
0.093527839 0.049408402 0.36400002 4279384092
0.094710112 0.049408402 0.36400002 4279515678
0.096155822 0.049544137 0.36500001 4279120918
0.097341344 0.049544137 0.36500001 4279515676
0.098526873 0.049544137 0.36500001 4279318297
0.099712379 0.049544137 0.36500001 4279384344
0.1008979 0.049544137 0.36500001 4279384344
0.10208342 0.049544137 0.36500001 4279515930
0.10326895 0.049544137 0.36500001 4279515930
0.10445447 0.049544137 0.36500001 4279187478
0.10592942 0.049679875 0.36600003 4279450396
0.10711818 0.049679875 0.36600003 4279516189
0.10830695 0.049679875 0.36600003 4279450650
0.10979488 0.049815614 0.36700001 4279582236
0.1109869 0.049815614 0.36700001 4279450650
0.11217892 0.049815614 0.36700001 4279450650
0.11337094 0.049815614 0.36700001 4279450650
0.11487512 0.049951352 0.36800003 4279385371
0.11607038 0.049951352 0.36800003 4279385369
0.11726565 0.049951352 0.36800003 4279385369
0.11878281 0.050087087 0.36900002 4279385369
0.11998133 0.050087087 0.36900002 4279385369
0.12117984 0.050087087 0.36900002 4279120918
0.082659669 0.050452087 0.36300001 4285170544
0.083838694 0.050452087 0.36300001 4284973165
0.085017718 0.050452087 0.36300001 4285038958
0.086196743 0.050452087 0.36300001 4284973678
0.087616481 0.050591078 0.36400002 4284710508
0.088798746 0.050591078 0.36400002 4285105266
0.089981019 0.050591078 0.36400002 4285302645
0.091163293 0.050591078 0.36400002 4285433718
0.092345566 0.050591078 0.36400002 4285828474
0.093527839 0.050591078 0.36400002 4285894265
0.094710112 0.050591078 0.36400002 4285434229
0.096155822 0.050730061 0.36500001 4285566329
0.097341344 0.050730061 0.36500001 4285369720
0.098526873 0.050730061 0.36500001 4284974962
0.099712379 0.050730061 0.36500001 4285171571
0.1008979 0.050730061 0.36500001 4284974192
0.10208342 0.050730061 0.36500001 4284710506
0.10326895 0.050730061 0.36500001 4284513127
0.10445447 0.050730061 0.36500001 4283723611
0.10592942 0.050869051 0.36600003 4283394644
0.10711818 0.050869051 0.36600003 4282999627
0.10830695 0.050869051 0.36600003 4282275902
0.10979488 0.051008034 0.36700001 4281946937
0.1109869 0.051008034 0.36700001 4281355313
0.11217892 0.051008034 0.36700001 4281223727
0.11337094 0.051008034 0.36700001 4280960042
0.11487512 0.051147025 0.36800003 4280762663
0.11607038 0.051147025 0.36800003 4280828710
0.11726565 0.051147025 0.36800003 4280960296
0.11878281 0.051286008 0.36900002 4282077753
0.11998133 0.051286008 0.36900002 4284972645
0.11878281 0.05248493 0.36900002 4285827702
0.07949131 0.040985569 0.36530781 4294967295
0.07949131 0.040985569 0.36530781 4294901760
0.07953649 0.040489271 0.36526725 4294901760
0.079581678 0.039992969 0.36522669 4294901760
0.079626858 0.039496671 0.3651861 4294901760
0.079672039 0.039000373 0.36514553 4294901760
0.079717226 0.038504075 0.36510497 4294901760
0.079762407 0.038007773 0.36506441 4294901760
0.079807587 0.037511475 0.36502382 4294901760
0.079852775 0.037015177 0.36498326 4294901760
0.079897955 0.036518879 0.3649427 4294901760
0.079943135 0.036022577 0.36490214 4294901760
0.079988323 0.035526279 0.36486155 4294901760
0.080033503 0.035029981 0.36482099 4294901760
0.080078684 0.034533679 0.36478043 4294901760
0.080123864 0.034037381 0.36473987 4294901760
0.080169052 0.033541083 0.3646993 4294901760
0.080214232 0.033044785 0.36465871 4294901760
0.080259413 0.032548487 0.36461815 4294901760
0.0803046 0.032052185 0.36457759 4294901760
0.080349781 0.031555887 0.36453703 4294901760
0.080394961 0.031059587 0.36449644 4294901760
0.080440149 0.030563289 0.36445588 4294901760
0.080485329 0.030066989 0.36441532 4294901760
0.080530509 0.029570691 0.36437476 4294901760
0.080575697 0.029074391 0.36433417 4294901760
0.080620877 0.028578091 0.36429361 4294901760
0.080666058 0.028081793 0.36425304 4294901760
0.080711246 0.027585493 0.36421248 4294901760
0.080756426 0.027089195 0.36417192 4294901760
0.080801606 0.026592895 0.36413133 4294901760
0.080846794 0.026096597 0.36409077 4294901760
0.080891974 0.025600297 0.36405021 4294901760
0.080937155 0.025103999 0.36400965 4294901760
0.080982342 0.024607699 0.36396906 4294901760
0.081027523 0.024111401 0.3639285 4294901760
0.081072703 0.023615101 0.36388794 4294901760
0.081117891 0.023118801 0.36384737 4294901760
0.081163071 0.022622503 0.36380678 4294901760
0.081208251 0.022126205 0.36376622 4294901760
0.081253432 0.021629905 0.36372566 4294901760
0.08129862 0.021133605 0.3636851 4294901760
0.0813438 0.020637307 0.36364454 4294901760
0.08138898 0.020141009 0.36360395 4294901760
0.081434168 0.019644709 0.36356339 4294901760
0.081479348 0.019148409 0.36352283 4294901760
0.081524529 0.018652111 0.36348227 4294901760
0.081569716 0.018155811 0.36344168 4294901760
0.081614897 0.017659513 0.36340111 4294901760
0.081660077 0.017163213 0.36336055 4294901760
0.081705265 0.016666913 0.36331999 4294901760
0.081750445 0.016170615 0.3632794 4294901760
0.081795625 0.015674317 0.36323884 4294901760
0.081840813 0.015178017 0.36319828 4294901760
0.081885993 0.014681719 0.36315772 4294901760
0.081931174 0.014185417 0.36311716 4294901760
0.081976362 0.013689119 0.36307657 4294901760
0.082021542 0.013192821 0.36303601 4294901760
0.082066722 0.012696521 0.36299545 4294901760
0.08211191 0.012200223 0.36295488 4294901760
0.08215709 0.011703925 0.36291429 4294901760
0.082202271 0.011207623 0.36287373 4294901760
0.082247458 0.010711325 0.36283317 4294901760
0.082292639 0.010215025 0.36279261 4294901760
0.082337819 0.0097187273 0.36275205 4294901760
0.082382999 0.0092224292 0.36271146 4294901760
0.082428187 0.0087261312 0.3626709 4294901760
0.082473367 0.0082298294 0.36263034 4294901760
0.082518548 0.0077335313 0.36258978 4294901760
