# .PCD v0.7 - Point Cloud Data file format
VERSION 0.7
FIELDS x y z rgb
SIZE 4 4 4 4
TYPE F F F U
COUNT 1 1 1 1
WIDTH 1040
HEIGHT 1
VIEWPOINT 0 0 0 1 0 0 0
POINTS 1040
DATA ascii
0.13253987 -0.00027112017 0.37400001 4279189275
0.13375461 -0.00027112017 0.37400001 4279123482
0.13460849 -0.00027039525 0.37300003 4279584031
0.13582 -0.00027039525 0.37300003 4278926101
0.1370315 -0.00027039525 0.37300003 4279189273
0.138243 -0.00027039525 0.37300003 4279123480
0.13945451 -0.00027039525 0.37300003 4279320859
0.14066602 -0.00027039525 0.37300003 4279386141
0.027545739 0.00092637481 0.36700001 4280955411
0.028581148 0.00092132646 0.36500001 4281021722
0.029766668 0.00092132646 0.36500001 4283524686
0.03086739 0.00091880228 0.36400002 4283129676
0.032049663 0.00091880228 0.36400002 4281746478
0.033231933 0.00091880228 0.36400002 4282797617
0.034414209 0.00091880228 0.36400002 4282994728
0.035596479 0.00091880228 0.36400002 4282994723
0.036778755 0.00091880228 0.36400002 4282796574
0.038065314 0.00092132646 0.36500001 4282598941
0.039250832 0.00092132646 0.36500001 4282927908
0.040436354 0.00092132646 0.36500001 4282533668
0.041621875 0.00092132646 0.36500001 4283064387
0.042807397 0.00092132646 0.36500001 4283064648
0.043992914 0.00092132646 0.36500001 4283656535
0.04678753 0.00095414085 0.37800002 4283986270
0.047888249 0.00095161662 0.377 4283920992
0.048852205 0.00094656833 0.37500003 4284052578
0.049936686 0.00094404409 0.37400001 4284249957
0.051151432 0.00094404409 0.37400001 4284249957
0.052226175 0.00094151992 0.37300003 4284380260
0.053294413 0.00093899574 0.37200001 4281352499
0.05377011 0.00092637481 0.36700001 4279968534
0.054812364 0.00092385069 0.36600003 4280494108
0.056001134 0.00092385069 0.36600003 4280100633
0.057033643 0.00092132646 0.36500001 4280298782
0.058059659 0.00091880228 0.36400002 4280892716
0.059241932 0.00091880228 0.36400002 4279511574
0.060258206 0.00091627805 0.36300001 4279186195
0.061437227 0.00091627805 0.36300001 4278988816
0.062443756 0.00091375393 0.36200002 4278726927
0.063619532 0.00091375393 0.36200002 4278859027
0.064795315 0.00091375393 0.36200002 4278860826
0.065971084 0.00091375393 0.36200002 4281558339
0.067146868 0.00091375393 0.36200002 4278860310
0.068322644 0.00091375393 0.36200002 4278926103
0.069498412 0.00091375393 0.36200002 4278794517
0.070869423 0.00091627805 0.36300001 4278926103
0.072048448 0.00091627805 0.36300001 4278794517
0.073227473 0.00091627805 0.36300001 4278662931
0.074611478 0.00091880228 0.36400002 4278991896
0.075793751 0.00091880228 0.36400002 4278728724
0.076976024 0.00091880228 0.36400002 4278662931
0.078158297 0.00091880228 0.36400002 4278991896
0.07934057 0.00091880228 0.36400002 4278926101
0.080522843 0.00091880228 0.36400002 4278926101
0.081705116 0.00091880228 0.36400002 4278728722
0.082887389 0.00091880228 0.36400002 4278729492
0.084069662 0.00091880228 0.36400002 4278729492
0.099843994 0.00095666497 0.37900001 4278992664
0.10107499 0.00095666497 0.37900001 4279058457
0.10230598 0.00095666497 0.37900001 4279190043
0.10353696 0.00095666497 0.37900001 4279058457
0.10449153 0.00095414085 0.37800002 4279124250
0.10571928 0.00095414085 0.37800002 4279584801
0.10694702 0.00095414085 0.37800002 4279124250
0.10817477 0.00095414085 0.37800002 4279519008
0.10940251 0.00095414085 0.37800002 4278992664
0.11063025 0.00095414085 0.37800002 4279255836
0.111858 0.00095414085 0.37800002 4279058459
0.11308575 0.00095414085 0.37800002 4278861080
0.11401107 0.00095161662 0.377 4278795287
0.11523557 0.00095161662 0.377 4278795285
0.11615115 0.00094909244 0.37600002 4278794515
0.11737241 0.00094909244 0.37600002 4278926101
0.11859365 0.00094909244 0.37600002 4278991894
0.1198149 0.00094909244 0.37600002 4278860308
0.12103615 0.00094909244 0.37600002 4278925588
0.12193225 0.00094656833 0.37500003 4278728209
0.12315025 0.00094656833 0.37500003 4279057174
0.12436825 0.00094656833 0.37500003 4278925588
0.12558624 0.00094656833 0.37500003 4278794515
0.12680425 0.00094656833 0.37500003 4278794515
0.12802225 0.00094656833 0.37500003 4278728722
0.12924024 0.00094656833 0.37500003 4278860308
0.13045825 0.00094656833 0.37500003 4278925588
0.13167626 0.00094656833 0.37500003 4279188760
0.13253987 0.00094404409 0.37400001 4278925336
0.13375461 0.00094404409 0.37400001 4278925590
0.13460849 0.00094151992 0.37300003 4278859795
0.13582 0.00094151992 0.37300003 4279188760
0.1370315 0.00094151992 0.37300003 4278794002
0.138243 0.00094151992 0.37300003 4279188760
0.13945451 0.00094151992 0.37300003 4279254553
0.14066602 0.00094151992 0.37300003 4279386141
0.028581148 0.0021072486 0.36500001 4281218583
0.029766668 0.0021072486 0.36500001 4283194951
0.03086739 0.0021014756 0.36400002 4283064135
0.032049663 0.0021014756 0.36400002 4283064137
0.033231933 0.0021014756 0.36400002 4282208058
0.034414209 0.0021014756 0.36400002 4283391037
0.035596479 0.0021014756 0.36400002 4282798385
0.036879793 0.0021072486 0.36500001 4281941536
0.038065314 0.0021072486 0.36500001 4283060787
0.039250832 0.0021072486 0.36500001 4283194174
0.040436354 0.0021072486 0.36500001 4283918412
0.04173591 0.0021130221 0.36600003 4282735685
0.042807397 0.0021072486 0.36500001 4283788121
0.04555979 0.0021823014 0.37800002 4284051293
0.04678753 0.0021823014 0.37800002 4284248672
0.047888249 0.0021765281 0.377 4284117858
0.048982475 0.0021707548 0.37600002 4284184164
0.050070208 0.0021649816 0.37500003 4284249957
0.051151432 0.0021592083 0.37400001 4284184164
0.052226175 0.002153435 0.37300003 4284381543
0.05343768 0.002153435 0.37300003 4284840809
0.054649185 0.002153435 0.37300003 4279574289
0.054962121 0.0021187954 0.36700001 4280034329
0.056001134 0.0021130221 0.36600003 4279904026
0.057033643 0.0021072486 0.36500001 4280496676
0.058059659 0.0021014756 0.36400002 4279577367
0.059241932 0.0021014756 0.36400002 4279709977
0.060258206 0.0020957021 0.36300001 4279053842
0.061437227 0.0020957021 0.36300001 4279317781
0.062616251 0.0020957021 0.36300001 4278595341
0.063619532 0.0020899288 0.36200002 4278727441
0.064795315 0.0020899288 0.36200002 4278860310
0.065971084 0.0020899288 0.36200002 4278465552
0.067146868 0.0020899288 0.36200002 4279124248
0.068322644 0.0020899288 0.36200002 4279058455
0.069690399 0.0020957021 0.36300001 4278729492
0.070869423 0.0020957021 0.36300001 4278991896
0.072048448 0.0020957021 0.36300001 4278728724
0.073227473 0.0020957021 0.36300001 4278728724
0.074406497 0.0020957021 0.36300001 4278860310
0.075585522 0.0020957021 0.36300001 4279123482
0.076764546 0.0020957021 0.36300001 4278926103
0.077943571 0.0020957021 0.36300001 4278794517
0.079122595 0.0020957021 0.36300001 4278991896
0.08030162 0.0020957021 0.36300001 4279123482
0.081705116 0.0021014756 0.36400002 4279189275
0.082887389 0.0021014756 0.36400002 4279123482
0.084069662 0.0021014756 0.36400002 4278992664
0.099843994 0.0021880746 0.37900001 4278663699
0.10107499 0.0021880746 0.37900001 4278729492
0.10203605 0.0021823014 0.37800002 4278465550
0.10326378 0.0021823014 0.37800002 4278926101
0.10393866 0.0021707548 0.37600002 4278926101
0.10515992 0.0021707548 0.37600002 4278399757
0.10638116 0.0021707548 0.37600002 4278860308
0.10788859 0.0021765281 0.377 4278991894
0.10911308 0.0021765281 0.377 4279123480
0.11033757 0.0021765281 0.377 4279189273
0.11156207 0.0021765281 0.377 4278991894
0.11248741 0.0021707548 0.37600002 4279123480
0.11370865 0.0021707548 0.37600002 4278926103
0.11492991 0.0021707548 0.37600002 4279189275
0.11584225 0.0021649816 0.37500003 4279255068
0.11706025 0.0021649816 0.37500003 4279255068
0.11827824 0.0021649816 0.37500003 4279320348
0.11949624 0.0021649816 0.37500003 4279320346
0.12071425 0.0021649816 0.37500003 4279385369
0.12193225 0.0021649816 0.37500003 4279385369
0.12315025 0.0021649816 0.37500003 4279385369
0.12436825 0.0021649816 0.37500003 4279451162
0.12558624 0.0021649816 0.37500003 4279254555
0.12680425 0.0021649816 0.37500003 4279254555
0.12802225 0.0021649816 0.37500003 4279386141
0.12924024 0.0021649816 0.37500003 4279451164
0.13011035 0.0021592083 0.37400001 4279516957
0.13132511 0.0021592083 0.37400001 4279451164
0.13253987 0.0021592083 0.37400001 4279450650
0.13375461 0.0021592083 0.37400001 4279582236
0.13460849 0.002153435 0.37300003 4279385369
0.13582 0.002153435 0.37300003 4279582748
0.1370315 0.002153435 0.37300003 4279516955
0.138243 0.002153435 0.37300003 4279582234
0.13945451 0.002153435 0.37300003 4279911199
0.14066602 0.002153435 0.37300003 4280174373
0.028581148 0.0032931708 0.36500001 4280691469
0.029766668 0.0032931708 0.36500001 4279573256
0.03086739 0.0032841486 0.36400002 4281943857
0.032049663 0.0032841486 0.36400002 4282603586
0.033231933 0.0032841486 0.36400002 4282866756
0.03450875 0.0032931708 0.36500001 4283195721
0.035694271 0.0032931708 0.36500001 4282867010
0.036879793 0.0032931708 0.36500001 4283130695
0.038065314 0.0032931708 0.36500001 4283459660
0.03935837 0.0033021935 0.36600003 4281484587
0.04054714 0.0033021935 0.36600003 4280627999
0.04173591 0.0033021935 0.36600003 4279182100
0.04292468 0.0033021935 0.36600003 4283919709
0.04555979 0.0034104621 0.37800002 4284052063
0.04678753 0.0034104621 0.37800002 4284249444
0.047888249 0.0034014394 0.377 4284249444
0.048982475 0.0033924172 0.37600002 4284315237
0.050070208 0.003383395 0.37500003 4284184164
0.051151432 0.0033743724 0.37400001 4284447336
0.052226175 0.0033653502 0.37300003 4284315750
0.053294413 0.0033563275 0.37200001 4284381543
0.054209646 0.0033382827 0.37 4284115805
0.054962121 0.0033112157 0.36700001 4280100635
0.056154139 0.0033112157 0.36700001 4280101405
0.057189904 0.0033021935 0.36600003 4280365090
0.058219161 0.0032931708 0.36500001 4279314967
0.059404682 0.0032931708 0.36500001 4279513371
0.060424209 0.0032841486 0.36400002 4279185943
0.061606478 0.0032841486 0.36400002 4279251734
0.062616251 0.003275126 0.36300001 4278660621
0.063795276 0.003275126 0.36300001 4278792720
0.064974301 0.003275126 0.36300001 4278794004
0.066153325 0.003275126 0.36300001 4278859797
0.06733235 0.003275126 0.36300001 4278530832
0.068511374 0.003275126 0.36300001 4278596623
0.069690399 0.003275126 0.36300001 4278794515
0.070869423 0.003275126 0.36300001 4278662929
0.072048448 0.003275126 0.36300001 4278597906
0.073227473 0.003275126 0.36300001 4278202891
0.074406497 0.003275126 0.36300001 4278334734
0.0753773 0.0032661038 0.36200002 4278597906
0.076553077 0.0032661038 0.36200002 4278597906
0.077943571 0.003275126 0.36300001 4278860308
0.079122595 0.003275126 0.36300001 4278202378
0.08030162 0.003275126 0.36300001 4278465550
0.081480645 0.003275126 0.36300001 4278399757
0.082659669 0.003275126 0.36300001 4279123480
0.084069662 0.0032841486 0.36400002 4279123480
0.085251927 0.0032841486 0.36400002 4278926101
0.0864342 0.0032841486 0.36400002 4279123480
0.087616481 0.0032841486 0.36400002 4279188760
0.096419267 0.0033021935 0.36600003 4278991896
0.097608037 0.0033021935 0.36600003 4279123482
0.10176611 0.0034014394 0.377 4279255066
0.1029906 0.0034014394 0.377 4279123480
0.1033858 0.0033743724 0.37400001 4279189271
0.10460055 0.0033743724 0.37400001 4279123478
0.10581531 0.0033743724 0.37400001 4279188760
0.10731624 0.003383395 0.37500003 4279188760
0.10853425 0.003383395 0.37500003 4279385369
0.10975224 0.003383395 0.37500003 4279385369
0.11097024 0.003383395 0.37500003 4279187990
0.11218824 0.003383395 0.37500003 4279319576
0.11310382 0.0033743724 0.37400001 4279451164
0.11431857 0.0033743724 0.37400001 4279516957
0.11553333 0.0033743724 0.37400001 4279319578
0.11674809 0.0033743724 0.37400001 4279187992
0.11796283 0.0033743724 0.37400001 4279319578
0.11917758 0.0033743724 0.37400001 4279319064
0.12039234 0.0033743724 0.37400001 4279516443
0.12160709 0.0033743724 0.37400001 4279319064
0.12282185 0.0033743724 0.37400001 4279450650
0.1240366 0.0033743724 0.37400001 4279187478
0.12525134 0.0033743724 0.37400001 4279647516
0.1264661 0.0033743724 0.37400001 4279384344
0.12768085 0.0033743724 0.37400001 4279055125
0.12889561 0.0033743724 0.37400001 4278857746
0.13011035 0.0033743724 0.37400001 4278856463
0.13132511 0.0033743724 0.37400001 4278198019
0.13253987 0.0033743724 0.37400001 4279712539
0.13339698 0.0033653502 0.37300003 4279647516
0.13460849 0.0033653502 0.37300003 4279582236
0.13582 0.0033653502 0.37300003 4279582750
0.1370315 0.0033653502 0.37300003 4279779615
0.138243 0.0033653502 0.37300003 4279779615
0.13945451 0.0033653502 0.37300003 4280304676
0.14066602 0.0033653502 0.37300003 4281092395
0.03086739 0.0044668219 0.36400002 4280888598
0.032049663 0.0044668219 0.36400002 4280889370
0.033323228 0.0044790935 0.36500001 4280626714
0.03450875 0.0044790935 0.36500001 4280824860
0.035694271 0.0044790935 0.36500001 4280232723
0.036879793 0.0044790935 0.36500001 4279641356
0.038169604 0.004491365 0.36600003 4279837965
0.03935837 0.004491365 0.36600003 4280035090
0.04054714 0.004491365 0.36600003 4280100885
0.04173591 0.004491365 0.36600003 4278523148
0.04292468 0.004491365 0.36600003 4284315496
0.04555979 0.004638623 0.37800002 4284184164
0.04678753 0.004638623 0.37800002 4284249957
0.047888249 0.0046263509 0.377 4284249957
0.048852205 0.0046018083 0.37500003 4284447336
0.049936686 0.0045895367 0.37400001 4284513129
0.051151432 0.0045895367 0.37400001 4284513129
0.052226175 0.0045772656 0.37300003 4283920992
0.053151149 0.0045527224 0.37100002 4284315750
0.054209646 0.0045404509 0.37 4284447336
0.055111885 0.0045159082 0.36800003 4280695339
0.056154139 0.0045036362 0.36700001 4280298784
0.057189904 0.004491365 0.36600003 4279904537
0.05837867 0.004491365 0.36600003 4279578650
0.059404682 0.0044790935 0.36500001 4279513111
0.060590208 0.0044790935 0.36500001 4279382807
0.061606478 0.0044668219 0.36400002 4278988562
0.062788747 0.0044668219 0.36400002 4278858000
0.063971028 0.0044668219 0.36400002 4279121172
0.065153301 0.0044668219 0.36400002 4279187992
0.066153325 0.0044545503 0.36300001 4279319578
0.06733235 0.0044545503 0.36300001 4279320348
0.068511374 0.0044545503 0.36300001 4279320348
0.069690399 0.0044545503 0.36300001 4279123482
0.070869423 0.0044545503 0.36300001 4279123482
0.072048448 0.0044545503 0.36300001 4278926103
0.073025748 0.0044422788 0.36200002 4278991896
0.074201524 0.0044422788 0.36200002 4278992666
0.0753773 0.0044422788 0.36200002 4278795287
0.076553077 0.0044422788 0.36200002 4279057174
0.077728853 0.0044422788 0.36200002 4279188760
0.078904629 0.0044422788 0.36200002 4278925588
0.080080412 0.0044422788 0.36200002 4278859797
0.081480645 0.0044545503 0.36300001 4279056406
0.082659669 0.0044545503 0.36300001 4279122199
0.083838694 0.0044545503 0.36300001 4279319576
0.085017718 0.0044545503 0.36300001 4279122197
0.0864342 0.0044668219 0.36400002 4279187992
0.087616481 0.0044668219 0.36400002 4279319578
0.088798746 0.0044668219 0.36400002 4279122199
0.090228222 0.0044790935 0.36500001 4279188762
0.091413736 0.0044790935 0.36500001 4279188762
0.092599258 0.0044790935 0.36500001 4279254555
0.093784779 0.0044790935 0.36500001 4279450650
0.094970301 0.0044790935 0.36500001 4279516443
0.096419267 0.004491365 0.36600003 4279450650
0.097608037 0.004491365 0.36600003 4279516443
0.099066742 0.0045036362 0.36700001 4279516443
0.10053194 0.0045159082 0.36800003 4279319578
0.1025565 0.0045527224 0.37100002 4279516957
0.10404119 0.0045649935 0.37200001 4279385371
0.10524945 0.0045649935 0.37200001 4279516443
0.1064577 0.0045649935 0.37200001 4279647516
0.1079554 0.0045772656 0.37300003 4279647516
0.10916689 0.0045772656 0.37300003 4279186195
0.11037839 0.0045772656 0.37300003 4279252758
0.1115899 0.0045772656 0.37300003 4278397195
0.11280141 0.0045772656 0.37300003 4278461707
0.11401291 0.0045772656 0.37300003 4278395914
0.11522442 0.0045772656 0.37300003 4278198278
0.11643593 0.0045772656 0.37300003 4278330121
0.11764742 0.0045772656 0.37300003 4278790672
0.11885893 0.0045772656 0.37300003 4278330121
0.12007044 0.0045772656 0.37300003 4278988051
0.12128194 0.0045772656 0.37300003 4279053842
0.12282185 0.0045895367 0.37400001 4279317268
0.1240366 0.0045895367 0.37400001 4279580440
0.12525134 0.0045895367 0.37400001 4279711772
0.1264661 0.0045895367 0.37400001 4280238116
0.12768085 0.0045895367 0.37400001 4279843358
0.12889561 0.0045895367 0.37400001 4279843358
0.13011035 0.0045895367 0.37400001 4279711772
0.13132511 0.0045895367 0.37400001 4278920720
0.13218549 0.0045772656 0.37300003 4279975198
0.13339698 0.0045772656 0.37300003 4279713309
0.13460849 0.0045772656 0.37300003 4279647516
0.13582 0.0045772656 0.37300003 4279779102
0.1370315 0.0045772656 0.37300003 4279844895
0.138243 0.0045772656 0.37300003 4280108067
0.13945451 0.0045772656 0.37300003 4280764460
0.033323228 0.0056650154 0.36500001 4281480733
0.03450875 0.0056650154 0.36500001 4280625424
0.035694271 0.0056650154 0.36500001 4280297233
0.036879793 0.0056650154 0.36500001 4280297233
0.038169604 0.0056805364 0.36600003 4280297233
0.03935837 0.0056805364 0.36600003 4279968786
0.04555979 0.0058667837 0.37800002 4283855713
0.04678753 0.0058667837 0.37800002 4283921506
0.047761224 0.0058357422 0.37600002 4284118631
0.048852205 0.0058202217 0.37500003 4284316010
0.049936686 0.0058047008 0.37400001 4284513643
0.051014666 0.0057891808 0.37300003 4284316264
0.052086156 0.0057736598 0.37200001 4284316264
0.053151149 0.0057581393 0.37100002 4284184678
0.054209646 0.0057426183 0.37 4284118885
0.055111885 0.0057115778 0.36800003 4284183910
0.056307152 0.0057115778 0.36800003 4280036639
0.057346158 0.0056960569 0.36700001 4279379477
0.05837867 0.0056805364 0.36600003 4279579164
0.05956744 0.0056805364 0.36600003 4279382037
0.06075621 0.0056805364 0.36600003 4279251734
0.061775722 0.0056650154 0.36500001 4278988562
0.062961243 0.0056650154 0.36500001 4279055125
0.064146765 0.0056650154 0.36500001 4279055892
0.065153301 0.0056494954 0.36400002 4279122199
0.066335566 0.0056494954 0.36400002 4279385371
0.067517839 0.0056494954 0.36400002 4279648543
0.06870012 0.0056494954 0.36400002 4279450910
0.069882385 0.0056494954 0.36400002 4278990359
0.070869423 0.0056339744 0.36300001 4279187738
0.072048448 0.0056339744 0.36300001 4279385371
0.073025748 0.005618454 0.36200002 4279122199
0.074201524 0.005618454 0.36200002 4279187992
0.0753773 0.005618454 0.36200002 4279122199
0.076553077 0.005618454 0.36200002 4279056404
0.077728853 0.005618454 0.36200002 4279187990
0.078904629 0.005618454 0.36200002 4278264839
0.080080412 0.005618454 0.36200002 4279514393
0.081256181 0.005618454 0.36200002 4278595089
0.082659669 0.0056339744 0.36300001 4279187738
0.083838694 0.0056339744 0.36300001 4279319576
0.085017718 0.0056339744 0.36300001 4279648027
0.0864342 0.0056494954 0.36400002 4280173858
0.087616481 0.0056494954 0.36400002 4279252504
0.088798746 0.0056494954 0.36400002 4279055125
0.090228222 0.0056650154 0.36500001 4279055125
0.091413736 0.0056650154 0.36500001 4278922769
0.092599258 0.0056650154 0.36500001 4278593806
0.093784779 0.0056650154 0.36500001 4278198278
0.094970301 0.0056650154 0.36500001 4278198021
0.096419267 0.0056805364 0.36600003 4278461707
0.097608037 0.0056805364 0.36600003 4278328837
0.099066742 0.0056960569 0.36700001 4279251221
0.10025875 0.0056960569 0.36700001 4278593804
0.10200363 0.0057270983 0.36900002 4279383320
0.10348183 0.0057426183 0.37 4279053844
0.10468359 0.0057426183 0.37 4279448602
0.10617153 0.0057581393 0.37100002 4279843358
0.10737655 0.0057581393 0.37100002 4279777565
0.10858154 0.0057581393 0.37100002 4279580186
0.10978656 0.0057581393 0.37100002 4279711772
0.11099156 0.0057581393 0.37100002 4279843358
0.11249898 0.0057736598 0.37200001 4280040737
0.11370724 0.0057736598 0.37200001 4279843358
0.11491551 0.0057736598 0.37200001 4279843358
0.11612376 0.0057736598 0.37200001 4279974944
0.11733201 0.0057736598 0.37200001 4279778078
0.11885893 0.0057891808 0.37300003 4279646492
0.12007044 0.0057891808 0.37300003 4279515160
0.12128194 0.0057891808 0.37300003 4279909918
0.12249345 0.0057891808 0.37300003 4279975198
0.12370495 0.0057891808 0.37300003 4279777819
0.12491645 0.0057891808 0.37300003 4279449367
0.12612796 0.0057891808 0.37300003 4278857230
0.12733947 0.0057891808 0.37300003 4279646492
0.12855096 0.0057891808 0.37300003 4279646492
0.12976247 0.0057891808 0.37300003 4279381525
0.13097398 0.0057891808 0.37300003 4279314965
0.13218549 0.0057891808 0.37300003 4279712026
0.13339698 0.0057891808 0.37300003 4279909918
0.13460849 0.0057891808 0.37300003 4279975711
0.13582 0.0057891808 0.37300003 4279779102
0.1370315 0.0057891808 0.37300003 4280042274
0.138243 0.0057891808 0.37300003 4279975711
0.047634203 0.0070386352 0.37500003 4284184426
0.048721932 0.0070198653 0.37400001 4284250219
0.049803168 0.0070010959 0.37300003 4284250217
0.050877895 0.006982326 0.37200001 4284184424
0.051946141 0.0069635562 0.37100002 4284316010
0.053007882 0.0069447863 0.37 4284579182
0.054063134 0.0069260169 0.36900002 4284316010
0.055111885 0.0069072475 0.36800003 4285236852
0.056307152 0.0069072475 0.36800003 4278524681
0.057346158 0.0068884776 0.36700001 4279117588
0.058538172 0.0068884776 0.36700001 4279382039
0.059730191 0.0068884776 0.36700001 4279447830
0.06075621 0.0068697082 0.36600003 4279185941
0.061944973 0.0068697082 0.36600003 4278791955
0.063133746 0.0068697082 0.36600003 4279120918
0.064322516 0.0068697082 0.36600003 4279253017
0.065332286 0.0068509378 0.36500001 4279187738
0.066517808 0.0068509378 0.36500001 4279648289
0.067703329 0.0068509378 0.36500001 4279582496
0.06870012 0.0068321684 0.36400002 4279385117
0.069882385 0.0068321684 0.36400002 4279122199
0.071064658 0.0068321684 0.36400002 4279187992
0.072048448 0.0068133986 0.36300001 4279056406
0.073227473 0.0068133986 0.36300001 4279319578
0.074201524 0.0067946292 0.36200002 4279122199
0.0753773 0.0067946292 0.36200002 4279122199
0.076553077 0.0067946292 0.36200002 4279187992
0.077728853 0.0067946292 0.36200002 4279056406
0.078904629 0.0067946292 0.36200002 4279053844
0.080080412 0.0067946292 0.36200002 4279711004
0.081256181 0.0067946292 0.36200002 4279581471
0.082659669 0.0068133986 0.36300001 4279055127
0.083838694 0.0068133986 0.36300001 4278525449
0.085251927 0.0068321684 0.36400002 4278656267
0.0864342 0.0068321684 0.36400002 4278853133
0.087616481 0.0068321684 0.36400002 4278983949
0.089042693 0.0068509378 0.36500001 4278852365
0.090228222 0.0068509378 0.36500001 4278983951
0.091413736 0.0068509378 0.36500001 4278983951
0.092599258 0.0068509378 0.36500001 4278983951
0.093784779 0.0068509378 0.36500001 4278852365
0.094970301 0.0068509378 0.36500001 4278983951
0.096419267 0.0068697082 0.36600003 4278983951
0.097608037 0.0068697082 0.36600003 4279181330
0.098796807 0.0068697082 0.36600003 4279711774
0.10025875 0.0068884776 0.36700001 4279384090
0.10172721 0.0069072475 0.36800003 4279317527
0.10320215 0.0069260169 0.36900002 4278789902
0.10440066 0.0069260169 0.36900002 4278329097
0.10588535 0.0069447863 0.37 4279777567
0.10708711 0.0069447863 0.37 4278395914
0.10828886 0.0069447863 0.37 4279119637
0.10949063 0.0069447863 0.37 4278330121
0.11069239 0.0069447863 0.37 4279119637
0.11219657 0.0069635562 0.37100002 4280238118
0.11340158 0.0069635562 0.37100002 4279777567
0.1146066 0.0069635562 0.37100002 4279119635
0.1158116 0.0069635562 0.37100002 4279053842
0.11733201 0.006982326 0.37200001 4278658316
0.11854026 0.006982326 0.37200001 4279513111
0.11974853 0.006982326 0.37200001 4279578902
0.12128194 0.0070010959 0.37300003 4279973660
0.12249345 0.0070010959 0.37300003 4279710490
0.12370495 0.0070010959 0.37300003 4279644697
0.12491645 0.0070010959 0.37300003 4279578904
0.12612796 0.0070010959 0.37300003 4278263558
0.12733947 0.0070010959 0.37300003 4279843358
0.12855096 0.0070010959 0.37300003 4279974946
0.12976247 0.0070010959 0.37300003 4279184146
0.13097398 0.0070010959 0.37300003 4280105760
0.13218549 0.0070010959 0.37300003 4279975711
0.13339698 0.0070010959 0.37300003 4279909918
0.13460849 0.0070010959 0.37300003 4280042274
0.13582 0.0070010959 0.37300003 4280042274
0.1370315 0.0070010959 0.37300003 4280304676
0.047507178 0.0082350289 0.37400001 4284184424
0.048591658 0.0082130106 0.37300003 4284184424
0.049536124 0.008168973 0.37100002 4284316010
0.050741129 0.008168973 0.37100002 4284184424
0.051806122 0.0081469538 0.37 4284513389
0.053007882 0.0081469538 0.37 4284513389
0.054063134 0.0081249354 0.36900002 4284513389
0.055111885 0.0081029171 0.36800003 4284644975
0.056307152 0.0081029171 0.36800003 4280565034
0.057502419 0.0081029171 0.36800003 4279381273
0.058538172 0.0080808979 0.36700001 4279447830
0.059730191 0.0080808979 0.36700001 4279382807
0.060922209 0.0080808979 0.36700001 4278923539
0.06211422 0.0080808979 0.36700001 4279186711
0.063306242 0.0080808979 0.36700001 4279186711
0.064322516 0.0080588795 0.36600003 4279450396
0.065511286 0.0080588795 0.36600003 4278858773
0.066700049 0.0080588795 0.36600003 4279648289
0.067703329 0.0080368603 0.36500001 4279582750
0.068888851 0.0080368603 0.36500001 4279056406
0.070074365 0.0080368603 0.36500001 4279253271
0.071064658 0.0080148419 0.36400002 4279319064
0.072246931 0.0080148419 0.36400002 4279385369
0.073227473 0.0079928227 0.36300001 4279122197
0.074406497 0.0079928227 0.36300001 4279450650
0.0753773 0.0079708034 0.36200002 4279450650
0.076553077 0.0079708034 0.36200002 4279516443
0.077728853 0.0079708034 0.36200002 4279120920
0.078904629 0.0079708034 0.36200002 4278657035
0.080080412 0.0079708034 0.36200002 4280236834
0.081480645 0.0079928227 0.36300001 4279448602
0.082659669 0.0079928227 0.36300001 4278657550
0.083838694 0.0079928227 0.36300001 4278853133
0.085251927 0.0080148419 0.36400002 4278852363
0.0864342 0.0080148419 0.36400002 4279444500
0.087616481 0.0080148419 0.36400002 4279773465
0.089042693 0.0080368603 0.36500001 4279641879
0.090228222 0.0080368603 0.36500001 4279641879
0.091413736 0.0080368603 0.36500001 4280102432
0.092599258 0.0080368603 0.36500001 4279181330
0.093784779 0.0080368603 0.36500001 4279312916
0.095230497 0.0080588795 0.36600003 4279773467
0.096419267 0.0080588795 0.36600003 4279049742
0.097608037 0.0080588795 0.36600003 4279840541
0.099066742 0.0080808979 0.36700001 4279712287
0.10025875 0.0080808979 0.36700001 4278856465
0.10172721 0.0081029171 0.36800003 4279050512
0.10292247 0.0081029171 0.36800003 4279378195
0.10440066 0.0081249354 0.36900002 4278853646
0.10559918 0.0081249354 0.36900002 4278854927
0.1067977 0.0081249354 0.36900002 4279908901
0.1079962 0.0081249354 0.36900002 4279250969
0.10949063 0.0081469538 0.37 4279909153
0.11069239 0.0081469538 0.37 4278922004
0.11189415 0.0081469538 0.37 4278856465
0.11309592 0.0081469538 0.37 4279383322
0.11429767 0.0081469538 0.37 4279580186
0.1158116 0.008168973 0.37100002 4279119635
0.11701661 0.008168973 0.37100002 4279842588
0.11822161 0.008168973 0.37100002 4279842588
0.11974853 0.0081909914 0.37200001 4280171555
0.12095679 0.0081909914 0.37200001 4280039969
0.12216504 0.0081909914 0.37200001 4280105762
0.12370495 0.0082130106 0.37300003 4279974176
0.12491645 0.0082130106 0.37300003 4280368934
0.12612796 0.0082130106 0.37300003 4279842590
0.12733947 0.0082130106 0.37300003 4279579418
0.12855096 0.0082130106 0.37300003 4278920972
0.12976247 0.0082130106 0.37300003 4279974428
0.13097398 0.0082130106 0.37300003 4280040991
0.13218549 0.0082130106 0.37300003 4279909918
0.13339698 0.0082130106 0.37300003 4280107043
0.13460849 0.0082130106 0.37300003 4280172836
0.13582 0.0082130106 0.37300003 4279908381
0.048461385 0.0093996571 0.37200001 4284118885
0.049402602 0.0093491217 0.37 4284250471
0.050604358 0.0093491217 0.37 4284316264
0.051666107 0.009323854 0.36900002 4284513643
0.052864619 0.009323854 0.36900002 4284579436
0.054063134 0.009323854 0.36900002 4284579182
0.055111885 0.0092985863 0.36800003 4284513389
0.056307152 0.0092985863 0.36800003 4285171319
0.057502419 0.0092985863 0.36800003 4279315482
0.058697678 0.0092985863 0.36800003 4279317016
0.059892945 0.0092985863 0.36800003 4279317527
0.061088212 0.0092985863 0.36800003 4279384090
0.06211422 0.0092733176 0.36700001 4279187224
0.063306242 0.0092733176 0.36700001 4279121431
0.064498261 0.0092733176 0.36700001 4279450396
0.065690279 0.0092733176 0.36700001 4279845668
0.066700049 0.0092480499 0.36600003 4279779875
0.067888819 0.0092480499 0.36600003 4279385371
0.068888851 0.0092227822 0.36500001 4279319578
0.070074365 0.0092227822 0.36500001 4279319578
0.071064658 0.0091975145 0.36400002 4279319064
0.072246931 0.0091975145 0.36400002 4279450650
0.073227473 0.0091722459 0.36300001 4279253271
0.074406497 0.0091722459 0.36300001 4279187478
0.075585522 0.0091722459 0.36300001 4279318810
0.076553077 0.0091469781 0.36200002 4279450396
0.077728853 0.0091469781 0.36200002 4278725138
0.079122595 0.0091722459 0.36300001 4279709723
0.08030162 0.0091722459 0.36300001 4280039967
0.081480645 0.0091722459 0.36300001 4279447832
0.082659669 0.0091722459 0.36300001 4278787853
0.084069662 0.0091975145 0.36400002 4279641879
0.085251927 0.0091975145 0.36400002 4279576086
0.0864342 0.0091975145 0.36400002 4279641879
0.087616481 0.0091975145 0.36400002 4280168223
0.089042693 0.0092227822 0.36500001 4279246607
0.090228222 0.0092227822 0.36500001 4280167709
0.091413736 0.0092227822 0.36500001 4279049744
0.092599258 0.0092227822 0.36500001 4279707674
0.094041727 0.0092480499 0.36600003 4279840543
0.095230497 0.0092480499 0.36600003 4279511578
0.096419267 0.0092480499 0.36600003 4278853648
0.097608037 0.0092480499 0.36600003 4280039201
0.099066742 0.0092733176 0.36700001 4279777567
0.10025875 0.0092733176 0.36700001 4279315732
0.10172721 0.0092985863 0.36800003 4279510291
0.10292247 0.0092985863 0.36800003 4280365602
0.10411774 0.0092985863 0.36800003 4280104481
0.105313 0.0092985863 0.36800003 4280236580
0.1067977 0.009323854 0.36900002 4280039969
0.1079962 0.009323854 0.36900002 4279973662
0.10919471 0.009323854 0.36900002 4279645211
0.11039323 0.009323854 0.36900002 4279447832
0.11189415 0.0093491217 0.37 4279118867
0.11309592 0.0093491217 0.37 4279118867
0.11429767 0.0093491217 0.37 4278921488
0.11549944 0.0093491217 0.37 4278329349
0.11701661 0.0093743894 0.37100002 4279118351
0.11822161 0.0093743894 0.37100002 4279184144
0.11974853 0.0093996571 0.37200001 4279315732
0.12095679 0.0093996571 0.37200001 4279776283
0.12216504 0.0093996571 0.37200001 4280368680
0.1233733 0.0093996571 0.37200001 4280302887
0.12491645 0.0094249258 0.37300003 4280895278
0.12612796 0.0094249258 0.37300003 4280566313
0.12733947 0.0094249258 0.37300003 4280894764
0.12855096 0.0094249258 0.37300003 4280894764
0.12976247 0.0094249258 0.37300003 4280500258
0.13097398 0.0094249258 0.37300003 4280302366
0.13218549 0.0094249258 0.37300003 4280434213
0.13339698 0.0094249258 0.37300003 4282078271
0.13460849 0.0094249258 0.37300003 4285366640
0.049269084 0.010522773 0.36900002 4284250471
0.050467592 0.010522773 0.36900002 4284513643
0.051666107 0.010522773 0.36900002 4284513643
0.052864619 0.010522773 0.36900002 4284579436
0.053916626 0.010494256 0.36800003 4284644975
0.055111885 0.010494256 0.36800003 4284579182
0.056307152 0.010494256 0.36800003 4284381803
0.057502419 0.010494256 0.36800003 4283592541
0.058697678 0.010494256 0.36800003 4279119637
0.059892945 0.010494256 0.36800003 4279252506
0.061088212 0.010494256 0.36800003 4279121431
0.062283471 0.010494256 0.36800003 4279121431
0.063478738 0.010494256 0.36800003 4279253017
0.064498261 0.010465739 0.36700001 4279647775
0.065690279 0.010465739 0.36700001 4279845668
0.06688229 0.010465739 0.36700001 4279450910
0.067888819 0.010437222 0.36600003 4279319324
0.069077589 0.010437222 0.36600003 4279056406
0.070074365 0.010408705 0.36500001 4279056406
0.071259893 0.010408705 0.36500001 4279056406
0.072246931 0.010380188 0.36400002 4279451164
0.073429205 0.010380188 0.36400002 4279319578
0.074406497 0.010351671 0.36300001 4279122199
0.075585522 0.010351671 0.36300001 4279319578
0.076764546 0.010351671 0.36300001 4279515678
0.077943571 0.010351671 0.36300001 4278394378
0.079122595 0.010351671 0.36300001 4279184660
0.08030162 0.010351671 0.36300001 4279711772
0.081480645 0.010351671 0.36300001 4278459656
0.082659669 0.010351671 0.36300001 4279049744
0.084069662 0.010380188 0.36400002 4279115023
0.085251927 0.010380188 0.36400002 4279180816
0.0864342 0.010380188 0.36400002 4279115023
0.087857179 0.010408705 0.36500001 4279246609
0.089042693 0.010408705 0.36500001 4279246096
0.090228222 0.010408705 0.36500001 4279377682
0.091413736 0.010408705 0.36500001 4279180816
0.092852958 0.010437222 0.36600003 4279246609
0.094041727 0.010437222 0.36600003 4279115537
0.095230497 0.010437222 0.36600003 4278720779
0.096419267 0.010437222 0.36600003 4279512859
0.097874723 0.010465739 0.36700001 4278658832
0.099066742 0.010465739 0.36700001 4278263304
0.10025875 0.010465739 0.36700001 4278658316
0.10145077 0.010465739 0.36700001 4279513111
0.10292247 0.010494256 0.36800003 4279315732
0.10411774 0.010494256 0.36800003 4280039455
0.105313 0.010494256 0.36800003 4280565797
0.10650827 0.010494256 0.36800003 4280434211
0.1079962 0.010522773 0.36900002 4280303139
0.10919471 0.010522773 0.36900002 4279908381
0.11039323 0.010522773 0.36900002 4280039967
0.11159174 0.010522773 0.36900002 4280171553
0.11309592 0.01055129 0.37 4280171553
0.11429767 0.01055129 0.37 4280171807
0.11549944 0.01055129 0.37 4280106014
0.11670119 0.01055129 0.37 4280434979
0.11822161 0.010579807 0.37100002 4280303139
0.11942662 0.010579807 0.37100002 4280171553
0.12095679 0.010608324 0.37200001 4280500518
0.12216504 0.010608324 0.37200001 4280039453
0.1233733 0.010608324 0.37200001 4280565284
0.12491645 0.010636841 0.37300003 4282144318
0.12612796 0.010636841 0.37300003 4283788889
0.12733947 0.010636841 0.37300003 4285762681
0.049269084 0.011721692 0.36900002 4284381803
0.050330825 0.011689926 0.36800003 4284579182
0.051526092 0.011689926 0.36800003 4284513389
0.052721359 0.011689926 0.36800003 4284579182
0.053916626 0.011689926 0.36800003 4284710254
0.055111885 0.011689926 0.36800003 4284776047
0.056307152 0.011689926 0.36800003 4284579182
0.057502419 0.011689926 0.36800003 4284381803
0.058697678 0.011689926 0.36800003 4281420854
0.059892945 0.011689926 0.36800003 4279777567
0.061088212 0.011689926 0.36800003 4279187224
0.062283471 0.011689926 0.36800003 4279450396
0.063478738 0.011689926 0.36800003 4279319324
0.064674005 0.011689926 0.36800003 4279516703
0.065869272 0.011689926 0.36800003 4279976740
0.06688229 0.01165816 0.36700001 4279648029
0.068074308 0.01165816 0.36700001 4279451164
0.069077589 0.011626394 0.36600003 4279187992
0.070266359 0.011626394 0.36600003 4279187992
0.071259893 0.011594627 0.36500001 4279319064
0.072445415 0.011594627 0.36500001 4279253271
0.073429205 0.011562862 0.36400002 4279187478
0.074611478 0.011562862 0.36400002 4279516189
0.075585522 0.011531095 0.36300001 4279516189
0.076764546 0.011531095 0.36300001 4279448602
0.077943571 0.011531095 0.36300001 4279381785
0.079122595 0.011531095 0.36300001 4279580186
0.080522843 0.011562862 0.36400002 4279317014
0.081705116 0.011562862 0.36400002 4279579164
0.082887389 0.011562862 0.36400002 4279314967
0.084069662 0.011562862 0.36400002 4279906334
0.085251927 0.011562862 0.36400002 4280037920
0.0864342 0.011562862 0.36400002 4280499239
0.087857179 0.011594627 0.36500001 4280104481
0.089042693 0.011594627 0.36500001 4280301860
0.090228222 0.011594627 0.36500001 4280170274
0.091413736 0.011594627 0.36500001 4280302373
0.092852958 0.011626394 0.36600003 4280039715
0.094041727 0.011626394 0.36600003 4279843106
0.095230497 0.011626394 0.36600003 4279974946
0.096419267 0.011626394 0.36600003 4280172836
0.097874723 0.01165816 0.36700001 4279975457
0.099066742 0.01165816 0.36700001 4279909666
0.10025875 0.01165816 0.36700001 4279975459
0.10172721 0.011689926 0.36800003 4280107045
0.10292247 0.011689926 0.36800003 4280107045
0.10411774 0.011689926 0.36800003 4280040737
0.105313 0.011689926 0.36800003 4279843358
0.10650827 0.011689926 0.36800003 4280303139
0.10770353 0.011689926 0.36800003 4279842588
0.10919471 0.011721692 0.36900002 4279974174
0.11039323 0.011721692 0.36900002 4280566313
0.11159174 0.011721692 0.36900002 4280500520
0.11279026 0.011721692 0.36900002 4281684280
0.11429767 0.011753458 0.37 4283328851
0.11549944 0.011753458 0.37 4284382057
0.11670119 0.011753458 0.37 4285631608
0.11822161 0.011785224 0.37100002 4286288253
0.11942662 0.011785224 0.37100002 4286090874
0.12063164 0.011785224 0.37100002 4285959288
0.12216504 0.011816991 0.37200001 4285959290
0.1233733 0.011816991 0.37200001 4285894267
0.12458155 0.011816991 0.37200001 4286157441
0.12578981 0.011816991 0.37200001 4285960062
0.12976247 0.011848757 0.37300003 4286157441
0.047940299 0.012885596 0.36800003 4284447082
0.049135566 0.012885596 0.36800003 4284579182
0.050330825 0.012885596 0.36800003 4284513389
0.051526092 0.012885596 0.36800003 4284710768
0.052721359 0.012885596 0.36800003 4284644975
0.053916626 0.012885596 0.36800003 4284644975
0.055111885 0.012885596 0.36800003 4284644975
0.056307152 0.012885596 0.36800003 4284579182
0.057502419 0.012885596 0.36800003 4284644975
0.058697678 0.012885596 0.36800003 4284842094
0.059892945 0.012885596 0.36800003 4281223989
0.061088212 0.012885596 0.36800003 4279121433
0.062283471 0.012885596 0.36800003 4279385119
0.063478738 0.012885596 0.36800003 4279385117
0.064674005 0.012885596 0.36800003 4279845668
0.065869272 0.012885596 0.36800003 4279516703
0.06688229 0.01285058 0.36700001 4279385117
0.068074308 0.01285058 0.36700001 4279451164
0.069266327 0.01285058 0.36700001 4279451164
0.070266359 0.012815565 0.36600003 4279187992
0.071259893 0.012780549 0.36500001 4279451164
0.072445415 0.012780549 0.36500001 4279385371
0.073429205 0.012745535 0.36400002 4279516957
0.074611478 0.012745535 0.36400002 4279319324
0.075793751 0.012745535 0.36400002 4279056152
0.076976024 0.012745535 0.36400002 4279184660
0.078158297 0.012745535 0.36400002 4279053074
0.07934057 0.012745535 0.36400002 4279843873
0.080522843 0.012745535 0.36400002 4279844643
0.081705116 0.012745535 0.36400002 4279778850
0.082887389 0.012745535 0.36400002 4279843873
0.084069662 0.012745535 0.36400002 4279974946
0.085251927 0.012745535 0.36400002 4280238118
0.086671658 0.012780549 0.36500001 4279974946
0.087857179 0.012780549 0.36500001 4280040737
0.089042693 0.012780549 0.36500001 4280238116
0.090228222 0.012780549 0.36500001 4279909151
0.091664188 0.012815565 0.36600003 4279580186
0.092852958 0.012815565 0.36600003 4280040737
0.094041727 0.012815565 0.36600003 4279909666
0.095230497 0.012815565 0.36600003 4279778080
0.096682705 0.01285058 0.36700001 4280238631
0.097874723 0.01285058 0.36700001 4279843873
0.099066742 0.01285058 0.36700001 4280501290
0.10025875 0.01285058 0.36700001 4281159220
0.10172721 0.012885596 0.36800003 4281553724
0.10292247 0.012885596 0.36800003 4283263572
0.10411774 0.012885596 0.36800003 4284053862
0.105313 0.012885596 0.36800003 4285435515
0.10650827 0.012885596 0.36800003 4286224261
0.10770353 0.012885596 0.36800003 4286421638
0.10919471 0.012920611 0.36900002 4286026364
0.11039323 0.012920611 0.36900002 4285763192
0.11159174 0.012920611 0.36900002 4285828987
0.11279026 0.012920611 0.36900002 4285763194
0.11398876 0.012920611 0.36900002 4285828474
0.11549944 0.012955626 0.37 4285828474
0.11670119 0.012955626 0.37 4285959292
0.11790295 0.012955626 0.37 4285959292
0.11942662 0.012990641 0.37100002 4286090878
0.12063164 0.012990641 0.37100002 4286025085
0.12216504 0.013025655 0.37200001 4286025085
0.1233733 0.013025655 0.37200001 4286419843
0.049135566 0.014081265 0.36800003 4284250987
0.050330825 0.014081265 0.36800003 4284448368
0.051526092 0.014081265 0.36800003 4284579954
0.052721359 0.014081265 0.36800003 4284579954
0.053916626 0.014081265 0.36800003 4284514161
0.055111885 0.014081265 0.36800003 4284514161
0.056307152 0.014081265 0.36800003 4284579182
0.057502419 0.014081265 0.36800003 4284579182
0.058697678 0.014081265 0.36800003 4284579182
0.059892945 0.014081265 0.36800003 4284184676
0.061088212 0.014081265 0.36800003 4284053090
0.062283471 0.014081265 0.36800003 4279646240
0.063478738 0.014081265 0.36800003 4279713570
0.064674005 0.014081265 0.36800003 4279976740
0.065869272 0.014081265 0.36800003 4279910947
0.067064531 0.014081265 0.36800003 4279713568
0.068074308 0.014043001 0.36700001 4279582236
0.069266327 0.014043001 0.36700001 4279648029
0.070266359 0.014004736 0.36600003 4279713309
0.071455128 0.014004736 0.36600003 4279647775
0.072445415 0.013966472 0.36500001 4279713568
0.073630929 0.013966472 0.36500001 4279779363
0.074611478 0.013928208 0.36400002 4279778850
0.075793751 0.013928208 0.36400002 4279778080
0.076976024 0.013928208 0.36400002 4279514393
0.078158297 0.013928208 0.36400002 4279448600
0.07934057 0.013928208 0.36400002 4279251736
0.080522843 0.013928208 0.36400002 4279712033
0.081705116 0.013928208 0.36400002 4280106791
0.082887389 0.013928208 0.36400002 4281290554
0.084069662 0.013928208 0.36400002 4282079298
0.085251927 0.013928208 0.36400002 4283197779
0.086671658 0.013966472 0.36500001 4284381539
0.087857179 0.013966472 0.36500001 4285171309
0.089042693 0.013966472 0.36500001 4285434741
0.090475425 0.014004736 0.36600003 4285697915
0.091664188 0.014004736 0.36600003 4286026882
0.092852958 0.014004736 0.36600003 4285763708
0.094041727 0.014004736 0.36600003 4285237364
0.095490687 0.014043001 0.36700001 4285697915
0.096682705 0.014043001 0.36700001 4285566329
0.097874723 0.014043001 0.36700001 4285500536
0.099066742 0.014043001 0.36700001 4285434229
0.10053194 0.014081265 0.36800003 4285631610
0.10172721 0.014081265 0.36800003 4285631610
0.10292247 0.014081265 0.36800003 4285697403
0.10411774 0.014081265 0.36800003 4285697403
0.105313 0.014081265 0.36800003 4285697403
0.10650827 0.014081265 0.36800003 4285763196
0.10770353 0.014081265 0.36800003 4285894782
0.10919471 0.014119529 0.36900002 4285828989
0.04900204 0.01523542 0.36700001 4284448366
0.050194055 0.01523542 0.36700001 4284514161
0.051386073 0.01523542 0.36700001 4284382575
0.052578092 0.01523542 0.36700001 4284514161
0.05377011 0.01523542 0.36700001 4284382573
0.054962121 0.01523542 0.36700001 4284513389
0.056154139 0.01523542 0.36700001 4284644461
0.057502419 0.015276935 0.36800003 4284644975
0.058697678 0.015276935 0.36800003 4284579182
0.059892945 0.015276935 0.36800003 4284579436
0.061088212 0.015276935 0.36800003 4284513643
0.062283471 0.015276935 0.36800003 4284645229
0.063478738 0.015276935 0.36800003 4284645227
0.064674005 0.015276935 0.36800003 4284053860
0.065869272 0.015276935 0.36800003 4282606927
0.067064531 0.015276935 0.36800003 4281290554
0.068074308 0.01523542 0.36700001 4281751618
0.069266327 0.01523542 0.36700001 4281883974
0.070266359 0.015193908 0.36600003 4283264346
0.071455128 0.015193908 0.36600003 4284185446
0.072445415 0.015152394 0.36500001 4284580204
0.073630929 0.015152394 0.36500001 4285303927
0.07481645 0.015152394 0.36500001 4285369722
0.076001972 0.015152394 0.36500001 4285435515
0.076976024 0.015110881 0.36400002 4284646512
0.078158297 0.015110881 0.36400002 4285041270
0.07934057 0.015110881 0.36400002 4284711792
0.080522843 0.015110881 0.36400002 4284843378
0.081705116 0.015110881 0.36400002 4285039987
0.082887389 0.015110881 0.36400002 4285171059
0.084069662 0.015110881 0.36400002 4285302645
0.085251927 0.015110881 0.36400002 4285499509
0.086671658 0.015152394 0.36500001 4285499509
0.087857179 0.015152394 0.36500001 4285631606
0.089042693 0.015152394 0.36500001 4285434227
0.090475425 0.015193908 0.36600003 4285565813
0.091664188 0.015193908 0.36600003 4285565815
0.092852958 0.015193908 0.36600003 4285434231
0.094041727 0.015193908 0.36600003 4285433718
0.095490687 0.01523542 0.36700001 4285499511
0.096682705 0.01523542 0.36700001 4285631095
0.097874723 0.01523542 0.36700001 4285696888
0.099336684 0.015276935 0.36800003 4285696890
0.10053194 0.015276935 0.36800003 4285631097
0.10172721 0.015276935 0.36800003 4285894269
0.10292247 0.015276935 0.36800003 4286091648
0.10411774 0.015276935 0.36800003 4285960062
0.050194055 0.016427841 0.36700001 4284381803
0.051386073 0.016427841 0.36700001 4284579182
0.052578092 0.016427841 0.36700001 4284513389
0.05377011 0.016427841 0.36700001 4284513389
0.054962121 0.016427841 0.36700001 4284447082
0.056154139 0.016427841 0.36700001 4284644461
0.057502419 0.016472604 0.36800003 4284512875
0.058697678 0.016472604 0.36800003 4284513389
0.059892945 0.016472604 0.36800003 4284513389
0.061088212 0.016472604 0.36800003 4284513129
0.062283471 0.016472604 0.36800003 4284710508
0.063478738 0.016472604 0.36800003 4284644715
0.064674005 0.016472604 0.36800003 4284710508
0.065869272 0.016472604 0.36800003 4284710508
0.067064531 0.016472604 0.36800003 4284644715
0.068074308 0.016427841 0.36700001 4284645229
0.069266327 0.016427841 0.36700001 4284645229
0.070458338 0.016427841 0.36700001 4284645229
0.071650356 0.016427841 0.36700001 4284711022
0.072842374 0.016427841 0.36700001 4284842608
0.074034385 0.016427841 0.36700001 4284842608
0.075226404 0.016427841 0.36700001 4284974194
0.076418422 0.016427841 0.36700001 4284974194
0.077610441 0.016427841 0.36700001 4285039987
0.078802451 0.016427841 0.36700001 4284842608
0.07999447 0.016427841 0.36700001 4285171059
0.081186488 0.016427841 0.36700001 4285105266
0.082378507 0.016427841 0.36700001 4285171059
0.083570525 0.016427841 0.36700001 4285368438
0.084762543 0.016427841 0.36700001 4285630327
0.085954554 0.016427841 0.36700001 4285630327
0.087146573 0.016427841 0.36700001 4285499511
0.088338591 0.016427841 0.36700001 4285499511
0.089530602 0.016427841 0.36700001 4285631097
0.09072262 0.016427841 0.36700001 4285631097
0.091914631 0.016427841 0.36700001 4285631097
0.09310665 0.016427841 0.36700001 4285762683
0.094298668 0.016427841 0.36700001 4285433718
0.095490687 0.016427841 0.36700001 4285696890
0.096682705 0.016427841 0.36700001 4285696890
0.097874723 0.016427841 0.36700001 4285762683
0.099336684 0.016472604 0.36800003 4285762683
0.10053194 0.016472604 0.36800003 4285894269
0.075588271 0.0030557355 0.36795273 4294967295
0.075588271 0.0030557355 0.36795273 4294901760
0.075588271 0.0030557355 0.36845273 4294901760
0.075588271 0.0030557355 0.36895272 4294901760
0.075588271 0.0030557355 0.36945274 4294901760
0.075588271 0.0030557355 0.36995274 4294901760
0.075588271 0.0030557355 0.37045273 4294901760
0.075588271 0.0030557355 0.37095273 4294901760
0.075588271 0.0030557355 0.37145275 4294901760
0.075588271 0.0030557355 0.37195274 4294901760
0.075588271 0.0030557355 0.37245274 4294901760
0.075588271 0.0030557355 0.37295273 4294901760
0.075588271 0.0030557355 0.37345272 4294901760
0.075588271 0.0030557355 0.37395275 4294901760
0.075588271 0.0030557355 0.37445274 4294901760
0.075588271 0.0030557355 0.37495273 4294901760
0.075588271 0.0030557355 0.37545273 4294901760
0.075588271 0.0030557355 0.37595272 4294901760
0.075588271 0.0030557355 0.37645274 4294901760
0.075588271 0.0030557355 0.37695274 4294901760
0.075588271 0.0030557355 0.37745273 4294901760
0.075588271 0.0030557355 0.37795272 4294901760
0.075588271 0.0030557355 0.37845275 4294901760
0.075588271 0.0030557355 0.37895274 4294901760
0.075588271 0.0030557355 0.37945274 4294901760
0.075588271 0.0030557355 0.37995273 4294901760
0.075588271 0.0030557355 0.38045275 4294901760
0.075588271 0.0030557355 0.38095275 4294901760
0.075588271 0.0030557355 0.38145274 4294901760
0.075588271 0.0030557355 0.38195273 4294901760
0.075588271 0.0030557355 0.38245273 4294901760
0.075588271 0.0030557355 0.38295275 4294901760
0.075588271 0.0030557355 0.38345274 4294901760
0.075588271 0.0030557355 0.38395274 4294901760
0.075588271 0.0030557355 0.38445273 4294901760
0.075588271 0.0030557355 0.38495272 4294901760
0.075588271 0.0030557355 0.38545275 4294901760
0.075588271 0.0030557355 0.38595274 4294901760
0.075588271 0.0030557355 0.38645273 4294901760
0.075588271 0.0030557355 0.38695273 4294901760
0.075588271 0.0030557355 0.38745275 4294901760
0.075588271 0.0030557355 0.38795274 4294901760
0.075588271 0.0030557355 0.38845274 4294901760
0.075588271 0.0030557355 0.38895273 4294901760
0.075588271 0.0030557355 0.38945276 4294901760
0.075588271 0.0030557355 0.38995275 4294901760
0.075588271 0.0030557355 0.39045274 4294901760
