# .PCD v0.7 - Point Cloud Data file format
VERSION 0.7
FIELDS x y z rgb
SIZE 4 4 4 4
TYPE F F F U
COUNT 1 1 1 1
WIDTH 1026
HEIGHT 1
VIEWPOINT 0 0 0 1 0 0 0
POINTS 1026
DATA ascii
-0.011003105 0.008389161 0.38100001 4287774517
-0.0097656166 0.008389161 0.38100001 4287511854
-0.033428293 0.009323854 0.36900002 4286532416
-0.032229777 0.009323854 0.36900002 4286989628
-0.031031266 0.009323854 0.36900002 4287514430
-0.029832752 0.009323854 0.36900002 4287120692
-0.028711839 0.0093491217 0.37 4287976001
-0.027510079 0.0093491217 0.37 4287514680
-0.026379421 0.0093743894 0.37100002 4286790702
-0.025242269 0.0093996571 0.37200001 4286197795
-0.024163229 0.0094501935 0.37400001 4285475099
-0.023009835 0.0094754612 0.37500003 4287134315
-0.021849945 0.0095007289 0.37600002 4288783254
-0.020628696 0.0095007289 0.37600002 4287602570
-0.019459063 0.0095259966 0.377 4287997328
-0.018282935 0.0095512653 0.37800002 4287994762
-0.017055189 0.0095512653 0.37800002 4283512366
-0.015869318 0.009576533 0.37900001 4286132772
-0.014638324 0.009576533 0.37900001 4286460454
-0.013442707 0.0096018007 0.38000003 4286853161
-0.012208466 0.0096018007 0.38000003 4289090384
-0.011003105 0.0096270684 0.38100001 4287577393
-0.0097656166 0.0096270684 0.38100001 4287775026
-0.033428293 0.010522773 0.36900002 4286396201
-0.032229777 0.010522773 0.36900002 4287051049
-0.031031266 0.010522773 0.36900002 4287247401
-0.029832752 0.010522773 0.36900002 4287313446
-0.028634241 0.010522773 0.36900002 4287445032
-0.027510079 0.01055129 0.37 4287511595
-0.026308317 0.01055129 0.37 4287906612
-0.025242269 0.010608324 0.37200001 4288440667
-0.024098622 0.010636841 0.37300003 4289044622
-0.022948474 0.010665358 0.37400001 4287078793
-0.021791834 0.010693875 0.37500003 4286882187
-0.020628696 0.010722392 0.37600002 4287013259
-0.019459063 0.010750908 0.377 4287144845
-0.018234566 0.010750908 0.377 4287013259
-0.017055189 0.010779426 0.37800002 4287735699
-0.015827445 0.010779426 0.37800002 4284491804
-0.014638324 0.010807943 0.37900001 4285935396
-0.013442707 0.01083646 0.38000003 4286328868
-0.012208466 0.01083646 0.38000003 4286722086
-0.011003105 0.010864977 0.38100001 4287116842
-0.0097656166 0.010864977 0.38100001 4287841589
-0.035922401 0.011753458 0.37 4285351224
-0.034626804 0.011721692 0.36900002 4286460967
-0.033428293 0.011721692 0.36900002 4286526499
-0.032142434 0.011689926 0.36800003 4287051303
-0.030947171 0.011689926 0.36800003 4286787874
-0.029751904 0.011689926 0.36800003 4287247140
-0.028556641 0.011689926 0.36800003 4287510312
-0.027435729 0.011721692 0.36900002 4287905585
-0.026308317 0.011753458 0.37 4287708206
-0.025174415 0.011785224 0.37100002 4286988081
-0.024034014 0.011816991 0.37200001 4290155910
-0.022887116 0.011848757 0.37300003 4286947720
-0.021791834 0.011912289 0.37500003 4286947980
-0.020628696 0.011944055 0.37600002 4286751373
-0.019459063 0.01197582 0.377 4287276433
-0.018234566 0.01197582 0.377 4288063381
-0.017055189 0.012007587 0.37800002 4288521106
-0.015869318 0.012039353 0.37900001 4285741353
-0.014638324 0.012039353 0.37900001 4287121464
-0.013442707 0.01207112 0.38000003 4285935396
-0.012208466 0.01207112 0.38000003 4285606174
-0.011003105 0.012102885 0.38100001 4286197282
-0.0097656166 0.012102885 0.38100001 4286592553
-0.035825316 0.012920611 0.36900002 4285150504
-0.034626804 0.012920611 0.36900002 4285474072
-0.033337701 0.012885596 0.36800003 4286394143
-0.032142434 0.012885596 0.36800003 4286328350
-0.030947171 0.012885596 0.36800003 4286919460
-0.029671056 0.01285058 0.36700001 4287116069
-0.028556641 0.012885596 0.36800003 4287312681
-0.027361378 0.012885596 0.36800003 4290670952
-0.026237214 0.012920611 0.36900002 4287314223
-0.025106557 0.012955626 0.37 4287446061
-0.023969406 0.012990641 0.37100002 4286790702
-0.022887116 0.013060671 0.37300003 4288388998
-0.021733722 0.013095686 0.37400001 4287798664
-0.020628696 0.013165717 0.37600002 4286143055
-0.019459063 0.013200732 0.377 4285676855
-0.018234566 0.013200732 0.377 4286791479
-0.017055189 0.013235748 0.37800002 4287053877
-0.015869318 0.013270762 0.37900001 4287118382
-0.014676948 0.013305778 0.38000003 4287052841
-0.013442707 0.013305778 0.38000003 4286198822
-0.012240593 0.013340793 0.38100001 4285608225
-0.011003105 0.013340793 0.38100001 4285739557
-0.0097912485 0.013375808 0.38200003 4285279006
-0.037023827 0.014119529 0.36900002 4284299556
-0.035825316 0.014119529 0.36900002 4285151013
-0.034532964 0.014081265 0.36800003 4285869857
-0.033337701 0.014081265 0.36800003 4285934623
-0.032055091 0.014043001 0.36700001 4286196510
-0.030863075 0.014043001 0.36700001 4286328096
-0.029671056 0.014043001 0.36700001 4286590495
-0.02847904 0.014043001 0.36700001 4287116069
-0.027287025 0.014043001 0.36700001 4287447099
-0.026166111 0.014081265 0.36800003 4290606194
-0.025038702 0.014119529 0.36900002 4287511854
-0.023969406 0.014196058 0.37100002 4287248682
-0.022825755 0.014234321 0.37200001 4287711809
-0.021733722 0.014310851 0.37400001 4286923833
-0.020628696 0.014387379 0.37600002 4287184436
-0.019459063 0.014425643 0.377 4287578935
-0.018282935 0.014463908 0.37800002 4286526247
-0.017100308 0.014502171 0.37900001 4285606174
-0.01591119 0.014540437 0.38000003 4285411877
-0.014676948 0.014540437 0.38000003 4285017632
-0.013478083 0.0145787 0.38100001 4285543461
-0.012240593 0.0145787 0.38100001 4285083423
-0.011031985 0.014616965 0.38200003 4285083677
-0.0097912485 0.014616965 0.38200003 4285806633
-0.037023827 0.015318448 0.36900002 4284165919
-0.035825316 0.015318448 0.36900002 4284755744
-0.034532964 0.015276935 0.36800003 4285344799
-0.03324711 0.01523542 0.36700001 4285409822
-0.032055091 0.01523542 0.36700001 4285803807
-0.030863075 0.01523542 0.36700001 4285605143
-0.02959021 0.015193908 0.36600003 4286327326
-0.028401442 0.015193908 0.36600003 4286458912
-0.027287025 0.01523542 0.36700001 4286984999
-0.026166111 0.015276935 0.36800003 4287641907
-0.025038702 0.015318448 0.36900002 4287116839
-0.023969406 0.015401474 0.37100002 4287314218
-0.022825755 0.015442987 0.37200001 4286919206
-0.021733722 0.015526014 0.37400001 4287446061
-0.020628696 0.015609041 0.37600002 4286066207
-0.019510679 0.015692068 0.37800002 4285474840
-0.0183313 0.015733581 0.37900001 4284360214
-0.017145429 0.015775096 0.38000003 4283834644
-0.01591119 0.015775096 0.38000003 4284824878
-0.014715571 0.015816608 0.38100001 4284629296
-0.013513459 0.015858123 0.38200003 4283836954
-0.012272721 0.015858123 0.38200003 4284098329
-0.011060865 0.015899636 0.38300002 4285281316
-0.0098168794 0.015899636 0.38300002 4285083423
-0.034439124 0.016427841 0.36700001 4285017632
-0.03324711 0.016427841 0.36700001 4284886046
-0.031967748 0.016383078 0.36600003 4284818455
-0.03077898 0.016383078 0.36600003 4285015064
-0.02959021 0.016383078 0.36600003 4285934623
-0.028401442 0.016383078 0.36600003 4285999903
-0.027287025 0.016427841 0.36700001 4286458912
-0.026166111 0.016472604 0.36800003 4286787620
-0.025038702 0.016517365 0.36900002 4287116839
-0.023969406 0.016606892 0.37100002 4286919460
-0.022887116 0.016696416 0.37300003 4286657061
-0.021791834 0.016785942 0.37500003 4286000414
-0.020683561 0.016875464 0.377 4284556566
-0.019510679 0.016920229 0.37800002 4283833874
-0.01837967 0.017009754 0.38000003 4283835927
-0.017190548 0.017054515 0.38100001 4284033306
-0.01595306 0.017054515 0.38100001 4283705884
-0.014754196 0.01709928 0.38200003 4284234024
-0.013548833 0.017144041 0.38300002 4283906597
-0.012304849 0.017144041 0.38300002 4283508759
-0.011089743 0.017188802 0.384 4283834903
-0.0098425103 0.017188802 0.384 4285017634
-0.035436966 0.017524239 0.36500001 4285017634
-0.034345284 0.017572252 0.36600003 4284621591
-0.033156518 0.017572252 0.36600003 4284622874
-0.031967748 0.017572252 0.36600003 4284294423
-0.03077898 0.017572252 0.36600003 4284424982
-0.02959021 0.017572252 0.36600003 4285277466
-0.028401442 0.017572252 0.36600003 4285540638
-0.027287025 0.017620262 0.36700001 4285671197
-0.026237214 0.017716285 0.36900002 4285802524
-0.025106557 0.017764296 0.37 4285802524
-0.024034014 0.017860319 0.37200001 4285868317
-0.022948474 0.017956344 0.37400001 4286003244
-0.021849945 0.018052367 0.37600002 4285215525
-0.020738425 0.018148391 0.37800002 4283768851
-0.019562295 0.018196402 0.37900001 4284031769
-0.01837967 0.018244414 0.38000003 4284031769
-0.017190548 0.018292425 0.38100001 4284162839
-0.015994933 0.018340437 0.38200003 4282720020
-0.014792819 0.018388448 0.38300002 4288384893
-0.013584209 0.01843646 0.384 4283383860
-0.012336976 0.01843646 0.384 4283577130
-0.011118623 0.018484471 0.38500002 4283507483
-0.0098937741 0.018532483 0.38600001 4283440663
-0.008684813 0.018628506 0.38800001 4285346597
-0.0074437237 0.018676519 0.38900003 4286068524
-0.034345284 0.018761422 0.36600003 4285542180
-0.03324711 0.018812682 0.36700001 4284162323
-0.032055091 0.018812682 0.36700001 4283900437
-0.03077898 0.018761422 0.36600003 4284031251
-0.02959021 0.018761422 0.36600003 4284424982
-0.02847904 0.018812682 0.36700001 4284622361
-0.027287025 0.018812682 0.36700001 4285542693
-0.026308317 0.018966464 0.37 4285476900
-0.025242269 0.019068986 0.37200001 4285542693
-0.024098622 0.019120248 0.37300003 4286664002
-0.023009835 0.01922277 0.37500003 4284427042
-0.021908056 0.01932529 0.377 4284163870
-0.020793287 0.019427812 0.37900001 4284425757
-0.01961391 0.019479072 0.38000003 4284819488
-0.018428037 0.019530332 0.38100001 4284818459
-0.017235668 0.019581594 0.38200003 4285082144
-0.016036803 0.019632854 0.38300002 4286212443
-0.014831441 0.019684114 0.384 4287997588
-0.013619585 0.019735375 0.38500002 4288065436
-0.012369104 0.019735375 0.38500002 4281741865
-0.011147503 0.019786635 0.38600001 4283245596
-0.0099194059 0.019837897 0.38700002 4283375897
-0.0087071965 0.019940419 0.38900003 4284360986
-0.0074628587 0.019991679 0.39000002 4285740842
-0.0062120259 0.020042941 0.39100003 4287715407
-0.0049546966 0.020094201 0.39200002 4289829259
-0.034345284 0.019950593 0.36600003 4285739041
-0.03324711 0.020005103 0.36700001 4283635977
-0.032055091 0.020005103 0.36700001 4283572755
-0.030863075 0.020005103 0.36700001 4283506962
-0.029671056 0.020005103 0.36700001 4283571985
-0.02847904 0.020005103 0.36700001 4283768849
-0.027361378 0.020059614 0.36800003 4284228630
-0.026379421 0.020223143 0.37100002 4285149734
-0.025310125 0.020332163 0.37300003 4283771679
-0.024227837 0.020441182 0.37500003 4284760116
-0.023071194 0.02049569 0.37600002 4284297769
-0.021966169 0.020604711 0.37800002 4284230946
-0.020793287 0.020659219 0.37900001 4284229661
-0.019665526 0.02076824 0.38100001 4284163609
-0.018476404 0.02082275 0.38200003 4284424982
-0.017280787 0.020877261 0.38300002 4284424984
-0.016078675 0.020931769 0.384 4288916634
-0.014870066 0.020986279 0.38500002 4287407506
-0.013619585 0.020986279 0.38500002 4287211156
-0.012401231 0.02104079 0.38600001 4287011978
-0.011176383 0.0210953 0.38700002 4283312161
-0.0099450368 0.021149809 0.38800001 4283376667
-0.0087071965 0.021204319 0.38900003 4283702804
-0.0074628587 0.021258829 0.39000002 4285346597
-0.0062120259 0.021313339 0.39100003 4286659116
-0.0049546966 0.021367848 0.39200002 4286987057
-0.0036814802 0.021367848 0.39200002 4286469703
-0.033337701 0.021255283 0.36800003 4284297239
-0.032142434 0.021255283 0.36800003 4282263314
-0.030863075 0.021197524 0.36700001 4282394900
-0.029671056 0.021197524 0.36700001 4283378204
-0.02847904 0.021197524 0.36700001 4283178256
-0.027287025 0.021197524 0.36700001 4285016349
-0.026521629 0.021544077 0.37300003 4285411109
-0.025445838 0.021659596 0.37500003 4286865492
-0.024292445 0.021717353 0.37600002 4284035880
-0.023132551 0.021775112 0.377 4284498228
-0.022024279 0.021890629 0.37900001 4282262812
-0.020848151 0.02194839 0.38000003 4280947724
-0.019665526 0.022006148 0.38100001 4281211923
-0.018476404 0.022063907 0.38200003 4281472783
-0.017280787 0.022121666 0.38300002 4283776305
-0.016078675 0.022179425 0.384 4287868055
-0.014870066 0.022237184 0.38500002 4287079568
-0.013654959 0.022294942 0.38600001 4287408535
-0.012433359 0.022352701 0.38700002 4287934877
-0.011205262 0.02241046 0.38800001 4281869340
-0.0099450368 0.02241046 0.38800001 4283377954
-0.0087071965 0.02246822 0.38900003 4284032284
-0.0074628587 0.022525977 0.39000002 4285084711
-0.0062120259 0.022583738 0.39100003 4285935648
-0.0049546966 0.022641497 0.39200002 4287315245
-0.0036814802 0.022641497 0.39200002 4287972148
-0.0024144067 0.022699254 0.39300001 4287120440
-0.038886696 0.022206919 0.36400002 4283578915
-0.037704423 0.022206919 0.36400002 4285087019
-0.03652215 0.022206919 0.36400002 4285542432
-0.035436966 0.022267926 0.36500001 4286264356
-0.033428293 0.022511959 0.36900002 4282393358
-0.032229777 0.022511959 0.36900002 4281410833
-0.031283554 0.022694983 0.37200001 4281805078
-0.030075293 0.022694983 0.37200001 4283708964
-0.028867038 0.022694983 0.37200001 4283968026
-0.027658783 0.022694983 0.37200001 4286067752
-0.026663836 0.022878008 0.37500003 4288570968
-0.025513692 0.022939015 0.37600002 4283904294
-0.024357051 0.023000022 0.377 4285419330
-0.023193913 0.023061031 0.37800002 4280095243
-0.022024279 0.023122039 0.37900001 4280227858
-0.020848151 0.023183048 0.38000003 4282533693
-0.019665526 0.023244055 0.38100001 4282271291
-0.018524772 0.023366071 0.38300002 4283850319
-0.017325906 0.023427079 0.384 4279047432
-0.016120547 0.023488088 0.38500002 4286879879
-0.014908689 0.023549095 0.38600001 4287144847
-0.013654959 0.023549095 0.38600001 4287474328
-0.012433359 0.023610104 0.38700002 4287474328
-0.011205262 0.023671111 0.38800001 4284834649
-0.0099706687 0.02373212 0.38900003 4282984487
-0.0087071965 0.02373212 0.38900003 4283441690
-0.0074628587 0.023793127 0.39000002 4284098075
-0.0062120259 0.023854136 0.39100003 4285409047
-0.0049546966 0.023915144 0.39200002 4287380014
-0.0036814802 0.023915144 0.39200002 4287051049
-0.0024144067 0.023976151 0.39300001 4287445804
-0.0011379421 0.023976151 0.39300001 4285551683
-0.039958887 0.023325335 0.36300001 4282335008
-0.038779866 0.023325335 0.36300001 4284431653
-0.037704423 0.023389595 0.36400002 4285085474
-0.03652215 0.023389595 0.36400002 4285870109
-0.035436966 0.02345385 0.36500001 4286330660
-0.034439124 0.023582365 0.36700001 4283179794
-0.033337701 0.023646623 0.36800003 4281869326
-0.032142434 0.023646623 0.36800003 4281345294
-0.031283554 0.023903649 0.37200001 4282922276
-0.030075293 0.023903649 0.37200001 4283968286
-0.028867038 0.023903649 0.37200001 4285476898
-0.027658783 0.023903649 0.37200001 4286461992
-0.026663836 0.024096424 0.37500003 4285938986
-0.025513692 0.024160679 0.37600002 4285486406
-0.024357051 0.024224935 0.377 4280555276
-0.023193913 0.024289194 0.37800002 4280030995
-0.022024279 0.02435345 0.37900001 4279900949
-0.020848151 0.024417708 0.38000003 4282139705
-0.019665526 0.024481965 0.38100001 4279376658
-0.018524772 0.024610478 0.38300002 4281285425
-0.017325906 0.024674736 0.384 4279180303
-0.016120547 0.024738993 0.38500002 4279311635
-0.014908689 0.024803249 0.38600001 4287867287
-0.013690336 0.024867509 0.38700002 4287474326
-0.012465486 0.024931764 0.38800001 4287474328
-0.011205262 0.024931764 0.38800001 4288785311
-0.0099706687 0.024996022 0.38900003 4282000158
-0.0087295799 0.025060279 0.39000002 4283506971
-0.0074628587 0.025060279 0.39000002 4284294941
-0.0062120259 0.025124537 0.39100003 4285869600
-0.0049546966 0.025188792 0.39200002 4286328098
-0.0036814802 0.025188792 0.39200002 4293307050
-0.0024144067 0.02525305 0.39300001 4286593594
-0.0011379421 0.02525305 0.39300001 4286463793
-0.041024584 0.024437254 0.36200002 4282401314
-0.039958887 0.02450476 0.36300001 4282597408
-0.038779866 0.02450476 0.36300001 4284889124
-0.037704423 0.024572266 0.36400002 4285412388
-0.03652215 0.024572266 0.36400002 4285869598
-0.035436966 0.024639772 0.36500001 4284948753
-0.034345284 0.02470728 0.36600003 4282525203
-0.033156518 0.02470728 0.36600003 4281410572
-0.031967748 0.02470728 0.36600003 4281806615
-0.030610789 0.024572266 0.36400002 4283184418
-0.029428514 0.024572266 0.36400002 4285215011
-0.028168641 0.02450476 0.36300001 4286132518
-0.027807485 0.025247328 0.37400001 4286396201
-0.026663836 0.025314836 0.37500003 4285479465
-0.025513692 0.025382342 0.37600002 4281082654
-0.024357051 0.025449846 0.377 4280490776
-0.023193913 0.025517354 0.37800002 4279769106
-0.022024279 0.02558486 0.37900001 4280428063
-0.020848151 0.025652368 0.38000003 4282997070
-0.019665526 0.025719872 0.38100001 4281812798
-0.018524772 0.025854886 0.38300002 4279048216
-0.017325906 0.02592239 0.384 4280824623
-0.016120547 0.025989898 0.38500002 4282601287
-0.014908689 0.026057404 0.38600001 4287009931
-0.013690336 0.02612491 0.38700002 4287211926
-0.012465486 0.026192416 0.38800001 4287211926
-0.011234142 0.026259923 0.38900003 4288984487
-0.0099706687 0.026259923 0.38900003 4282199847
-0.0087295799 0.026327427 0.39000002 4283770657
-0.0074628587 0.026327427 0.39000002 4283899415
-0.0062120259 0.026394935 0.39100003 4285540638
-0.0049546966 0.026462441 0.39200002 4286526247
-0.0036814802 0.026462441 0.39200002 4286524198
-0.0024082633 0.026462441 0.39200002 4289355092
-0.0011379421 0.026529947 0.39300001 4286330154
-0.041024584 0.025613429 0.36200002 4282335519
-0.039958887 0.025684183 0.36300001 4283383844
-0.038779866 0.025684183 0.36300001 4285545258
-0.037600838 0.025684183 0.36300001 4285804580
-0.03652215 0.02575494 0.36400002 4286460967
-0.035339877 0.02575494 0.36400002 4284161038
-0.034251444 0.025825694 0.36500001 4281607183
-0.033065926 0.025825694 0.36500001 4282332957
-0.031880401 0.025825694 0.36500001 4283450409
-0.030610789 0.02575494 0.36400002 4283577632
-0.029428514 0.02575494 0.36400002 4285542178
-0.028246243 0.02575494 0.36400002 4286395944
-0.027807485 0.026462493 0.37400001 4285346336
-0.026663836 0.02653325 0.37500003 4284368177
-0.025513692 0.026604004 0.37600002 4279966739
-0.024357051 0.026674759 0.377 4280098582
-0.023193913 0.026745515 0.37800002 4283522387
-0.022024279 0.026816269 0.37900001 4285367671
-0.020848151 0.026887026 0.38000003 4284709743
-0.019665526 0.02695778 0.38100001 4283590490
-0.018476404 0.027028536 0.38200003 4283853149
-0.017325906 0.027170045 0.384 4280101664
-0.016120547 0.027240802 0.38500002 4279639832
-0.014908689 0.027311556 0.38600001 4281549110
-0.013725711 0.027453067 0.38800001 4287014547
-0.012465486 0.027453067 0.38800001 4287277719
-0.011234142 0.027523823 0.38900003 4288920745
-0.0099962996 0.027594578 0.39000002 4281740580
-0.0087295799 0.027594578 0.39000002 4283901214
-0.0074819946 0.027665334 0.39100003 4283702806
-0.0062120259 0.027665334 0.39100003 4285476385
-0.0049546966 0.027736088 0.39200002 4285935396
-0.0036814802 0.027736088 0.39200002 4286328614
-0.0024082633 0.027736088 0.39200002 4286657579
-0.0011379421 0.027806843 0.39300001 4286461485
-0.041024584 0.026789604 0.36200002 4282465822
-0.039848808 0.026789604 0.36200002 4284170280
-0.038779866 0.026863607 0.36300001 4285412388
-0.037600838 0.026863607 0.36300001 4285870627
-0.036421813 0.026863607 0.36300001 4286263586
-0.035339877 0.026937613 0.36400002 4283110147
-0.034157608 0.026937613 0.36400002 4280883976
-0.033065926 0.027011616 0.36500001 4281016845
-0.031793062 0.026937613 0.36400002 4283118110
-0.030610789 0.026937613 0.36400002 4284298275
-0.029428514 0.026937613 0.36400002 4285542432
-0.028246243 0.026937613 0.36400002 4286068004
-0.027733136 0.027603652 0.37300003 4283443479
-0.026592731 0.027677657 0.37400001 4283122225
-0.025445838 0.027751662 0.37500003 4283256644
-0.024292445 0.027825665 0.37600002 4280099098
-0.023132551 0.027899669 0.377 4285828476
-0.021966169 0.027973674 0.37800002 4285696890
-0.020793287 0.028047679 0.37900001 4282208837
-0.019665526 0.028195687 0.38100001 4284708971
-0.018476404 0.028269693 0.38200003 4282142783
-0.017325906 0.028417701 0.384 4280365090
-0.016120547 0.028491706 0.38500002 4280101153
-0.014947313 0.028639715 0.38700002 4279772701
-0.013725711 0.028713718 0.38800001 4287342488
-0.012497614 0.028787725 0.38900003 4287343258
-0.011263021 0.028861728 0.39000002 4288525987
-0.0099962996 0.028861728 0.39000002 4281675039
-0.0087519642 0.028935732 0.39100003 4283176721
-0.0074819946 0.028935732 0.39100003 4284425757
-0.0062120259 0.028935732 0.39100003 4285806635
-0.0049546966 0.029009737 0.39200002 4285411107
-0.0036814802 0.029009737 0.39200002 4285279008
-0.0024082633 0.029009737 0.39200002 4286067754
-0.0011350466 0.029009737 0.39200002 4284430892
-0.041024584 0.027965778 0.36200002 4282857500
-0.039848808 0.027965778 0.36200002 4284890408
-0.038673036 0.027965778 0.36200002 4285935396
-0.037600838 0.028043032 0.36300001 4286328868
-0.036421813 0.028043032 0.36300001 4286264615
-0.035242788 0.028043032 0.36300001 4283310096
-0.034157608 0.028120287 0.36400002 4280555526
-0.032975335 0.028120287 0.36400002 4281016075
-0.031793062 0.028120287 0.36400002 4283709477
-0.030610789 0.028120287 0.36400002 4284691747
-0.029428514 0.028120287 0.36400002 4285870627
-0.02832384 0.028197538 0.36500001 4286133799
-0.027733136 0.028815567 0.37300003 4285092933
-0.026592731 0.028892821 0.37400001 4280822044
-0.025445838 0.028970076 0.37500003 4282205244
-0.024292445 0.029047327 0.37600002 4282732101
-0.023132551 0.02912458 0.377 4283457873
-0.021966169 0.029201835 0.37800002 4288853403
-0.020793287 0.029279089 0.37900001 4288853919
-0.01961391 0.029356342 0.38000003 4281680433
-0.018476404 0.02951085 0.38200003 4281877042
-0.017280787 0.029588103 0.38300002 4281944118
-0.016162418 0.029819863 0.38600001 4281615157
-0.014947313 0.029897118 0.38700002 4279575322
-0.013725711 0.029974369 0.38800001 4287539869
-0.012497614 0.030051624 0.38900003 4287409051
-0.011263021 0.030128878 0.39000002 4288853667
-0.0099962996 0.030128878 0.39000002 4282201123
-0.0087519642 0.030206133 0.39100003 4284360734
-0.0074819946 0.030206133 0.39100003 4284754460
-0.0062120259 0.030206133 0.39100003 4285607973
-0.0049546966 0.030283384 0.39200002 4285608486
-0.0036814802 0.030283384 0.39200002 4285216297
-0.0024082633 0.030283384 0.39200002 4284954669
-0.0011350466 0.030283384 0.39200002 4287995532
-0.042083789 0.029061452 0.36100003 4281743384
-0.041024584 0.029141953 0.36200002 4284299554
-0.039848808 0.029141953 0.36200002 4284953375
-0.038673036 0.029141953 0.36200002 4286328866
-0.037497256 0.029141953 0.36200002 4286853670
-0.036421813 0.029222455 0.36300001 4286068776
-0.035242788 0.029222455 0.36300001 4282719243
-0.034063764 0.029222455 0.36300001 4280818700
-0.032975335 0.029302958 0.36400002 4281476115
-0.031793062 0.029302958 0.36400002 4283576094
-0.030610789 0.029302958 0.36400002 4284624671
-0.02950936 0.02938346 0.36500001 4285869600
-0.02847904 0.029544465 0.36700001 4285869600
-0.027658783 0.029946979 0.37200001 4283842614
-0.026521629 0.030027483 0.37300003 4282729275
-0.02537798 0.030107984 0.37400001 4279178766
-0.024292445 0.03026899 0.37600002 4280429346
-0.023132551 0.030349491 0.377 4280099100
-0.021966169 0.030429995 0.37800002 4285758320
-0.020793287 0.030510496 0.37900001 4286217824
-0.01961391 0.030591002 0.38000003 4287598444
-0.018428037 0.030671503 0.38100001 4285954906
-0.017280787 0.030832509 0.38300002 4281941288
-0.016162418 0.031074015 0.38600001 4282667330
-0.014947313 0.031154519 0.38700002 4279904539
-0.013761087 0.031315524 0.38900003 4287474074
-0.012529741 0.031396028 0.39000002 4287474076
-0.011263021 0.031396028 0.39000002 4289050280
-0.010021932 0.031476531 0.39100003 4282264611
-0.0087519642 0.031476531 0.39100003 4284754460
-0.0074819946 0.031476531 0.39100003 4284950554
-0.0062279128 0.031557031 0.39200002 4285476385
-0.0049546966 0.031557031 0.39200002 4285674277
-0.0036814802 0.031557031 0.39200002 4283906608
-0.0024082633 0.031557031 0.39200002 4287796356
-0.042083789 0.030234378 0.36100003 4282333984
-0.040911257 0.030234378 0.36100003 4285349416
-0.039848808 0.030318128 0.36200002 4285740322
-0.038673036 0.030318128 0.36200002 4286722084
-0.037497256 0.030318128 0.36200002 4287446061
-0.03632148 0.030318128 0.36200002 4287118636
-0.035242788 0.030401878 0.36300001 4283110917
-0.034063764 0.030401878 0.36300001 4280882179
-0.032884743 0.030401878 0.36300001 4281407753
-0.031793062 0.030485632 0.36400002 4283443479
-0.030694883 0.030569382 0.36500001 4284624669
-0.02959021 0.030653136 0.36600003 4286066979
-0.028556641 0.03082064 0.36800003 4285935393
-0.027584432 0.031071894 0.37100002 4281669392
-0.026521629 0.031239398 0.37300003 4281939246
-0.02537798 0.03132315 0.37400001 4279376658
-0.024227837 0.031406902 0.37500003 4280495139
-0.023071194 0.031490654 0.37600002 4280559649
-0.021908056 0.031574402 0.377 4284046930
-0.020738425 0.031658158 0.37800002 4282860328
-0.019562295 0.031741906 0.37900001 4283320356
-0.018428037 0.03190941 0.38100001 4284374587
-0.017235668 0.031993162 0.38200003 4282072865
-0.016162418 0.03232817 0.38600001 4283257666
-0.014985936 0.032495674 0.38800001 4282075195
-0.013761087 0.032579426 0.38900003 4287342742
-0.012529741 0.032663178 0.39000002 4287409051
-0.011291901 0.03274693 0.39100003 4289377446
-0.010021932 0.03274693 0.39100003 4283117090
-0.0087743467 0.032830682 0.39200002 4285082910
-0.00750113 0.032830682 0.39200002 4285213726
-0.0062279128 0.032830682 0.39200002 4285607205
-0.0049546966 0.032830682 0.39200002 4290612100
-0.0036814802 0.032830682 0.39200002 4288130457
-0.043256316 0.031407304 0.36100003 4281939998
-0.042083789 0.031407304 0.36100003 4283580458
-0.040911257 0.031407304 0.36100003 4285742121
-0.039738733 0.031407304 0.36100003 4286264356
-0.038673036 0.031494305 0.36200002 4287642413
-0.037497256 0.031494305 0.36200002 4287115554
-0.03632148 0.031494305 0.36200002 4287640358
-0.035145704 0.031494305 0.36200002 4287576618
-0.034063764 0.031581301 0.36300001 4287186487
-0.032884743 0.031581301 0.36300001 4285609254
-0.031793062 0.031668305 0.36400002 4285411105
-0.030694883 0.031755306 0.36500001 4285475869
-0.029671056 0.031929307 0.36700001 4286460452
-0.028634241 0.032103308 0.36900002 4286000414
-0.027584432 0.032277312 0.37100002 4281668879
-0.026521629 0.032451313 0.37300003 4283518278
-0.02537798 0.032538313 0.37400001 4278915848
-0.024227837 0.032625314 0.37500003 4280165915
-0.023071194 0.032712314 0.37600002 4280888096
-0.021908056 0.032799315 0.377 4282862138
-0.020738425 0.032886315 0.37800002 4281149460
-0.019562295 0.032973316 0.37900001 4281741334
-0.01837967 0.03306032 0.38000003 4281480212
-0.017190548 0.033147316 0.38100001 4282139169
-0.01624616 0.033756323 0.38800001 4280098830
-0.015024561 0.033843327 0.38900003 4286680705
-0.013796463 0.033930324 0.39000002 4287343512
-0.01256187 0.034017328 0.39100003 4287475098
-0.011291901 0.034017328 0.39100003 4288455313
-0.010047563 0.034104329 0.39200002 4284299306
-0.0087743467 0.034104329 0.39200002 4285344801
-0.00750113 0.034104329 0.39200002 4285738787
-0.0062279128 0.034104329 0.39200002 4286068526
-0.043256316 0.03258023 0.36100003 4282925608
-0.042083789 0.03258023 0.36100003 4284629550
-0.040911257 0.03258023 0.36100003 4286133545
-0.039738733 0.03258023 0.36100003 4286723108
-0.038673036 0.032670479 0.36200002 4286983968
-0.037497256 0.032670479 0.36200002 4287246370
-0.03632148 0.032670479 0.36200002 4287377186
-0.035145704 0.032670479 0.36200002 4287771944
-0.033969928 0.032670479 0.36200002 4287509540
-0.032884743 0.032760728 0.36300001 4287773484
-0.031793062 0.032850981 0.36400002 4287051301
-0.030694883 0.03294123 0.36500001 4288500287
-0.029671056 0.033121731 0.36700001 4286657315
-0.028634241 0.033302229 0.36900002 4286459682
-0.027584432 0.03348273 0.37100002 4282194453
-0.026521629 0.033663232 0.37300003 4282531381
-0.02537798 0.033753481 0.37400001 4278981641
-0.024227837 0.03384373 0.37500003 4280296731
-0.023071194 0.033933979 0.37600002 4280164114
-0.021908056 0.034024227 0.377 4283256894
-0.020738425 0.03411448 0.37800002 4284835401
-0.019562295 0.034204729 0.37900001 4284111667
-0.0183313 0.034204729 0.37900001 4282006556
-0.017506385 0.035016976 0.38800001 4282336039
-0.01624616 0.035016976 0.38800001 4281480485
-0.015024561 0.035107229 0.38900003 4288194971
-0.013796463 0.035197478 0.39000002 4287409305
-0.01256187 0.03528773 0.39100003 4287343512
-0.01132078 0.035377979 0.39200002 4285686615
-0.010047563 0.035377979 0.39200002 4285346861
-0.0087743467 0.035377979 0.39200002 4285672994
-0.00750113 0.035377979 0.39200002 4285935396
-0.0062279128 0.035377979 0.39200002 4284688929
-0.043256316 0.033753157 0.36100003 4283186213
-0.042083789 0.033753157 0.36100003 4284694314
-0.040911257 0.033753157 0.36100003 4285935650
-0.039738733 0.033753157 0.36100003 4286393889
-0.038566206 0.033753157 0.36100003 4286721311
-0.037393674 0.033753157 0.36100003 4286984483
-0.03632148 0.033846654 0.36200002 4287312933
-0.035145704 0.033846654 0.36200002 4287576105
-0.033969928 0.033846654 0.36200002 4293436293
-0.032884743 0.033940151 0.36300001 4287446311
-0.031793062 0.034033652 0.36400002 4288298288
-0.030694883 0.03412715 0.36500001 4287839275
-0.029751904 0.034407649 0.36800003 4286853924
-0.028711839 0.034594648 0.37 4286197282
-0.027658783 0.034781646 0.37200001 4282786076
-0.026521629 0.034875143 0.37300003 4283911749
-0.025445838 0.035062142 0.37500003 4279309582
-0.024292445 0.035155643 0.37600002 4280559903
-0.023132551 0.03524914 0.377 4280164625
-0.021966169 0.035342641 0.37800002 4286417011
-0.020738425 0.035342641 0.37800002 4281810988
-0.019562295 0.035436139 0.37900001 4281020186
-0.01837967 0.03552964 0.38000003 4283586109
-0.017506385 0.036277629 0.38800001 4282730804
-0.01624616 0.036277629 0.38800001 4281153321
-0.015063183 0.036464628 0.39000002 4287670680
-0.013831838 0.036558129 0.39100003 4287474328
-0.01256187 0.036558129 0.39100003 4287935649
-0.01132078 0.036651626 0.39200002 4284496946
-0.010047563 0.036651626 0.39200002 4285739307
-0.0087743467 0.036651626 0.39200002 4286000162
-0.0075202654 0.036745124 0.39300001 4286460200
-0.0062438003 0.036745124 0.39300001 4284823083
-0.044428848 0.034926083 0.36100003 4281546521
-0.043256316 0.034926083 0.36100003 4283251493
-0.042083789 0.034926083 0.36100003 4284561958
-0.040911257 0.034926083 0.36100003 4285673764
-0.039738733 0.034926083 0.36100003 4286001186
-0.038566206 0.034926083 0.36100003 4286197280
-0.037393674 0.034926083 0.36100003 4286459682
-0.036221147 0.034926083 0.36100003 4286853667
-0.035145704 0.035022829 0.36200002 4287313448
-0.033969928 0.035022829 0.36200002 4286986796
-0.032794151 0.035022829 0.36200002 4290804850
-0.031705715 0.035119578 0.36300001 4287773999
-0.030610789 0.035216328 0.36400002 4287708202
-0.029832752 0.035700068 0.36900002 4286262557
-0.028711839 0.035796814 0.37 4285737244
-0.027658783 0.035990309 0.37200001 4282786590
-0.026592731 0.036183808 0.37400001 4280227343
-0.025445838 0.036280558 0.37500003 4279835928
-0.024292445 0.036377303 0.37600002 4279638547
-0.023132551 0.036474049 0.377 4281809968
-0.021966169 0.036570799 0.37800002 4279967762
-0.020793287 0.036667548 0.37900001 4283258947
-0.01961391 0.036764298 0.38000003 4282272822
-0.018428037 0.036861043 0.38100001 4282074421
-0.017506385 0.037538283 0.38800001 4280296731
-0.016288033 0.037635032 0.38900003 4283055926
-0.015063183 0.037731778 0.39000002 4287602316
-0.013831838 0.037828527 0.39100003 4287540119
-0.01256187 0.037828527 0.39100003 4288460196
-0.01132078 0.037925273 0.39200002 4285806898
-0.010047563 0.037925273 0.39200002 4286131750
-0.0087743467 0.037925273 0.39200002 4286459684
-0.0075202654 0.038022023 0.39300001 4286788649
-0.0062438003 0.038022023 0.39300001 4286867289
-0.044428848 0.036099009 0.36100003 4281874464
-0.043256316 0.036099009 0.36100003 4283645485
-0.042083789 0.036099009 0.36100003 4284888874
-0.040911257 0.036099009 0.36100003 4285674279
-0.039738733 0.036099009 0.36100003 4285673764
-0.038566206 0.036099009 0.36100003 4285869600
-0.037393674 0.036099009 0.36100003 4286001184
-0.036221147 0.036099009 0.36100003 4286459936
-0.035145704 0.036199003 0.36200002 4286787874
-0.033969928 0.036199003 0.36200002 4286588958
-0.032794151 0.036199003 0.36200002 4289221961
-0.031705715 0.036299001 0.36300001 4287708204
-0.030610789 0.036398999 0.36400002 4288497207
-0.029832752 0.036898986 0.36900002 4286920233
-0.028711839 0.03699898 0.37 4284752664
-0.027658783 0.037198976 0.37200001 4286150759
-0.026592731 0.037398972 0.37400001 4279902489
-0.025445838 0.03749897 0.37500003 4280099870
-0.024292445 0.037598968 0.37600002 4279573526
-0.023193913 0.03779896 0.37800002 4279573524
-0.022024279 0.037898958 0.37900001 4280888096
-0.020848151 0.037998956 0.38000003 4279375109
-0.019717142 0.038198952 0.38200003 4284113743
-0.018524772 0.038298946 0.38300002 4280230938
-0.017461266 0.038698938 0.38700002 4281935394
-0.01624616 0.038798932 0.38800001 4286597957
-0.015063183 0.038998928 0.39000002 4289037179
-0.013796463 0.038998928 0.39000002 4287800979
-0.01256187 0.039098926 0.39100003 4285492831
-0.01132078 0.03919892 0.39200002 4286460200
-0.010047563 0.03919892 0.39200002 4286393121
-0.0087743467 0.03919892 0.39200002 4286919208
-0.0075202654 0.039298918 0.39300001 4286657833
-0.044551916 0.037375178 0.36200002 4281677855
-0.04337614 0.037375178 0.36200002 4283514415
-0.042200364 0.037375178 0.36200002 4284232489
-0.041024584 0.037375178 0.36200002 4285083941
-0.039848808 0.037375178 0.36200002 4285215527
-0.038673036 0.037375178 0.36200002 4285476898
-0.037497256 0.037375178 0.36200002 4285540892
-0.03632148 0.037375178 0.36200002 4286393889
-0.035145704 0.037375178 0.36200002 4286722084
-0.033969928 0.037375178 0.36200002 4286984483
-0.032884743 0.037478425 0.36300001 4287312935
-0.031793062 0.037581671 0.36400002 4287839275
-0.030694883 0.037684917 0.36500001 4288037167
-0.029751904 0.037994657 0.36800003 4285213467
-0.028711839 0.03820115 0.37 4290357398
-0.027658783 0.038407642 0.37200001 4287670676
-0.026521629 0.038510889 0.37300003 4283130709
-0.025445838 0.038717382 0.37500003 4280298283
-0.024292445 0.038820628 0.37600002 4280034339
-0.023193913 0.039027121 0.37800002 4279968284
-0.022082392 0.039233614 0.38000003 4282995014
-0.020903014 0.03933686 0.38100001 4281087017
-0.019768758 0.039543353 0.38300002 4281349165
-0.018573139 0.039646596 0.384 4281998875
-0.017461266 0.039956339 0.38700002 4286597696
-0.01624616 0.040059585 0.38800001 4286856243
-0.015024561 0.040162832 0.38900003 4286593073
-0.013796463 0.040266078 0.39000002 4288640874
-0.01256187 0.040369324 0.39100003 4285675310
-0.01132078 0.040472571 0.39200002 4286919463
-0.010047563 0.040472571 0.39200002 4286984999
-0.0087743467 0.040472571 0.39200002 4286919206
-0.00750113 0.040472571 0.39200002 4286329897
-0.044551916 0.038551353 0.36200002 4288325528
-0.04337614 0.038551353 0.36200002 4283384375
-0.042200364 0.038551353 0.36200002 4283708462
-0.041024584 0.038551353 0.36200002 4284296485
-0.039848808 0.038551353 0.36200002 4283966489
-0.038673036 0.038551353 0.36200002 4284886046
-0.037497256 0.038551353 0.36200002 4284885533
-0.03632148 0.038551353 0.36200002 4285408797
-0.035145704 0.038551353 0.36200002 4285934369
-0.034063764 0.038657848 0.36300001 4286393891
-0.032884743 0.038657848 0.36300001 4286459682
-0.031793062 0.038764346 0.36400002 4286590493
-0.030694883 0.038870838 0.36500001 4286985251
-0.029751904 0.03919033 0.36800003 4284690466
-0.028711839 0.039403316 0.37 4289635992
-0.027584432 0.039509814 0.37100002 4287736986
-0.026521629 0.039722804 0.37300003 4288065697
-0.025445838 0.039935797 0.37500003 4281879621
-0.024292445 0.040042289 0.37600002 4279969318
-0.023255272 0.040361777 0.37900001 4280363555
-0.022140503 0.040574767 0.38100001 4283390031
-0.02095788 0.040681265 0.38200003 4280427036
-0.019820372 0.040894251 0.384 4281344542
-0.018621508 0.04100075 0.38500002 4286859838
-0.017461266 0.04121374 0.38700002 4286594866
-0.01624616 0.041320235 0.38800001 4287447097
-0.015024561 0.041426733 0.38900003 4287842368
-0.013796463 0.041533228 0.39000002 4287315511
-0.01256187 0.041639723 0.39100003 4287314223
-0.011291901 0.041639723 0.39100003 4287181862
-0.010047563 0.041746218 0.39200002 4287247655
-0.0087743467 0.041746218 0.39200002 4287314221
-0.00750113 0.041746218 0.39200002 4288900964
-0.044674989 0.039837271 0.36300001 4287802779
-0.043495961 0.039837271 0.36300001 4283519561
-0.042316936 0.039837271 0.36300001 4284040255
-0.041137911 0.039837271 0.36300001 4284232491
-0.039848808 0.039727528 0.36200002 4284033315
-0.038673036 0.039727528 0.36200002 4283834392
-0.037497256 0.039727528 0.36200002 4284425757
-0.036421813 0.039837271 0.36300001 4284818970
-0.035242788 0.039837271 0.36300001 4285279008
-0.034063764 0.039837271 0.36300001 4285870375
-0.032975335 0.039947018 0.36400002 4286199340
-0.031880401 0.040056761 0.36500001 4286265385
-0.03077898 0.040166508 0.36600003 4286331178
-0.029751904 0.040385999 0.36800003 4285543976
-0.028634241 0.040495742 0.36900002 4290290582
-0.027584432 0.040715229 0.37100002 4287736473
-0.026521629 0.040934719 0.37300003 4287736986
-0.02537798 0.041044462 0.37400001 4288065951
-0.024292445 0.041263953 0.37600002 4287736986
-0.023255272 0.041593187 0.37900001 4283854434
-0.022140503 0.041812673 0.38100001 4283129426
-0.021012742 0.042032164 0.38300002 4283186744
-0.019820372 0.042141907 0.384 4284759353
-0.018669873 0.042361397 0.38600001 4286067754
-0.017461266 0.042471144 0.38700002 4286789680
-0.01624616 0.042580888 0.38800001 4287250231
-0.015024561 0.042690631 0.38900003 4290672494
-0.013796463 0.042800374 0.39000002 4287445809
-0.01256187 0.042910121 0.39100003 4287050022
-0.011291901 0.042910121 0.39100003 4287378474
-0.010047563 0.043019865 0.39200002 4287510573
-0.0087743467 0.043019865 0.39200002 4286659893
-0.044674989 0.041016694 0.36300001 4287934625
-0.043495961 0.041016694 0.36300001 4288654754
-0.042316936 0.041016694 0.36300001 4284174923
-0.041137911 0.041016694 0.36300001 4284103474
-0.039958887 0.041016694 0.36300001 4284035112
-0.038779866 0.041016694 0.36300001 4284230692
-0.037600838 0.041016694 0.36300001 4284099360
-0.036421813 0.041016694 0.36300001 4284360734
-0.035242788 0.041016694 0.36300001 4284952871
-0.034157608 0.04112969 0.36400002 4285413676
-0.032975335 0.04112969 0.36400002 4285611053
-0.031880401 0.041242685 0.36500001 4285742637
-0.03077898 0.041355681 0.36600003 4285544488
-0.029751904 0.041581668 0.36800003 4285872943
-0.028634241 0.04169466 0.36900002 4289298550
-0.027584432 0.041920647 0.37100002 4287736469
-0.026450524 0.042033639 0.37200001 4287671191
-0.02537798 0.042259626 0.37400001 4287671193
-0.024227837 0.042372622 0.37500003 4288131744
-0.02337799 0.043050583 0.38100001 4287802779
-0.022198614 0.043163579 0.38200003 4288000158
-0.021012742 0.043276571 0.38300002 4285625964
-0.019871987 0.043502558 0.38500002 4284499263
-0.018669873 0.04361555 0.38600001 4285937453
-0.017461266 0.043728545 0.38700002 4286329904
-0.01624616 0.043841537 0.38800001 4292521116
-0.015024561 0.043954533 0.38900003 4287055932
-0.013796463 0.044067524 0.39000002 4287642929
-0.01256187 0.04418052 0.39100003 4287707439
-0.011291901 0.04418052 0.39100003 4287510575
-0.010047563 0.044293512 0.39200002 4288432193
-0.0087743467 0.044293512 0.39200002 4286067502
-0.044798061 0.042312365 0.36400002 4287934625
-0.043615788 0.042312365 0.36400002 4288262817
-0.042433515 0.042312365 0.36400002 4287076490
-0.041251242 0.042312365 0.36400002 4283579190
-0.040068969 0.042312365 0.36400002 4284498232
-0.038886696 0.042312365 0.36400002 4284430638
-0.037704423 0.042312365 0.36400002 4284364075
-0.03652215 0.042312365 0.36400002 4284495148
-0.035339877 0.042312365 0.36400002 4284625964
-0.034157608 0.042312365 0.36400002 4284757550
-0.033065926 0.042428605 0.36500001 4284364077
-0.031967748 0.042544849 0.36600003 4285354318
-0.03077898 0.042544849 0.36600003 4284233522
-0.029751904 0.042777337 0.36800003 4284952619
-0.028634241 0.042893577 0.36900002 4285413170
-0.027584432 0.043126062 0.37100002 4287867026
-0.026450524 0.043242306 0.37200001 4287802262
-0.02537798 0.04347479 0.37400001 4287802777
-0.024227837 0.043591034 0.37500003 4287934365
-0.02337799 0.04428849 0.38100001 4287671707
-0.022198614 0.044404734 0.38200003 4287671707
-0.021067604 0.044637218 0.384 4287736732
-0.019871987 0.044753462 0.38500002 4285692786
-0.018669873 0.044869702 0.38600001 4285020724
-0.017461266 0.044985946 0.38700002 4294165435
-0.01624616 0.04510219 0.38800001 4289028439
-0.015024561 0.045218434 0.38900003 4287642159
-0.013796463 0.045334674 0.39000002 4287970611
-0.01256187 0.045450918 0.39100003 4287773745
-0.011291901 0.045450918 0.39100003 4288303437
-0.010047563 0.045567162 0.39200002 4288500300
-0.0087743467 0.045567162 0.39200002 4287774522
-0.0075202654 0.045683403 0.39300001 4287252546
-0.04492113 0.043614529 0.36500001 4288066465
-0.043735608 0.043614529 0.36500001 4288065951
-0.042550091 0.043614529 0.36500001 4287934365
-0.041364565 0.043614529 0.36500001 4288457375
-0.040179048 0.043614529 0.36500001 4284767060
-0.038886696 0.043495037 0.36400002 4284432952
-0.037808005 0.043614529 0.36500001 4284564536
-0.036622487 0.043614529 0.36500001 4284365612
-0.035436966 0.043614529 0.36500001 4286537041
-0.034251444 0.043614529 0.36500001 4288128662
-0.033156518 0.043734021 0.36600003 4288787876
-0.031967748 0.043734021 0.36600003 4288852901
-0.030863075 0.04385351 0.36700001 4284570964
-0.029751904 0.043973006 0.36800003 4285021496
-0.028634241 0.044092495 0.36900002 4285414455
-0.027584432 0.04433148 0.37100002 4289638042
-0.026450524 0.044450969 0.37200001 4287999125
-0.02537798 0.044689953 0.37400001 4287736986
-0.024292445 0.044928938 0.37600002 4287803293
-0.023316633 0.045406908 0.38000003 4287474074
-0.022198614 0.045645893 0.38200003 4287605660
-0.021012742 0.045765381 0.38300002 4287540121
-0.019871987 0.046004366 0.38500002 4287605400
-0.018669873 0.046123855 0.38600001 4287066725
-0.017461266 0.046243351 0.38700002 4286071352
-0.01624616 0.04636284 0.38800001 4287904302
-0.015024561 0.046482336 0.38900003 4288035116
-0.013796463 0.046601824 0.39000002 4288430644
-0.01256187 0.046721317 0.39100003 4294420889
-0.011291901 0.046721317 0.39100003 4291926915
-0.010047563 0.046840809 0.39200002 4289227088
-0.0087743467 0.046840809 0.39200002 4287971896
-0.0075202654 0.046960298 0.39300001 4287643704
-0.045167275 0.045045931 0.36700001 4288066213
-0.043855436 0.044923194 0.36600003 4287934627
-0.042666666 0.044923194 0.36600003 4287934627
-0.041477896 0.044923194 0.36600003 4287868832
-0.04028913 0.044923194 0.36600003 4287274385
-0.038993526 0.044800449 0.36500001 4285026890
-0.037808005 0.044800449 0.36500001 4284301366
-0.036622487 0.044800449 0.36500001 4283641122
-0.035534054 0.044923194 0.36600003 4283312670
-0.034345284 0.044923194 0.36600003 4287997842
-0.033156518 0.044923194 0.36600003 4287999641
-0.032055091 0.045045931 0.36700001 4287802266
-0.030863075 0.045045931 0.36700001 4287735190
-0.029751904 0.045168675 0.36800003 4283511344
-0.028634241 0.045291413 0.36900002 4285548351
-0.027584432 0.045536898 0.37100002 4285152562
-0.026450524 0.045659635 0.37200001 4289505171
-0.02537798 0.045905117 0.37400001 4287999895
-0.024292445 0.046150602 0.37600002 4287605396
-0.023255272 0.046518821 0.37900001 4287671191
-0.022140503 0.046764307 0.38100001 4287671193
-0.021012742 0.047009788 0.38300002 4288196252
-0.019871987 0.04725527 0.38500002 4288783506
-0.018669873 0.047378011 0.38600001 4287054647
-0.017461266 0.047500752 0.38700002 4287511597
-0.01624616 0.047623493 0.38800001 4287311393
-0.015024561 0.047746234 0.38900003 4288035116
-0.013796463 0.047868975 0.39000002 4288233265
-0.012529741 0.047868975 0.39000002 4287970865
-0.011291901 0.047991715 0.39100003 4287312681
-0.010047563 0.048114456 0.39200002 4287576366
-0.0087743467 0.048114456 0.39200002 4287773999
-0.0075202654 0.048237197 0.39300001 4287577647
-0.046738248 0.046616323 0.37 4288132004
-0.045290347 0.046364348 0.36800003 4288132004
-0.04409508 0.046364348 0.36800003 4288132004
-0.042783242 0.046238355 0.36700001 4288132004
-0.041591223 0.046238355 0.36700001 4288066211
-0.040399209 0.046238355 0.36700001 4287803039
-0.03910036 0.046112366 0.36600003 4285756523
-0.03791159 0.046112366 0.36600003 4284499774
-0.036722824 0.046112366 0.36600003 4284562226
-0.035631139 0.046238355 0.36700001 4283771427
-0.034439124 0.046238355 0.36700001 4289442206
-0.03324711 0.046238355 0.36700001 4287933332
-0.032055091 0.046238355 0.36700001 4288065438
-0.030947171 0.046364348 0.36800003 4287868059
-0.029832752 0.046490334 0.36900002 4286414710
-0.028711839 0.046616323 0.37 4283775540
-0.027584432 0.046742316 0.37100002 4285875769
-0.026450524 0.046868306 0.37200001 4286927176
-0.02537798 0.047120284 0.37400001 4287727735
-0.024292445 0.047372267 0.37600002 4288781966
-0.023255272 0.047750235 0.37900001 4289109388
-0.022140503 0.048002217 0.38100001 4287525991
-0.021012742 0.048254196 0.38300002 4286464315
-0.019871987 0.048506178 0.38500002 4286789682
-0.018669873 0.048632164 0.38600001 4287642411
-0.017461266 0.048758157 0.38700002 4287706921
-0.01624616 0.048884146 0.38800001 4287837735
-0.015024561 0.049010139 0.38900003 4288298286
-0.013761087 0.049010139 0.38900003 4287970861
-0.012529741 0.049136128 0.39000002 4287181347
-0.011291901 0.049262118 0.39100003 4286786337
-0.010047563 0.049388107 0.39200002 4287312681
-0.0087743467 0.049388107 0.39200002 4287116585
-0.00750113 0.049388107 0.39200002 4286592040
-0.046864569 0.047947731 0.37100002 4288592041
-0.045536488 0.047818489 0.37 4288394662
-0.044214904 0.047689252 0.36900002 4288329383
-0.043016393 0.047689252 0.36900002 4288132004
-0.04170455 0.047560014 0.36800003 4288066211
-0.040509287 0.047560014 0.36800003 4288000418
-0.03920719 0.047430772 0.36700001 4288986540
-0.038015172 0.047430772 0.36700001 4282730043
-0.036823157 0.047430772 0.36700001 4284694327
-0.035631139 0.047430772 0.36700001 4285022007
-0.034532964 0.047560014 0.36800003 4284036911
-0.033337701 0.047560014 0.36800003 4288652690
-0.032142434 0.047560014 0.36800003 4287802264
-0.031031266 0.047689252 0.36900002 4287868059
-0.029832752 0.047689252 0.36900002 4288197024
-0.028711839 0.047818489 0.37 4284575327
-0.027584432 0.047947731 0.37100002 4284889906
-0.026521629 0.04820621 0.37300003 4285940279
-0.02537798 0.048335448 0.37400001 4286398004
-0.024292445 0.048593923 0.37600002 4287517255
-0.023193913 0.048852403 0.37800002 4287118130
-0.022140503 0.04924012 0.38100001 4287642931
-0.021012742 0.049498599 0.38300002 4287575855
-0.019871987 0.049757078 0.38500002 4288036406
-0.018669873 0.049886316 0.38600001 4287641130
-0.017461266 0.050015558 0.38700002 4288035116
-0.01624616 0.050144795 0.38800001 4288232495
-0.014985936 0.050144795 0.38800001 4288299058
-0.013761087 0.050274037 0.38900003 4286261787
-0.012529741 0.050403275 0.39000002 4286591268
-0.011291901 0.050532516 0.39100003 4286459430
-0.010021932 0.050532516 0.39100003 4286722602
-0.0087743467 0.050661754 0.39200002 4286922036
-0.00750113 0.050661754 0.39200002 4284951587
-0.046990886 0.049285635 0.37200001 4288394662
-0.045659561 0.049153149 0.37100002 4288526762
-0.044334725 0.049020659 0.37 4288132004
-0.043132968 0.049020659 0.37 4288066211
-0.041817877 0.048888173 0.36900002 4288263590
-0.040619366 0.048888173 0.36900002 4288066211
-0.039314024 0.048755687 0.36800003 4288131490
-0.038118757 0.048755687 0.36800003 4288459174
-0.036923494 0.048755687 0.36800003 4284169274
-0.035728227 0.048755687 0.36800003 4284628532
-0.034532964 0.048755687 0.36800003 4285742389
-0.033428293 0.048888173 0.36900002 4288771693
-0.032229777 0.048888173 0.36900002 4287539344
-0.031031266 0.048888173 0.36900002 4287671191
-0.029913599 0.049020659 0.37 4287736984
-0.02878944 0.049153149 0.37100002 4287802777
-0.027584432 0.049153149 0.37100002 4285620572
-0.026521629 0.049418125 0.37300003 4284822829
-0.02537798 0.049550612 0.37400001 4286724912
-0.024292445 0.049815591 0.37600002 4286724139
-0.023193913 0.050080568 0.37800002 4287971124
-0.022082392 0.050345544 0.38000003 4288036404
-0.021012742 0.050743006 0.38300002 4289023553
