# .PCD v0.7 - Point Cloud Data file format
VERSION 0.7
FIELDS x y z rgb
SIZE 4 4 4 4
TYPE F F F U
COUNT 1 1 1 1
WIDTH 1051
HEIGHT 1
VIEWPOINT 0 0 0 1 0 0 0
POINTS 1051
DATA ascii
0.044700753 0.014999609 0.39200002 4279315219
0.045856692 0.014961344 0.39100003 4279055638
0.04700613 0.014923079 0.39000002 4278862877
0.048272848 0.014923079 0.39000002 4278665498
0.049412545 0.014884816 0.38900003 4278928670
0.050545745 0.01484655 0.38800001 4279191842
0.051672455 0.014808287 0.38700002 4279649320
0.052929427 0.014808287 0.38700002 4281358657
0.0080750771 0.016895955 0.40700001 4282204962
0.011833796 0.016605362 0.40000001 4281218331
0.0130345 0.016480822 0.39700001 4282602039
0.014251795 0.016397797 0.39500001 4281682230
0.015495427 0.016356282 0.39400002 4282603334
0.016732562 0.016314769 0.39300001 4283195982
0.017963205 0.016273256 0.39200002 4279773717
0.019236421 0.016273256 0.39200002 4281613343
0.020509636 0.016273256 0.39200002 4282204962
0.021782853 0.016273256 0.39200002 4281875736
0.023056071 0.016273256 0.39200002 4282007322
0.024329288 0.016273256 0.39200002 4282139162
0.025667815 0.016314769 0.39300001 4282468127
0.026944282 0.016314769 0.39300001 4280164873
0.028292555 0.016356282 0.39400002 4282207029
0.029647322 0.016397797 0.39500001 4281024302
0.030930284 0.016397797 0.39500001 4280761130
0.032294799 0.016439309 0.39600003 4282274369
0.033581007 0.016439309 0.39600003 4282076990
0.034955263 0.016480822 0.39700001 4282076990
0.036244716 0.016480822 0.39700001 4281419060
0.038725842 0.016439309 0.39600003 4279312402
0.04001205 0.016439309 0.39600003 4279771670
0.04119397 0.016397797 0.39500001 4280100635
0.042369392 0.016356282 0.39400002 4280101403
0.043538321 0.016314769 0.39300001 4279969817
0.044700753 0.016273256 0.39200002 4279379988
0.045856692 0.016231744 0.39100003 4278922258
0.04700613 0.016190229 0.39000002 4278599189
0.048149075 0.016148716 0.38900003 4278533910
0.04928552 0.016107202 0.38800001 4278600216
0.050415475 0.016065689 0.38700002 4278731802
0.051672455 0.016065689 0.38700002 4278336279
0.052929427 0.016065689 0.38700002 4278796316
0.054046385 0.016024174 0.38600001 4279059488
0.055300117 0.016024174 0.38600001 4279125281
0.056407336 0.015982661 0.38500002 4279190304
0.057657812 0.015982661 0.38500002 4279124511
0.058908295 0.015982661 0.38500002 4278927386
0.10173532 0.016231744 0.39100003 4278664982
0.10300529 0.016231744 0.39100003 4279059740
0.10427526 0.016231744 0.39100003 4278664982
0.0081147579 0.018307867 0.40900001 4282336289
0.011892965 0.017994529 0.40200001 4281480733
0.0130345 0.017770715 0.39700001 4281811238
0.014251795 0.017681191 0.39500001 4281747253
0.015495427 0.01763643 0.39400002 4281155118
0.016732562 0.017591666 0.39300001 4281549874
0.017963205 0.017546903 0.39200002 4280233752
0.019236421 0.017546903 0.39200002 4281678618
0.020509636 0.017546903 0.39200002 4281941788
0.021782853 0.017546903 0.39200002 4281744150
0.023056071 0.017546903 0.39200002 4281744404
0.024329288 0.017546903 0.39200002 4281941013
0.025667815 0.017591666 0.39300001 4282006806
0.026944282 0.017591666 0.39300001 4281875488
0.028292555 0.01763643 0.39400002 4281614124
0.029647322 0.017681191 0.39500001 4281090608
0.032294799 0.017725954 0.39600003 4282208576
0.033665806 0.017770715 0.39700001 4282208576
0.034955263 0.017770715 0.39700001 4281945404
0.036244716 0.017770715 0.39700001 4281353267
0.038725842 0.017725954 0.39600003 4279509268
0.039911009 0.017681191 0.39500001 4279771670
0.04108968 0.01763643 0.39400002 4279969049
0.042261854 0.017591666 0.39300001 4280232219
0.043427538 0.017546903 0.39200002 4279509266
0.044586722 0.017502142 0.39100003 4279314449
0.045739412 0.017457379 0.39000002 4279184658
0.046885602 0.017412616 0.38900003 4278859027
0.048149075 0.017412616 0.38900003 4278662931
0.04928552 0.017367853 0.38800001 4278533910
0.050415475 0.017323092 0.38700002 4278797595
0.051672455 0.017323092 0.38700002 4279193386
0.052929427 0.017323092 0.38700002 4282483552
0.054046385 0.017278329 0.38600001 4279060769
0.055300117 0.017278329 0.38600001 4278862875
0.056553848 0.017278329 0.38600001 4278797082
0.057657812 0.017233565 0.38500002 4278797082
0.058908295 0.017233565 0.38500002 4278797597
0.060002517 0.017188802 0.384 4278731804
0.097424507 0.017412616 0.38900003 4278994459
0.098687984 0.017412616 0.38900003 4278928666
0.10020839 0.017457379 0.39000002 4278994461
0.10173532 0.017502142 0.39100003 4279126047
0.10300529 0.017502142 0.39100003 4278863388
0.10427526 0.017502142 0.39100003 4278797595
0.01192255 0.019348681 0.40300003 4281678366
0.0130345 0.01906061 0.39700001 4281613341
0.014251795 0.018964587 0.39500001 4281220647
0.015495427 0.018916577 0.39400002 4281879093
0.016732562 0.018868564 0.39300001 4281747255
0.017963205 0.018820552 0.39200002 4279641104
0.01918735 0.018772542 0.39100003 4282007581
0.020457316 0.018772542 0.39100003 4282731302
0.021727286 0.018772542 0.39100003 4282204701
0.023056071 0.018820552 0.39200002 4282073115
0.024329288 0.018820552 0.39200002 4281809943
0.025667815 0.018868564 0.39300001 4282073115
0.026944282 0.018868564 0.39300001 4281613343
0.028292555 0.018916577 0.39400002 4281483306
0.029647322 0.018964587 0.39500001 4281813816
0.030930284 0.018964587 0.39500001 4281287472
0.032294799 0.0190126 0.39600003 4282339390
0.033665806 0.01906061 0.39700001 4282536769
0.034955263 0.01906061 0.39700001 4282273597
0.036244716 0.01906061 0.39700001 4281813048
0.038628045 0.018964587 0.39500001 4279443475
0.039911009 0.018964587 0.39500001 4279574289
0.04108968 0.018916577 0.39400002 4279574289
0.042261854 0.018868564 0.39300001 4279574289
0.043427538 0.018820552 0.39200002 4279443473
0.044586722 0.018772542 0.39100003 4279380242
0.045739412 0.018724529 0.39000002 4279382807
0.046885602 0.018676519 0.38900003 4279122199
0.048025295 0.018628506 0.38800001 4278728724
0.04928552 0.018628506 0.38800001 4278598421
0.050415475 0.018580494 0.38700002 4278664984
0.051672455 0.018580494 0.38700002 4278468632
0.052929427 0.018580494 0.38700002 4278206743
0.054186404 0.018580494 0.38700002 4278272021
0.055300117 0.018532483 0.38600001 4278272021
0.056553848 0.018532483 0.38600001 4278272021
0.057657812 0.018484471 0.38500002 4278337814
0.058908295 0.018484471 0.38500002 4278337814
0.060002517 0.01843646 0.384 4278469400
0.061249748 0.01843646 0.384 4278337814
0.062334232 0.018388448 0.38300002 4278337812
0.063578218 0.018388448 0.38300002 4278468882
0.064822197 0.018388448 0.38300002 4278337296
0.066066183 0.018388448 0.38300002 4278205710
0.067310169 0.018388448 0.38300002 4278468882
0.074188381 0.018244414 0.38000003 4278205456
0.075422622 0.018244414 0.38000003 4278205456
0.076858588 0.018292425 0.38100001 4278205199
0.078096077 0.018292425 0.38100001 4278600214
0.079333566 0.018292425 0.38100001 4278271249
0.080782533 0.018340437 0.38200003 4278402835
0.082023263 0.018340437 0.38200003 4278337042
0.083481967 0.018388448 0.38300002 4278337042
0.084725954 0.018388448 0.38300002 4278337042
0.08596994 0.018388448 0.38300002 4278402322
0.087213926 0.018388448 0.38300002 4278402322
0.095666632 0.018580494 0.38700002 4278468115
0.097174056 0.018628506 0.38800001 4278533908
0.098687984 0.018676519 0.38900003 4278468115
0.10020839 0.018724529 0.39000002 4278468115
0.10147512 0.018724529 0.39000002 4278665494
0.10274184 0.018724529 0.39000002 4278665494
0.10400856 0.018724529 0.39000002 4278600214
0.10527529 0.018724529 0.39000002 4278797593
0.10626882 0.018676519 0.38900003 4278666007
0.10753229 0.018676519 0.38900003 4278863386
0.10879576 0.018676519 0.38900003 4278994459
0.11005924 0.018676519 0.38900003 4278731287
0.11103653 0.018628506 0.38800001 4278994459
0.11229676 0.018628506 0.38800001 4278862873
0.012011304 0.02081185 0.40600002 4281875486
0.013001667 0.020299245 0.39600003 4281809947
0.014215714 0.020196723 0.39400002 4281285407
0.015456098 0.020145461 0.39300001 4283063105
0.016689988 0.020094201 0.39200002 4281878839
0.017963205 0.020094201 0.39200002 4281286188
0.01918735 0.020042941 0.39100003 4281942306
0.020457316 0.020042941 0.39100003 4282533925
0.021727286 0.020042941 0.39100003 4282599718
0.023056071 0.020094201 0.39200002 4282665511
0.024329288 0.020094201 0.39200002 4281743900
0.025667815 0.020145461 0.39300001 4282007329
0.026944282 0.020145461 0.39300001 4281614374
0.028292555 0.020196723 0.39400002 4282339130
0.029647322 0.020247983 0.39500001 4283194953
0.032294799 0.020299245 0.39600003 4281220649
0.033665806 0.020350505 0.39700001 4281089323
0.034955263 0.020350505 0.39700001 4282274369
0.036244716 0.020350505 0.39700001 4281155118
0.037439633 0.020299245 0.39600003 4280890151
0.038628045 0.020247983 0.39500001 4279639571
0.039809968 0.020196723 0.39400002 4279442190
0.040985391 0.020145461 0.39300001 4279639569
0.04215432 0.020094201 0.39200002 4279508496
0.043316755 0.020042941 0.39100003 4279443471
0.044472687 0.019991679 0.39000002 4279248656
0.045622133 0.019940419 0.38900003 4279909664
0.046885602 0.019940419 0.38900003 4278727957
0.048025295 0.019889157 0.38800001 4278532115
0.04928552 0.019889157 0.38800001 4278467605
0.050545745 0.019889157 0.38800001 4278599191
0.051672455 0.019837897 0.38700002 4278336533
0.052929427 0.019837897 0.38700002 4278402326
0.054186404 0.019837897 0.38700002 4278402324
0.055443384 0.019837897 0.38700002 4278336531
0.056553848 0.019786635 0.38600001 4278336531
0.057807572 0.019786635 0.38600001 4278204431
0.058908295 0.019735375 0.38500002 4278468115
0.060158778 0.019735375 0.38500002 4278402322
0.061249748 0.019684114 0.384 4278402322
0.062496983 0.019684114 0.384 4278468115
0.063744217 0.019684114 0.384 4278468369
0.064991444 0.019684114 0.384 4278533648
0.066238679 0.019684114 0.384 4278401808
0.067485914 0.019684114 0.384 4278599187
0.068733148 0.019684114 0.384 4278467603
0.07314612 0.019530332 0.38100001 4278928154
0.074383609 0.019530332 0.38100001 4278533396
0.075621098 0.019530332 0.38100001 4278533396
0.076858588 0.019530332 0.38100001 4278796568
0.078301057 0.019581594 0.38200003 4278599189
0.079541795 0.019581594 0.38200003 4278467603
0.080994003 0.019632854 0.38300002 4278796568
0.082237981 0.019632854 0.38300002 4278664980
0.083481967 0.019632854 0.38300002 4278796566
0.084947169 0.019684114 0.384 4278599187
0.086194396 0.019684114 0.384 4278664982
0.087441631 0.019684114 0.384 4278533396
0.088688865 0.019684114 0.384 4278795798
0.089701891 0.019632854 0.38300002 4278795798
0.095666632 0.019837897 0.38700002 4278664982
0.097174056 0.019889157 0.38800001 4278599189
0.098687984 0.019940419 0.38900003 4278664982
0.099951454 0.019940419 0.38900003 4278533396
0.10147512 0.019991679 0.39000002 4278862359
0.10274184 0.019991679 0.39000002 4278664210
0.10400856 0.019991679 0.39000002 4278730005
0.10527529 0.019991679 0.39000002 4278796568
0.10626882 0.019940419 0.38900003 4278599189
0.10753229 0.019940419 0.38900003 4278599187
0.10879576 0.019940419 0.38900003 4278664980
0.11005924 0.019940419 0.38900003 4278598417
0.11132272 0.019940419 0.38900003 4278927382
0.11258619 0.019940419 0.38900003 4278795796
0.11384965 0.019940419 0.38900003 4278730003
0.012968834 0.021531377 0.39500001 4281744154
0.014215714 0.021476869 0.39400002 4281415964
0.015456098 0.021422358 0.39300001 4283062590
0.016689988 0.021367848 0.39200002 4282472000
0.01791738 0.021313339 0.39100003 4282340160
0.01918735 0.021313339 0.39100003 4282208056
0.020457316 0.021313339 0.39100003 4282010417
0.021727286 0.021313339 0.39100003 4283061570
0.023056071 0.021367848 0.39200002 4287668627
0.024329288 0.021367848 0.39200002 4291352517
0.025667815 0.021422358 0.39300001 4281482538
0.026944282 0.021422358 0.39300001 4282207804
0.028292555 0.021476869 0.39400002 4282208828
0.029647322 0.021531377 0.39500001 4279575824
0.03100859 0.021585887 0.39600003 4279640334
0.033665806 0.021640398 0.39700001 4279311887
0.034955263 0.021640398 0.39700001 4284249444
0.036244716 0.021640398 0.39700001 4284183910
0.037439633 0.021585887 0.39600003 4284709995
0.038530257 0.021476869 0.39400002 4279049744
0.039708927 0.021422358 0.39300001 4279705362
0.040881105 0.021367848 0.39200002 4279705362
0.04215432 0.021367848 0.39200002 4279573776
0.043316755 0.021313339 0.39100003 4279509264
0.044472687 0.021258829 0.39000002 4279118353
0.045622133 0.021204319 0.38900003 4279252504
0.046885602 0.021204319 0.38900003 4278596371
0.048149075 0.021204319 0.38900003 4278465298
0.04928552 0.021149809 0.38800001 4278730007
0.050545745 0.021149809 0.38800001 4278927386
0.051805973 0.021149809 0.38800001 4278927386
0.053066194 0.021149809 0.38800001 4279058972
0.054326419 0.021149809 0.38800001 4278993179
0.055443384 0.0210953 0.38700002 4278664212
0.05670036 0.0210953 0.38700002 4278795798
0.057807572 0.02104079 0.38600001 4278533396
0.0590613 0.02104079 0.38600001 4278533910
0.060158778 0.020986279 0.38500002 4278402324
0.061249748 0.020931769 0.384 4278336531
0.062496983 0.020931769 0.384 4278467603
0.063744217 0.020931769 0.384 4278333451
0.064991444 0.020931769 0.384 4278198784
0.066238679 0.020931769 0.384 4278795287
0.067485914 0.020931769 0.384 4278795798
0.068733148 0.020931769 0.384 4278795798
0.069980375 0.020931769 0.384 4278795798
0.073338106 0.02082275 0.38200003 4278795796
0.074578844 0.02082275 0.38200003 4278730003
0.075819589 0.02082275 0.38200003 4278664212
0.077060319 0.02082275 0.38200003 4278730005
0.07850603 0.020877261 0.38300002 4278730005
0.079750016 0.020877261 0.38300002 4278598419
0.080994003 0.020877261 0.38300002 4278664212
0.0824527 0.020931769 0.384 4278730005
0.083699934 0.020931769 0.384 4278730005
0.084947169 0.020931769 0.384 4278795798
0.086418867 0.020986279 0.38500002 4278664214
0.08766935 0.020986279 0.38500002 4278795800
0.088919833 0.020986279 0.38500002 4278861080
0.090638727 0.0210953 0.38700002 4278795287
0.094653606 0.021149809 0.38800001 4278795798
0.095666632 0.0210953 0.38700002 4278927384
0.097174056 0.021149809 0.38800001 4278993177
0.098687984 0.021204319 0.38900003 4278795285
0.099951454 0.021204319 0.38900003 4278795285
0.10147512 0.021258829 0.39000002 4278795285
0.10274184 0.021258829 0.39000002 4279715617
0.10400856 0.021258829 0.39000002 4278860308
0.10527529 0.021258829 0.39000002 4278861078
0.106542 0.021258829 0.39000002 4278992664
0.10780872 0.021258829 0.39000002 4278795285
0.10907544 0.021258829 0.39000002 4278795285
0.11034217 0.021258829 0.39000002 4278991892
0.11160889 0.021258829 0.39000002 4278926099
0.11287561 0.021258829 0.39000002 4279123480
0.11414232 0.021258829 0.39000002 4279386652
0.11540904 0.021258829 0.39000002 4278927384
0.11667576 0.021258829 0.39000002 4278795798
0.11764008 0.021204319 0.38900003 4278993177
0.12395559 0.021422358 0.39300001 4279124250
0.012129641 0.023681156 0.41000003 4282138658
0.01342849 0.023623398 0.40900001 4281809693
0.014179633 0.022699254 0.39300001 4281743900
0.015456098 0.022699254 0.39300001 4281283606
0.016689988 0.022641497 0.39200002 4283457861
0.01791738 0.022583738 0.39100003 4283130182
0.01918735 0.022583738 0.39100003 4282208826
0.020457316 0.022583738 0.39100003 4282406205
0.021727286 0.022583738 0.39100003 4282143035
0.022997255 0.022583738 0.39100003 4281682230
0.024329288 0.022641497 0.39200002 4282404671
0.025602503 0.022641497 0.39200002 4282667841
0.026944282 0.022699254 0.39300001 4281154854
0.038530257 0.022757014 0.39400002 4284907887
0.039708927 0.022699254 0.39300001 4279179533
0.040881105 0.022641497 0.39200002 4279836950
0.042046785 0.022583738 0.39100003 4279837461
0.043316755 0.022583738 0.39100003 4279575570
0.044472687 0.022525977 0.39000002 4279184658
0.045739412 0.022525977 0.39000002 4279384090
0.046885602 0.02246822 0.38900003 4278924566
0.048149075 0.02246822 0.38900003 4278465039
0.049412545 0.02246822 0.38900003 4278861080
0.050676022 0.02246822 0.38900003 4278795287
0.051805973 0.02241046 0.38800001 4278795800
0.053066194 0.02241046 0.38800001 4279124765
0.054326419 0.02241046 0.38800001 4278927386
0.055586647 0.02241046 0.38800001 4279058972
0.05670036 0.022352701 0.38700002 4278730007
0.057957333 0.022352701 0.38700002 4278795798
0.0590613 0.022294942 0.38600001 4278795798
0.060158778 0.022237184 0.38500002 4278730005
0.061409254 0.022237184 0.38500002 4278795798
0.062659733 0.022237184 0.38500002 4279190556
0.063744217 0.022179425 0.384 4278265863
0.064991444 0.022179425 0.384 4278462220
0.066238679 0.022179425 0.384 4278991129
0.067485914 0.022179425 0.384 4278860310
0.068733148 0.022179425 0.384 4278728211
0.070162617 0.022237184 0.38500002 4278990613
0.0714131 0.022237184 0.38500002 4278464269
0.073530093 0.022121666 0.38300002 4278594574
0.074774079 0.022121666 0.38300002 4278594574
0.076018065 0.022121666 0.38300002 4278462988
0.077262044 0.022121666 0.38300002 4278726160
0.078711003 0.022179425 0.384 4278660880
0.079958238 0.022179425 0.384 4278331915
0.081205472 0.022179425 0.384 4278199559
0.082667425 0.022237184 0.38500002 4278331402
0.083917908 0.022237184 0.38500002 4278727957
0.085168391 0.022237184 0.38500002 4278198531
0.086418867 0.022237184 0.38500002 4278196992
0.087897062 0.022294942 0.38600001 4278197762
0.089150794 0.022294942 0.38600001 4278197248
0.090638727 0.022352701 0.38700002 4278198790
0.091895707 0.022352701 0.38700002 4278197248
0.093393385 0.02241046 0.38800001 4278196224
0.094653606 0.02241046 0.38800001 4278196992
0.095913835 0.02241046 0.38800001 4278195968
0.097424507 0.02246822 0.38900003 4278196736
0.098687984 0.02246822 0.38900003 4278197504
0.10020839 0.022525977 0.39000002 4278194944
0.10147512 0.022525977 0.39000002 4278196480
0.10274184 0.022525977 0.39000002 4278195968
0.10427526 0.022583738 0.39100003 4278195968
0.10554523 0.022583738 0.39100003 4278196224
0.10681519 0.022583738 0.39100003 4278195712
0.10808516 0.022583738 0.39100003 4278196736
0.10935513 0.022583738 0.39100003 4278198018
0.1106251 0.022583738 0.39100003 4278264841
0.11160889 0.022525977 0.39000002 4278462220
0.11287561 0.022525977 0.39000002 4278462220
0.11414232 0.022525977 0.39000002 4278528013
0.11540904 0.022525977 0.39000002 4278199815
0.11667576 0.022525977 0.39000002 4278992666
0.11794249 0.022525977 0.39000002 4278729492
0.11920921 0.022525977 0.39000002 4279189273
0.12047593 0.022525977 0.39000002 4279189273
0.12174266 0.022525977 0.39000002 4279123480
0.12364019 0.022641497 0.39200002 4279255066
0.12523206 0.022699254 0.39300001 4278991894
0.0055513047 0.025379336 0.41600001 4281348894
0.0068858806 0.025318328 0.41500002 4281809950
0.0082139615 0.025257321 0.41400003 4281744157
0.016647412 0.023854136 0.39100003 4281152022
0.01791738 0.023854136 0.39100003 4280363792
0.01918735 0.023854136 0.39100003 4281285407
0.020457316 0.023854136 0.39100003 4281812521
0.021727286 0.023854136 0.39100003 4282734652
0.022997255 0.023854136 0.39100003 4281879345
0.024329288 0.023915144 0.39200002 4281483821
0.025602503 0.023915144 0.39200002 4279772690
0.03960789 0.023915144 0.39200002 4284182368
0.040881105 0.023915144 0.39200002 4279772438
0.042046785 0.023854136 0.39100003 4279837461
0.043316755 0.023854136 0.39100003 4279576084
0.044472687 0.023793127 0.39000002 4278856463
0.045739412 0.023793127 0.39000002 4279187478
0.04700613 0.023793127 0.39000002 4278661648
0.048149075 0.02373212 0.38900003 4278268173
0.049412545 0.02373212 0.38900003 4278795285
0.050676022 0.02373212 0.38900003 4278795798
0.051939495 0.02373212 0.38900003 4278795798
0.053202964 0.02373212 0.38900003 4279124763
0.054466438 0.02373212 0.38900003 4278993177
0.055586647 0.023671111 0.38800001 4278664212
0.056846872 0.023671111 0.38800001 4278664212
0.057957333 0.023610104 0.38700002 4278730005
0.0590613 0.023549095 0.38600001 4278795796
0.060315032 0.023549095 0.38600001 4278927382
0.061409254 0.023488088 0.38500002 4278927382
0.062659733 0.023488088 0.38500002 4278795283
0.063910216 0.023488088 0.38500002 4278264841
0.065160699 0.023488088 0.38500002 4279119637
0.066411175 0.023488088 0.38500002 4278859543
0.067661658 0.023488088 0.38500002 4278266638
0.068912141 0.023488088 0.38500002 4278327302
0.070162617 0.023488088 0.38500002 4278393095
0.0714131 0.023488088 0.38500002 4278260998
0.072663583 0.023488088 0.38500002 4278391814
0.073722072 0.023427079 0.384 4278523400
0.074969307 0.023427079 0.384 4278523400
0.076216541 0.023427079 0.384 4278391814
0.0776655 0.023488088 0.38500002 4278523400
0.078915983 0.023488088 0.38500002 4278458123
0.080166467 0.023488088 0.38500002 4278458123
0.081628419 0.023549095 0.38600001 4278589193
0.082882144 0.023549095 0.38600001 4278260994
0.084135875 0.023549095 0.38600001 4279188510
0.085389607 0.023549095 0.38600001 4278925338
0.086643331 0.023549095 0.38600001 4279056154
0.088124774 0.023610104 0.38700002 4279253017
0.089381754 0.023610104 0.38700002 4279253017
0.090872936 0.023671111 0.38800001 4279450396
0.092133157 0.023671111 0.38800001 4279384090
0.093393385 0.023671111 0.38800001 4279647262
0.094653606 0.023671111 0.38800001 4279581982
0.096161038 0.02373212 0.38900003 4279450396
0.097424507 0.02373212 0.38900003 4279581469
0.098941676 0.023793127 0.39000002 4279450396
0.10020839 0.023793127 0.39000002 4279385117
0.10173532 0.023854136 0.39100003 4279187738
0.10300529 0.023854136 0.39100003 4279385371
0.10427526 0.023854136 0.39100003 4279385371
0.10554523 0.023854136 0.39100003 4279385371
0.10681519 0.023854136 0.39100003 4279319578
0.10808516 0.023854136 0.39100003 4279122199
0.10935513 0.023854136 0.39100003 4279385371
0.1106251 0.023854136 0.39100003 4279319578
0.11189507 0.023854136 0.39100003 4279254555
0.11316504 0.023854136 0.39100003 4279187992
0.11443499 0.023854136 0.39100003 4279778848
0.11570497 0.023854136 0.39100003 4280305446
0.11697494 0.023854136 0.39100003 4279254553
0.11824491 0.023854136 0.39100003 4279189273
0.11951488 0.023854136 0.39100003 4279123480
0.12078485 0.023854136 0.39100003 4279123480
0.12174266 0.023793127 0.39000002 4279189273
0.12364019 0.023915144 0.39200002 4279254553
0.0069024726 0.026730964 0.41600001 4282731047
0.0082338015 0.026666706 0.41500002 4283126057
0.0095586339 0.026602451 0.41400003 4281809950
0.021727286 0.025124537 0.39100003 4280822546
0.040881105 0.025188792 0.39200002 4281945406
0.04215432 0.025188792 0.39200002 4279837461
0.043316755 0.025124537 0.39100003 4279313682
0.044586722 0.025124537 0.39100003 4279119635
0.045739412 0.025060279 0.39000002 4279055638
0.04700613 0.025060279 0.39000002 4278661394
0.048272848 0.025060279 0.39000002 4278531091
0.04953957 0.025060279 0.39000002 4278664212
0.050806291 0.025060279 0.39000002 4278795798
0.052073013 0.025060279 0.39000002 4278927384
0.053202964 0.024996022 0.38900003 4278993177
0.054466438 0.024996022 0.38900003 4278927384
0.055729914 0.024996022 0.38900003 4278795798
0.056846872 0.024931764 0.38800001 4278730005
0.057957333 0.024867509 0.38700002 4278664212
0.059214313 0.024867509 0.38700002 4278993177
0.060315032 0.024803249 0.38600001 4278598419
0.061568756 0.024803249 0.38600001 4278664212
0.062659733 0.024738993 0.38500002 4278662931
0.063910216 0.024738993 0.38500002 4278328583
0.065160699 0.024738993 0.38500002 4279053592
0.066411175 0.024738993 0.38500002 4279187740
0.067661658 0.024738993 0.38500002 4278196481
0.068912141 0.024738993 0.38500002 4278589193
0.070162617 0.024738993 0.38500002 4278786058
0.071598589 0.024803249 0.38600001 4278786058
0.072852321 0.024803249 0.38600001 4278654472
0.073914059 0.024738993 0.38500002 4278917390
0.075164542 0.024738993 0.38500002 4279510041
0.076415025 0.024738993 0.38500002 4279379479
0.077867232 0.024803249 0.38600001 4278721549
0.079120956 0.024803249 0.38600001 4279510295
0.080374688 0.024803249 0.38600001 4279576858
0.081839897 0.024867509 0.38700002 4278721549
0.083096869 0.024867509 0.38700002 4279643932
0.084353849 0.024867509 0.38700002 4278925336
0.085610822 0.024867509 0.38700002 4278859543
0.086867794 0.024867509 0.38700002 4278197764
0.088352486 0.024931764 0.38800001 4278262790
0.089612715 0.024931764 0.38800001 4278725392
0.090872936 0.024931764 0.38800001 4278726162
0.092133157 0.024931764 0.38800001 4278791955
0.093634091 0.024996022 0.38900003 4278265611
0.094897561 0.024996022 0.38900003 4279384090
0.096161038 0.024996022 0.38900003 4278331402
0.097674951 0.025060279 0.39000002 4278726160
0.098941676 0.025060279 0.39000002 4278923541
0.10046534 0.025124537 0.39100003 4278858259
0.10173532 0.025124537 0.39100003 4279318810
0.10300529 0.025124537 0.39100003 4279516443
0.10454194 0.025188792 0.39200002 4278397962
0.10581516 0.025188792 0.39200002 4278397962
0.10708836 0.025188792 0.39200002 4278198787
0.10836159 0.025188792 0.39200002 4279319064
0.1096348 0.025188792 0.39200002 4278331656
0.11090802 0.025188792 0.39200002 4278198788
0.11218124 0.025188792 0.39200002 4279319324
0.11345446 0.025188792 0.39200002 4279188762
0.11472767 0.025188792 0.39200002 4278198018
0.11600088 0.025188792 0.39200002 4279844895
0.11727411 0.025188792 0.39200002 4279319578
0.11854732 0.025188792 0.39200002 4279320346
0.11982054 0.025188792 0.39200002 4279320346
0.12109376 0.025188792 0.39200002 4279320344
0.12364019 0.025188792 0.39200002 4279254553
0.040985391 0.026529947 0.39300001 4284184164
0.04215432 0.026462441 0.39200002 4278786058
0.043427538 0.026462441 0.39200002 4279379990
0.044586722 0.026394935 0.39100003 4279185941
0.045856692 0.026394935 0.39100003 4279121431
0.047126662 0.026394935 0.39100003 4278661394
0.048396628 0.026394935 0.39100003 4278531345
0.04953957 0.026327427 0.39000002 4278795798
0.050806291 0.026327427 0.39000002 4278664212
0.052073013 0.026327427 0.39000002 4278927384
0.053339731 0.026327427 0.39000002 4279058970
0.054466438 0.026259923 0.38900003 4278795796
0.055729914 0.026259923 0.38900003 4278795796
0.056846872 0.026192416 0.38800001 4278993175
0.058107093 0.026192416 0.38800001 4278795796
0.059214313 0.02612491 0.38700002 4278664212
0.060315032 0.026057404 0.38600001 4278730005
0.061568756 0.026057404 0.38600001 4278664212
0.062822483 0.026057404 0.38600001 4278991896
0.064076215 0.026057404 0.38600001 4278194176
0.065160699 0.025989898 0.38500002 4279317275
0.066411175 0.025989898 0.38500002 4279056154
0.067837402 0.026057404 0.38600001 4278195969
0.069091134 0.026057404 0.38600001 4279445270
0.070344858 0.026057404 0.38600001 4279116818
0.071598589 0.026057404 0.38600001 4278458375
0.072852321 0.026057404 0.38600001 4279313684
0.074106045 0.026057404 0.38600001 4278524168
0.075359777 0.026057404 0.38600001 4278984719
0.076613501 0.026057404 0.38600001 4278327302
0.078068964 0.02612491 0.38700002 4278392584
0.079325937 0.02612491 0.38700002 4279775518
0.080582917 0.02612491 0.38700002 4278459658
0.081839897 0.02612491 0.38700002 4278523916
0.083311588 0.026192416 0.38800001 4280039201
0.084571816 0.026192416 0.38800001 4279319324
0.085832037 0.026192416 0.38800001 4278198276
0.087092258 0.026192416 0.38800001 4278524170
0.088352486 0.026192416 0.38800001 4278720779
0.089612715 0.026192416 0.38800001 4279118613
0.091107145 0.026259923 0.38900003 4279514141
0.092370622 0.026259923 0.38900003 4279318812
0.093634091 0.026259923 0.38900003 4278660115
0.094897561 0.026259923 0.38900003 4278593806
0.096408233 0.026327427 0.39000002 4279317529
0.097674951 0.026327427 0.39000002 4279581469
0.099195376 0.026394935 0.39100003 4278988564
0.10046534 0.026394935 0.39100003 4278197764
0.10173532 0.026394935 0.39100003 4278987281
0.10326872 0.026462441 0.39200002 4278723855
0.10454194 0.026462441 0.39200002 4279975459
0.10581516 0.026462441 0.39200002 4279318297
0.10736155 0.026529947 0.39300001 4279120918
0.10863802 0.026529947 0.39300001 4278922256
0.10991448 0.026529947 0.39300001 4279251221
0.11119094 0.026529947 0.39300001 4278198278
0.11246742 0.026529947 0.39300001 4279515930
0.11374388 0.026529947 0.39300001 4279582750
0.11502033 0.026529947 0.39300001 4278198278
0.11629681 0.026529947 0.39300001 4279450650
0.11757327 0.026529947 0.39300001 4279189275
0.11884973 0.026529947 0.39300001 4279189273
0.1201262 0.026529947 0.39300001 4279255066
0.12171158 0.026597453 0.39400002 4278991892
0.039809968 0.027877599 0.39400002 4283592027
0.040985391 0.027806843 0.39300001 4283526234
0.042261854 0.027806843 0.39300001 4280828208
0.043427538 0.027736088 0.39200002 4279183894
0.044700753 0.027736088 0.39200002 4279055127
0.045973971 0.027736088 0.39200002 4278924566
0.047126662 0.027665334 0.39100003 4278530578
0.048396628 0.027665334 0.39100003 4278794515
0.049666595 0.027665334 0.39100003 4278927382
0.050936565 0.027665334 0.39100003 4278664210
0.052206539 0.027665334 0.39100003 4279124761
0.053339731 0.027594578 0.39000002 4278993177
0.054606453 0.027594578 0.39000002 4278927384
0.055729914 0.027523823 0.38900003 4278927382
0.056993388 0.027523823 0.38900003 4278730003
0.058107093 0.027453067 0.38800001 4278795283
0.059214313 0.027382312 0.38700002 4278992664
0.060471293 0.027382312 0.38700002 4278730005
0.061568756 0.027311556 0.38600001 4278664212
0.062822483 0.027311556 0.38600001 4279057176
0.064076215 0.027311556 0.38600001 4278194944
0.065329939 0.027311556 0.38600001 4279252252
0.066583671 0.027311556 0.38600001 4279253017
0.067837402 0.027311556 0.38600001 4278328070
0.069091134 0.027311556 0.38600001 4279313686
0.070344858 0.027311556 0.38600001 4278392582
0.071598589 0.027311556 0.38600001 4279379477
0.072852321 0.027311556 0.38600001 4279050512
0.074106045 0.027311556 0.38600001 4278524168
0.075555012 0.027382312 0.38700002 4278918928
0.076811984 0.027382312 0.38700002 4278523400
0.078068964 0.027382312 0.38700002 4278786572
0.079325937 0.027382312 0.38700002 4279183379
0.080791138 0.027453067 0.38800001 4278722828
0.082051367 0.027453067 0.38800001 4278852365
0.083311588 0.027453067 0.38800001 4279579418
0.084571816 0.027453067 0.38800001 4279055640
0.08605326 0.027523823 0.38900003 4278328070
0.087316729 0.027523823 0.38900003 4278917642
0.088580206 0.027523823 0.38900003 4278654986
0.089843675 0.027523823 0.38900003 4279711774
0.091107145 0.027523823 0.38900003 4279054355
0.092370622 0.027523823 0.38900003 4278199045
0.093874797 0.027594578 0.39000002 4279450396
0.095141515 0.027594578 0.39000002 4279318812
0.096408233 0.027594578 0.39000002 4278529296
0.097925402 0.027665334 0.39100003 4279055127
0.099195376 0.027665334 0.39100003 4279318299
0.10046534 0.027665334 0.39100003 4279581469
0.10199551 0.027736088 0.39200002 4279515676
0.10326872 0.027736088 0.39200002 4279515676
0.10454194 0.027736088 0.39200002 4279384090
0.10608509 0.027806843 0.39300001 4279252758
0.10736155 0.027806843 0.39300001 4279647516
0.10863802 0.027806843 0.39300001 4279515930
0.11019417 0.027877599 0.39400002 4279581723
0.11147388 0.027877599 0.39400002 4279647262
0.11275359 0.027877599 0.39400002 4279384090
0.11403331 0.027877599 0.39400002 4279909664
0.11531302 0.027877599 0.39400002 4279119637
0.11659273 0.027877599 0.39400002 4279254814
0.11817161 0.027948353 0.39500001 4279189275
0.11945457 0.027948353 0.39500001 4279123480
0.12073753 0.027948353 0.39500001 4279189273
0.12202049 0.027948353 0.39500001 4279320859
0.036244716 0.029379759 0.39700001 4283328342
0.037534177 0.029379759 0.39700001 4283525721
0.038725842 0.029305754 0.39600003 4283592027
0.039911009 0.029231749 0.39500001 4283789406
0.04108968 0.029157747 0.39400002 4283526234
0.042261854 0.02908374 0.39300001 4283525721
0.043538321 0.02908374 0.39300001 4278920722
0.044700753 0.029009737 0.39200002 4279253019
0.045973971 0.029009737 0.39200002 4278924568
0.047247186 0.029009737 0.39200002 4278399505
0.048520405 0.029009737 0.39200002 4278663701
0.04979362 0.029009737 0.39200002 4278730005
0.050936565 0.028935732 0.39100003 4278532624
0.052206539 0.028935732 0.39100003 4279058968
0.053476501 0.028935732 0.39100003 4278993175
0.054606453 0.028861728 0.39000002 4278795796
0.055729914 0.028787725 0.38900003 4278795796
0.056993388 0.028787725 0.38900003 4278861078
0.058107093 0.028713718 0.38800001 4278795283
0.059214313 0.028639715 0.38700002 4278992664
0.060471293 0.028639715 0.38700002 4278532113
0.061568756 0.028565709 0.38600001 4278795285
0.062822483 0.028565709 0.38600001 4278196480
0.064076215 0.028565709 0.38600001 4278262794
0.065329939 0.028565709 0.38600001 4278857496
0.066583671 0.028565709 0.38600001 4279581469
0.067837402 0.028565709 0.38600001 4278458890
0.069091134 0.028565709 0.38600001 4278851597
0.070344858 0.028565709 0.38600001 4278720011
0.071598589 0.028565709 0.38600001 4278654218
0.073041059 0.028639715 0.38700002 4278720011
0.074298032 0.028639715 0.38700002 4278851084
0.075555012 0.028639715 0.38700002 4278785291
0.076811984 0.028639715 0.38700002 4278851084
0.078270689 0.028713718 0.38800001 4278851084
0.07953091 0.028713718 0.38800001 4278786058
0.080791138 0.028713718 0.38800001 4278786058
0.082262844 0.028787725 0.38900003 4278260996
0.083526313 0.028787725 0.38900003 4279514395
0.084789783 0.028787725 0.38900003 4279317527
0.08605326 0.028787725 0.38900003 4279381523
0.087316729 0.028787725 0.38900003 4279840539
0.088580206 0.028787725 0.38900003 4279511574
0.089843675 0.028787725 0.38900003 4278789648
0.091341354 0.028861728 0.39000002 4278790418
0.092608072 0.028861728 0.39000002 4278593804
0.093874797 0.028861728 0.39000002 4278396425
0.095141515 0.028861728 0.39000002 4278330632
0.096408233 0.028861728 0.39000002 4278198018
0.097925402 0.028935732 0.39100003 4278196480
0.099195376 0.028935732 0.39100003 4278196224
0.10046534 0.028935732 0.39100003 4278196480
0.10199551 0.029009737 0.39200002 4278195968
0.10326872 0.029009737 0.39200002 4278195712
0.10480863 0.02908374 0.39300001 4278196224
0.10608509 0.02908374 0.39300001 4278194944
0.10736155 0.02908374 0.39300001 4278196480
0.10891445 0.029157747 0.39400002 4278197507
0.11019417 0.029157747 0.39400002 4278196736
0.11147388 0.029157747 0.39400002 4278195968
0.11303977 0.029231749 0.39500001 4278197250
0.11432273 0.029231749 0.39500001 4278856465
0.11560568 0.029231749 0.39500001 4279450398
0.11688864 0.029231749 0.39500001 4279188508
0.11847078 0.029305754 0.39600003 4279254301
0.11975699 0.029305754 0.39600003 4279254555
0.1210432 0.029305754 0.39600003 4279386139
0.12202049 0.029231749 0.39500001 4279451932
0.037534177 0.030669652 0.39700001 4283525721
0.038725842 0.030592399 0.39600003 4283526234
0.039911009 0.030515144 0.39500001 4283394648
0.04108968 0.030437892 0.39400002 4283526234
0.042369392 0.030437892 0.39400002 4283131222
0.043538321 0.030360637 0.39300001 4283526234
0.044814784 0.030360637 0.39300001 4279054357
0.046091251 0.030360637 0.39300001 4279253019
0.047247186 0.030283384 0.39200002 4278596371
0.048520405 0.030283384 0.39200002 4278728470
0.04979362 0.030283384 0.39200002 4278861078
0.051066838 0.030283384 0.39200002 4278992664
0.052206539 0.030206133 0.39100003 4279058970
0.053476501 0.030206133 0.39100003 4278927386
0.054606453 0.030128878 0.39000002 4278927386
0.055873174 0.030128878 0.39000002 4278730007
0.056993388 0.030051624 0.38900003 4278795798
0.058107093 0.029974369 0.38800001 4278927384
0.059214313 0.029897118 0.38700002 4278795798
0.060471293 0.029897118 0.38700002 4278795285
0.061728265 0.029897118 0.38700002 4278860310
0.062822483 0.029819863 0.38600001 4278990359
0.064076215 0.029819863 0.38600001 4279054873
0.065329939 0.029819863 0.38600001 4279187486
0.066583671 0.029819863 0.38600001 4279121945
0.067837402 0.029819863 0.38600001 4279317529
0.069091134 0.029819863 0.38600001 4279644443
0.070344858 0.029819863 0.38600001 4279446551
0.071784079 0.029897118 0.38700002 4279381273
0.073041059 0.029897118 0.38700002 4279644445
0.074298032 0.029897118 0.38700002 4279776029
0.075555012 0.029897118 0.38700002 4279841822
0.077010468 0.029974369 0.38800001 4279710750
0.078270689 0.029974369 0.38800001 4279973922
0.07953091 0.029974369 0.38800001 4279710750
0.080999367 0.030051624 0.38900003 4280500266
0.082262844 0.030051624 0.38900003 4279778080
0.083526313 0.030051624 0.38900003 4279251734
0.084789783 0.030051624 0.38900003 4279646492
0.08605326 0.030051624 0.38900003 4279909664
0.087316729 0.030051624 0.38900003 4279514908
0.088807911 0.030128878 0.39000002 4279383322
0.090074636 0.030128878 0.39000002 4279449115
0.091341354 0.030128878 0.39000002 4279778080
0.092608072 0.030128878 0.39000002 4279713057
0.093874797 0.030128878 0.39000002 4279976227
0.095141515 0.030128878 0.39000002 4279778848
0.096655443 0.030206133 0.39100003 4279713309
0.097925402 0.030206133 0.39100003 4279581723
0.099195376 0.030206133 0.39100003 4279779102
0.10072229 0.030283384 0.39200002 4279581723
0.10199551 0.030283384 0.39200002 4279516189
0.10326872 0.030283384 0.39200002 4279581982
0.10480863 0.030360637 0.39300001 4279516189
0.10608509 0.030360637 0.39300001 4279779361
0.10763474 0.030437892 0.39400002 4279581982
0.10891445 0.030437892 0.39400002 4279581982
0.11019417 0.030437892 0.39400002 4279647775
0.11175681 0.030515144 0.39500001 4279647775
0.11303977 0.030515144 0.39500001 4279713055
0.11432273 0.030515144 0.39500001 4279778848
0.11560568 0.030515144 0.39500001 4279647775
0.11688864 0.030515144 0.39500001 4279582496
0.11847078 0.030592399 0.39600003 4279779875
0.11975699 0.030592399 0.39600003 4279713568
0.1210432 0.030592399 0.39600003 4279253017
0.036244716 0.031959545 0.39700001 4283131476
0.037534177 0.031959545 0.39700001 4283459928
0.038725842 0.031879045 0.39600003 4283591514
0.039911009 0.031798538 0.39500001 4283526234
0.04119397 0.031798538 0.39500001 4283328855
0.042369392 0.031718038 0.39400002 4282999890
0.043649107 0.031718038 0.39400002 4282868818
0.044814784 0.031637534 0.39300001 4283131988
0.046091251 0.031637534 0.39300001 4278791185
0.047367714 0.031637534 0.39300001 4278924820
0.048520405 0.031557031 0.39200002 4278991896
0.04979362 0.031557031 0.39200002 4278992666
0.051066838 0.031557031 0.39200002 4279124252
0.052340057 0.031557031 0.39200002 4279124250
0.053476501 0.031476531 0.39100003 4278861078
0.054746471 0.031476531 0.39100003 4278993177
0.055873174 0.031396028 0.39000002 4278795798
0.056993388 0.031315524 0.38900003 4278730005
0.058107093 0.031235021 0.38800001 4278795798
0.059367318 0.031235021 0.38800001 4278992664
0.060471293 0.031154519 0.38700002 4278795285
0.061728265 0.031154519 0.38700002 4278398992
0.062822483 0.031074015 0.38600001 4278266124
0.064076215 0.031074015 0.38600001 4278463763
0.065329939 0.031074015 0.38600001 4278727959
0.066583671 0.031074015 0.38600001 4278925849
0.067837402 0.031074015 0.38600001 4279189021
0.069091134 0.031074015 0.38600001 4278991129
0.070344858 0.031074015 0.38600001 4278991129
0.071784079 0.031154519 0.38700002 4279188508
0.073041059 0.031154519 0.38700002 4279320348
0.074298032 0.031154519 0.38700002 4279254555
0.075750239 0.031235021 0.38800001 4279188762
0.077010468 0.031235021 0.38800001 4279057176
0.078270689 0.031235021 0.38800001 4279188762
0.07973589 0.031315524 0.38900003 4279320348
0.080999367 0.031315524 0.38900003 4279057176
0.082262844 0.031315524 0.38900003 4279385371
0.083526313 0.031315524 0.38900003 4279187992
0.084789783 0.031315524 0.38900003 4279451164
0.086274475 0.031396028 0.39000002 4279451164
0.087541193 0.031396028 0.39000002 4279648543
0.088807911 0.031396028 0.39000002 4279385371
0.090074636 0.031396028 0.39000002 4279385371
0.091341354 0.031396028 0.39000002 4279451164
0.092608072 0.031396028 0.39000002 4279319578
0.093874797 0.031396028 0.39000002 4279516957
0.095141515 0.031396028 0.39000002 4279451164
0.096655443 0.031476531 0.39100003 4279516957
0.097925402 0.031476531 0.39100003 4279385371
0.099195376 0.031476531 0.39100003 4279516957
0.10072229 0.031557031 0.39200002 4279516957
0.10199551 0.031557031 0.39200002 4279582750
0.10326872 0.031557031 0.39200002 4279582750
0.10480863 0.031637534 0.39300001 4279385371
0.10608509 0.031637534 0.39300001 4279648543
0.10763474 0.031718038 0.39400002 4279385371
0.10891445 0.031718038 0.39400002 4279976742
0.11047384 0.031798538 0.39500001 4279385119
0.11175681 0.031798538 0.39500001 4279383320
0.11303977 0.031798538 0.39500001 4279777567
0.11461216 0.031879045 0.39600003 4280632876
0.11619103 0.031959545 0.39700001 4281619771
0.11748049 0.031959545 0.39700001 4283198033
0.11876994 0.031959545 0.39700001 4284777065
0.1200594 0.031959545 0.39700001 4285828476
0.037439633 0.033165686 0.39600003 4283196756
0.038725842 0.033165686 0.39600003 4283196756
0.039911009 0.033081934 0.39500001 4283459928
0.04119397 0.033081934 0.39500001 4283328342
0.042369392 0.032998186 0.39400002 4282999890
0.043649107 0.032998186 0.39400002 4282868564
0.044928819 0.032998186 0.39400002 4283197783
0.046091251 0.03291443 0.39300001 4283988067
0.047367714 0.03291443 0.39300001 4279713057
0.048644178 0.03291443 0.39300001 4279450396
0.049920641 0.03291443 0.39300001 4279320094
0.051066838 0.032830682 0.39200002 4279452193
0.052340057 0.032830682 0.39200002 4279255838
0.053613268 0.032830682 0.39200002 4279058457
0.054746471 0.03274693 0.39100003 4278927386
0.055873174 0.032663178 0.39000002 4278993179
0.056993388 0.032579426 0.38900003 4279058972
0.058107093 0.032495674 0.38800001 4278992666
0.059367318 0.032495674 0.38800001 4278926103
0.060471293 0.032411922 0.38700002 4279189275
0.061728265 0.032411922 0.38700002 4279123482
0.062822483 0.03232817 0.38600001 4279255068
0.064076215 0.03232817 0.38600001 4279254555
0.065329939 0.03232817 0.38600001 4279254555
0.066583671 0.03232817 0.38600001 4279255068
0.067837402 0.03232817 0.38600001 4279123482
0.069091134 0.03232817 0.38600001 4279123228
0.070344858 0.03232817 0.38600001 4279189021
0.071784079 0.032411922 0.38700002 4279189021
0.073041059 0.032411922 0.38700002 4279189021
0.074298032 0.032411922 0.38700002 4279254814
0.075750239 0.032495674 0.38800001 4279254814
0.077010468 0.032495674 0.38800001 4279254814
0.078270689 0.032495674 0.38800001 4279386400
0.07973589 0.032579426 0.38900003 4279255068
0.080999367 0.032579426 0.38900003 4279320348
0.082262844 0.032579426 0.38900003 4279516957
0.083526313 0.032579426 0.38900003 4279451164
0.085007749 0.032663178 0.39000002 4279451164
0.086274475 0.032663178 0.39000002 4279187992
0.087541193 0.032663178 0.39000002 4279122199
0.088807911 0.032663178 0.39000002 4279122199
0.090074636 0.032663178 0.39000002 4279451164
0.091341354 0.032663178 0.39000002 4279122199
0.092608072 0.032663178 0.39000002 4279121431
0.093874797 0.032663178 0.39000002 4279253017
0.095141515 0.032663178 0.39000002 4279318299
0.096655443 0.03274693 0.39100003 4279778850
0.097925402 0.03274693 0.39100003 4280436526
0.099195376 0.03274693 0.39100003 4281422138
0.10072229 0.032830682 0.39200002 4282540621
0.10199551 0.032830682 0.39200002 4283461723
0.10326872 0.032830682 0.39200002 4284317547
0.10480863 0.03291443 0.39300001 4285370233
0.10608509 0.03291443 0.39300001 4285632374
0.10763474 0.032998186 0.39400002 4285895546
0.10891445 0.032998186 0.39400002 4285501304
0.11047384 0.033081934 0.39500001 4285435513
0.11175681 0.033081934 0.39500001 4285369720
0.11332595 0.033165686 0.39600003 4285303157
0.11461216 0.033165686 0.39600003 4285303157
0.11619103 0.033249438 0.39700001 4285434229
0.11748049 0.033249438 0.39700001 4285368436
0.11876994 0.033249438 0.39700001 4285367923
0.1200594 0.033249438 0.39700001 4285696890
0.037439633 0.03445233 0.39600003 4283327572
0.038725842 0.03445233 0.39600003 4283130963
0.04001205 0.03445233 0.39600003 4283394135
0.04119397 0.03436533 0.39500001 4283328342
0.04247693 0.03436533 0.39500001 4282604365
0.043649107 0.034278329 0.39400002 4283064916
0.044928819 0.034278329 0.39400002 4283394648
0.046091251 0.034191329 0.39300001 4283789406
0.047367714 0.034191329 0.39300001 4283920992
0.048644178 0.034191329 0.39300001 4284579434
0.049920641 0.034191329 0.39300001 4282212169
0.051066838 0.034104329 0.39200002 4279975207
0.052340057 0.034104329 0.39200002 4278924314
0.053613268 0.034104329 0.39200002 4278858521
0.054746471 0.034017328 0.39100003 4278595351
0.055873174 0.033930324 0.39000002 4278661144
0.056993388 0.033843327 0.38900003 4278596123
0.058256857 0.033843327 0.38900003 4278661144
0.059367318 0.033756323 0.38800001 4278989593
0.060471293 0.033669323 0.38700002 4278989593
0.061728265 0.033669323 0.38700002 4279187224
0.062822483 0.033582322 0.38600001 4279120918
0.064076215 0.033582322 0.38600001 4279712287
0.065329939 0.033582322 0.38600001 4279843873
0.066583671 0.033582322 0.38600001 4280238118
0.067837402 0.033582322 0.38600001 4280238118
0.069091134 0.033582322 0.38600001 4281224759
0.070344858 0.033582322 0.38600001 4281158966
0.071784079 0.033669323 0.38700002 4281686077
0.073041059 0.033669323 0.38700002 4281686075
0.074298032 0.033669323 0.38700002 4282738252
0.075750239 0.033756323 0.38800001 4282672972
0.077010468 0.033756323 0.38800001 4283199316
0.078270689 0.033756323 0.38800001 4283133523
0.07973589 0.033843327 0.38900003 4283528027
0.11619103 0.034539331 0.39700001 4285631095
0.11748049 0.034539331 0.39700001 4285631095
0.039911009 0.035648726 0.39500001 4283328342
0.04119397 0.035648726 0.39500001 4283196756
0.04247693 0.035648726 0.39500001 4283065170
0.043649107 0.035558477 0.39400002 4283130709
0.044928819 0.035558477 0.39400002 4283328342
0.046208534 0.035558477 0.39400002 4283854686
0.047367714 0.035468228 0.39300001 4283920992
0.060826376 0.022033675 0.39133123 4294967295
0.060826376 0.022033675 0.39133123 4294901760
0.060826376 0.022033675 0.39183122 4294901760
0.060826376 0.022033675 0.39233121 4294901760
0.060826376 0.022033675 0.39283124 4294901760
0.060826376 0.022033675 0.39333123 4294901760
0.060826376 0.022033675 0.39383122 4294901760
0.060826376 0.022033675 0.39433122 4294901760
0.060826376 0.022033675 0.39483124 4294901760
0.060826376 0.022033675 0.39533123 4294901760
0.060826376 0.022033675 0.39583123 4294901760
0.060826376 0.022033675 0.39633122 4294901760
0.060826376 0.022033675 0.39683121 4294901760
0.060826376 0.022033675 0.39733124 4294901760
0.060826376 0.022033675 0.39783123 4294901760
0.060826376 0.022033675 0.39833122 4294901760
0.060826376 0.022033675 0.39883122 4294901760
0.060826376 0.022033675 0.39933121 4294901760
0.060826376 0.022033675 0.39983124 4294901760
0.060826376 0.022033675 0.40033123 4294901760
0.060826376 0.022033675 0.40083122 4294901760
0.060826376 0.022033675 0.40133122 4294901760
0.060826376 0.022033675 0.40183124 4294901760
0.060826376 0.022033675 0.40233123 4294901760
0.060826376 0.022033675 0.40283123 4294901760
0.060826376 0.022033675 0.40333122 4294901760
0.060826376 0.022033675 0.40383124 4294901760
0.060826376 0.022033675 0.40433124 4294901760
0.060826376 0.022033675 0.40483123 4294901760
0.060826376 0.022033675 0.40533122 4294901760
0.060826376 0.022033675 0.40583122 4294901760
0.060826376 0.022033675 0.40633124 4294901760
0.060826376 0.022033675 0.40683123 4294901760
0.060826376 0.022033675 0.40733123 4294901760
0.060826376 0.022033675 0.40783122 4294901760
0.060826376 0.022033675 0.40833122 4294901760
0.060826376 0.022033675 0.40883124 4294901760
0.060826376 0.022033675 0.40933123 4294901760
0.060826376 0.022033675 0.40983123 4294901760
0.060826376 0.022033675 0.41033122 4294901760
0.060826376 0.022033675 0.41083124 4294901760
0.060826376 0.022033675 0.41133124 4294901760
0.060826376 0.022033675 0.41183123 4294901760
0.060826376 0.022033675 0.41233122 4294901760
0.060826376 0.022033675 0.41283125 4294901760
0.060826376 0.022033675 0.41333124 4294901760
0.060826376 0.022033675 0.41383123 4294901760
0.060826376 0.022033675 0.41433123 4294901760
0.060826376 0.022033675 0.41483122 4294901760
0.060826376 0.022033675 0.41533124 4294901760
0.060826376 0.022033675 0.41583124 4294901760
0.060826376 0.022033675 0.41633123 4294901760
0.060826376 0.022033675 0.41683123 4294901760
0.060826376 0.022033675 0.41733122 4294901760
0.060826376 0.022033675 0.41783124 4294901760
0.060826376 0.022033675 0.41833124 4294901760
0.060826376 0.022033675 0.41883123 4294901760
0.060826376 0.022033675 0.41933122 4294901760
0.060826376 0.022033675 0.41983122 4294901760
0.060826376 0.022033675 0.42033124 4294901760
0.060826376 0.022033675 0.42083123 4294901760
0.060826376 0.022033675 0.42133123 4294901760
0.060826376 0.022033675 0.42183122 4294901760
0.060826376 0.022033675 0.42233124 4294901760
0.060826376 0.022033675 0.42283124 4294901760
