# .PCD v0.7 - Point Cloud Data file format
VERSION 0.7
FIELDS x y z rgb
SIZE 4 4 4 4
TYPE F F F U
COUNT 1 1 1 1
WIDTH 993
HEIGHT 1
VIEWPOINT 0 0 0 1 0 0 0
POINTS 993
DATA ascii
0.050070208 -0.023421699 0.37500003 4280958519
0.097673193 -0.024046278 0.38500002 4286289288
0.098923676 -0.024046278 0.38500002 4286355079
0.10446548 -0.024171194 0.38700002 4286487181
0.10572244 -0.024171194 0.38700002 4286224779
0.10697942 -0.024171194 0.38700002 4283528029
0.1082364 -0.024171194 0.38700002 4280897079
0.10949338 -0.024171194 0.38700002 4280437553
0.13168682 -0.025295435 0.40500003 4278733853
0.13300227 -0.025295435 0.40500003 4278996255
0.13431771 -0.025295435 0.40500003 4279127328
0.048852205 -0.022203285 0.37500003 4280366122
0.09642271 -0.022795374 0.38500002 4286157702
0.097673193 -0.022795374 0.38500002 4286223495
0.098923676 -0.022795374 0.38500002 4286487179
0.10043435 -0.022854581 0.38600001 4286355847
0.10168808 -0.022854581 0.38600001 4283528031
0.10294181 -0.022854581 0.38600001 4280897081
0.10446548 -0.022913791 0.38700002 4280701497
0.10572244 -0.022913791 0.38700002 4280438577
0.10697942 -0.022913791 0.38700002 4280175916
0.1082364 -0.022913791 0.38700002 4279913514
0.1097763 -0.022972999 0.38800001 4279191842
0.11103653 -0.022972999 0.38800001 4279323428
0.12742509 -0.023920339 0.40400001 4278733083
0.12905595 -0.023979548 0.40500003 4278864669
0.13037139 -0.023979548 0.40500003 4279522086
0.13168682 -0.023979548 0.40500003 4279522086
0.13300227 -0.023979548 0.40500003 4279718182
0.13431771 -0.023979548 0.40500003 4279915049
0.047634203 -0.020984873 0.37500003 4280563501
0.048852205 -0.020984873 0.37500003 4280037157
0.049936686 -0.020928912 0.37400001 4279773215
0.051151432 -0.020928912 0.37400001 4281221942
0.053580943 -0.020928912 0.37400001 4280564531
0.054795697 -0.020928912 0.37400001 4283461733
0.078292444 -0.021040833 0.37600002 4285895814
0.079513699 -0.021040833 0.37600002 4285960837
0.080734938 -0.021040833 0.37600002 4285960837
0.081956193 -0.021040833 0.37600002 4286026630
0.08317744 -0.021040833 0.37600002 4286026630
0.092430569 -0.021488508 0.384 4285828737
0.093677796 -0.021488508 0.384 4286091907
0.095172234 -0.02154447 0.38500002 4286881937
0.09642271 -0.02154447 0.38500002 4284581750
0.097673193 -0.02154447 0.38500002 4281029180
0.099180616 -0.021600427 0.38600001 4280635704
0.10043435 -0.021600427 0.38600001 4280306991
0.10168808 -0.021600427 0.38600001 4280110893
0.1032085 -0.021656388 0.38700002 4279914797
0.10446548 -0.021656388 0.38700002 4279389734
0.10572244 -0.021656388 0.38700002 4279389732
0.10725585 -0.021712348 0.38800001 4279323937
0.10851608 -0.021712348 0.38800001 4279323937
0.11005924 -0.021768307 0.38900003 4278929949
0.11132272 -0.021768307 0.38900003 4279062048
0.11287561 -0.021824267 0.39000002 4278864669
0.12548858 -0.022495782 0.40200001 4279586850
0.12710968 -0.022551743 0.40300003 4279586850
0.12873729 -0.022607703 0.40400001 4279455264
0.13037139 -0.022663662 0.40500003 4279652904
0.13168682 -0.022663662 0.40500003 4279718697
0.13300227 -0.022663662 0.40500003 4280177451
0.13431771 -0.022663662 0.40500003 4280242733
0.047634203 -0.019766459 0.37500003 4281088811
0.048721932 -0.019713746 0.37400001 4280298784
0.049936686 -0.019713746 0.37400001 4280298530
0.051014666 -0.019661037 0.37300003 4279706906
0.052226175 -0.019661037 0.37300003 4281353528
0.05343768 -0.019661037 0.37300003 4281222712
0.054649185 -0.019661037 0.37300003 4280238129
0.055860687 -0.019661037 0.37300003 4281884237
0.076253399 -0.01992459 0.37800002 4285764228
0.07727617 -0.019871878 0.377 4285764228
0.078292444 -0.019819168 0.37600002 4285764228
0.079513699 -0.019819168 0.37600002 4285830021
0.080734938 -0.019819168 0.37600002 4285960837
0.08217416 -0.019871878 0.377 4285960837
0.083398655 -0.019871878 0.377 4285763458
0.084847614 -0.01992459 0.37800002 4286026116
0.089701891 -0.020188142 0.38300002 4286289286
0.091183335 -0.020240853 0.384 4285830786
0.092430569 -0.020240853 0.384 4282804306
0.093677796 -0.020240853 0.384 4280831799
0.095172234 -0.020293564 0.38500002 4280109873
0.09642271 -0.020293564 0.38500002 4279848752
0.097673193 -0.020293564 0.38500002 4279717420
0.099180616 -0.020346273 0.38600001 4279586346
0.10043435 -0.020346273 0.38600001 4279192355
0.10195152 -0.020398986 0.38700002 4279258146
0.1032085 -0.020398986 0.38700002 4279192353
0.10446548 -0.020398986 0.38700002 4279193123
0.10599563 -0.020451695 0.38800001 4279258914
0.10725585 -0.020451695 0.38800001 4279127328
0.10879576 -0.020504406 0.38900003 4279259168
0.11034217 -0.020557117 0.39000002 4278864669
0.11160889 -0.020557117 0.39000002 4278864669
0.11316504 -0.020609828 0.39100003 4278864669
0.11502033 -0.020715248 0.39300001 4279390500
0.11906912 -0.020978801 0.39800003 4279389217
0.12066424 -0.021031512 0.39900002 4279586596
0.12196019 -0.021031512 0.39900002 4279323424
0.12356506 -0.021084221 0.40000001 4279848484
0.12517643 -0.021136932 0.40100002 4278728720
0.12710968 -0.021242354 0.40300003 4278794515
0.12841862 -0.021242354 0.40300003 4279914279
0.13004948 -0.021295063 0.40400001 4279586598
0.13168682 -0.021347774 0.40500003 4279980842
0.13300227 -0.021347774 0.40500003 4280701999
0.13431771 -0.021347774 0.40500003 4280503598
0.047634203 -0.018548045 0.37500003 4280694051
0.048721932 -0.018498583 0.37400001 4280759333
0.049803168 -0.018449122 0.37300003 4280101403
0.051014666 -0.018449122 0.37300003 4280429600
0.052226175 -0.018449122 0.37300003 4280036639
0.05343768 -0.018449122 0.37300003 4281221942
0.054649185 -0.018449122 0.37300003 4281026360
0.055860687 -0.018449122 0.37300003 4280108078
0.059335694 -0.01839966 0.37200001 4285435776
0.060543951 -0.01839966 0.37200001 4285566849
0.061752211 -0.01839966 0.37200001 4285895044
0.063129716 -0.018449122 0.37300003 4285763458
0.064341217 -0.018449122 0.37300003 4285764228
0.065552726 -0.018449122 0.37300003 4285566849
0.074188381 -0.018795352 0.38000003 4285566849
0.075422622 -0.018795352 0.38000003 4285632642
0.076253399 -0.018696429 0.37800002 4285764228
0.077481151 -0.018696429 0.37800002 4285632642
0.078500666 -0.018646967 0.377 4285764228
0.079725169 -0.018646967 0.377 4285830021
0.080949657 -0.018646967 0.377 4285632642
0.082392126 -0.018696429 0.37800002 4285501056
0.083619878 -0.018696429 0.37800002 4285895814
0.085072078 -0.01874589 0.37900001 4286422156
0.086758502 -0.018844813 0.38100001 4284909171
0.088226952 -0.018894276 0.38200003 4281029692
0.089701891 -0.018943736 0.38300002 4279845416
0.091183335 -0.018993197 0.384 4280110123
0.092430569 -0.018993197 0.384 4280045354
0.093677796 -0.018993197 0.384 4279258148
0.095172234 -0.01904266 0.38500002 4279258148
0.09642271 -0.01904266 0.38500002 4278731802
0.097926885 -0.01909212 0.38600001 4278995744
0.099180616 -0.01909212 0.38600001 4279061537
0.10069454 -0.019141583 0.38700002 4279127843
0.10195152 -0.019141583 0.38700002 4279391783
0.10347518 -0.019191043 0.38800001 4279062818
0.10473541 -0.019191043 0.38800001 4279062048
0.10626882 -0.019240506 0.38900003 4278930462
0.10753229 -0.019240506 0.38900003 4278930716
0.10907544 -0.019289967 0.39000002 4279061789
0.1106251 -0.019339429 0.39100003 4279258914
0.11218124 -0.01938889 0.39200002 4279258914
0.11374388 -0.019438351 0.39300001 4279389730
0.11531302 -0.019487813 0.39400002 4279718182
0.11748049 -0.019636197 0.39700001 4279651107
0.11906912 -0.01968566 0.39800003 4279650594
0.12066424 -0.01973512 0.39900002 4278268173
0.12196019 -0.01973512 0.39900002 4278530832
0.12356506 -0.019784581 0.40000001 4280767794
0.12517643 -0.019834043 0.40100002 4280241196
0.12679426 -0.019883504 0.40200001 4280240680
0.12841862 -0.019932967 0.40300003 4279847205
0.13004948 -0.019982427 0.40400001 4280111658
0.13136166 -0.019982427 0.40400001 4280440110
0.13300227 -0.020031888 0.40500003 4280766770
0.047634203 -0.017329631 0.37500003 4280496672
0.048591658 -0.017237207 0.37300003 4280693538
0.049803168 -0.017237207 0.37300003 4280429596
0.050877895 -0.017190995 0.37200001 4280890147
0.052086156 -0.017190995 0.37200001 4281021220
0.053294413 -0.017190995 0.37200001 4280364573
0.05450267 -0.017190995 0.37200001 4280499756
0.055710923 -0.017190995 0.37200001 4279777317
0.057072192 -0.017237207 0.37300003 4279650605
0.058283698 -0.017237207 0.37300003 4279519021
0.059495199 -0.017237207 0.37300003 4286029196
0.060706709 -0.017237207 0.37300003 4285501569
0.061918214 -0.017237207 0.37300003 4285960837
0.063129716 -0.017237207 0.37300003 4285566849
0.064341217 -0.017237207 0.37300003 4285566849
0.065728471 -0.017283419 0.37400001 4285501056
0.0717199 -0.017560694 0.38000003 4285632642
0.072954141 -0.017560694 0.38000003 4285632642
0.074188381 -0.017560694 0.38000003 4285566849
0.075422622 -0.017560694 0.38000003 4285632642
0.076455131 -0.01751448 0.37900001 4285632642
0.077686124 -0.01751448 0.37900001 4285632642
0.078708895 -0.017468268 0.37800002 4285632642
0.079936638 -0.017468268 0.37800002 4285764226
0.081164382 -0.017468268 0.37800002 4285962118
0.082610093 -0.01751448 0.37900001 4283528801
0.083841085 -0.01751448 0.37900001 4280700215
0.085296549 -0.017560694 0.38000003 4279846701
0.086986214 -0.017653119 0.38200003 4280110641
0.088226952 -0.017653119 0.38200003 4279717418
0.089701891 -0.017699331 0.38300002 4279126049
0.091183335 -0.017745541 0.384 4279389219
0.092430569 -0.017745541 0.384 4279323939
0.093921751 -0.017791755 0.38500002 4278995744
0.095172234 -0.017791755 0.38500002 4279258914
0.09642271 -0.017791755 0.38500002 4279456806
0.097926885 -0.017837968 0.38600001 4279391783
0.099180616 -0.017837968 0.38600001 4279194406
0.10069454 -0.01788418 0.38700002 4279062820
0.10221496 -0.017930392 0.38800001 4278799646
0.10347518 -0.017930392 0.38800001 4278997025
0.10500535 -0.017976604 0.38900003 4279062048
0.106542 -0.018022817 0.39000002 4279390500
0.10780872 -0.018022817 0.39000002 4279521570
0.10935513 -0.018069031 0.39100003 4279586850
0.11090802 -0.018115241 0.39200002 4279389217
0.11246742 -0.018161453 0.39300001 4279455012
0.11403331 -0.018207667 0.39400002 4279387935
0.11560568 -0.018253878 0.39500001 4278202893
0.11748049 -0.018346304 0.39700001 4279516957
0.11906912 -0.018392516 0.39800003 4280175657
0.12066424 -0.018438729 0.39900002 4280372782
0.12196019 -0.018438729 0.39900002 4280306989
0.12356506 -0.018484941 0.40000001 4280241709
0.12517643 -0.018531153 0.40100002 4278201101
0.12679426 -0.018577365 0.40200001 4280110123
0.12809996 -0.018577365 0.40200001 4280111147
0.12972757 -0.018623577 0.40300003 4280111145
0.13136166 -0.01866979 0.40400001 4280176168
0.046663754 -0.016197145 0.377 4280694051
0.047634203 -0.016111219 0.37500003 4280562467
0.048591658 -0.016025292 0.37300003 4280364575
0.049669642 -0.015982328 0.37200001 4280363803
0.050877895 -0.015982328 0.37200001 4281218083
0.052086156 -0.015982328 0.37200001 4281547046
0.053294413 -0.015982328 0.37200001 4281086495
0.05450267 -0.015982328 0.37200001 4280759585
0.055710923 -0.015982328 0.37200001 4280300831
0.057072192 -0.016025292 0.37300003 4279387683
0.058283698 -0.016025292 0.37300003 4279717418
0.059495199 -0.016025292 0.37300003 4279058216
0.060706709 -0.016025292 0.37300003 4285569159
0.061918214 -0.016025292 0.37300003 4285567360
0.063298963 -0.016068256 0.37400001 4285566847
0.064513713 -0.016068256 0.37400001 4285632640
0.065904215 -0.016111219 0.37500003 4285369468
0.067301206 -0.016154181 0.37600002 4285763456
0.068886936 -0.016240109 0.37800002 4285697663
0.070300169 -0.016283071 0.37900001 4285895042
0.0717199 -0.016326034 0.38000003 4285763456
0.072954141 -0.016326034 0.38000003 4285697663
0.074188381 -0.016326034 0.38000003 4285960835
0.075422622 -0.016326034 0.38000003 4285501054
0.076455131 -0.016283071 0.37900001 4286027398
0.077686124 -0.016283071 0.37900001 4285567614
0.078917116 -0.016283071 0.37900001 4282541906
0.080148108 -0.016283071 0.37900001 4279978026
0.081379101 -0.016283071 0.37900001 4280175403
0.082828067 -0.016326034 0.38000003 4279979820
0.084062308 -0.016326034 0.38000003 4279585832
0.085521005 -0.016368998 0.38100001 4279256867
0.086986214 -0.016411962 0.38200003 4279191842
0.088457912 -0.016454924 0.38300002 4278995744
0.089701891 -0.016454924 0.38300002 4278995744
0.091183335 -0.016497888 0.384 4279390500
0.092430569 -0.016497888 0.384 4279193634
0.093921751 -0.016540851 0.38500002 4279456808
0.095172234 -0.016540851 0.38500002 4279391013
0.096673153 -0.016583813 0.38600001 4278997025
0.097926885 -0.016583813 0.38600001 4278799646
0.099437565 -0.016626777 0.38700002 4279062048
0.10095473 -0.016669741 0.38800001 4279456293
0.10221496 -0.016669741 0.38800001 4279193121
0.10374188 -0.016712705 0.38900003 4279258916
0.10527529 -0.016755667 0.39000002 4279323939
0.10681519 -0.01679863 0.39100003 4279521318
0.10808516 -0.01679863 0.39100003 4280309037
0.1096348 -0.016841594 0.39200002 4278860308
0.11119094 -0.016884556 0.39300001 4278201608
0.11275359 -0.01692752 0.39400002 4280373034
0.11432273 -0.016970484 0.39500001 4279978276
0.11589836 -0.017013447 0.39600003 4280899378
0.11748049 -0.017056409 0.39700001 4279912485
0.11906912 -0.017099373 0.39800003 4279715106
0.12066424 -0.017142337 0.39900002 4279516703
0.12196019 -0.017142337 0.39900002 4280175403
0.12356506 -0.017185299 0.40000001 4279846438
0.12517643 -0.017228262 0.40100002 4280569391
0.12647887 -0.017228262 0.40100002 4280175916
0.12809996 -0.017271226 0.40200001 4280110893
0.12972757 -0.01731419 0.40300003 4280372784
0.04678753 -0.015011949 0.37800002 4280233504
0.048269324 -0.015091376 0.38000003 4280825639
0.048461385 -0.014773663 0.37200001 4280562467
0.049669642 -0.014773663 0.37200001 4280561436
0.057225201 -0.014853091 0.37400001 4279189273
0.058439955 -0.014853091 0.37400001 4278928156
0.059654702 -0.014853091 0.37400001 4279323176
0.060869459 -0.014853091 0.37400001 4279190054
0.062084213 -0.014853091 0.37400001 4285305473
0.063298963 -0.014853091 0.37400001 4285304958
0.064686216 -0.014892806 0.37500003 4285566847
0.065904215 -0.014892806 0.37500003 4285566847
0.067480199 -0.014972233 0.377 4285697663
0.068886936 -0.015011949 0.37800002 4285697663
0.07011468 -0.015011949 0.37800002 4285631870
0.071531162 -0.015051662 0.37900001 4285960835
0.072954141 -0.015091376 0.38000003 4285895812
0.074188381 -0.015091376 0.38000003 4284580719
0.075224139 -0.015051662 0.37900001 4281556036
0.076455131 -0.015051662 0.37900001 4280175151
0.077686124 -0.015051662 0.37900001 4279518758
0.078917116 -0.015051662 0.37900001 4279717418
0.080148108 -0.015051662 0.37900001 4279454500
0.081593826 -0.015091376 0.38000003 4278862877
0.082828067 -0.015091376 0.38000003 4279126560
0.084283523 -0.01513109 0.38100001 4279126560
0.085745476 -0.015170805 0.38200003 4278863388
0.087213926 -0.015210519 0.38300002 4279389732
0.088457912 -0.015210519 0.38300002 4279194406
0.0899361 -0.015250232 0.384 4279062820
0.091183335 -0.015250232 0.384 4278931234
0.092671275 -0.015289947 0.38500002 4278931234
0.093921751 -0.015289947 0.38500002 4278997027
0.095419429 -0.015329661 0.38600001 4279391015
0.096673153 -0.015329661 0.38600001 4279127330
0.098180585 -0.015369375 0.38700002 4279389732
0.099694505 -0.01540909 0.38800001 4279389730
0.10095473 -0.01540909 0.38800001 4279389730
0.10247841 -0.015448804 0.38900003 4279586598
0.10400856 -0.015488517 0.39000002 4279388707
0.10554523 -0.015528233 0.39100003 4278334736
0.10681519 -0.015528233 0.39100003 4278663701
0.10836159 -0.015567946 0.39200002 4280176940
0.10991448 -0.01560766 0.39300001 4280044584
0.11147388 -0.015647374 0.39400002 4280307241
0.11303977 -0.015687088 0.39500001 4279517725
0.11461216 -0.015726803 0.39600003 4279319576
0.11619103 -0.015766516 0.39700001 4279911201
0.11777641 -0.015806232 0.39800003 4279713568
0.11906912 -0.015806232 0.39800003 4279779361
0.12066424 -0.015845945 0.39900002 4280897842
0.12196019 -0.015845945 0.39900002 4280042533
0.12356506 -0.015885659 0.40000001 4279056152
0.12517643 -0.015925374 0.40100002 4280569391
0.12647887 -0.015925374 0.40100002 4280371498
0.12809996 -0.015965087 0.40200001 4282146374
0.040541269 -0.013747321 0.377 4280168223
0.046911307 -0.013820251 0.37900001 4279772951
0.049503569 -0.013856716 0.38000003 4280365086
0.050737809 -0.013856716 0.38000003 4280889888
0.05737821 -0.013674391 0.37500003 4279253269
0.058596212 -0.013674391 0.37500003 4278927384
0.059814211 -0.013674391 0.37500003 4278928154
0.061032213 -0.013674391 0.37500003 4279125535
0.062250216 -0.013674391 0.37500003 4279190054
0.06346821 -0.013674391 0.37500003 4282543962
0.064686216 -0.013674391 0.37500003 4285831815
0.066079959 -0.013710856 0.37600002 4285370751
0.067480199 -0.013747321 0.377 4285699716
0.068886936 -0.013783786 0.37800002 4286160267
0.07011468 -0.013783786 0.37800002 4284253037
0.071531162 -0.013820251 0.37900001 4280898104
0.072762154 -0.013820251 0.37900001 4280306737
0.073993146 -0.013820251 0.37900001 4280110125
0.075224139 -0.013820251 0.37900001 4279388453
0.076455131 -0.013820251 0.37900001 4278994463
0.077686124 -0.013820251 0.37900001 4279126562
0.078917116 -0.013820251 0.37900001 4279060769
0.080359586 -0.013856716 0.38000003 4279060767
0.081593826 -0.013856716 0.38000003 4279192353
0.083046034 -0.013893181 0.38100001 4279193634
0.084504746 -0.013929646 0.38200003 4279127841
0.085745476 -0.013929646 0.38200003 4279127841
0.087213926 -0.013966111 0.38300002 4278864671
0.088688865 -0.014002576 0.384 4278667292
0.0899361 -0.014002576 0.384 4279062050
0.091420792 -0.014039041 0.38500002 4278996257
0.092671275 -0.014039041 0.38500002 4279127843
0.094165698 -0.014075506 0.38600001 4279652902
0.095419429 -0.014075506 0.38600001 4279389730
0.096923605 -0.014111971 0.38700002 4279717668
0.098434277 -0.014148436 0.38800001 4280374828
0.099694505 -0.014148436 0.38800001 4279124250
0.10121493 -0.014184902 0.38900003 4278201864
0.10274184 -0.014221366 0.39000002 4280044584
0.10427526 -0.014257832 0.39100003 4280241963
0.10554523 -0.014257832 0.39100003 4279912998
0.10708836 -0.014294297 0.39200002 4278992666
0.10863802 -0.014330762 0.39300001 4280637491
0.11019417 -0.014367227 0.39400002 4279978278
0.11175681 -0.014403692 0.39500001 4279909664
0.11332595 -0.014440157 0.39600003 4278725390
0.11461216 -0.014440157 0.39600003 4280239912
0.11619103 -0.014476622 0.39700001 4280832051
0.11777641 -0.014513087 0.39800003 4280042535
0.11936828 -0.014549552 0.39900002 4278857748
0.12066424 -0.014549552 0.39900002 4280173606
0.12226585 -0.014586017 0.40000001 4280502571
0.12356506 -0.014586017 0.40000001 4280304424
0.12517643 -0.014622482 0.40100002 4283724895
0.12647887 -0.014622482 0.40100002 4286749837
0.041876554 -0.012555626 0.37800002 4280168223
0.047035087 -0.012622058 0.38000003 4280628260
0.049633838 -0.012655273 0.38100001 4280562206
0.050871328 -0.012655273 0.38100001 4281087265
0.057531219 -0.012489194 0.37600002 4279251473
0.05875247 -0.012489194 0.37600002 4278925588
0.059973713 -0.012489194 0.37600002 4279058970
0.061194964 -0.012489194 0.37600002 4278862361
0.062416214 -0.012489194 0.37600002 4278665244
0.063637458 -0.012489194 0.37600002 4279257383
0.064858705 -0.012489194 0.37600002 4279388203
0.066255704 -0.01252241 0.377 4279453226
0.067480199 -0.01252241 0.377 4279650092
0.068886936 -0.012555626 0.37800002 4279912494
0.070300169 -0.012588842 0.37900001 4279716396
0.071531162 -0.012588842 0.37900001 4279388455
0.072762154 -0.012588842 0.37900001 4279059742
0.073993146 -0.012588842 0.37900001 4278928670
0.075224139 -0.012588842 0.37900001 4278929183
0.076455131 -0.012588842 0.37900001 4278798367
0.077686124 -0.012588842 0.37900001 4278995746
0.078917116 -0.012588842 0.37900001 4279062050
0.080359586 -0.012622058 0.38000003 4279193634
0.081808545 -0.012655273 0.38100001 4278930462
0.083046034 -0.012655273 0.38100001 4278733083
0.084504746 -0.01268849 0.38200003 4278864669
0.08596994 -0.012721705 0.38300002 4278996255
0.087441631 -0.012754921 0.384 4278995744
0.088688865 -0.012754921 0.384 4279193123
0.090170309 -0.012788137 0.38500002 4279127330
0.091420792 -0.012788137 0.38500002 4279193123
0.092911974 -0.012821353 0.38600001 4279258146
0.09440966 -0.01285457 0.38700002 4279848488
0.095666632 -0.01285457 0.38700002 4279058457
0.097174056 -0.012887785 0.38800001 4279189273
0.098434277 -0.012887785 0.38800001 4280307243
0.099951454 -0.012921002 0.38900003 4280635954
0.10147512 -0.012954217 0.39000002 4279912233
0.10274184 -0.012954217 0.39000002 4279123228
0.10427526 -0.012987434 0.39100003 4280307502
0.10581516 -0.01302065 0.39200002 4278990361
0.10736155 -0.013053864 0.39300001 4280175916
0.10863802 -0.013053864 0.39300001 4279123228
0.11019417 -0.013087081 0.39400002 4280702001
0.11175681 -0.013120296 0.39500001 4281029682
0.11332595 -0.013153513 0.39600003 4279779102
0.11490158 -0.013186729 0.39700001 4278660367
0.11619103 -0.013186729 0.39700001 4280174121
0.11777641 -0.013219945 0.39800003 4280503086
0.11936828 -0.013253161 0.39900002 4280963124
0.12066424 -0.013253161 0.39900002 4282672205
0.12226585 -0.013286376 0.40000001 4286422406
0.12356506 -0.013286376 0.40000001 4286618765
0.041876554 -0.011327466 0.37800002 4282274880
0.045800846 -0.011387399 0.38000003 4280365088
0.057684224 -0.011297498 0.377 4279513875
0.058908723 -0.011297498 0.377 4279055379
0.059973713 -0.011267532 0.37600002 4278926103
0.061194964 -0.011267532 0.37600002 4278664212
0.062416214 -0.011267532 0.37600002 4278731804
0.063637458 -0.011267532 0.37600002 4279192873
0.065031201 -0.011297498 0.377 4278402072
0.066255704 -0.011297498 0.377 4279059488
0.067659192 -0.011327466 0.37800002 4278993695
0.068886936 -0.011327466 0.37800002 4278927902
0.070300169 -0.011357432 0.37900001 4278731037
0.071531162 -0.011357432 0.37900001 4278731291
0.072762154 -0.011357432 0.37900001 4278731802
0.073993146 -0.011357432 0.37900001 4279126560
0.075224139 -0.011357432 0.37900001 4279192353
0.076455131 -0.011357432 0.37900001 4279060767
0.077686124 -0.011357432 0.37900001 4278535193
0.079125345 -0.011387399 0.38000003 4278666779
0.080359586 -0.011387399 0.38000003 4278995744
0.081808545 -0.011417366 0.38100001 4278995744
0.083264008 -0.011447333 0.38200003 4279061535
0.084725954 -0.0114773 0.38300002 4279192351
0.08596994 -0.0114773 0.38300002 4279258144
0.087441631 -0.011507266 0.384 4279257631
0.088919833 -0.011537233 0.38500002 4279915049
0.090170309 -0.011537233 0.38500002 4279058970
0.091658242 -0.0115672 0.38600001 4278266636
0.093152687 -0.011597168 0.38700002 4278331150
0.09440966 -0.011597168 0.38700002 4278789650
0.095913835 -0.011627134 0.38800001 4280108328
0.097174056 -0.011627134 0.38800001 4280110377
0.098687984 -0.011657101 0.38900003 4278595603
0.099951454 -0.011657101 0.38900003 4278856724
0.10147512 -0.011687067 0.39000002 4279844643
0.10300529 -0.011717035 0.39100003 4280372012
0.10427526 -0.011717035 0.39100003 4279845922
0.10581516 -0.011747002 0.39200002 4280438059
0.10736155 -0.011776968 0.39300001 4280503852
0.10891445 -0.011806935 0.39400002 4278991129
0.11019417 -0.011806935 0.39400002 4279385887
0.11175681 -0.011836901 0.39500001 4280437291
0.11332595 -0.011866868 0.39600003 4280832049
0.11490158 -0.011896836 0.39700001 4280699182
0.1164837 -0.011926803 0.39800003 4282080581
0.041876554 -0.010099305 0.37800002 4282078271
0.057837237 -0.010099305 0.37800002 4279382291
0.058908723 -0.010072587 0.377 4279252758
0.060133215 -0.010072587 0.377 4278727187
0.061357714 -0.010072587 0.377 4278596371
0.06258221 -0.010072587 0.377 4278796570
0.063806705 -0.010072587 0.377 4278204945
0.065203704 -0.010099305 0.37800002 4279587879
0.066431448 -0.010099305 0.37800002 4280244012
0.067659192 -0.010099305 0.37800002 4279059738
0.069069177 -0.010126023 0.37900001 4278993947
0.070300169 -0.010126023 0.37900001 4279257635
0.071531162 -0.010126023 0.37900001 4279191840
0.072762154 -0.010126023 0.37900001 4278994461
0.073993146 -0.010126023 0.37900001 4278797082
0.075224139 -0.010126023 0.37900001 4279126047
0.076455131 -0.010126023 0.37900001 4279389219
0.077891104 -0.01015274 0.38000003 4279126047
0.079125345 -0.01015274 0.38000003 4279323428
0.080571055 -0.010179458 0.38100001 4279126049
0.081808545 -0.010179458 0.38100001 4279191842
0.083264008 -0.010206176 0.38200003 4278993947
0.084725954 -0.010232894 0.38300002 4279716387
0.086194396 -0.010259612 0.384 4279055892
0.08766935 -0.010286329 0.38500002 4278199559
0.088919833 -0.010286329 0.38500002 4278789648
0.090404518 -0.010313047 0.38600001 4278920720
0.091658242 -0.010313047 0.38600001 4279118101
0.093152687 -0.010339765 0.38700002 4280433961
0.094653606 -0.010366483 0.38800001 4278263304
0.095913835 -0.010366483 0.38800001 4280108840
0.097424507 -0.0103932 0.38900003 4279251734
0.098687984 -0.0103932 0.38900003 4279052306
0.10020839 -0.010419918 0.39000002 4279317275
0.10147512 -0.010419918 0.39000002 4280700463
0.10300529 -0.010446636 0.39100003 4279977508
0.10454194 -0.010473354 0.39200002 4278464269
0.10581516 -0.010473354 0.39200002 4279648289
0.10736155 -0.010500071 0.39300001 4280569391
0.10891445 -0.010526789 0.39400002 4280503598
0.11019417 -0.010526789 0.39400002 4280437805
0.11175681 -0.010553506 0.39500001 4282080068
0.11332595 -0.010580225 0.39600003 4285434743
0.041876554 -0.0088711446 0.37800002 4281946687
0.048650399 -0.0089884875 0.38300002 4280627999
0.057837237 -0.0088711446 0.37800002 4279119889
0.059064981 -0.0088711446 0.37800002 4279317781
0.060292721 -0.0088711446 0.37800002 4278792466
0.061520468 -0.0088711446 0.37800002 4278530578
0.062748216 -0.0088711446 0.37800002 4278795033
0.063975953 -0.0088711446 0.37800002 4278927386
0.065203704 -0.0088711446 0.37800002 4278731289
0.066607192 -0.0088946121 0.37900001 4278731287
0.067838185 -0.0088946121 0.37900001 4278402576
0.069069177 -0.0088946121 0.37900001 4278665748
0.070300169 -0.0088946121 0.37900001 4278731287
0.0717199 -0.0089180814 0.38000003 4278862873
0.072954141 -0.0089180814 0.38000003 4279652389
0.074188381 -0.0089180814 0.38000003 4279125531
0.075422622 -0.0089180814 0.38000003 4279322910
0.076656863 -0.0089180814 0.38000003 4279257119
0.077891104 -0.0089180814 0.38000003 4278465298
0.079125345 -0.0089180814 0.38000003 4278464787
0.080571055 -0.0089415498 0.38100001 4279519269
0.082023263 -0.0089650191 0.38200003 4278663447
0.083481967 -0.0089884875 0.38300002 4278723855
0.084725954 -0.0089884875 0.38300002 4278854414
0.086194396 -0.0090119559 0.384 4278985230
0.08766935 -0.0090354243 0.38500002 4279774746
0.089150794 -0.0090588927 0.38600001 4280630825
0.090404518 -0.0090588927 0.38600001 4279380758
0.091895707 -0.0090823621 0.38700002 4280434475
0.093152687 -0.0090823621 0.38700002 4279315480
0.094653606 -0.0091058305 0.38800001 4280633389
0.095913835 -0.0091058305 0.38800001 4280240428
0.097424507 -0.0091292998 0.38900003 4280370215
0.098941676 -0.0091527672 0.39000002 4279908899
0.10020839 -0.0091527672 0.39000002 4279185689
0.10173532 -0.0091762366 0.39100003 4280173354
0.10300529 -0.0091762366 0.39100003 4280964149
0.10454194 -0.009199705 0.39200002 4280306989
0.10608509 -0.0092231734 0.39300001 4280437291
0.10736155 -0.0092231734 0.39300001 4281357110
0.041876554 -0.0076429839 0.37800002 4285171573
0.057990242 -0.0076632029 0.37900001 4279777819
0.059221238 -0.0076632029 0.37900001 4279317781
0.060452227 -0.0076632029 0.37900001 4278990099
0.061520468 -0.0076429839 0.37800002 4278727187
0.062914215 -0.0076632029 0.37900001 4279123228
0.0641452 -0.0076632029 0.37900001 4279189275
0.0653762 -0.0076632029 0.37900001 4279190045
0.066607192 -0.0076632029 0.37900001 4279519010
0.068017177 -0.0076834229 0.38000003 4279058970
0.069251418 -0.0076834229 0.38000003 4279190556
0.070485659 -0.0076834229 0.38000003 4279387937
0.0717199 -0.0076834229 0.38000003 4279256349
0.072954141 -0.0076834229 0.38000003 4279190554
0.074188381 -0.0076834229 0.38000003 4279584799
0.075422622 -0.0076834229 0.38000003 4279519006
0.076656863 -0.0076834229 0.38000003 4279321627
0.077891104 -0.0076834229 0.38000003 4279318299
0.079333566 -0.0077036424 0.38100001 4279910949
0.080571055 -0.0077036424 0.38100001 4279779363
0.082023263 -0.0077238623 0.38200003 4278790418
0.083481967 -0.0077440813 0.38300002 4278920209
0.084947169 -0.0077643008 0.384 4279774750
0.086418867 -0.0077845207 0.38500002 4280959022
0.08766935 -0.0077845207 0.38500002 4279511576
0.089150794 -0.0078047398 0.38600001 4279313684
0.090638727 -0.0078249592 0.38700002 4279577369
0.091895707 -0.0078249592 0.38700002 4279051025
0.093393385 -0.0078451792 0.38800001 4279249174
0.094653606 -0.0078451792 0.38800001 4279646242
0.096161038 -0.0078653991 0.38900003 4279186459
0.097424507 -0.0078653991 0.38900003 4280700211
0.098941676 -0.0078856181 0.39000002 4280897590
0.10020839 -0.0078856181 0.39000002 4280569393
0.10173532 -0.0079058381 0.39100003 4280503600
0.10300529 -0.0079058381 0.39100003 4281226042
0.05690901 -0.0064487639 0.38000003 4279382037
0.058143254 -0.0064487639 0.38000003 4279514906
0.059221238 -0.0064317929 0.37900001 4279185941
0.060452227 -0.0064317929 0.37900001 4278792466
0.061683219 -0.0064317929 0.37900001 4279121945
0.062914215 -0.0064317929 0.37900001 4279451680
0.0641452 -0.0064317929 0.37900001 4279188762
0.065548696 -0.0064487639 0.38000003 4279715365
0.066782936 -0.0064487639 0.38000003 4279452447
0.068017177 -0.0064487639 0.38000003 4279386652
0.069251418 -0.0064487639 0.38000003 4279320859
0.070671149 -0.006465734 0.38100001 4279321631
0.071908638 -0.006465734 0.38100001 4279453215
0.07314612 -0.006465734 0.38100001 4279519008
0.074383609 -0.006465734 0.38100001 4279321629
0.075621098 -0.006465734 0.38100001 4279913764
0.076858588 -0.006465734 0.38100001 4279320346
0.078096077 -0.006465734 0.38100001 4278396943
0.079333566 -0.006465734 0.38100001 4279911463
0.080782533 -0.0064827045 0.38200003 4278527500
0.082237981 -0.0064996746 0.38300002 4279776029
0.083481967 -0.0064996746 0.38300002 4280631338
0.084947169 -0.0065166452 0.384 4279644443
0.086418867 -0.0065336158 0.38500002 4279314197
0.087897062 -0.0065505859 0.38600001 4279379477
0.089150794 -0.0065505859 0.38600001 4279313686
0.090638727 -0.0065675569 0.38700002 4279642651
0.091895707 -0.0065675569 0.38700002 4280894764
0.093393385 -0.006584527 0.38800001 4280896561
0.094653606 -0.006584527 0.38800001 4280569139
0.096161038 -0.0066014975 0.38900003 4280569909
0.097424507 -0.0066014975 0.38900003 4280305967
0.098941676 -0.0066184676 0.39000002 4280897077
0.0559678 -0.0052415477 0.38200003 4279315984
0.05705877 -0.0052278261 0.38100001 4279317527
0.058296259 -0.0052278261 0.38100001 4279843873
0.059377495 -0.0052141049 0.38000003 4279185941
0.060611732 -0.0052141049 0.38000003 4278858259
0.061845973 -0.0052141049 0.38000003 4279121945
0.063080214 -0.0052141049 0.38000003 4278596371
0.064314455 -0.0052141049 0.38000003 4279320348
0.065721191 -0.0052278261 0.38100001 4279978024
0.066958681 -0.0052278261 0.38100001 4279649313
0.06819617 -0.0052278261 0.38100001 4279386654
0.069433659 -0.0052278261 0.38100001 4279320859
0.070671149 -0.0052278261 0.38100001 4279452445
0.071908638 -0.0052278261 0.38100001 4279452445
0.07314612 -0.0052278261 0.38100001 4279386652
0.074383609 -0.0052278261 0.38100001 4279519008
0.075621098 -0.0052278261 0.38100001 4279453215
0.077060319 -0.0052415477 0.38200003 4278859027
0.078301057 -0.0052415477 0.38200003 4280042535
0.079541795 -0.0052415477 0.38200003 4279845670
0.080994003 -0.0052552689 0.38300002 4278920974
0.082237981 -0.0052552689 0.38300002 4279051025
0.083699934 -0.0052689901 0.384 4279379477
0.084947169 -0.0052689901 0.384 4279051027
0.086418867 -0.0052827117 0.38500002 4279578652
0.087897062 -0.0052964329 0.38600001 4281289784
0.089150794 -0.0052964329 0.38600001 4281159733
0.090638727 -0.0053101545 0.38700002 4280765743
0.091895707 -0.0053101545 0.38700002 4280306219
0.093393385 -0.0053238757 0.38800001 4280240426
0.094653606 -0.0053238757 0.38800001 4281555522
0.0559678 -0.0040003904 0.38200003 4279250451
0.057208531 -0.0040003904 0.38200003 4279382809
0.058296259 -0.0039899182 0.38100001 4279186711
0.059533749 -0.0039899182 0.38100001 4278923539
0.060771234 -0.0039899182 0.38100001 4278924566
0.062008724 -0.0039899182 0.38100001 4279056922
0.063246213 -0.0039899182 0.38100001 4279254301
0.064483702 -0.0039899182 0.38100001 4279714852
0.065893687 -0.0040003904 0.38200003 4279781158
0.067134425 -0.0040003904 0.38200003 4279452193
0.06837517 -0.0040003904 0.38200003 4279386654
0.069615901 -0.0040003904 0.38200003 4279452445
0.070856638 -0.0040003904 0.38200003 4279453215
0.072097376 -0.0040003904 0.38200003 4279519008
0.073338106 -0.0040003904 0.38200003 4279453215
0.074578844 -0.0040003904 0.38200003 4279255836
0.075819589 -0.0040003904 0.38200003 4279649824
0.077060319 -0.0040003904 0.38200003 4278199561
0.078301057 -0.0040003904 0.38200003 4279779363
0.079750016 -0.0040108627 0.38300002 4279187226
0.080994003 -0.0040108627 0.38300002 4279052308
0.082237981 -0.0040108627 0.38300002 4280565547
0.083699934 -0.0040213349 0.384 4281029176
0.085168391 -0.0040318072 0.38500002 4280108588
0.086418867 -0.0040318072 0.38500002 4280503600
0.087897062 -0.0040422794 0.38600001 4280766772
0.089150794 -0.0040422794 0.38600001 4280699698
0.056114309 -0.0027664567 0.38300002 4279316762
0.057358291 -0.0027664567 0.38300002 4279448602
0.058449272 -0.0027592336 0.38200003 4279515676
0.05969001 -0.0027592336 0.38200003 4279055638
0.06093074 -0.0027592336 0.38200003 4279254301
0.062171482 -0.0027592336 0.38200003 4279056922
0.063412219 -0.0027592336 0.38200003 4279188508
0.06465295 -0.0027592336 0.38200003 4279781158
0.065893687 -0.0027592336 0.38200003 4279583779
0.067310169 -0.0027664567 0.38300002 4279452193
0.068554156 -0.0027664567 0.38300002 4279386654
0.069798134 -0.0027664567 0.38300002 4279584033
0.07104212 -0.0027664567 0.38300002 4279321631
0.072286114 -0.0027664567 0.38300002 4279453730
0.073530093 -0.0027664567 0.38300002 4279321631
0.074774079 -0.0027664567 0.38300002 4279716389
0.076018065 -0.0027664567 0.38300002 4279713570
0.077262044 -0.0027664567 0.38300002 4279975205
0.07850603 -0.0027664567 0.38300002 4280043047
0.079750016 -0.0027664567 0.38300002 4279912231
0.080994003 -0.0027664567 0.38300002 4280240426
0.0824527 -0.0027736798 0.384 4280569393
0.083699934 -0.0027736798 0.384 4280239147
0.084947169 -0.0027736798 0.384 4280962870
0.056114309 -0.0015220506 0.38300002 4279448350
0.057358291 -0.0015220506 0.38300002 4279383322
0.058602277 -0.0015220506 0.38300002 4278989845
0.059846263 -0.0015220506 0.38300002 4278989845
0.061090246 -0.0015220506 0.38300002 4279056922
0.062334232 -0.0015220506 0.38300002 4278991642
0.063578218 -0.0015220506 0.38300002 4279649572
0.064822197 -0.0015220506 0.38300002 4279846438
0.066066183 -0.0015220506 0.38300002 4279649059
0.067310169 -0.0015220506 0.38300002 4279781412
0.068733148 -0.0015260245 0.384 4279715619
0.069980375 -0.0015260245 0.384 4279386654
0.07122761 -0.0015260245 0.384 4279584803
0.072474845 -0.0015260245 0.384 4279519523
0.073722072 -0.0015260245 0.384 4279716389
0.074774079 -0.0015220506 0.38300002 4279320861
0.076018065 -0.0015220506 0.38300002 4279319072
0.077262044 -0.0015220506 0.38300002 4280042281
0.07850603 -0.0015220506 0.38300002 4280175405
0.079750016 -0.0015220506 0.38300002 4279714854
0.080994003 -0.0015220506 0.38300002 4282015562
0.057508048 -0.00027836935 0.384 4279383322
0.058755282 -0.00027836935 0.384 4279055638
0.060002517 -0.00027836935 0.384 4279319324
0.061249748 -0.00027836935 0.384 4279254555
0.062496983 -0.00027836935 0.384 4279386141
0.063744217 -0.00027836935 0.384 4279912485
0.064991444 -0.00027836935 0.384 4279780899
0.066238679 -0.00027836935 0.384 4279584033
0.067485914 -0.00027836935 0.384 4279583779
0.068733148 -0.00027836935 0.384 4279715619
0.069980375 -0.00027836935 0.384 4279781412
0.07122761 -0.00027836935 0.384 4279715619
0.072474845 -0.00027836935 0.384 4279846951
0.073722072 -0.00027836935 0.384 4279715365
0.074969307 -0.00027836935 0.384 4279912746
0.076216541 -0.00027836935 0.384 4280568114
0.077463768 -0.00027836935 0.384 4283265629
0.058755282 0.0009692859 0.384 4279713055
0.060002517 0.0009692859 0.384 4279385117
0.061249748 0.0009692859 0.384 4279254814
0.062496983 0.0009692859 0.384 4279255068
0.063744217 0.0009692859 0.384 4279846951
0.064991444 0.0009692859 0.384 4279452193
0.066411175 0.00097181014 0.38500002 4279452193
0.067661658 0.00097181014 0.38500002 4279781412
0.068912141 0.00097181014 0.38500002 4280044584
0.070162617 0.00097181014 0.38500002 4279978278
0.0714131 0.00097181014 0.38500002 4280700725
0.072474845 0.0009692859 0.384 4280897592
0.073722072 0.0009692859 0.384 4284185959
0.058755282 0.002216941 0.384 4284185961
0.060002517 0.002216941 0.384 4279318049
0.061249748 0.002216941 0.384 4279516451
0.062496983 0.002216941 0.384 4280042795
0.063910216 0.0022227145 0.38500002 4280043049
0.065160699 0.0022227145 0.38500002 4279845670
0.066411175 0.0022227145 0.38500002 4280108842
0.067661658 0.0022227145 0.38500002 4279845416
0.084577128 -0.012644683 0.38447976 4294967295
0.084577128 -0.012644683 0.38447976 4294901760
0.084577128 -0.012644683 0.38497975 4294901760
0.084577128 -0.012644683 0.38547975 4294901760
0.084577128 -0.012644683 0.38597977 4294901760
0.084577128 -0.012644683 0.38647977 4294901760
0.084577128 -0.012644683 0.38697976 4294901760
0.084577128 -0.012644683 0.38747975 4294901760
0.084577128 -0.012644683 0.38797978 4294901760
0.084577128 -0.012644683 0.38847977 4294901760
0.084577128 -0.012644683 0.38897976 4294901760
0.084577128 -0.012644683 0.38947976 4294901760
0.084577128 -0.012644683 0.38997975 4294901760
0.084577128 -0.012644683 0.39047977 4294901760
0.084577128 -0.012644683 0.39097977 4294901760
0.084577128 -0.012644683 0.39147976 4294901760
0.084577128 -0.012644683 0.39197975 4294901760
0.084577128 -0.012644683 0.39247978 4294901760
0.084577128 -0.012644683 0.39297977 4294901760
0.084577128 -0.012644683 0.39347976 4294901760
0.084577128 -0.012644683 0.39397976 4294901760
0.084577128 -0.012644683 0.39447975 4294901760
0.084577128 -0.012644683 0.39497977 4294901760
0.084577128 -0.012644683 0.39547977 4294901760
0.084577128 -0.012644683 0.39597976 4294901760
0.084577128 -0.012644683 0.39647976 4294901760
0.084577128 -0.012644683 0.39697975 4294901760
0.084577128 -0.012644683 0.39747977 4294901760
0.084577128 -0.012644683 0.39797977 4294901760
0.084577128 -0.012644683 0.39847976 4294901760
0.084577128 -0.012644683 0.39897975 4294901760
0.084577128 -0.012644683 0.39947978 4294901760
0.084577128 -0.012644683 0.39997977 4294901760
0.084577128 -0.012644683 0.40047976 4294901760
0.084577128 -0.012644683 0.40097976 4294901760
0.084577128 -0.012644683 0.40147978 4294901760
0.084577128 -0.012644683 0.40197977 4294901760
0.084577128 -0.012644683 0.40247977 4294901760
0.084577128 -0.012644683 0.40297976 4294901760
0.084577128 -0.012644683 0.40347975 4294901760
0.084577128 -0.012644683 0.40397978 4294901760
0.084577128 -0.012644683 0.40447977 4294901760
0.084577128 -0.012644683 0.40497977 4294901760
0.084577128 -0.012644683 0.40547976 4294901760
0.084577128 -0.012644683 0.40597975 4294901760
0.084577128 -0.012644683 0.40647978 4294901760
0.084577128 -0.012644683 0.40697977 4294901760
0.084577128 -0.012644683 0.40747976 4294901760
0.084577128 -0.012644683 0.40797976 4294901760
0.084577128 -0.012644683 0.40847978 4294901760
0.084577128 -0.012644683 0.40897977 4294901760
0.084577128 -0.012644683 0.40947977 4294901760
0.084577128 -0.012644683 0.40997976 4294901760
0.084577128 -0.012644683 0.41047975 4294901760
0.084577128 -0.012644683 0.41097978 4294901760
0.084577128 -0.012644683 0.41147977 4294901760
0.084577128 -0.012644683 0.41197976 4294901760
0.084577128 -0.012644683 0.41247976 4294901760
0.084577128 -0.012644683 0.41297978 4294901760
0.084577128 -0.012644683 0.41347978 4294901760
0.084577128 -0.012644683 0.41397977 4294901760
0.084577128 -0.012644683 0.41447976 4294901760
0.084577128 -0.012644683 0.41497976 4294901760
0.084577128 -0.012644683 0.41547978 4294901760
0.084577128 -0.012644683 0.41597977 4294901760
0.084577128 -0.012644683 0.41647977 4294901760
0.084577128 -0.012644683 0.41697976 4294901760
0.084577128 -0.012644683 0.41747978 4294901760
0.084577128 -0.012644683 0.41797978 4294901760
0.084577128 -0.012644683 0.41847977 4294901760
0.084577128 -0.012644683 0.41897976 4294901760
0.084577128 -0.012644683 0.41947976 4294901760
0.084577128 -0.012644683 0.41997978 4294901760
0.084577128 -0.012644683 0.42047977 4294901760
0.084577128 -0.012644683 0.42097977 4294901760
0.084577128 -0.012644683 0.42147976 4294901760
0.084577128 -0.012644683 0.42197978 4294901760
0.084577128 -0.012644683 0.42247978 4294901760
0.084577128 -0.012644683 0.42297977 4294901760
0.084577128 -0.012644683 0.42347977 4294901760
0.084577128 -0.012644683 0.42397976 4294901760
0.084577128 -0.012644683 0.42447978 4294901760
0.084577128 -0.012644683 0.42497978 4294901760
0.084577128 -0.012644683 0.42547977 4294901760
0.084577128 -0.012644683 0.42597976 4294901760
0.084577128 -0.012644683 0.42647976 4294901760
0.084577128 -0.012644683 0.42697978 4294901760
0.084577128 -0.012644683 0.42747977 4294901760
0.084577128 -0.012644683 0.42797977 4294901760
0.084577128 -0.012644683 0.42847976 4294901760
0.084577128 -0.012644683 0.42897975 4294901760
0.084577128 -0.012644683 0.42947978 4294901760
0.084577128 -0.012644683 0.42997977 4294901760
0.084577128 -0.012644683 0.43047976 4294901760
0.084577128 -0.012644683 0.43097979 4294901760
0.084577128 -0.012644683 0.43147978 4294901760
0.084577128 -0.012644683 0.43197978 4294901760
0.084577128 -0.012644683 0.43247977 4294901760
0.084577128 -0.012644683 0.43297976 4294901760
0.084577128 -0.012644683 0.43347979 4294901760
0.084577128 -0.012644683 0.43397978 4294901760
0.084577128 -0.012644683 0.43447977 4294901760
0.084577128 -0.012644683 0.38447976 4278255360
0.084368266 -0.012798646 0.38490716 4278255360
0.084159411 -0.012952608 0.38533458 4278255360
0.083950549 -0.013106571 0.38576198 4278255360
0.083741687 -0.013260533 0.38618937 4278255360
0.083532833 -0.013414497 0.38661677 4278255360
0.08332397 -0.013568459 0.38704419 4278255360
0.083115116 -0.013722422 0.38747159 4278255360
0.082906254 -0.013876384 0.38789898 4278255360
0.082697392 -0.014030347 0.38832638 4278255360
0.082488537 -0.014184309 0.3887538 4278255360
0.082279675 -0.014338272 0.3891812 4278255360
0.082070813 -0.014492234 0.38960859 4278255360
0.081861958 -0.014646197 0.39003599 4278255360
0.081653096 -0.014800159 0.39046341 4278255360
0.081444241 -0.014954123 0.39089081 4278255360
0.081235379 -0.015108085 0.3913182 4278255360
0.081026517 -0.015262048 0.3917456 4278255360
0.080817662 -0.01541601 0.39217302 4278255360
0.0806088 -0.015569973 0.39260042 4278255360
0.080399938 -0.015723936 0.39302781 4278255360
0.080191083 -0.015877899 0.39345521 4278255360
0.079982221 -0.016031861 0.39388263 4278255360
0.079773366 -0.016185824 0.39431003 4278255360
0.079564504 -0.016339786 0.39473742 4278255360
0.079355642 -0.016493749 0.39516485 4278255360
0.079146788 -0.016647711 0.39559224 4278255360
0.078937925 -0.016801674 0.39601964 4278255360
0.078729063 -0.016955636 0.39644703 4278255360
0.078520209 -0.017109599 0.39687446 4278255360
0.078311346 -0.017263561 0.39730185 4278255360
0.078102484 -0.017417524 0.39772925 4278255360
0.07789363 -0.017571487 0.39815664 4278255360
0.077684768 -0.017725449 0.39858407 4278255360
0.077475913 -0.017879412 0.39901146 4278255360
0.077267051 -0.018033374 0.39943886 4278255360
0.077058189 -0.018187337 0.39986625 4278255360
0.076849334 -0.018341299 0.40029368 4278255360
0.076640472 -0.018495262 0.40072107 4278255360
0.076431617 -0.018649224 0.40114847 4278255360
0.076222755 -0.018803189 0.40157586 4278255360
0.076013893 -0.018957151 0.40200329 4278255360
0.075805038 -0.019111114 0.40243068 4278255360
0.075596176 -0.019265076 0.40285808 4278255360
0.075387314 -0.019419039 0.40328547 4278255360
0.075178459 -0.019573001 0.4037129 4278255360
0.074969597 -0.019726964 0.40414029 4278255360
0.074760735 -0.019880926 0.40456769 4278255360
0.07455188 -0.020034889 0.40499508 4278255360
0.074343018 -0.020188851 0.40542251 4278255360
0.074134156 -0.020342814 0.4058499 4278255360
0.073925301 -0.020496776 0.4062773 4278255360
0.073716439 -0.020650739 0.40670472 4278255360
0.073507585 -0.020804701 0.40713212 4278255360
0.073298723 -0.020958666 0.40755951 4278255360
0.07308986 -0.021112628 0.40798691 4278255360
0.072881006 -0.021266591 0.40841433 4278255360
0.072672144 -0.021420553 0.40884173 4278255360
0.072463289 -0.021574516 0.40926912 4278255360
0.072254427 -0.021728478 0.40969652 4278255360
0.072045565 -0.021882441 0.41012394 4278255360
0.07183671 -0.022036403 0.41055134 4278255360
0.071627848 -0.022190366 0.41097873 4278255360
0.071418986 -0.022344328 0.41140613 4278255360
0.071210131 -0.022498291 0.41183355 4278255360
0.071001269 -0.022652254 0.41226095 4278255360
0.070792407 -0.022806216 0.41268834 4278255360
0.070583552 -0.022960179 0.41311574 4278255360
0.07037469 -0.023114141 0.41354316 4278255360
0.070165828 -0.023268104 0.41397056 4278255360
0.069956973 -0.023422066 0.41439795 4278255360
0.069748111 -0.023576029 0.41482535 4278255360
0.069539249 -0.023729991 0.41525277 4278255360
0.069330394 -0.023883954 0.41568017 4278255360
0.069121532 -0.024037916 0.41610757 4278255360
0.068912677 -0.024191879 0.41653496 4278255360
0.068703815 -0.024345841 0.41696239 4278255360
0.068494961 -0.024499804 0.41738978 4278255360
0.068286099 -0.024653766 0.41781718 4278255360
0.068077236 -0.024807731 0.4182446 4278255360
0.067868382 -0.024961693 0.418672 4278255360
0.06765952 -0.025115656 0.41909939 4278255360
0.067450657 -0.025269618 0.41952679 4278255360
0.067241803 -0.025423581 0.41995418 4278255360
0.067032941 -0.025577543 0.42038161 4278255360
0.066824079 -0.025731508 0.420809 4278255360
0.066615224 -0.02588547 0.4212364 4278255360
0.066406362 -0.026039433 0.42166382 4278255360
0.0661975 -0.026193395 0.42209122 4278255360
0.065988645 -0.026347358 0.42251861 4278255360
0.065779783 -0.02650132 0.42294601 4278255360
0.065570921 -0.026655283 0.42337343 4278255360
0.065362066 -0.026809245 0.42380083 4278255360
0.065153211 -0.026963208 0.42422822 4278255360
0.064944349 -0.02711717 0.42465562 4278255360
0.064735487 -0.027271133 0.42508304 4278255360
0.064526632 -0.027425095 0.42551044 4278255360
0.06431777 -0.027579058 0.42593783 4278255360
0.064108908 -0.02773302 0.42636526 4278255360
0.063900054 -0.027886983 0.42679265 4278255360
0.063691191 -0.028040946 0.42722005 4278255360
