# .PCD v0.7 - Point Cloud Data file format
VERSION 0.7
FIELDS x y z rgb
SIZE 4 4 4 4
TYPE F F F U
COUNT 1 1 1 1
WIDTH 846
HEIGHT 1
VIEWPOINT 0 0 0 1 0 0 0
POINTS 846
DATA ascii
-0.089315526 0.020424597 0.49200001 4281095221
-0.085944451 0.020383084 0.49100003 4285041266
-0.084349684 0.020383084 0.49100003 4286486917
-0.08258637 0.02034157 0.49000001 4286157952
-0.12867074 0.023366028 0.52200001 4279519519
-0.12673202 0.023321267 0.52100003 4279190808
-0.12479982 0.023276506 0.52000004 4278466831
-0.090913542 0.022023154 0.49200001 4279587111
-0.089315526 0.022023154 0.49200001 4279587111
-0.087539218 0.021978391 0.49100003 4279783977
-0.085944451 0.021978391 0.49100003 4280310321
-0.084349684 0.021978391 0.49100003 4279980590
-0.08258637 0.021933628 0.49000001 4280571446
-0.080994844 0.021933628 0.49000001 4280702262
-0.079403333 0.021933628 0.49000001 4282937687
-0.077653013 0.021888867 0.48900002 4285107061
-0.076064736 0.021888867 0.48900002 4286027650
-0.074476466 0.021888867 0.48900002 4285894780
-0.13555078 0.025398144 0.52900004 4279715617
-0.13256763 0.025158087 0.52400005 4279519521
-0.13036619 0.025062062 0.52200001 4279387933
-0.12842424 0.025014052 0.52100003 4279387933
-0.12648879 0.024966041 0.52000004 4279256347
-0.12431981 0.024870016 0.51800001 4279453213
-0.12216385 0.024773993 0.51600003 4278991381
-0.12025438 0.024725983 0.51500005 4279320859
-0.11835139 0.024677968 0.514 4279058457
-0.094492137 0.023717737 0.49400002 4278928668
-0.092699595 0.023669727 0.49300003 4279126047
-0.090913542 0.023621714 0.49200001 4278929181
-0.089315526 0.023621714 0.49200001 4279060767
-0.087539218 0.023573702 0.49100003 4278929181
-0.085944451 0.023573702 0.49100003 4279060767
-0.084349684 0.023573702 0.49100003 4279192353
-0.08258637 0.023525691 0.49000001 4279587111
-0.080994844 0.023525691 0.49000001 4279587883
-0.079403333 0.023525691 0.49000001 4279851055
-0.077811807 0.023525691 0.49000001 4280178737
-0.076220281 0.023525691 0.49000001 4280309809
-0.07462877 0.023525691 0.49000001 4279717420
-0.073037244 0.023525691 0.49000001 4281294399
-0.13478206 0.026963137 0.52600002 4279584031
-0.13231464 0.026809353 0.523 4279519008
-0.13011645 0.026706833 0.52100003 4279387935
-0.12817775 0.026655573 0.52000004 4279387935
-0.12600228 0.02655305 0.51800001 4279387935
-0.12407982 0.02650179 0.51700002 4278399757
-0.1219271 0.02639927 0.51500005 4278198272
-0.12002087 0.026348006 0.514 4280240678
-0.11812114 0.026296746 0.51300001 4278723595
-0.11600091 0.026194226 0.51100004 4278919437
-0.11389366 0.026091704 0.509 4278721547
-0.11201991 0.026040444 0.50800002 4278853646
-0.11015267 0.025989184 0.50700003 4278262792
-0.10829192 0.025937922 0.50600004 4278394378
-0.10643765 0.02588666 0.505 4278658832
-0.10458989 0.0258354 0.50400001 4279121945
-0.10274863 0.02578414 0.50300002 4279123228
-0.10071284 0.02568162 0.50100005 4279320607
-0.098887809 0.025630357 0.5 4279519010
-0.096874766 0.025527837 0.49800003 4279124763
-0.094683416 0.025374055 0.49500003 4279058970
-0.092887618 0.025322793 0.49400002 4279059740
-0.091098331 0.025271533 0.49300003 4279125533
-0.089315526 0.025220271 0.49200001 4279257119
-0.087717503 0.025220271 0.49200001 4278994459
-0.085944451 0.025169011 0.49100003 4278994459
-0.084349684 0.025169011 0.49100003 4278994461
-0.08258637 0.025117749 0.49000001 4278929181
-0.080994844 0.025117749 0.49000001 4278995744
-0.079403333 0.025117749 0.49000001 4278995744
-0.077811807 0.025117749 0.49000001 4279193123
-0.076220281 0.025117749 0.49000001 4279193123
-0.07462877 0.025117749 0.49000001 4279390504
-0.073037244 0.025117749 0.49000001 4280048434
-0.071591534 0.025169011 0.49100003 4280179766
-0.069996759 0.025169011 0.49100003 4282216784
-0.13452582 0.028617654 0.52500004 4279519006
-0.13206165 0.028454125 0.52200001 4279453726
-0.1298667 0.028345106 0.52000004 4279453728
-0.12793125 0.028290598 0.51900005 4279256349
-0.12600228 0.028236084 0.51800001 4279387935
-0.12383982 0.028127067 0.51600003 4280044584
-0.1219271 0.028072556 0.51500005 4280108840
-0.11978737 0.027963536 0.51300001 4279779875
-0.11789089 0.027909027 0.51200002 4278985232
-0.11577391 0.027800009 0.51000005 4278918928
-0.11389366 0.027745496 0.509 4278786572
-0.11201991 0.027690986 0.50800002 4279049744
-0.11015267 0.027636478 0.50700003 4278983951
-0.10829192 0.027581969 0.50600004 4278852111
-0.10643765 0.027527457 0.505 4279114769
-0.10458989 0.027472947 0.50400001 4279445785
-0.10274863 0.027418438 0.50300002 4280241450
-0.10091387 0.027363928 0.50200003 4279780899
-0.098887809 0.027254907 0.5 4279122199
-0.096874766 0.027145889 0.49800003 4278200326
-0.094874695 0.02703687 0.49600002 4278198016
-0.093075655 0.02698236 0.49500003 4278197504
-0.091283113 0.026927849 0.49400002 4278198016
-0.089497067 0.026873341 0.49300003 4278660880
-0.087717503 0.026818831 0.49200001 4279386654
-0.085944451 0.02676432 0.49100003 4279584033
-0.084349684 0.02676432 0.49100003 4279453217
-0.082754917 0.02676432 0.49100003 4279190558
-0.080994844 0.02670981 0.49000001 4278993947
-0.079403333 0.02670981 0.49000001 4279257119
-0.077811807 0.02670981 0.49000001 4279191838
-0.076220281 0.02670981 0.49000001 4278994459
-0.07462877 0.02670981 0.49000001 4278929181
-0.073037244 0.02670981 0.49000001 4279060769
-0.071591534 0.02676432 0.49100003 4279192355
-0.069996759 0.02676432 0.49100003 4278665244
-0.068402 0.02676432 0.49100003 4284190574
-0.066807225 0.02676432 0.49100003 4279650092
-0.1342696 0.030265674 0.52400005 4279519006
-0.13180865 0.030092398 0.52100003 4279519006
-0.1298667 0.030034639 0.52000004 4279256349
-0.12768474 0.02991912 0.51800001 4279125533
-0.12575904 0.029861361 0.51700002 4279387935
-0.12383982 0.029803602 0.51600003 4280241963
-0.1219271 0.029745845 0.51500005 4279911461
-0.11978737 0.029630324 0.51300001 4279385117
-0.11789089 0.029572567 0.51200002 4279248152
-0.11577391 0.029457049 0.51000005 4280037922
-0.11389366 0.029399289 0.509 4280301094
-0.11201991 0.02934153 0.50800002 4278656269
-0.11015267 0.029283771 0.50700003 4279511063
-0.10829192 0.029226014 0.50600004 4279182098
-0.10643765 0.029168252 0.505 4279971616
-0.10458989 0.029110495 0.50400001 4279314197
-0.10274863 0.029052736 0.50300002 4279320346
-0.10091387 0.028994977 0.50200003 4278595853
-0.098887809 0.028879458 0.5 4279056406
-0.097069286 0.028821699 0.49900001 4279715106
-0.095065974 0.028706182 0.49700001 4279386141
-0.093075655 0.028590666 0.49500003 4279451680
-0.091283113 0.028532906 0.49400002 4279845922
-0.089497067 0.028475147 0.49300003 4279780129
-0.087717503 0.028417388 0.49200001 4279845668
-0.086119488 0.028417388 0.49200001 4279977254
-0.084349684 0.028359629 0.49100003 4279582496
-0.082754917 0.028359629 0.49100003 4278924566
-0.081160143 0.028359629 0.49100003 4278199046
-0.079565383 0.028359629 0.49100003 4278198018
-0.077811807 0.028301869 0.49000001 4278198789
-0.076220281 0.028301869 0.49000001 4278266636
-0.074781075 0.028359629 0.49100003 4279256349
-0.073186301 0.028359629 0.49100003 4279125533
-0.071591534 0.028359629 0.49100003 4279257119
-0.069996759 0.028359629 0.49100003 4278994461
-0.068402 0.028359629 0.49100003 4279126049
-0.066807225 0.028359629 0.49100003 4279388707
-0.065212458 0.028359629 0.49100003 4279516705
-0.13401334 0.031907193 0.523 4279453213
-0.13206165 0.031846184 0.52200001 4279453213
-0.1298667 0.03172417 0.52000004 4279387935
-0.12793125 0.031663164 0.51900005 4279257119
-0.12575904 0.031541146 0.51700002 4279059740
-0.12383982 0.031480137 0.51600003 4278201609
-0.1219271 0.031419132 0.51500005 4278200072
-0.11978737 0.031297114 0.51300001 4280108840
-0.11789089 0.031236107 0.51200002 4279051027
-0.11577391 0.031114092 0.51000005 4278590476
-0.11389366 0.031053081 0.509 4279577371
-0.11201991 0.030992074 0.50800002 4278327050
-0.11015267 0.030931067 0.50700003 4278325767
-0.10829192 0.03087006 0.50600004 4280563751
-0.10643765 0.030809049 0.505 4278656269
-0.10458989 0.030748041 0.50400001 4280170276
-0.10274863 0.030687034 0.50300002 4279319324
-0.10091387 0.030626027 0.50200003 4278396173
-0.099085592 0.03056502 0.50100005 4278197510
-0.097069286 0.030443002 0.49900001 4278397197
-0.095257252 0.030381994 0.49800003 4279320096
-0.093263686 0.030259978 0.49600002 4279056924
-0.091467902 0.030198971 0.49500003 4279254303
-0.0896786 0.030137962 0.49400002 4279517473
-0.087895796 0.030076955 0.49300003 4279386141
-0.086119488 0.030015945 0.49200001 4279320861
-0.084521472 0.030015945 0.49200001 4279190045
-0.082754917 0.029954938 0.49100003 4279453217
-0.081160143 0.029954938 0.49100003 4279321631
-0.079565383 0.029954938 0.49100003 4279584033
-0.077970609 0.029954938 0.49100003 4279517727
-0.076375842 0.029954938 0.49100003 4279647775
-0.074781075 0.029954938 0.49100003 4279715619
-0.073186301 0.029954938 0.49100003 4279387937
-0.071591534 0.029954938 0.49100003 4279257119
-0.069996759 0.029954938 0.49100003 4279059740
-0.068402 0.029954938 0.49100003 4279322912
-0.066807225 0.029954938 0.49100003 4279058970
-0.065212458 0.029954938 0.49100003 4279255068
-0.1342696 0.033670735 0.52400005 4279584029
-0.13206165 0.03354222 0.52200001 4279584799
-0.13011645 0.033477962 0.52100003 4279519006
-0.12793125 0.033349451 0.51900005 4279453726
-0.12600228 0.033285189 0.51800001 4279256349
-0.12407982 0.033220932 0.51700002 4279452447
-0.1219271 0.033092421 0.51500005 4279516703
-0.12002087 0.033028159 0.514 4279845668
-0.11789089 0.032899648 0.51200002 4278918926
-0.11600091 0.03283539 0.51100004 4279049744
-0.11389366 0.032706875 0.509 4279049490
-0.11201991 0.032642618 0.50800002 4278852111
-0.11015267 0.032578364 0.50700003 4278917390
-0.10829192 0.032514106 0.50600004 4278983183
-0.10643765 0.032449845 0.505 4278655756
-0.10458989 0.032385591 0.50400001 4280433959
-0.10274863 0.032321334 0.50300002 4279384092
-0.10091387 0.032257076 0.50200003 4278657550
-0.099085592 0.032192823 0.50100005 4278526476
-0.097263813 0.032128561 0.5 4278396943
-0.095257252 0.03200005 0.49800003 4279187740
-0.093451716 0.031935789 0.49700001 4278464017
-0.091467902 0.031807277 0.49500003 4279648291
-0.0896786 0.03174302 0.49400002 4278858775
-0.087895796 0.031678762 0.49300003 4279187224
-0.086294532 0.031678762 0.49300003 4278923539
-0.084521472 0.031614505 0.49200001 4279056152
-0.082754917 0.031550247 0.49100003 4278464015
-0.081160143 0.031550247 0.49100003 4278925336
-0.079565383 0.031550247 0.49100003 4278398992
-0.077970609 0.031550247 0.49100003 4279386654
-0.076375842 0.031550247 0.49100003 4278991129
-0.074781075 0.031550247 0.49100003 4279912998
-0.073186301 0.031550247 0.49100003 4279256351
-0.071591534 0.031550247 0.49100003 4279124763
-0.069996759 0.031550247 0.49100003 4279257119
-0.068402 0.031550247 0.49100003 4279257119
-0.066807225 0.031550247 0.49100003 4279124250
-0.065212458 0.031550247 0.49100003 4279188762
-0.13478206 0.035508275 0.52600002 4279649822
-0.13256763 0.035373263 0.52400005 4279650592
-0.13036619 0.035238251 0.52200001 4279387933
-0.12842424 0.035170745 0.52100003 4279387933
-0.12624554 0.035035733 0.51900005 4279256347
-0.12431981 0.034968223 0.51800001 4278202126
-0.12216385 0.034833215 0.51600003 4278924566
-0.12002087 0.034698199 0.514 4279517473
-0.11812114 0.034630693 0.51300001 4279912231
-0.11600091 0.034495682 0.51100004 4280174121
-0.11389366 0.03436067 0.509 4279909412
-0.11201991 0.034293164 0.50800002 4279250201
-0.11015267 0.034225658 0.50700003 4278853648
-0.10829192 0.034158152 0.50600004 4278524683
-0.10643765 0.034090642 0.505 4278392582
-0.10458989 0.034023136 0.50400001 4280960303
-0.10274863 0.033955634 0.50300002 4279581469
-0.10091387 0.033888128 0.50200003 4280369704
-0.099085592 0.033820622 0.50100005 4280764975
-0.097263813 0.033753112 0.5 4279778848
-0.095448531 0.033685606 0.49900001 4279450396
-0.093451716 0.033550594 0.49700001 4279845668
-0.091652684 0.033483088 0.49600002 4279056154
-0.089860134 0.033415582 0.49500003 4279845670
-0.088074081 0.033348076 0.49400002 4278595603
-0.086294532 0.03328057 0.49300003 4278198789
-0.084521472 0.033213064 0.49200001 4278792468
-0.082923457 0.033213064 0.49200001 4278989845
-0.081160143 0.033145558 0.49100003 4279055638
-0.079565383 0.033145558 0.49100003 4279055640
-0.077970609 0.033145558 0.49100003 4279451934
-0.076375842 0.033145558 0.49100003 4278859027
-0.074781075 0.033145558 0.49100003 4279517727
-0.073186301 0.033145558 0.49100003 4279321631
-0.071591534 0.033145558 0.49100003 4279321629
-0.069996759 0.033145558 0.49100003 4279255836
-0.068402 0.033145558 0.49100003 4279256349
-0.066807225 0.033145558 0.49100003 4279058970
-0.065212458 0.033145558 0.49100003 4279386654
-0.13555078 0.037429571 0.52900004 4279649309
-0.1333266 0.037288059 0.52700001 4279517723
-0.13111542 0.03714655 0.52500004 4279190041
-0.12891723 0.037005037 0.523 4279190043
-0.12697527 0.036934283 0.52200001 4279387935
-0.12479982 0.036792774 0.52000004 4279256349
-0.12263735 0.036651257 0.51800001 4279453217
-0.12025438 0.036438994 0.51500005 4279190558
-0.11835139 0.036368236 0.514 4278928156
-0.11622792 0.036226727 0.51200002 4279059742
-0.11411743 0.036085218 0.51000005 4279321377
-0.11224042 0.03601446 0.509 4279452193
-0.11015267 0.035872951 0.50700003 4279385887
-0.10829192 0.035802197 0.50600004 4279517473
-0.10643765 0.035731439 0.505 4279385887
-0.10458989 0.035660684 0.50400001 4279385887
-0.1029529 0.035660684 0.50400001 4280108842
-0.10111488 0.03558993 0.50300002 4279911463
-0.099283367 0.035519175 0.50200003 4279055127
-0.097458348 0.035448421 0.50100005 4278857748
-0.095448531 0.035306908 0.49900001 4278198022
-0.093639746 0.035236154 0.49800003 4278196737
-0.091652684 0.035094641 0.49600002 4278199564
-0.089860134 0.035023887 0.49500003 4278725908
-0.088074081 0.034953132 0.49400002 4279121693
-0.086294532 0.034882378 0.49300003 4279648291
-0.084521472 0.03481162 0.49200001 4279977254
-0.082923457 0.03481162 0.49200001 4279649059
-0.081325442 0.03481162 0.49200001 4279517473
-0.079565383 0.034740865 0.49100003 4279846438
-0.077970609 0.034740865 0.49100003 4279320094
-0.076375842 0.034740865 0.49100003 4278200843
-0.074781075 0.034740865 0.49100003 4279649059
-0.073186301 0.034740865 0.49100003 4279321377
-0.071591534 0.034740865 0.49100003 4279453217
-0.069996759 0.034740865 0.49100003 4279190558
-0.068402 0.034740865 0.49100003 4279256349
-0.066807225 0.034740865 0.49100003 4279058970
-0.065212458 0.034740865 0.49100003 4279386400
-0.13433857 0.039296351 0.53100002 4280302364
-0.13211441 0.039148346 0.52900004 4279975707
-0.12990321 0.039000332 0.52700001 4279713305
-0.12770502 0.038852327 0.52500004 4279451160
-0.12551981 0.038704317 0.523 4279255064
-0.12311087 0.038482305 0.52000004 4279320859
-0.12072138 0.038260289 0.51700002 4279123480
-0.11858166 0.038112283 0.51500005 4279058970
-0.11645492 0.037964273 0.51300001 4279190556
-0.11434118 0.037816264 0.51100004 4279058457
-0.11224042 0.037668254 0.509 4279190043
-0.11036994 0.037594251 0.50800002 4279190556
-0.10850593 0.037520245 0.50700003 4279058970
-0.10664843 0.037446242 0.50600004 4279124763
-0.10479741 0.037372235 0.505 4279190556
-0.1029529 0.037298232 0.50400001 4279321629
-0.10111488 0.037224229 0.50300002 4279321629
-0.099283367 0.037150223 0.50200003 4279190043
-0.097458348 0.03707622 0.50100005 4279321631
-0.09563981 0.037002213 0.5 4279321631
-0.093639746 0.036854208 0.49800003 4279452447
-0.091837466 0.036780201 0.49700001 4279649572
-0.089860134 0.036632195 0.49500003 4279649059
-0.088074081 0.036558188 0.49400002 4280503598
-0.086294532 0.036484186 0.49300003 4280306221
-0.084693268 0.036484186 0.49300003 4279187226
-0.082923457 0.036410179 0.49200001 4278199303
-0.081325442 0.036410179 0.49200001 4278197504
-0.079565383 0.036336176 0.49100003 4278197248
-0.077970609 0.036336176 0.49100003 4278331404
-0.076375842 0.036336176 0.49100003 4278197763
-0.074781075 0.036336176 0.49100003 4279583779
-0.073186301 0.036336176 0.49100003 4279452963
-0.071591534 0.036336176 0.49100003 4279453217
-0.069996759 0.036336176 0.49100003 4279124765
-0.068402 0.036336176 0.49100003 4279124765
-0.066807225 0.036336176 0.49100003 4279190045
-0.065212458 0.036336176 0.49100003 4279319072
-0.1211884 0.040094584 0.51900005 4279644949
-0.11881191 0.039862823 0.51600003 4279515160
-0.11668193 0.039708313 0.514 4279647514
-0.11456494 0.03955381 0.51200002 4279516955
-0.11246094 0.039399303 0.51000005 4279385369
-0.11036994 0.039244793 0.50800002 4279254553
-0.10850593 0.039167542 0.50700003 4279254553
-0.10664843 0.039090287 0.50600004 4279320859
-0.10479741 0.039013032 0.505 4279189273
-0.1029529 0.038935781 0.50400001 4279189271
-0.10111488 0.038858525 0.50300002 4279452443
-0.099283367 0.038781274 0.50200003 4279190554
-0.097458348 0.038704023 0.50100005 4279256347
-0.09563981 0.038626764 0.5 4279256349
-0.093639746 0.038472258 0.49800003 4279256349
-0.091837466 0.038395002 0.49700001 4279453217
-0.090041667 0.038317751 0.49600002 4279321631
-0.088074081 0.038163245 0.49400002 4279519010
-0.086294532 0.038085993 0.49300003 4279584033
-0.084693268 0.038085993 0.49300003 4279715619
-0.082923457 0.038008738 0.49200001 4279584033
-0.081325442 0.038008738 0.49200001 4279649826
-0.079565383 0.037931483 0.49100003 4279649572
-0.077970609 0.037931483 0.49100003 4280109610
-0.076375842 0.037931483 0.49100003 4279780645
-0.074781075 0.037931483 0.49100003 4279518756
-0.073186301 0.037931483 0.49100003 4279518756
-0.071591534 0.037931483 0.49100003 4279584549
-0.069996759 0.037931483 0.49100003 4279255838
-0.068402 0.037931483 0.49100003 4279190045
-0.066807225 0.037931483 0.49100003 4279058459
-0.065212458 0.037931483 0.49100003 4278856211
-0.11456494 0.041217349 0.51200002 4279181064
-0.11246094 0.041056346 0.51000005 4279444750
-0.11036994 0.040895335 0.50800002 4278525185
-0.10850593 0.040814836 0.50700003 4279578643
-0.10664843 0.040734332 0.50600004 4279513877
-0.10479741 0.040653829 0.505 4279447830
-0.1029529 0.040573325 0.50400001 4279448852
-0.10131591 0.040573325 0.50400001 4279779102
-0.099481143 0.040492825 0.50300002 4280043047
-0.097458348 0.040331822 0.50100005 4279714852
-0.09563981 0.040251315 0.5 4279846692
-0.093827777 0.040170815 0.49900001 4279649313
-0.091837466 0.040009808 0.49700001 4279780645
-0.090041667 0.039929304 0.49600002 4279780645
-0.088074081 0.039768301 0.49400002 4279649572
-0.086294532 0.039687797 0.49300003 4279715365
-0.084521472 0.039607294 0.49200001 4279452447
-0.082923457 0.039607294 0.49200001 4279715619
-0.081325442 0.039607294 0.49200001 4279254816
-0.079565383 0.039526794 0.49100003 4279649574
-0.077970609 0.039526794 0.49100003 4279846953
-0.076375842 0.039526794 0.49100003 4279649574
-0.074781075 0.039526794 0.49100003 4279715365
-0.073186301 0.039526794 0.49100003 4279650342
-0.071591534 0.039526794 0.49100003 4279519269
-0.069996759 0.039526794 0.49100003 4279190304
-0.068402 0.039526794 0.49100003 4279453217
-0.066807225 0.039526794 0.49100003 4279385887
-0.065212458 0.039526794 0.49100003 4282341958
-0.11036994 0.042545881 0.50800002 4280165393
-0.09563981 0.041875865 0.5 4285827704
-0.093827777 0.041792113 0.49900001 4284315235
-0.091837466 0.041624609 0.49700001 4283461723
-0.090041667 0.041540861 0.49600002 4282738000
-0.088074081 0.041373357 0.49400002 4281882693
-0.086294532 0.041289605 0.49300003 4281290556
-0.084521472 0.041205853 0.49200001 4280763440
-0.082923457 0.041205853 0.49200001 4280237866
-0.081160143 0.041122101 0.49100003 4279975207
-0.079565383 0.041122101 0.49100003 4279646242
-0.077970609 0.041122101 0.49100003 4279777828
-0.076375842 0.041122101 0.49100003 4279647012
-0.074781075 0.041122101 0.49100003 4279515941
-0.073186301 0.041122101 0.49100003 4279713320
-0.071591534 0.041122101 0.49100003 4279779627
-0.069996759 0.041122101 0.49100003 4279384869
-0.068402 0.041122101 0.49100003 4279450146
-0.066807225 0.041122101 0.49100003 4282539853
-0.088074081 0.042978413 0.49400002 4286090876
-0.086294532 0.042891413 0.49300003 4285959290
-0.084521472 0.042804409 0.49200001 4286025083
-0.082923457 0.042804409 0.49200001 4285894267
-0.081160143 0.042717412 0.49100003 4286157439
-0.079565383 0.042717412 0.49100003 4285828474
-0.077970609 0.042717412 0.49100003 4285828474
-0.076375842 0.042717412 0.49100003 4286157439
-0.074781075 0.042717412 0.49100003 4285828474
-0.073186301 0.042717412 0.49100003 4286157952
-0.071591534 0.042717412 0.49100003 4286092159
-0.069996759 0.042717412 0.49100003 4285631608
-0.068402 0.042717412 0.49100003 4285105264
-0.095742412 0.032552835 0.50066388 4294967295
-0.095742412 0.032552835 0.50066388 4294901760
-0.095759444 0.032054912 0.50062162 4294901760
-0.095776476 0.03155699 0.50057942 4294901760
-0.095793515 0.03105907 0.50053716 4294901760
-0.095810547 0.030561147 0.50049496 4294901760
-0.095827579 0.030063227 0.5004527 4294901760
-0.095844612 0.029565305 0.50041044 4294901760
-0.095861644 0.029067382 0.50036824 4294901760
-0.095878683 0.028569462 0.50032598 4294901760
-0.095895715 0.028071539 0.50028378 4294901760
-0.095912747 0.027573617 0.50024152 4294901760
-0.095929779 0.027075697 0.50019926 4294901760
-0.095946811 0.026577774 0.50015706 4294901760
-0.095963851 0.026079852 0.5001148 4294901760
-0.095980883 0.025581932 0.50007254 4294901760
-0.095997915 0.025084009 0.50003034 4294901760
-0.096014947 0.024586089 0.49998808 4294901760
-0.096031979 0.024088167 0.49994585 4294901760
-0.096049018 0.023590244 0.49990362 4294901760
-0.09606605 0.023092322 0.49986139 4294901760
-0.096083082 0.0225944 0.49981916 4294901760
-0.096100114 0.022096481 0.4997769 4294901760
-0.096117146 0.021598559 0.49973467 4294901760
-0.096134186 0.021100637 0.49969244 4294901760
-0.096151218 0.020602714 0.49965021 4294901760
-0.09616825 0.020104792 0.49960798 4294901760
-0.096185282 0.019606872 0.49956572 4294901760
-0.096202314 0.019108949 0.49952349 4294901760
-0.096219353 0.018611029 0.49948126 4294901760
-0.096236385 0.018113106 0.49943903 4294901760
-0.096253417 0.017615184 0.49939677 4294901760
-0.096270449 0.017117262 0.49935454 4294901760
-0.096287481 0.016619341 0.49931231 4294901760
-0.096304521 0.016121419 0.49927008 4294901760
-0.096321553 0.015623497 0.49922785 4294901760
-0.096338585 0.015125576 0.49918559 4294901760
-0.096355617 0.014627654 0.49914336 4294901760
-0.096372649 0.014129732 0.49910113 4294901760
-0.096389689 0.013631811 0.4990589 4294901760
-0.096406721 0.013133891 0.49901664 4294901760
-0.096423753 0.012635967 0.49897441 4294901760
-0.096440785 0.012138046 0.49893218 4294901760
-0.096457817 0.011640126 0.49888995 4294901760
-0.096474856 0.011142202 0.49884772 4294901760
-0.096491888 0.010644281 0.49880546 4294901760
-0.09650892 0.010146361 0.49876323 4294901760
-0.096525952 0.0096484367 0.498721 4294901760
-0.096542984 0.0091505162 0.49867877 4294901760
-0.096560024 0.0086525958 0.49863651 4294901760
-0.096577056 0.0081546716 0.49859428 4294901760
-0.096594088 0.0076567512 0.49855205 4294901760
-0.09661112 0.0071588308 0.49850982 4294901760
-0.096628152 0.0066609085 0.49846759 4294901760
-0.096645191 0.006162988 0.49842533 4294901760
-0.096662223 0.0056650639 0.4983831 4294901760
-0.096679255 0.0051671416 0.49834087 4294901760
-0.096696287 0.0046692211 0.49829865 4294901760
-0.096713319 0.0041713007 0.49825639 4294901760
-0.096730359 0.0036733784 0.49821416 4294901760
-0.096747391 0.0031754579 0.49817193 4294901760
-0.096764423 0.0026775338 0.4981297 4294901760
-0.096781455 0.0021796115 0.49808747 4294901760
-0.096798487 0.001681691 0.49804521 4294901760
-0.096815526 0.0011837706 0.49800298 4294901760
-0.096832559 0.0006858483 0.49796075 4294901760
-0.096849591 0.00018792599 0.49791852 4294901760
-0.096866623 -0.00030999631 0.49787626 4294901760
-0.096883655 -0.00080791861 0.49783403 4294901760
-0.096900694 -0.0013058409 0.4977918 4294901760
-0.096917726 -0.0018037595 0.49774957 4294901760
-0.096934758 -0.0023016818 0.49770734 4294901760
-0.09695179 -0.0027996041 0.49766508 4294901760
-0.096968822 -0.0032975264 0.49762285 4294901760
-0.096985862 -0.0037954487 0.49758062 4294901760
-0.097002894 -0.004293371 0.49753839 4294901760
-0.097019926 -0.0047912896 0.49749613 4294901760
-0.097036958 -0.0052892119 0.4974539 4294901760
-0.09705399 -0.0057871342 0.49741167 4294901760
-0.097071029 -0.0062850527 0.49736944 4294901760
-0.097088061 -0.0067829788 0.49732721 4294901760
-0.097105093 -0.0072809011 0.49728495 4294901760
-0.097122125 -0.0077788197 0.49724272 4294901760
-0.097139157 -0.008276742 0.49720049 4294901760
-0.097156197 -0.0087746643 0.49715826 4294901760
-0.097173229 -0.0092725828 0.49711603 4294901760
-0.097190261 -0.0097705089 0.49707377 4294901760
-0.097207293 -0.010268431 0.49703154 4294901760
-0.097224325 -0.01076635 0.49698931 4294901760
-0.097241364 -0.011264272 0.49694708 4294901760
-0.097258396 -0.011762194 0.49690482 4294901760
-0.097275428 -0.012260113 0.49686259 4294901760
-0.097292461 -0.012758039 0.49682036 4294901760
-0.097309493 -0.013255961 0.49677813 4294901760
-0.097326532 -0.01375388 0.4967359 4294901760
-0.097343564 -0.014251802 0.49669364 4294901760
-0.097360596 -0.014749724 0.49665141 4294901760
-0.097377628 -0.015247643 0.49660918 4294901760
-0.09739466 -0.015745569 0.49656695 4294901760
-0.0974117 -0.016243491 0.49652469 4294901760
-0.097428732 -0.01674141 0.49648246 4294901760
-0.097445764 -0.017239332 0.49644023 4294901760
-0.095742412 0.032552835 0.50066388 4278255360
-0.095303945 0.032558214 0.50042361 4278255360
-0.094865486 0.032563593 0.50018334 4278255360
-0.094427019 0.032568976 0.49994311 4278255360
-0.09398856 0.032574356 0.49970287 4278255360
-0.093550093 0.032579735 0.4994626 4278255360
-0.093111634 0.032585114 0.49922237 4278255360
-0.092673168 0.032590494 0.4989821 4278255360
-0.092234708 0.032595877 0.49874187 4278255360
-0.091796242 0.032601256 0.4985016 4278255360
-0.091357782 0.032606635 0.49826136 4278255360
-0.090919316 0.032612015 0.4980211 4278255360
-0.090480857 0.032617398 0.49778086 4278255360
-0.09004239 0.032622777 0.49754059 4278255360
-0.089603931 0.032628156 0.49730033 4278255360
-0.089165464 0.032633536 0.49706009 4278255360
-0.088727005 0.032638915 0.49681982 4278255360
-0.088288538 0.032644298 0.49657959 4278255360
-0.087850079 0.032649677 0.49633932 4278255360
-0.087411612 0.032655057 0.49609908 4278255360
-0.086973153 0.032660436 0.49585882 4278255360
-0.086534686 0.032665815 0.49561858 4278255360
-0.086096227 0.032671198 0.49537832 4278255360
-0.085657761 0.032676578 0.49513808 4278255360
-0.085219301 0.032681957 0.49489781 4278255360
-0.084780835 0.032687336 0.49465758 4278255360
-0.084342375 0.032692716 0.49441731 4278255360
-0.083903909 0.032698099 0.49417704 4278255360
-0.08346545 0.032703478 0.49393681 4278255360
-0.083026983 0.032708857 0.49369654 4278255360
-0.082588524 0.032714237 0.4934563 4278255360
-0.082150057 0.03271962 0.49321604 4278255360
-0.08171159 0.032724999 0.4929758 4278255360
-0.081273131 0.032730378 0.49273553 4278255360
-0.080834672 0.032735758 0.4924953 4278255360
-0.080396205 0.032741137 0.49225503 4278255360
-0.079957739 0.03274652 0.4920148 4278255360
-0.079519279 0.032751899 0.49177453 4278255360
-0.07908082 0.032757279 0.49153426 4278255360
-0.078642353 0.032762658 0.49129403 4278255360
-0.078203887 0.032768037 0.49105376 4278255360
-0.077765428 0.03277342 0.49081352 4278255360
-0.077326968 0.0327788 0.49057326 4278255360
-0.076888502 0.032784179 0.49033302 4278255360
-0.076450035 0.032789558 0.49009275 4278255360
-0.076011576 0.032794937 0.48985252 4278255360
-0.075573109 0.032800321 0.48961225 4278255360
-0.07513465 0.0328057 0.48937201 4278255360
-0.074696183 0.032811079 0.48913175 4278255360
-0.074257724 0.032816458 0.48889151 4278255360
-0.073819257 0.032821842 0.48865125 4278255360
-0.073380798 0.032827221 0.48841098 4278255360
-0.072942331 0.0328326 0.48817074 4278255360
-0.072503872 0.032837979 0.48793048 4278255360
-0.072065406 0.032843359 0.48769024 4278255360
-0.071626946 0.032848742 0.48744997 4278255360
-0.07118848 0.032854121 0.48720974 4278255360
-0.07075002 0.0328595 0.48696947 4278255360
-0.070311554 0.03286488 0.48672923 4278255360
-0.069873095 0.032870259 0.48648897 4278255360
-0.069434628 0.032875642 0.48624873 4278255360
-0.068996161 0.032881021 0.48600847 4278255360
-0.068557702 0.032886401 0.48576823 4278255360
-0.068119243 0.03289178 0.48552796 4278255360
-0.067680776 0.032897159 0.4852877 4278255360
-0.067242317 0.032902543 0.48504746 4278255360
-0.06680385 0.032907922 0.48480719 4278255360
-0.066365391 0.032913301 0.48456696 4278255360
-0.065926924 0.03291868 0.48432669 4278255360
-0.065488458 0.03292406 0.48408645 4278255360
-0.065049998 0.032929443 0.48384619 4278255360
-0.064611539 0.032934822 0.48360595 4278255360
-0.064173073 0.032940201 0.48336568 4278255360
-0.063734606 0.032945581 0.48312545 4278255360
-0.063296147 0.032950964 0.48288518 4278255360
-0.062857687 0.032956343 0.48264492 4278255360
-0.062419221 0.032961722 0.48240468 4278255360
-0.061980758 0.032967102 0.48216441 4278255360
-0.061542295 0.032972481 0.48192418 4278255360
-0.061103828 0.032977864 0.48168391 4278255360
-0.060665365 0.032983243 0.48144367 4278255360
-0.060226906 0.032988623 0.48120341 4278255360
-0.059788443 0.032994002 0.48096317 4278255360
-0.05934998 0.032999381 0.4807229 4278255360
-0.058911517 0.033004764 0.48048267 4278255360
-0.058473051 0.033010144 0.4802424 4278255360
-0.058034588 0.033015523 0.48000216 4278255360
-0.057596125 0.033020902 0.4797619 4278255360
-0.057157662 0.033026282 0.47952163 4278255360
-0.056719199 0.033031665 0.4792814 4278255360
-0.05628074 0.033037044 0.47904113 4278255360
-0.055842273 0.033042423 0.47880089 4278255360
-0.05540381 0.033047803 0.47856063 4278255360
-0.054965347 0.033053186 0.47832039 4278255360
-0.054526884 0.033058565 0.47808012 4278255360
-0.054088421 0.033063944 0.47783989 4278255360
-0.053649958 0.033069324 0.47759962 4278255360
-0.053211495 0.033074703 0.47735938 4278255360
-0.052773032 0.033080086 0.47711912 4278255360
-0.052334569 0.033085465 0.47687888 4278255360
-0.051896106 0.033090845 0.47663862 4278255360
-0.095742412 0.032552835 0.50066388 4278190335
-0.095470905 0.032508135 0.50108135 4278190335
-0.095199391 0.032463435 0.50149882 4278190335
-0.094927885 0.032418732 0.50191629 4278190335
-0.094656378 0.032374032 0.50233376 4278190335
-0.094384864 0.032329332 0.50275123 4278190335
-0.094113357 0.032284632 0.5031687 4278190335
-0.093841851 0.032239929 0.50358617 4278190335
-0.093570344 0.032195229 0.50400364 4278190335
-0.09329883 0.032150529 0.50442117 4278190335
-0.093027323 0.03210583 0.50483865 4278190335
-0.092755817 0.032061126 0.50525612 4278190335
-0.092484303 0.032016426 0.50567359 4278190335
-0.092212796 0.031971727 0.50609106 4278190335
-0.09194129 0.031927027 0.50650853 4278190335
-0.091669783 0.031882323 0.506926 4278190335
-0.091398269 0.031837624 0.50734347 4278190335
-0.091126762 0.031792924 0.50776094 4278190335
-0.090855256 0.031748224 0.50817841 4278190335
-0.090583742 0.031703521 0.50859588 4278190335
-0.090312235 0.031658821 0.50901335 4278190335
-0.090040728 0.031614121 0.50943083 4278190335
-0.089769214 0.031569421 0.5098483 4278190335
-0.089497708 0.031524718 0.51026577 4278190335
-0.089226201 0.031480018 0.51068324 4278190335
-0.088954687 0.031435318 0.51110077 4278190335
-0.088683181 0.031390619 0.51151824 4278190335
-0.088411674 0.031345919 0.51193571 4278190335
-0.088140167 0.031301215 0.51235318 4278190335
-0.087868653 0.031256516 0.51277065 4278190335
-0.087597147 0.031211816 0.51318812 4278190335
-0.08732564 0.031167114 0.51360559 4278190335
-0.087054126 0.031122414 0.51402307 4278190335
-0.086782619 0.031077713 0.51444054 4278190335
-0.086511113 0.031033013 0.51485801 4278190335
-0.086239606 0.030988311 0.51527548 4278190335
-0.085968092 0.030943612 0.51569295 4278190335
-0.085696585 0.03089891 0.51611042 4278190335
-0.085425079 0.03085421 0.51652789 4278190335
-0.085153565 0.030809509 0.51694536 4278190335
-0.084882058 0.030764809 0.51736283 4278190335
-0.084610552 0.030720107 0.5177803 4278190335
-0.084339038 0.030675407 0.51819777 4278190335
-0.084067531 0.030630706 0.51861531 4278190335
-0.083796024 0.030586006 0.51903278 4278190335
-0.08352451 0.030541304 0.51945025 4278190335
-0.083253004 0.030496605 0.51986772 4278190335
-0.082981497 0.030451905 0.52028519 4278190335
-0.08270999 0.030407203 0.52070266 4278190335
-0.082438476 0.030362502 0.52112013 4278190335
-0.08216697 0.030317802 0.5215376 4278190335
-0.081895463 0.030273102 0.52195507 4278190335
-0.081623957 0.030228401 0.52237254 4278190335
-0.081352443 0.030183701 0.52279001 4278190335
-0.081080936 0.030138999 0.52320749 4278190335
-0.080809429 0.030094299 0.52362496 4278190335
-0.080537915 0.030049598 0.52404243 4278190335
-0.080266409 0.030004898 0.5244599 4278190335
-0.079994902 0.029960196 0.52487737 4278190335
-0.079723388 0.029915497 0.5252949 4278190335
-0.079451881 0.029870795 0.52571237 4278190335
-0.079180375 0.029826095 0.52612984 4278190335
-0.078908861 0.029781394 0.52654731 4278190335
-0.078637354 0.029736694 0.52696478 4278190335
-0.078365847 0.029691992 0.52738225 4278190335
-0.078094333 0.029647293 0.52779973 4278190335
-0.077822827 0.029602591 0.5282172 4278190335
-0.07755132 0.029557891 0.52863467 4278190335
-0.077279806 0.02951319 0.52905214 4278190335
-0.0770083 0.02946849 0.52946961 4278190335
-0.076736793 0.029423788 0.52988708 4278190335
-0.076465286 0.029379088 0.53030455 4278190335
-0.076193772 0.029334387 0.53072202 4278190335
-0.075922266 0.029289687 0.53113949 4278190335
-0.075650759 0.029244985 0.53155696 4278190335
-0.075379252 0.029200286 0.53197443 4278190335
-0.075107738 0.029155586 0.53239197 4278190335
-0.074836232 0.029110884 0.53280944 4278190335
-0.074564725 0.029066185 0.53322691 4278190335
-0.074293211 0.029021483 0.53364438 4278190335
-0.074021704 0.028976783 0.53406185 4278190335
-0.073750198 0.028932082 0.53447932 4278190335
-0.073478684 0.028887382 0.53489679 4278190335
-0.073207177 0.02884268 0.53531426 4278190335
-0.072935671 0.02879798 0.53573173 4278190335
-0.072664157 0.028753279 0.5361492 4278190335
-0.07239265 0.028708579 0.53656667 4278190335
-0.072121143 0.028663877 0.53698415 4278190335
-0.071849629 0.028619178 0.53740162 4278190335
-0.071578123 0.028574476 0.53781909 4278190335
-0.071306616 0.028529776 0.53823656 4278190335
-0.071035102 0.028485075 0.53865409 4278190335
-0.070763595 0.028440375 0.53907156 4278190335
-0.070492089 0.028395673 0.53948903 4278190335
-0.070220582 0.028350974 0.5399065 4278190335
-0.069949076 0.028306272 0.54032397 4278190335
-0.069677562 0.028261572 0.54074144 4278190335
-0.069406055 0.028216871 0.54115891 4278190335
-0.069134548 0.028172171 0.54157639 4278190335
-0.068863034 0.028127469 0.54199386 4278190335
-0.068591528 0.028082769 0.54241133 4278190335
-0.095742412 0.032552835 0.50066388 4294967295
-0.097371466 0.032821037 0.49815902 4294967295
-0.099000521 0.033089243 0.4956542 4294967295
-0.10062957 0.033357445 0.49314934 4294967295
-0.10225862 0.033625651 0.49064448 4294967295
-0.10388768 0.033893853 0.48813966 4294967295
-0.10551673 0.034162059 0.4856348 4294967295
-0.10714579 0.034430262 0.48312995 4294967295
-0.10877483 0.034698468 0.48062509 4294967295
-0.11040389 0.03496667 0.47812027 4294967295
-0.11203294 0.035234876 0.47561541 4294967295
-0.113662 0.035503078 0.47311056 4294967295
-0.11529104 0.035771281 0.47060573 4294967295
-0.1169201 0.036039487 0.46810088 4294967295
-0.11854915 0.036307689 0.46559602 4294967295
-0.12017821 0.036575895 0.46309119 4294967295
-0.12180726 0.036844097 0.46058634 4294967295
-0.12343632 0.037112303 0.45808148 4294967295
-0.12506537 0.037380505 0.45557666 4294967295
-0.12669443 0.037648708 0.4530718 4294967295
-0.12832347 0.037916914 0.45056695 4294967295
-0.12995252 0.038185116 0.44806212 4294967295
-0.13158157 0.038453322 0.44555727 4294967295
-0.13321063 0.038721524 0.44305241 4294967295
-0.13483968 0.03898973 0.44054759 4294967295
-0.13646874 0.039257932 0.43804273 4294967295
-0.13809779 0.039526138 0.43553787 4294967295
-0.13972685 0.039794341 0.43303302 4294967295
-0.1413559 0.040062547 0.43052819 4294967295
-0.14298496 0.040330749 0.42802334 4294967295
-0.14461401 0.040598951 0.42551848 4294967295
-0.14624307 0.040867157 0.42301363 4294967295
-0.14787211 0.04113536 0.4205088 4294967295
-0.14950116 0.041403566 0.41800395 4294967295
-0.15113021 0.041671768 0.41549909 4294967295
-0.15275927 0.041939974 0.41299427 4294967295
-0.15438832 0.042208176 0.41048941 4294967295
-0.15601738 0.042476382 0.40798455 4294967295
-0.15764643 0.042744584 0.40547973 4294967295
-0.15927547 0.04301279 0.40297487 4294967295
-0.16090453 0.043280993 0.40047002 4294967295
-0.16253358 0.043549195 0.39796519 4294967295
-0.16416264 0.043817401 0.39546034 4294967295
-0.16579169 0.044085607 0.39295548 4294967295
-0.16742074 0.044353809 0.39045066 4294967295
-0.1690498 0.044622011 0.3879458 4294967295
-0.17067885 0.044890217 0.38544095 4294967295
-0.17230791 0.04515842 0.38293612 4294967295
-0.17393696 0.045426622 0.38043126 4294967295
-0.17556602 0.045694828 0.37792641 4294967295
-0.17719507 0.045963034 0.37542158 4294967295
-0.17882413 0.046231236 0.37291673 4294967295
-0.18045317 0.046499439 0.37041187 4294967295
-0.18208222 0.046767645 0.36790705 4294967295
-0.18371129 0.047035851 0.36540216 4294967295
-0.18534033 0.047304053 0.36289734 4294967295
-0.18696938 0.047572255 0.36039251 4294967295
-0.18859842 0.047840461 0.35788763 4294967295
-0.19022748 0.048108663 0.3553828 4294967295
-0.19185653 0.048376866 0.35287797 4294967295
-0.1934856 0.048645072 0.35037309 4294967295
-0.19511464 0.048913278 0.34786826 4294967295
-0.1967437 0.04918148 0.34536341 4294967295
-0.19837275 0.049449682 0.34285855 4294967295
-0.20000181 0.049717888 0.34035373 4294967295
-0.20163086 0.049986091 0.3378489 4294967295
-0.20325992 0.050254297 0.33534402 4294967295
-0.20488897 0.050522499 0.33283919 4294967295
-0.20651802 0.050790705 0.33033434 4294967295
-0.20814708 0.051058907 0.32782948 4294967295
-0.20977613 0.051327109 0.32532465 4294967295
-0.21140517 0.051595315 0.3228198 4294967295
-0.21303424 0.051863521 0.32031494 4294967295
-0.2146633 0.052131724 0.31781012 4294967295
-0.21629234 0.052399926 0.31530526 4294967295
-0.21792139 0.052668132 0.31280041 4294967295
-0.21955045 0.052936334 0.31029558 4294967295
-0.22117949 0.053204536 0.30779073 4294967295
-0.22280854 0.053472742 0.30528587 4294967295
-0.22443759 0.053740948 0.30278105 4294967295
-0.22606665 0.054009151 0.30027616 4294967295
-0.2276957 0.054277353 0.29777133 4294967295
-0.22932476 0.054545559 0.29526651 4294967295
-0.23095381 0.054813761 0.29276165 4294967295
-0.23258287 0.055081964 0.2902568 4294967295
-0.23421192 0.05535017 0.28775194 4294967295
-0.23584098 0.055618376 0.28524709 4294967295
-0.23747003 0.055886578 0.28274226 4294967295
-0.23909909 0.05615478 0.28023744 4294967295
-0.24072814 0.056422986 0.27773255 4294967295
-0.24235719 0.056691192 0.27522773 4294967295
-0.24398625 0.056959394 0.27272287 4294967295
-0.2456153 0.057227597 0.27021801 4294967295
-0.24724436 0.057495803 0.26771319 4294967295
-0.24887341 0.057764009 0.26520833 4294967295
-0.25050244 0.058032207 0.26270348 4294967295
-0.25213149 0.058300413 0.26019865 4294967295
-0.25376058 0.058568619 0.2576938 4294967295
-0.2553896 0.058836821 0.25518894 4294967295
-0.25701866 0.059105024 0.25268412 4294967295
-0.25864771 0.05937323 0.25017926 4294967295
