# .PCD v0.7 - Point Cloud Data file format
VERSION 0.7
FIELDS x y z rgb
SIZE 4 4 4 4
TYPE F F F U
COUNT 1 1 1 1
WIDTH 1055
HEIGHT 1
VIEWPOINT 0 0 0 1 0 0 0
POINTS 1055
DATA ascii
0.019393407 0.053042024 0.34900001 4288190090
0.020468144 0.052890044 0.34800002 4287274637
0.021536384 0.052738059 0.347 4287341715
0.022598127 0.052586075 0.34600002 4286881164
0.023653379 0.052434094 0.34500003 4288196254
0.024773939 0.052434094 0.34500003 4282011712
0.025819439 0.05228211 0.34400001 4279969565
0.026858451 0.052130129 0.34300002 4282536005
0.02789096 0.051978145 0.34200001 4278916107
0.028916979 0.051826164 0.34100002 4284443741
0.030024547 0.051826164 0.34100002 4283456848
0.031040816 0.051674176 0.34 4283521871
0.032050595 0.051522195 0.33900002 4281021220
0.033151668 0.051522195 0.33900002 4279244041
0.034151699 0.051370215 0.33800003 4280622101
0.035249524 0.051370215 0.33800003 4281936675
0.036347348 0.051370215 0.33800003 4282860348
0.037445176 0.051370215 0.33800003 4287602320
0.03728864 0.049698401 0.32700002 4289175956
0.038350739 0.049698401 0.32700002 4284165665
0.039292302 0.049546417 0.32600001 4286130969
0.040351149 0.049546417 0.32600001 4286130199
0.041409999 0.049546417 0.32600001 4285932563
0.04246885 0.049546417 0.32600001 4285735184
0.043527696 0.049546417 0.32600001 4285538580
0.044586543 0.049546417 0.32600001 4284947215
0.045645393 0.049546417 0.32600001 4284422411
0.046704244 0.049546417 0.32600001 4284028169
0.047763094 0.049546417 0.32600001 4283570186
0.048821937 0.049546417 0.32600001 4283243020
0.049880788 0.049546417 0.32600001 4282980877
0.010384156 0.054486427 0.35100001 4287274639
0.011524205 0.054486427 0.35100001 4287269758
0.012664253 0.054486427 0.35100001 4285870375
0.013804302 0.054486427 0.35100001 4286263588
0.014901774 0.054331198 0.35000002 4285803037
0.016038576 0.054331198 0.35000002 4285473818
0.017175376 0.054331198 0.35000002 4285407512
0.018259855 0.054175962 0.34900001 4285342232
0.019393407 0.054175962 0.34900001 4283836448
0.020468144 0.054020733 0.34800002 4288651665
0.021536384 0.0538655 0.347 4287340943
0.022663439 0.0538655 0.347 4287341713
0.023721937 0.053710267 0.34600002 4287275920
0.024773939 0.053555038 0.34500003 4287670680
0.025819439 0.053399805 0.34400001 4283787358
0.026858451 0.053244572 0.34300002 4279772188
0.02789096 0.053089339 0.34200001 4280099868
0.029001778 0.053089339 0.34200001 4280625696
0.030024547 0.05293411 0.34100002 4281875763
0.031040816 0.052778874 0.34 4278782720
0.032145139 0.052778874 0.34 4280426516
0.033151668 0.052623644 0.33900002 4280161548
0.03425274 0.052623644 0.33900002 4281474068
0.035249524 0.052468415 0.33800003 4282525984
0.036347348 0.052468415 0.33800003 4286283892
0.037445176 0.052468415 0.33800003 4287406223
0.039292302 0.050605629 0.32600001 4285933590
0.040351149 0.050605629 0.32600001 4285538832
0.041409999 0.050605629 0.32600001 4285472271
0.04246885 0.050605629 0.32600001 4285473041
0.043527696 0.050605629 0.32600001 4284684554
0.044586543 0.050605629 0.32600001 4284487945
0.045645393 0.050605629 0.32600001 4283765769
0.046704244 0.050605629 0.32600001 4283240710
0.047763094 0.050605629 0.32600001 4282782215
0.048821937 0.050605629 0.32600001 4282717705
0.049880788 0.050605629 0.32600001 4282390537
0.0092177708 0.05546838 0.35000002 4287210129
0.010384156 0.055626858 0.35100001 4288324758
0.011524205 0.055626858 0.35100001 4284761402
0.012628173 0.05546838 0.35000002 4286789165
0.013764974 0.05546838 0.35000002 4288107589
0.014901774 0.05546838 0.35000002 4286856745
0.016038576 0.05546838 0.35000002 4285539350
0.017126303 0.055309895 0.34900001 4285670938
0.018259855 0.055309895 0.34900001 4285670938
0.01933784 0.055151418 0.34800002 4285803553
0.020468144 0.055151418 0.34800002 4288179556
0.021536384 0.054992933 0.347 4287471244
0.022663439 0.054992933 0.347 4287340941
0.023721937 0.054834455 0.34600002 4287079054
0.024773939 0.054675978 0.34500003 4287144849
0.025819439 0.054517493 0.34400001 4287407254
0.026858451 0.054359011 0.34300002 4287932828
0.027972514 0.054359011 0.34300002 4284575588
0.029001778 0.05420053 0.34200001 4279440652
0.030024547 0.054042049 0.34100002 4280291337
0.031040816 0.053883567 0.34 4281079570
0.032145139 0.053883567 0.34 4282917916
0.033151668 0.053725086 0.33900002 4283179803
0.034151699 0.053566609 0.33800003 4283310874
0.035249524 0.053566609 0.33800003 4283312157
0.036347348 0.053566609 0.33800003 4287797901
0.037445176 0.053566609 0.33800003 4288458143
0.038542997 0.053566609 0.33800003 4284297251
0.038350739 0.051823314 0.32700002 4285080087
0.039412834 0.051823314 0.32700002 4285475099
0.040474929 0.051823314 0.32700002 4285145105
0.041409999 0.051664833 0.32600001 4285013521
0.04246885 0.051664833 0.32600001 4284619533
0.043527696 0.051664833 0.32600001 4284225550
0.044586543 0.051664833 0.32600001 4283831564
0.045645393 0.051664833 0.32600001 4282781702
0.046704244 0.051664833 0.32600001 4282848010
0.047763094 0.051664833 0.32600001 4282520074
0.048821937 0.051664833 0.32600001 4282455565
0.049880788 0.051664833 0.32600001 4282128396
0.0092177708 0.05660557 0.35000002 4287144082
0.010354572 0.05660557 0.35000002 4286741615
0.011491373 0.05660557 0.35000002 4285019949
0.012628173 0.05660557 0.35000002 4288567622
0.013764974 0.05660557 0.35000002 4287121716
0.014901774 0.05660557 0.35000002 4286131739
0.015992749 0.056443837 0.34900001 4285999385
0.017126303 0.056443837 0.34900001 4285736729
0.018259855 0.056443837 0.34900001 4285670936
0.01933784 0.056282107 0.34800002 4285868317
0.020468144 0.056282107 0.34800002 4285802783
0.021536384 0.056120373 0.347 4288583044
0.022598127 0.055958647 0.34600002 4287537291
0.023721937 0.055958647 0.34600002 4287340943
0.024773939 0.055796918 0.34500003 4287472531
0.025819439 0.055635184 0.34400001 4287406738
0.026858451 0.055473458 0.34300002 4287407508
0.027972514 0.055473458 0.34300002 4287998360
0.029001778 0.055311725 0.34200001 4282465070
0.030024547 0.055149995 0.34100002 4284622624
0.031040816 0.054988265 0.34 4284754210
0.032050595 0.054826535 0.33900002 4285015838
0.033151668 0.054826535 0.33900002 4285409826
0.034151699 0.054664806 0.33800003 4284491804
0.035249524 0.054664806 0.33800003 4283047956
0.03623981 0.054503076 0.33700001 4288191887
0.037445176 0.054664806 0.33800003 4286875257
0.042599123 0.052885775 0.32700002 4283964433
0.043661222 0.052885775 0.32700002 4283899413
0.044586543 0.052724041 0.32600001 4283373841
0.045645393 0.052724041 0.32600001 4282717453
0.046704244 0.052724041 0.32600001 4282586381
0.047763094 0.052724041 0.32600001 4282390287
0.048821937 0.052724041 0.32600001 4282456850
0.049880788 0.052724041 0.32600001 4282391570
0.0092177708 0.057742752 0.35000002 4287144082
0.010354572 0.057742752 0.35000002 4286212959
0.011491373 0.057742752 0.35000002 4285018412
0.012628173 0.057742752 0.35000002 4285605406
0.013725644 0.05757777 0.34900001 4285538582
0.014859198 0.05757777 0.34900001 4285868317
0.015992749 0.05757777 0.34900001 4285999903
0.017126303 0.05757777 0.34900001 4285999649
0.018207535 0.057412792 0.34800002 4285868317
0.01933784 0.057412792 0.34800002 4286129949
0.020409327 0.05724781 0.347 4285933340
0.021536384 0.05724781 0.347 4285015068
0.022598127 0.057082832 0.34600002 4289499011
0.023721937 0.057082832 0.34600002 4287011463
0.024773939 0.056917857 0.34500003 4287472529
0.025819439 0.056752875 0.34400001 4287538324
0.026858451 0.056587897 0.34300002 4287472531
0.02789096 0.056422915 0.34200001 4287406225
0.029001778 0.056422915 0.34200001 4283122225
0.030024547 0.056257937 0.34100002 4285145627
0.031040816 0.056092955 0.34 4285539615
0.032050595 0.055927977 0.33900002 4285473820
0.033053875 0.055763002 0.33800003 4285736990
0.034151699 0.055763002 0.33800003 4285542695
0.035145234 0.055598021 0.33700001 4283244565
0.036132276 0.055433042 0.33600003 4288518026
0.037445176 0.055763002 0.33800003 4284169263
0.039533362 0.054113206 0.32800001 4283506710
0.040474929 0.053948227 0.32700002 4284295972
0.041537024 0.053948227 0.32700002 4283966491
0.042599123 0.053948227 0.32700002 4283834905
0.043661222 0.053948227 0.32700002 4283243284
0.044723313 0.053948227 0.32700002 4282980625
0.045785412 0.053948227 0.32700002 4282652944
0.046847511 0.053948227 0.32700002 4282587664
0.047763094 0.053783245 0.32600001 4282588434
0.048821937 0.053783245 0.32600001 4282786328
0.049880788 0.053783245 0.32600001 4282457877
0.0092177708 0.058879938 0.35000002 4287210129
0.010354572 0.058879938 0.35000002 4284369212
0.011491373 0.058879938 0.35000002 4285412654
0.012592091 0.058711708 0.34900001 4286198570
0.013725644 0.058711708 0.34900001 4285014039
0.014859198 0.058711708 0.34900001 4285014039
0.015946927 0.058543481 0.34800002 4285474590
0.017077232 0.058543481 0.34800002 4286987834
0.018207535 0.058543481 0.34800002 4285871406
0.01928227 0.058375251 0.347 4286131489
0.020409327 0.058375251 0.347 4286196512
0.02147432 0.058207024 0.34600002 4286658346
0.022598127 0.058207024 0.34600002 4285540638
0.023653379 0.058038797 0.34500003 4287001442
0.024702128 0.057870567 0.34400001 4287864459
0.025819439 0.057870567 0.34400001 4287602832
0.026858451 0.05770234 0.34300002 4287472016
0.02789096 0.05753411 0.34200001 4287537039
0.028916979 0.057365883 0.34100002 4284108350
0.029936496 0.057197653 0.34 4285670686
0.03094952 0.057029426 0.33900002 4285801502
0.032050595 0.057029426 0.33900002 4285669916
0.033053875 0.056861199 0.33800003 4286196258
0.034050658 0.056692969 0.33700001 4286134317
0.035040949 0.056524742 0.33600003 4283637013
0.036024738 0.056356512 0.33500001 4284953902
0.037630737 0.055515371 0.33000001 4283836188
0.038585298 0.055347145 0.32900003 4284564025
0.03965389 0.055347145 0.32900003 4287860866
0.040598705 0.055178914 0.32800001 4283053612
0.041664049 0.055178914 0.32800001 4283771940
0.042599123 0.055010688 0.32700002 4283376669
0.043661222 0.055010688 0.32700002 4283310104
0.044723313 0.055010688 0.32700002 4282916116
0.045785412 0.055010688 0.32700002 4282719252
0.046847511 0.055010688 0.32700002 4282851608
0.047909606 0.055010688 0.32700002 4282917914
0.048821937 0.054842453 0.32600001 4282852635
0.049880788 0.054842453 0.32600001 4282787612
0.0092177708 0.060017124 0.35000002 4287209875
0.010354572 0.060017124 0.35000002 4286280037
0.01145854 0.059845641 0.34900001 4285085742
0.012592091 0.059845641 0.34900001 4285476389
0.013725644 0.059845641 0.34900001 4284752666
0.014816621 0.059674166 0.34800002 4284227605
0.015946927 0.059674166 0.34800002 4284359191
0.017077232 0.059674166 0.34800002 4285344033
0.018155213 0.059502687 0.347 4288633683
0.01928227 0.059502687 0.347 4286793530
0.020350512 0.059331212 0.34600002 4285474588
0.02147432 0.059331212 0.34600002 4286787877
0.022532815 0.059159737 0.34500003 4287644980
0.023653379 0.059159737 0.34500003 4286197793
0.024702128 0.058988255 0.34400001 4286728252
0.025744384 0.058816779 0.34300002 4288781966
0.026780145 0.058645301 0.34200001 4287733641
0.027809409 0.058473825 0.34100002 4287536523
0.028916979 0.058473825 0.34100002 4284896581
0.029936496 0.058302343 0.34 4285801500
0.03094952 0.058130868 0.33900002 4286063902
0.031956051 0.057959393 0.33800003 4286129438
0.032956082 0.057787914 0.33700001 4286590243
0.033949621 0.057616439 0.33600003 4286460454
0.034936655 0.057444956 0.33500001 4286395947
0.0359172 0.057273481 0.33400002 4285082660
0.037744772 0.056759052 0.33100003 4282396965
0.038702577 0.056587569 0.33000001 4288522135
0.03965389 0.056416094 0.32900003 4287472016
0.040722482 0.056416094 0.32900003 4288194453
0.041664049 0.056244615 0.32800001 4284833105
0.042729393 0.056244615 0.32800001 4282721821
0.04379474 0.056244615 0.32800001 4282983446
0.04486008 0.056244615 0.32800001 4282851860
0.045785412 0.05607314 0.32700002 4283048987
0.046847511 0.05607314 0.32700002 4283312159
0.047909606 0.05607314 0.32700002 4283444258
0.048971701 0.05607314 0.32700002 4283313186
0.0092177708 0.06115431 0.35000002 4287472531
0.010324988 0.060979582 0.34900001 4288193940
0.01145854 0.060979582 0.34900001 4283975481
0.012592091 0.060979582 0.34900001 4284558374
0.013686316 0.060804859 0.34800002 4284229409
0.014816621 0.060804859 0.34800002 4284229663
0.015946927 0.060804859 0.34800002 4283769112
0.017028159 0.060630128 0.347 4283966491
0.018155213 0.060630128 0.347 4284623136
0.019226702 0.060455404 0.34600002 4285411359
0.020350512 0.060455404 0.34600002 4291595899
0.021412257 0.060280677 0.34500003 4286459164
0.022532815 0.060280677 0.34500003 4286853667
0.023584817 0.06010595 0.34400001 4286787874
0.024630321 0.059931226 0.34300002 4286524702
0.025669327 0.059756495 0.34200001 4286395692
0.026780145 0.059756495 0.34200001 4286201908
0.027809409 0.059581771 0.34100002 4287785052
0.028832177 0.05940704 0.34 4285477670
0.029848449 0.059232317 0.33900002 4285867547
0.030858226 0.059057593 0.33800003 4286327328
0.031861506 0.058882862 0.33700001 4286590241
0.03285829 0.058708139 0.33600003 4286655264
0.033848576 0.058533408 0.33500001 4286328096
0.034936655 0.058533408 0.33500001 4286065696
0.0359172 0.058358684 0.33400002 4284953384
0.036780465 0.05800923 0.33200002 4282721821
0.037744772 0.057834506 0.33100003 4287932569
0.038702577 0.057659779 0.33000001 4287275922
0.039774418 0.057659779 0.33000001 4287406738
0.040722482 0.057485051 0.32900003 4287406225
0.041791074 0.057485051 0.32900003 4288652438
0.04285967 0.057485051 0.32900003 4281738004
0.043928262 0.057485051 0.32900003 4283114260
0.04486008 0.057310324 0.32800001 4283312922
0.045925427 0.057310324 0.32800001 4284959033
0.046847511 0.057135601 0.32700002 4283906091
0.047909606 0.057135601 0.32700002 4282856748
0.0092177708 0.062291499 0.35000002 4287210642
0.010324988 0.06211352 0.34900001 4287604887
0.01145854 0.06211352 0.34900001 4286615425
0.012592091 0.06211352 0.34900001 4284037429
0.013686316 0.061935548 0.34800002 4283970350
0.014816621 0.061935548 0.34800002 4284035112
0.015901102 0.061757568 0.347 4283179803
0.017028159 0.061757568 0.347 4283310876
0.018102894 0.061579596 0.34600002 4283574048
0.019226702 0.061579596 0.34600002 4284560425
0.020291695 0.061401621 0.34500003 4284951326
0.021412257 0.061401621 0.34500003 4286459166
0.022467503 0.061223641 0.34400001 4286721311
0.023516256 0.061045669 0.34300002 4286984483
0.024558511 0.06086769 0.34200001 4286984483
0.025594272 0.060689718 0.34100002 4286721057
0.026701842 0.060689718 0.34100002 4286721057
0.027727855 0.060511738 0.34 4285867545
0.028747378 0.060333766 0.33900002 4287382069
0.029760402 0.06015579 0.33800003 4286988336
0.030766927 0.059977815 0.33700001 4286659114
0.031861506 0.059977815 0.33700001 4287448114
0.03285829 0.059799839 0.33600003 4286854440
0.033848576 0.059621859 0.33500001 4286065955
0.03483237 0.059443887 0.33400002 4285017632
0.035809662 0.059265908 0.333 4282528303
0.036780465 0.059087936 0.33200002 4288389788
0.037858803 0.059087936 0.33200002 4287406738
0.038819861 0.05890996 0.33100003 4287406738
0.03989495 0.05890996 0.33100003 4287340945
0.040846258 0.058731984 0.33000001 4287734418
0.041918095 0.058731984 0.33000001 4285422414
0.042989939 0.058731984 0.33000001 4283046932
0.04406178 0.058731984 0.33000001 4283113495
0.04499685 0.058554009 0.32900003 4283443743
0.045925427 0.058376029 0.32800001 4283116838
0.046990775 0.058376029 0.32800001 4285030234
0.047909606 0.058198057 0.32700002 4288062617
0.010324988 0.063247457 0.34900001 4287144336
0.01145854 0.063247457 0.34900001 4287407508
0.012556012 0.063066229 0.34800002 4287272588
0.013686316 0.063066229 0.34800002 4283978057
0.014774044 0.062885001 0.347 4283840563
0.015901102 0.062885001 0.347 4283445292
0.017028159 0.062885001 0.347 4283312934
0.018102894 0.062703781 0.34600002 4283115295
0.019226702 0.062703781 0.34600002 4282457879
0.020291695 0.06252256 0.34500003 4283509536
0.02135019 0.062341332 0.34400001 4285082914
0.022402192 0.062160108 0.34300002 4286197541
0.023516256 0.062160108 0.34300002 4286787622
0.024558511 0.06197888 0.34200001 4287050792
0.025594272 0.06179766 0.34100002 4286852130
0.026623536 0.061616432 0.34 4286917153
0.027646303 0.061435208 0.33900002 4286720544
0.028662577 0.061253987 0.33800003 4286259993
0.029672351 0.061072759 0.33700001 4286853667
0.030766927 0.061072759 0.33700001 4286459164
0.031766962 0.060891535 0.33600003 4286065946
0.032760497 0.060710307 0.33500001 4285605656
0.033848576 0.060710307 0.33500001 4283835675
0.03483237 0.060529083 0.33400002 4285883224
0.035809662 0.060347855 0.333 4287800729
0.036891248 0.060347855 0.333 4287340693
0.037858803 0.060166635 0.33200002 4287669910
0.03893714 0.060166635 0.33200002 4287340945
0.03989495 0.05998541 0.33100003 4287603604
0.040970035 0.05998541 0.33100003 4285691753
0.042045124 0.05998541 0.33100003 4283375383
0.043120213 0.05998541 0.33100003 4283967007
0.044195306 0.05998541 0.33100003 4283575329
0.045270391 0.05998541 0.33100003 4282984993
0.045925427 0.059441734 0.32800001 4287270789
0.046990775 0.059441734 0.32800001 4287799445
0.01145854 0.064381391 0.34900001 4287538840
0.012556012 0.064196922 0.34800002 4287407254
0.013686316 0.064196922 0.34800002 4287801242
0.014774044 0.064012446 0.347 4288324506
0.015901102 0.064012446 0.347 4286414710
0.016979085 0.063827977 0.34600002 4284767573
0.018102894 0.063827977 0.34600002 4284896077
0.019226702 0.063827977 0.34600002 4283973171
0.020291695 0.0636435 0.34500003 4282984223
0.02135019 0.063459024 0.34400001 4283310874
0.022402192 0.063274555 0.34300002 4285876801
0.023447696 0.063090079 0.34200001 4284754722
0.024486704 0.062905602 0.34100002 4285673768
0.025519213 0.062721126 0.34 4286524707
0.026545232 0.062536657 0.33900002 4286918438
0.027564751 0.062352184 0.33800003 4287115815
0.028662577 0.062352184 0.33800003 4287115815
0.029672351 0.062167708 0.33700001 4286458655
0.030675631 0.061983235 0.33600003 4285800984
0.031766962 0.061983235 0.33600003 4285080087
0.032760497 0.061798759 0.33500001 4283504395
0.033747539 0.061614286 0.33400002 4287597953
0.03483237 0.061614286 0.33400002 4287470994
0.0359172 0.061614286 0.33400002 4287602834
0.036891248 0.06142981 0.333 4287274639
0.037972834 0.06142981 0.333 4287472018
0.03893714 0.061245337 0.33200002 4287735190
0.040015474 0.061245337 0.33200002 4286345830
0.041093811 0.061245337 0.33200002 4283048987
0.042172145 0.061245337 0.33200002 4284098593
0.043250486 0.061245337 0.33200002 4284033313
0.044328824 0.061245337 0.33200002 4282724649
0.045407157 0.061245337 0.33200002 4288256914
0.047045562 0.061983235 0.33600003 4287668373
0.04813689 0.061983235 0.33600003 4287537557
0.013646987 0.065139882 0.347 4287407254
0.014774044 0.065139882 0.347 4287209875
0.015901102 0.065139882 0.347 4287274898
0.016979085 0.064952157 0.34600002 4287340432
0.018102894 0.064952157 0.34600002 4287998362
0.019226702 0.064952157 0.34600002 4287403143
0.020291695 0.06476444 0.34500003 4283386690
0.02135019 0.064576715 0.34400001 4284168243
0.022402192 0.06438899 0.34300002 4283049502
0.023447696 0.064201266 0.34200001 4284235058
0.024486704 0.064013548 0.34100002 4285618507
0.025519213 0.063825816 0.34 4286333240
0.026545232 0.063638099 0.33900002 4286197030
0.027564751 0.063450381 0.33800003 4287181095
0.028577777 0.063262649 0.33700001 4286260506
0.029584303 0.063074932 0.33600003 4291331964
0.030675631 0.063074932 0.33600003 4285736990
0.031672414 0.062887207 0.33500001 4285145625
0.032760497 0.062887207 0.33500001 4283897870
0.033747539 0.062699482 0.33400002 4287990401
0.03483237 0.062699482 0.33400002 4287208076
0.0359172 0.062699482 0.33400002 4287208846
0.037002034 0.062699482 0.33400002 4287340432
0.037972834 0.062511757 0.333 4288062356
0.03905442 0.062511757 0.333 4284372813
0.040136002 0.062511757 0.333 4283441180
0.041217584 0.062511757 0.333 4284032804
0.04229917 0.062511757 0.333 4283771427
0.043511029 0.062699482 0.33400002 4283445290
0.044595864 0.062699482 0.33400002 4288259996
0.045680694 0.062699482 0.33400002 4287405973
0.047045562 0.063074932 0.33600003 4287405973
0.04813689 0.063074932 0.33600003 4287471766
0.018102894 0.066076353 0.34600002 4287210129
0.019226702 0.066076353 0.34600002 4287210129
0.020291695 0.06588538 0.34500003 4287275922
0.02135019 0.065694407 0.34400001 4288719005
0.022402192 0.065503433 0.34300002 4284768343
0.023447696 0.06531246 0.34200001 4283642417
0.024486704 0.065121494 0.34100002 4282261529
0.025444157 0.064739548 0.33900002 4286204484
0.026466928 0.064548574 0.33800003 4285869353
0.027483199 0.064357601 0.33700001 4286918436
0.028577777 0.064357601 0.33700001 4289353799
0.029584303 0.064166635 0.33600003 4286789671
0.030584333 0.063975655 0.33500001 4285800982
0.031672414 0.063975655 0.33500001 4285539352
0.032760497 0.063975655 0.33500001 4284553745
0.033747539 0.063784689 0.33400002 4283109131
0.03483237 0.063784689 0.33400002 4282981143
0.0359172 0.063784689 0.33400002 4284172606
0.037002034 0.063784689 0.33400002 4285226066
0.038086869 0.063784689 0.33400002 4282391055
0.039171703 0.063784689 0.33400002 4283375897
0.040256534 0.063784689 0.33400002 4284098595
0.041341364 0.063784689 0.33400002 4283836452
0.042426195 0.063784689 0.33400002 4281934619
0.043641303 0.063975655 0.33500001 4288126098
0.044729382 0.063975655 0.33500001 4287472279
0.045817461 0.063975655 0.33500001 4287274900
0.047045562 0.064166635 0.33600003 4287538072
0.048280153 0.064357601 0.33700001 4287538072
0.018155213 0.067394756 0.347 4287406484
0.01928227 0.067394756 0.347 4287472531
0.020350512 0.067200534 0.34600002 4287472531
0.021412257 0.06700632 0.34500003 4287472531
0.022467503 0.066812098 0.34400001 4287537811
0.023447696 0.066423655 0.34200001 4288193944
0.024414893 0.066035211 0.34 4283780678
0.025444157 0.065840989 0.33900002 4286337354
0.026466928 0.065646768 0.33800003 4285477418
0.027483199 0.065452546 0.33700001 4286458914
0.028492976 0.065258324 0.33600003 4286063899
0.029584303 0.065258324 0.33600003 4286064156
0.030584333 0.065064102 0.33500001 4285933340
0.031672414 0.065064102 0.33500001 4285276693
0.032760497 0.065064102 0.33500001 4284685329
0.033747539 0.064869888 0.33400002 4283701261
0.03483237 0.064869888 0.33400002 4283110667
0.0359172 0.064869888 0.33400002 4282717967
0.037002034 0.064869888 0.33400002 4282390287
0.038086869 0.064869888 0.33400002 4283046418
0.039171703 0.064869888 0.33400002 4283967007
0.040377058 0.065064102 0.33500001 4283705634
0.041465141 0.065064102 0.33500001 4283378981
0.04255322 0.065064102 0.33500001 4287469449
0.043641303 0.065064102 0.33500001 4287406223
0.044862907 0.065258324 0.33600003 4287340945
0.045954231 0.065258324 0.33600003 4287538070
0.047185577 0.065452546 0.33700001 4287406484
0.048280153 0.065452546 0.33700001 4287406486
0.018207535 0.06871967 0.34800002 4287472531
0.01928227 0.0685222 0.347 4287669910
0.020409327 0.0685222 0.347 4287275152
0.02147432 0.06832473 0.34600002 4287275152
0.022532815 0.06812726 0.34500003 4287406738
0.023447696 0.067534849 0.34200001 4287669910
0.024414893 0.067139909 0.34 4287735190
0.025369102 0.066744968 0.33800003 4287594873
0.026466928 0.066744968 0.33800003 4284689960
0.027483199 0.066547498 0.33700001 4285802783
0.028492976 0.066350028 0.33600003 4285407512
0.029584303 0.066350028 0.33600003 4285210646
0.030584333 0.066152558 0.33500001 4284881681
0.031672414 0.066152558 0.33500001 4284422159
0.032760497 0.066152558 0.33500001 4283897355
0.033747539 0.065955088 0.33400002 4283307276
0.03483237 0.065955088 0.33400002 4282782217
0.0359172 0.065955088 0.33400002 4282586381
0.037112817 0.066152558 0.33500001 4282127113
0.0382009 0.066152558 0.33500001 4283441690
0.039288979 0.066152558 0.33500001 4283770655
0.040377058 0.066152558 0.33500001 4283707692
0.041465141 0.066152558 0.33500001 4287266678
0.042680245 0.066350028 0.33600003 4287340691
0.043771576 0.066350028 0.33600003 4287340691
0.044862907 0.066350028 0.33600003 4287340691
0.046090998 0.066547498 0.33700001 4287340691
0.047185577 0.066547498 0.33700001 4287472277
0.048423421 0.066744968 0.33800003 4287406484
0.018207535 0.069850355 0.34800002 4287538324
0.01933784 0.069850355 0.34800002 4287538324
0.020409327 0.069649629 0.347 4287406738
0.021536384 0.069649629 0.347 4287538324
0.022598127 0.069448918 0.34600002 4287472531
0.023790497 0.069649629 0.347 4287538324
0.024917552 0.069649629 0.347 4287538324
0.025369102 0.067843162 0.33800003 4288653725
0.026388623 0.067642443 0.33700001 4283118893
0.027483199 0.067642443 0.33700001 4285411109
0.028492976 0.067441724 0.33600003 4285147424
0.029584303 0.067441724 0.33600003 4284817689
0.030584333 0.067240998 0.33500001 4284423447
0.031672414 0.067240998 0.33500001 4283964181
0.032760497 0.067240998 0.33500001 4283833622
0.033848576 0.067240998 0.33500001 4282782733
0.034936655 0.067240998 0.33500001 4282849039
0.036024738 0.067240998 0.33500001 4282522641
0.037112817 0.067240998 0.33500001 4282193676
0.0382009 0.067240998 0.33500001 4283376667
0.039288979 0.067240998 0.33500001 4283969319
0.040377058 0.067240998 0.33500001 4284634962
0.041588917 0.067441724 0.33600003 4287865238
0.042680245 0.067441724 0.33600003 4287472531
0.043771576 0.067441724 0.33600003 4287406484
0.044996426 0.067642443 0.33700001 4287472277
0.046090998 0.067642443 0.33700001 4287538070
0.047185577 0.067642443 0.33700001 4287406484
0.048423421 0.067843162 0.33800003 4287340691
0.018207535 0.070981048 0.34800002 4287472277
0.01933784 0.070981048 0.34800002 4287538070
0.020468144 0.070981048 0.34800002 4287406484
0.021536384 0.070777074 0.347 4287406484
0.022663439 0.070777074 0.347 4287472277
0.023790497 0.070777074 0.347 4287406484
0.024917552 0.070777074 0.347 4287735703
0.025369102 0.068941362 0.33800003 4287340432
0.026388623 0.068737388 0.33700001 4286087283
0.027483199 0.068737388 0.33700001 4284757036
0.028492976 0.068533428 0.33600003 4284756007
0.029584303 0.068533428 0.33600003 4284360736
0.030584333 0.068329453 0.33500001 4284229150
0.031672414 0.068329453 0.33500001 4283571733
0.032760497 0.068329453 0.33500001 4283375124
0.033848576 0.068329453 0.33500001 4282785297
0.034936655 0.068329453 0.33500001 4282785043
0.036024738 0.068329453 0.33500001 4282720020
0.037112817 0.068329453 0.33500001 4282851606
0.0382009 0.068329453 0.33500001 4282983709
0.039288979 0.068329453 0.33500001 4282853155
0.04049759 0.068533428 0.33600003 4287668373
0.041588917 0.068533428 0.33600003 4287471764
0.042680245 0.068533428 0.33600003 4287406225
0.043901846 0.068737388 0.33700001 4287603604
0.044996426 0.068737388 0.33700001 4287472277
0.046090998 0.068737388 0.33700001 4287538070
0.047185577 0.068737388 0.33700001 4287801242
0.048423421 0.068941362 0.33800003 4287472277
0.018207535 0.072111733 0.34800002 4287669910
0.01933784 0.072111733 0.34800002 4287538070
0.020468144 0.072111733 0.34800002 4287472277
0.021536384 0.07190451 0.347 4287472277
0.022663439 0.07190451 0.347 4287472277
0.023790497 0.07190451 0.347 4287669910
0.024917552 0.07190451 0.347 4287538324
0.025369102 0.070039555 0.33800003 4287603604
0.026466928 0.070039555 0.33800003 4288064155
0.027483199 0.069832332 0.33700001 4285621853
0.028492976 0.069625117 0.33600003 4284102450
0.029584303 0.069625117 0.33600003 4284493864
0.030675631 0.069625117 0.33600003 4283967520
0.031672414 0.069417901 0.33500001 4283572764
0.032760497 0.069417901 0.33500001 4283178520
0.033848576 0.069417901 0.33500001 4283048217
0.034936655 0.069417901 0.33500001 4282982424
0.036024738 0.069417901 0.33500001 4283049502
0.037112817 0.069417901 0.33500001 4283444260
0.0382009 0.069417901 0.33500001 4283051817
0.039406262 0.069625117 0.33600003 4286873719
0.04049759 0.069625117 0.33600003 4287472277
0.041588917 0.069625117 0.33600003 4287406484
0.042680245 0.069625117 0.33600003 4287538070
0.043901846 0.069832332 0.33700001 4287472277
0.044996426 0.069832332 0.33700001 4287471764
0.046090998 0.069832332 0.33700001 4287537557
0.047185577 0.069832332 0.33700001 4287537811
0.048423421 0.070039555 0.33800003 4287735190
0.020468144 0.073242418 0.34800002 4287472277
0.021536384 0.073031947 0.347 4287669656
0.022598127 0.072821483 0.34600002 4287537557
0.023721937 0.072821483 0.34600002 4287537811
0.024773939 0.072611019 0.34500003 4287537811
0.025444157 0.07134822 0.33900002 4287537811
0.026466928 0.071137756 0.33800003 4287735190
0.027564751 0.071137756 0.33800003 4287866006
0.028577777 0.070927285 0.33700001 4287074693
0.029584303 0.070716821 0.33600003 4283842616
0.030675631 0.070716821 0.33600003 4283116325
0.031766962 0.070716821 0.33600003 4283707432
0.032760497 0.070506349 0.33500001 4283575333
0.033848576 0.070506349 0.33500001 4283443495
0.034936655 0.070506349 0.33500001 4283707180
0.036024738 0.070506349 0.33500001 4283576108
0.037112817 0.070506349 0.33500001 4283380528
0.038314931 0.070716821 0.33600003 4286021238
0.039406262 0.070716821 0.33600003 4287668373
0.04049759 0.070716821 0.33600003 4287340693
0.041588917 0.070716821 0.33600003 4287538070
0.042680245 0.070716821 0.33600003 4287537557
0.043901846 0.070927285 0.33700001 4287537557
0.044996426 0.070927285 0.33700001 4287472277
0.046090998 0.070927285 0.33700001 4287538070
0.047185577 0.070927285 0.33700001 4287538070
0.048423421 0.071137756 0.33800003 4287538070
0.020468144 0.074373111 0.34800002 4287472277
0.021536384 0.074159391 0.347 4287472277
0.022598127 0.073945679 0.34600002 4287538070
0.023653379 0.073731966 0.34500003 4287669656
0.024702128 0.073518246 0.34400001 4287472277
0.025519213 0.072663382 0.34 4287472277
0.026623536 0.072663382 0.34 4287538324
0.027646303 0.072449669 0.33900002 4287603604
0.028662577 0.072235957 0.33800003 4287472018
0.029672351 0.072022237 0.33700001 4288063385
0.030675631 0.071808524 0.33600003 4287865492
0.031766962 0.071808524 0.33600003 4286743673
0.03285829 0.071808524 0.33600003 4285361763
0.033949621 0.071808524 0.33600003 4284833366
0.035040949 0.071808524 0.33600003 4284833366
0.036132276 0.071808524 0.33600003 4286019695
0.037223604 0.071808524 0.33600003 4288456092
0.038314931 0.071808524 0.33600003 4287668373
0.039406262 0.071808524 0.33600003 4287866006
0.04049759 0.071808524 0.33600003 4287866522
0.041588917 0.071808524 0.33600003 4287734936
0.042680245 0.071808524 0.33600003 4287603350
0.043901846 0.072022237 0.33700001 4287537557
0.044996426 0.072022237 0.33700001 4287537557
0.046090998 0.072022237 0.33700001 4287406484
0.047185577 0.072022237 0.33700001 4287472277
0.048423421 0.072235957 0.33800003 4287538070
0.022598127 0.075069867 0.34600002 4287472277
0.023653379 0.074852899 0.34500003 4287603350
0.024702128 0.07463593 0.34400001 4287537557
0.025594272 0.07398504 0.34100002 4287603350
0.026623536 0.073768072 0.34 4287800983
0.027646303 0.073551111 0.33900002 4287603604
0.028662577 0.07333415 0.33800003 4287800983
0.029760402 0.07333415 0.33800003 4287800983
0.030766927 0.073117182 0.33700001 4287537811
0.031861506 0.073117182 0.33700001 4287472018
0.03285829 0.072900221 0.33600003 4287537557
0.033949621 0.072900221 0.33600003 4287537811
0.035040949 0.072900221 0.33600003 4287603604
0.036132276 0.072900221 0.33600003 4287735190
0.037223604 0.072900221 0.33600003 4287472018
0.038314931 0.072900221 0.33600003 4287537811
0.039406262 0.072900221 0.33600003 4287603604
0.04049759 0.072900221 0.33600003 4287603604
0.041588917 0.072900221 0.33600003 4287735190
0.042680245 0.072900221 0.33600003 4287603350
0.043901846 0.073117182 0.33700001 4287800729
0.044996426 0.073117182 0.33700001 4287405971
0.046090998 0.073117182 0.33700001 4287603350
0.047185577 0.073117182 0.33700001 4287406484
0.048423421 0.07333415 0.33800003 4287472277
0.025669327 0.075313196 0.34200001 4287866522
0.026701842 0.075092986 0.34100002 4287866522
0.027727855 0.074872769 0.34 4287734936
0.028747378 0.07465256 0.33900002 4287866522
0.029760402 0.074432343 0.33800003 4287603604
0.030766927 0.074212126 0.33700001 4287800983
0.031861506 0.074212126 0.33700001 4287603350
0.033949621 0.073991917 0.33600003 4287537557
0.035040949 0.073991917 0.33600003 4287734936
0.036132276 0.073991917 0.33600003 4287603350
0.037223604 0.073991917 0.33600003 4287866522
0.038314931 0.073991917 0.33600003 4287735190
0.039406262 0.073991917 0.33600003 4287735190
0.04049759 0.073991917 0.33600003 4287603604
0.041588917 0.073991917 0.33600003 4287800983
0.042680245 0.073991917 0.33600003 4287735190
0.043901846 0.074212126 0.33700001 4287735190
0.044996426 0.074212126 0.33700001 4287734936
0.046090998 0.074212126 0.33700001 4287603350
0.047185577 0.074212126 0.33700001 4287603350
0.048423421 0.074432343 0.33800003 4287734936
0.022532815 0.014322126 0.34500003 4286617990
0.023653379 0.014322126 0.34500003 4286552197
0.024773939 0.014322126 0.34500003 4287011976
0.025894497 0.014322126 0.34500003 4287730820
0.026936755 0.014280612 0.34400001 4286477414
0.028054066 0.014280612 0.34400001 4285752662
0.020350512 0.015487828 0.34600002 4286618505
0.02147432 0.015487828 0.34600002 4286683783
0.019171134 0.016564008 0.34500003 4286684298
0.020291695 0.016564008 0.34500003 4286618503
0.032334227 0.016419971 0.34200001 4285947990
0.019171134 0.017684948 0.34500003 4286683785
0.020291695 0.017684948 0.34500003 4286482039
0.030112594 0.017531164 0.34200001 4284422931
0.031223409 0.017531164 0.34200001 4290808196
0.033347253 0.017479904 0.34100002 4286008902
0.017945932 0.018696867 0.34300002 4286552712
0.016831869 0.01981131 0.34300002 4286684298
0.017945932 0.01981131 0.34300002 4286749578
0.02789096 0.019753549 0.34200001 4284358419
0.028916979 0.019695792 0.34100002 4284359191
0.030024547 0.019695792 0.34100002 4283637013
0.031040816 0.019638032 0.34 4284032284
0.015671978 0.020864742 0.34200001 4286684298
0.016831869 0.020925751 0.34300002 4286749578
0.017945932 0.020925751 0.34300002 4286354820
0.025669327 0.020864742 0.34200001 4283897353
0.026780145 0.020864742 0.34200001 4284029454
0.027809409 0.020803735 0.34100002 4283242514
0.028916979 0.020803735 0.34100002 4285617742
0.029936496 0.020742726 0.34 4287469451
0.031040816 0.020742726 0.34 4287799184
0.032050595 0.020681718 0.33900002 4287862152
0.033151668 0.020681718 0.33900002 4285227347
0.034151699 0.020620711 0.33800003 4284360736
0.015671978 0.021975936 0.34200001 4286750091
0.016831869 0.022040194 0.34300002 4286750091
0.017945932 0.022040194 0.34300002 4286749578
0.023516256 0.022040194 0.34300002 4284226833
0.024630321 0.022040194 0.34300002 4284226833
0.025669327 0.021975936 0.34200001 4283964433
0.026780145 0.021975936 0.34200001 4283833106
0.027809409 0.021911681 0.34100002 4286608232
0.028916979 0.021911681 0.34100002 4287011465
0.029936496 0.021847421 0.34 4286814601
0.03094952 0.021783166 0.33900002 4286880394
0.032050595 0.021783166 0.33900002 4286815371
0.033053875 0.02171891 0.33800003 4286683781
0.034050658 0.021654651 0.33700001 4287405451
0.035040949 0.021590395 0.33600003 4286217327
0.036132276 0.021590395 0.33600003 4284032284
0.016831869 0.023154637 0.34300002 4286815369
0.022402192 0.023154637 0.34300002 4284030735
0.023516256 0.023154637 0.34300002 4283702804
0.024630321 0.023154637 0.34300002 4283768597
0.028832177 0.022952117 0.34 4287403395
0.029848449 0.022884611 0.33900002 4286880390
0.03094952 0.022884611 0.33900002 4286880390
0.031956051 0.022817105 0.33800003 4286815369
0.032956082 0.022749599 0.33700001 4286815369
0.033949621 0.022682093 0.33600003 4286749576
0.035040949 0.022682093 0.33600003 4286814599
0.036024738 0.022614585 0.33500001 4288193424
0.020232879 0.024339832 0.34400001 4283769362
0.02135019 0.024339832 0.34400001 4283703054
0.022467503 0.024339832 0.34400001 4283704339
0.023516256 0.024269078 0.34300002 4283902233
0.024630321 0.024269078 0.34300002 4283901720
0.029848449 0.023986056 0.33900002 4286207562
0.031861506 0.023844546 0.33700001 4287143816
0.03285829 0.023773791 0.33600003 4286749574
0.033949621 0.023773791 0.33600003 4286749576
0.034936655 0.023703035 0.33500001 4286617990
0.0359172 0.023632281 0.33400002 4287010947
0.021412257 0.025531529 0.34500003 4283835925
0.022467503 0.025457524 0.34400001 4283770645
0.023584817 0.025457524 0.34400001 4283836438
0.025669327 0.025309514 0.34200001 4284032023
0.033848576 0.024791483 0.33500001 4287406223
0.03483237 0.02471748 0.33400002 4286748806
0.021412257 0.02665247 0.34500003 4283177225
0.022532815 0.02665247 0.34500003 4283177997
0.023584817 0.026575215 0.34400001 4283178772
0.024630321 0.026497962 0.34300002 4283376151
0.025669327 0.026420707 0.34200001 4283773225
0.026701842 0.026343456 0.34100002 4284827456
0.027809409 0.026343456 0.34100002 4285224269
0.028832177 0.0262662 0.34 4285092681
0.029760402 0.026111694 0.33800003 4283967520
0.031766962 0.025957188 0.33600003 4288702820
0.020409327 0.027934413 0.347 4283374604
0.02147432 0.027853912 0.34600002 4283178770
0.022598127 0.027853912 0.34600002 4283376151
0.023653379 0.02777341 0.34500003 4282391059
0.024702128 0.027692905 0.34400001 4284499776
0.025744384 0.027612403 0.34300002 4286548349
0.026780145 0.0275319 0.34200001 4287010183
0.027809409 0.027451398 0.34100002 4286814088
0.028832177 0.027370894 0.34 4287734418
0.029760402 0.027209891 0.33800003 4286878080
0.031766962 0.027048886 0.33600003 4284296485
0.018259855 0.029229354 0.34900001 4284162323
0.01933784 0.029145604 0.34800002 4283177997
0.020468144 0.029145604 0.34800002 4282980877
0.021536384 0.02906185 0.347 4282652944
0.022598127 0.0289781 0.34600002 4282523158
0.023721937 0.0289781 0.34600002 4286943107
0.024702128 0.028810596 0.34400001 4287340178
0.025744384 0.028726846 0.34300002 4286879881
0.026780145 0.028643092 0.34200001 4287340945
0.027809409 0.028559342 0.34100002 4287012750
0.028832177 0.028475588 0.34 4287144336
0.029760402 0.028308088 0.33800003 4287012748
0.030675631 0.028140584 0.33600003 4286683783
0.031672414 0.02805683 0.33500001 4287799182
0.017175376 0.030450294 0.35000002 4283768851
0.018312177 0.030450294 0.35000002 4282915338
0.019393407 0.030363292 0.34900001 4282915600
0.02052696 0.030363292 0.34900001 4283048215
0.023721937 0.030102288 0.34600002 4286880394
0.024773939 0.03001529 0.34500003 4286880394
0.025744384 0.029841287 0.34300002 4287143566
0.026780145 0.029754285 0.34200001 4287275152
0.027809409 0.029667286 0.34100002 4287144336
0.028832177 0.029580284 0.34 4287144336
0.029848449 0.029493283 0.33900002 4286881162
0.030675631 0.029232282 0.33600003 4286881162
0.031672414 0.02914528 0.33500001 4286815369
0.032564908 0.028971277 0.333 4287340430
0.033646494 0.028971277 0.333 4284565308
0.034623791 0.028884279 0.33200002 4285017380
0.016084399 0.03167773 0.35100001 4284161812
0.017224448 0.03167773 0.35100001 4282980877
0.018312177 0.031587481 0.35000002 4282587918
0.019448977 0.031587481 0.35000002 4282654227
0.02052696 0.031497229 0.34900001 4282986022
0.021660512 0.031497229 0.34900001 4287340178
0.022728752 0.03140698 0.34800002 4286880394
0.023790497 0.031316731 0.347 4286880394
0.024845745 0.03122648 0.34600002 4287143566
0.025819439 0.031045981 0.34400001 4287340945
0.026858451 0.030955732 0.34300002 4287078543
0.02789096 0.030865481 0.34200001 4287012750
0.028916979 0.030775232 0.34100002 4287012750
0.029848449 0.030594731 0.33900002 4286881164
0.03094952 0.030594731 0.33900002 4286749578
0.032050595 0.030594731 0.33900002 4286749578
0.032564908 0.03005323 0.333 4286617992
0.033545457 0.029962981 0.33200002 4286747007
0.034623791 0.029962981 0.33200002 4284307013
0.035594594 0.029872732 0.33100003 4285082914
0.036669683 0.029872732 0.33100003 4284686871
0.016130224 0.032911666 0.35200003 4283439634
0.017224448 0.032818165 0.35100001 4282784014
0.018364497 0.032818165 0.35100001 4282587405
0.019448977 0.032724667 0.35000002 4281209095
0.021660512 0.032631166 0.34900001 4286815117
0.022728752 0.032537669 0.34800002 4287012750
0.023790497 0.032444168 0.347 4287012750
0.024845745 0.032350671 0.34600002 4287012750
0.025969554 0.032350671 0.34600002 4287144336
0.026858451 0.032070175 0.34300002 4287013263
0.02789096 0.031976674 0.34200001 4286947470
0.028916979 0.031883176 0.34100002 4286947468
0.030112594 0.031976674 0.34200001 4286815369
0.031223409 0.031976674 0.34200001 4286815369
0.032334227 0.031976674 0.34200001 4286815369
0.033445042 0.031976674 0.34200001 4286815369
0.033545457 0.031041684 0.33200002 4287338885
0.034623791 0.031041684 0.33200002 4283054375
0.035594594 0.030948186 0.33100003 4284623136
0.036558896 0.030854685 0.33000001 4284096532
0.037630737 0.030854685 0.33000001 4284490775
0.038702577 0.030854685 0.33000001 4284096530
0.03965389 0.030761188 0.32900003 4283703058
0.014986928 0.034055348 0.35200003 4284030485
0.016130224 0.034055348 0.35200003 4282914573
0.017224448 0.033958599 0.35100001 4282587405
0.018364497 0.033958599 0.35100001 4282390539
0.019448977 0.033861853 0.35000002 4287266930
0.020585777 0.033861853 0.35000002 4287272840
0.021660512 0.033765104 0.34900001 4286683785
0.022728752 0.033668354 0.34800002 4286815371
0.023790497 0.033571605 0.347 4287143566
0.024845745 0.033474859 0.34600002 4287209359
0.025894497 0.033378113 0.34500003 4286881164
0.026858451 0.033184614 0.34300002 4287275922
0.027972514 0.033184614 0.34300002 4287539092
0.029001778 0.033087865 0.34200001 4287539092
0.030112594 0.033087865 0.34200001 4287275920
0.031223409 0.033087865 0.34200001 4286749576
0.032334227 0.033087865 0.34200001 4286617990
0.032662705 0.032313883 0.33400002 4286683013
0.033646494 0.032217134 0.333 4285289027
0.034623791 0.032120384 0.33200002 4283834390
0.035594594 0.032023638 0.33100003 4283833620
0.036558896 0.031926889 0.33000001 4284030739
0.037630737 0.031926889 0.33000001 4283899667
0.038585298 0.031830143 0.32900003 4283768851
0.014986928 0.035199031 0.35200003 4283242768
0.016130224 0.035199031 0.35200003 4282717707
0.017273521 0.035199031 0.35200003 4282455565
0.018364497 0.035099033 0.35100001 4282389772
0.019504545 0.035099033 0.35100001 4281536009
0.020585777 0.034999039 0.35000002 4284105534
0.021660512 0.034899037 0.34900001 4286810236
0.022728752 0.034799043 0.34800002 4287602320
0.023790497 0.034699045 0.347 4287011978
0.024845745 0.034599047 0.34600002 4287669910
0.025894497 0.034499053 0.34500003 4283917658
0.027972514 0.034299057 0.34300002 4279046664
0.029001778 0.034199059 0.34200001 4278915078
0.031861506 0.033699073 0.33700001 4287865488
0.032760497 0.033499077 0.33500001 4284637007
0.033747539 0.033399083 0.33400002 4284556570
0.034623791 0.033199087 0.33200002 4284621593
0.035594594 0.033099093 0.33100003 4284423701
0.036558896 0.032999091 0.33000001 4284490007
0.037630737 0.032999091 0.33000001 4284161812
0.013882958 0.03644596 0.35300002 4284030224
0.014986928 0.036342718 0.35200003 4282915086
0.016130224 0.036342718 0.35200003 4282455565
0.017273521 0.036342718 0.35200003 4282258699
0.018364497 0.036239468 0.35100001 4282521871
0.019504545 0.036239468 0.35100001 4282653457
0.020585777 0.036136225 0.35000002 4283245083
0.021660512 0.036032975 0.34900001 4283048737
0.023790497 0.035826482 0.347 4284175173
0.033747539 0.034484282 0.33400002 4284162325
0.03472808 0.034381032 0.333 4284555798
0.035594594 0.034174543 0.33100003 4284555285
0.036669683 0.034174543 0.33100003 4284621078
0.037630737 0.034071296 0.33000001 4284621078
0.041791074 0.03396805 0.32900003 4282594076
0.04285967 0.03396805 0.32900003 4282001941
0.043928262 0.03396805 0.32900003 4281870871
0.04499685 0.03396805 0.32900003 4281670412
0.01158987 0.037592895 0.35300002 4284292115
0.012736414 0.037592895 0.35300002 4283768081
0.013882958 0.037592895 0.35300002 4283570702
0.014986928 0.0374864 0.35200003 4282981391
0.016130224 0.0374864 0.35200003 4282522125
0.017273521 0.0374864 0.35200003 4282192906
0.018364497 0.037379902 0.35100001 4282587664
0.03472808 0.035462983 0.333 4284228632
0.035702128 0.035356492 0.33200002 4284621078
0.036669683 0.035249997 0.33100003 4284555285
0.037630737 0.035143498 0.33000001 4284817687
0.040722482 0.035037003 0.32900003 4282789147
0.041791074 0.035037003 0.32900003 4283517231
0.04285967 0.035037003 0.32900003 4281281298
0.043928262 0.035037003 0.32900003 4282070814
0.04499685 0.035037003 0.32900003 4281936918
0.0070235315 0.03884957 0.354 4287998362
0.0081733242 0.03884957 0.354 4283971888
0.01158987 0.038739827 0.35300002 4284097562
0.012736414 0.038739827 0.35300002 4283571733
0.013882958 0.038739827 0.35300002 4282980879
0.014986928 0.038630083 0.35200003 4282587405
0.016130224 0.038630083 0.35200003 4282258699
0.017273521 0.038630083 0.35200003 4282324492
0.018364497 0.038520336 0.35100001 4282653457
0.022728752 0.038191106 0.34800002 4283506962
0.035702128 0.036435191 0.33200002 4284490775
0.036669683 0.036325447 0.33100003 4284555285
0.037630737 0.036215704 0.33000001 4284817687
0.038702577 0.036215704 0.33000001 4285014296
0.04285967 0.036105961 0.32900003 4281939228
0.043928262 0.036105961 0.32900003 4281413652
0.04499685 0.036105961 0.32900003 4281938199
0.0092967805 0.039886761 0.35300002 4283972147
0.012736414 0.039886761 0.35300002 4283901468
0.013882958 0.039886761 0.35300002 4283046672
0.014986928 0.03977377 0.35200003 4282455565
0.016130224 0.03977377 0.35200003 4282192906
0.017273521 0.03977377 0.35200003 4282324492
0.018364497 0.039660774 0.35100001 4283310104
0.022728752 0.039321791 0.34800002 4281996301
0.035809662 0.037626885 0.333 4284163609
0.036669683 0.037400901 0.33100003 4284424984
0.037630737 0.037287906 0.33000001 4284621591
0.038702577 0.037287906 0.33000001 4284818457
0.043928262 0.037174914 0.32900003 4281413652
0.04499685 0.037174914 0.32900003 4281609748
0.010443325 0.041033693 0.35300002 4283643436
0.012736414 0.041033693 0.35300002 4284098077
0.013882958 0.041033693 0.35300002 4282849293
0.014986928 0.040917452 0.35200003 4282389774
0.016130224 0.040917452 0.35200003 4282390287
0.017273521 0.040917452 0.35200003 4282719250
0.022728752 0.04045248 0.34800002 4281143818
0.038702577 0.038360108 0.33000001 4284490777
0.039774418 0.038360108 0.33000001 4283964946
0.043928262 0.038243867 0.32900003 4281214738
0.04499685 0.038243867 0.32900003 4281214738
0.050339818 0.038243867 0.32900003 4281476367
0.010413741 0.042061135 0.35200003 4287995028
0.011557038 0.042061135 0.35200003 4284038712
0.012700334 0.042061135 0.35200003 4283834392
0.01384363 0.042061135 0.35200003 4283505940
0.014986928 0.042061135 0.35200003 4282455565
0.016130224 0.042061135 0.35200003 4282390287
0.017273521 0.042061135 0.35200003 4281930504
0.021660512 0.041702658 0.34900001 4282917914
0.022728752 0.041583166 0.34800002 4284239936
0.024702128 0.0411052 0.34400001 4283852117
0.038702577 0.039432313 0.33000001 4284294171
0.039774418 0.039432313 0.33000001 4284096019
0.041918095 0.039432313 0.33000001 4281672724
0.050339818 0.039312821 0.32900003 4281672209
0.011557038 0.043204818 0.35200003 4283252787
0.012700334 0.043204818 0.35200003 4284162073
0.01384363 0.043204818 0.35200003 4283308048
0.014986928 0.043204818 0.35200003 4282718737
0.016130224 0.043204818 0.35200003 4282587666
0.03965389 0.040381778 0.32900003 4284228632
0.041918095 0.040504515 0.33000001 4281869076
0.011557038 0.044348504 0.35200003 4284964689
0.012700334 0.044348504 0.35200003 4284161560
0.01384363 0.044348504 0.35200003 4283504657
0.014986928 0.044348504 0.35200003 4282849553
0.016130224 0.044348504 0.35200003 4282390287
0.017273521 0.044348504 0.35200003 4288059531
0.03965389 0.041450735 0.32900003 4284031251
0.041791074 0.041450735 0.32900003 4282131476
0.046065446 0.041450735 0.32900003 4281867021
0.01384363 0.045492187 0.35200003 4283767829
0.014986928 0.045492187 0.35200003 4283177745
0.016130224 0.045492187 0.35200003 4282981139
0.03965389 0.042519685 0.32900003 4283833872
0.041791074 0.042519685 0.32900003 4282065170
0.045925427 0.042390443 0.32800001 4282196240
0.01384363 0.046635874 0.35200003 4283767575
0.014986928 0.046635874 0.35200003 4283243538
0.016130224 0.046635874 0.35200003 4283178772
0.037402671 0.043456152 0.32800001 4282065685
0.039533362 0.043456152 0.32800001 4284162323
0.041664049 0.043456152 0.32800001 4282196758
0.04486008 0.043456152 0.32800001 4281280019
0.01384363 0.047779553 0.35200003 4284161560
0.01494435 0.047643814 0.35100001 4283637524
0.016084399 0.047643814 0.35100001 4283375122
0.017224448 0.047643814 0.35100001 4282332455
