# .PCD v0.7 - Point Cloud Data file format
VERSION 0.7
FIELDS x y z rgb
SIZE 4 4 4 4
TYPE F F F U
COUNT 1 1 1 1
WIDTH 831
HEIGHT 1
VIEWPOINT 0 0 0 1 0 0 0
POINTS 831
DATA ascii
0.028735869 -0.015378981 0.46300003 4286555025
0.030239692 -0.015378981 0.46300003 4286686611
0.057556093 -0.015445413 0.46500003 4285897349
0.059066411 -0.015445413 0.46500003 4285699200
0.024224393 -0.013874647 0.46300003 4286555027
0.025728218 -0.013874647 0.46300003 4286685843
0.027232043 -0.013874647 0.46300003 4286751634
0.028735869 -0.013874647 0.46300003 4286555025
0.030305004 -0.013904613 0.46400002 4286686611
0.031880639 -0.013934581 0.46500003 4286686611
0.033462767 -0.013964548 0.46600002 4286818199
0.035051391 -0.013994514 0.46700001 4286818199
0.03656821 -0.013994514 0.46700001 4286620818
0.038166579 -0.014024481 0.46800002 4286752404
0.039686646 -0.014024481 0.46800002 4286686611
0.050004486 -0.013934581 0.46500003 4283004763
0.051514812 -0.013934581 0.46500003 4283070297
0.052911095 -0.013904613 0.46400002 4282151509
0.054418169 -0.013904613 0.46400002 4280836678
0.055925243 -0.013904613 0.46400002 4280969547
0.057432313 -0.013904613 0.46400002 4280772166
0.058939386 -0.013904613 0.46400002 4280573502
0.06044646 -0.013904613 0.46400002 4280441916
0.061953533 -0.013904613 0.46400002 4279653170
0.063460603 -0.013904613 0.46400002 4280047928
0.064967677 -0.013904613 0.46400002 4280310582
0.066618018 -0.013934581 0.46500003 4280442422
0.06812834 -0.013934581 0.46500003 4280244530
-0.010483299 -0.010927555 0.40900001 4280629805
-0.0091772508 -0.010954273 0.41000003 4280432426
-0.0078647053 -0.010980991 0.41100001 4280498219
-0.0065297759 -0.010980991 0.41100001 4280564782
0.0066867708 -0.010767248 0.40300003 4280372280
0.0079957154 -0.010767248 0.40300003 4281689677
0.0093046604 -0.010767248 0.40300003 4285372802
0.010613605 -0.010767248 0.40300003 4286950810
0.024224393 -0.012370314 0.46300003 4286621331
0.025728218 -0.012370314 0.46300003 4286357646
0.027232043 -0.012370314 0.46300003 4286818197
0.028797932 -0.01239703 0.46400002 4286620818
0.030305004 -0.01239703 0.46400002 4286555025
0.031880639 -0.012423749 0.46500003 4286752658
0.033462767 -0.012450466 0.46600002 4287082136
0.035051391 -0.012477184 0.46700001 4287016857
0.03656821 -0.012477184 0.46700001 4286358927
0.038166579 -0.012503901 0.46800002 4284320114
0.039686646 -0.012503901 0.46800002 4282742365
0.048389878 -0.01239703 0.46400002 4279984438
0.049896948 -0.01239703 0.46400002 4279459377
0.051404025 -0.01239703 0.46400002 4279196205
0.052683029 -0.012343595 0.46200001 4279525170
0.05418361 -0.012343595 0.46200001 4279328050
0.055684183 -0.012343595 0.46200001 4279525431
0.05730854 -0.012370314 0.46300003 4279262259
0.058812361 -0.012370314 0.46300003 4279524916
0.06031619 -0.012370314 0.46300003 4279590961
0.061820015 -0.012370314 0.46300003 4279459373
0.063323833 -0.012370314 0.46300003 4279525168
0.064967677 -0.01239703 0.46400002 4279195433
0.066474751 -0.01239703 0.46400002 4279063845
0.067981824 -0.01239703 0.46400002 4279129638
0.069488898 -0.01239703 0.46400002 4279984436
-0.010457668 -0.0095752031 0.40800002 4280300842
-0.0091548664 -0.0095986715 0.40900001 4280234536
-0.0078455694 -0.0096221408 0.41000003 4280695087
-0.0065138885 -0.0096221408 0.41000003 4280365869
-0.0051948479 -0.0096456092 0.41100001 4280365869
-0.0011900616 -0.0096456092 0.41100001 4280497190
0.00014451466 -0.0096221408 0.41000003 4280694569
0.0014725948 -0.0095986715 0.40900001 4280036639
0.0027873304 -0.0095517347 0.40700001 4280628774
0.0041092671 -0.0095517347 0.40700001 4280892716
0.0067033628 -0.0094813285 0.40400001 4280633909
0.0080155563 -0.0094813285 0.40400001 4279451941
0.0093277488 -0.0094813285 0.40400001 4280443453
0.010639941 -0.0094813285 0.40400001 4279721014
0.011981719 -0.0095047979 0.40500003 4281756753
0.024224393 -0.010865978 0.46300003 4286293134
0.025728218 -0.010865978 0.46300003 4287016603
0.027232043 -0.010865978 0.46300003 4286490259
0.028797932 -0.010889446 0.46400002 4284517752
0.030370317 -0.010912916 0.46500003 4283005537
0.031880639 -0.010912916 0.46500003 4281494091
0.033462767 -0.010936384 0.46600002 4280508479
0.035051391 -0.010959852 0.46700001 4279787066
0.03656821 -0.010959852 0.46700001 4280049979
0.038166579 -0.010983321 0.46800002 4279852338
0.039686646 -0.010983321 0.46800002 4279524400
0.048285592 -0.010865978 0.46300003 4278539808
0.049789414 -0.010865978 0.46300003 4278540322
0.051293243 -0.010865978 0.46300003 4278408482
0.052454963 -0.010795572 0.46000001 4278605861
0.053949047 -0.010795572 0.46000001 4278605861
0.055443127 -0.010795572 0.46000001 4278934312
0.056937207 -0.010795572 0.46000001 4278539556
0.058558311 -0.010819041 0.46100003 4278671140
0.060055643 -0.010819041 0.46100003 4278670370
0.061552975 -0.010819041 0.46100003 4278802210
0.063187063 -0.01084251 0.46200001 4278604831
0.064687647 -0.01084251 0.46200001 4278539038
0.066331491 -0.010865978 0.46300003 4278999076
0.067835316 -0.010865978 0.46300003 4278669857
0.069339134 -0.010865978 0.46300003 4278867238
0.070842966 -0.010865978 0.46300003 4279519787
-0.0065138885 -0.0082900086 0.41000003 4280431915
-0.0051948479 -0.0083102286 0.41100001 4280563248
-0.0011900616 -0.0083102286 0.41100001 4280562469
0.00014451466 -0.0082900086 0.41000003 4280365604
0.0014689944 -0.0082495697 0.40800002 4279970592
0.0027873304 -0.0082293497 0.40700001 4280431397
0.0041092671 -0.0082293497 0.40700001 4280826155
0.0054178596 -0.0082091307 0.40600002 4280365604
0.010692614 -0.0082091307 0.40600002 4279261228
0.012011304 -0.0082091307 0.40600002 4278669861
0.013395658 -0.0082495697 0.40800002 4279393330
0.025728218 -0.0093616443 0.46300003 4280509246
0.027290858 -0.0093818633 0.46400002 4280247104
0.028797932 -0.0093818633 0.46400002 4279458871
0.030370317 -0.0094020832 0.46500003 4279524918
0.0319492 -0.0094223022 0.46600002 4279064878
0.033462767 -0.0094223022 0.46600002 4279197234
0.035051391 -0.0094425222 0.46700001 4278934316
0.03656821 -0.0094425222 0.46700001 4279131693
0.038085025 -0.0094425222 0.46700001 4278934312
0.039686646 -0.0094627421 0.46800002 4278736933
0.048181299 -0.0093414243 0.46200001 4278474013
0.049681876 -0.0093414243 0.46200001 4278473243
0.05107167 -0.0093212053 0.46100003 4278209814
0.051998835 -0.0092201075 0.45600003 4278539038
0.053597208 -0.0092403265 0.45700002 4278473245
0.055081543 -0.0092403265 0.45700002 4278407452
0.056689657 -0.0092605464 0.45800003 4278473245
0.058304261 -0.0092807664 0.45900002 4278472991
0.059795097 -0.0092807664 0.45900002 4278472478
0.06141945 -0.0093009854 0.46000001 4278670111
0.06291353 -0.0093009854 0.46000001 4278604318
0.064547628 -0.0093212053 0.46100003 4278800927
0.066044956 -0.0093212053 0.46100003 4278998306
0.0676888 -0.0093414243 0.46200001 4279260711
0.06918937 -0.0093414243 0.46200001 4279787055
0.070689954 -0.0093414243 0.46200001 4279256869
-0.0011900616 -0.0069748466 0.41100001 4280365090
0.00014416219 -0.0069409059 0.40900001 4280167711
0.0014689944 -0.0069239358 0.40800002 4280036125
0.0027873304 -0.0069069648 0.40700001 4280496676
0.0041193636 -0.0069239358 0.40800002 4280233504
0.0054445486 -0.0069239358 0.40800002 4279905053
0.0067531401 -0.0069069648 0.40700001 4280695852
0.0080750771 -0.0069069648 0.40700001 4280236321
0.009397014 -0.0069069648 0.40700001 4279059742
0.01071895 -0.0069069648 0.40700001 4278864673
0.012070472 -0.0069239358 0.40800002 4278669089
0.01342849 -0.0069409059 0.40900001 4278604577
0.014829082 -0.0069748466 0.41100001 4279394095
0.01616401 -0.0069748466 0.41100001 4283341164
0.03656821 -0.007925191 0.46700001 4278539554
0.038085025 -0.007925191 0.46700001 4278539806
0.039686646 -0.0079421615 0.46800002 4278474013
0.046095531 -0.0075009302 0.44200003 4278735134
0.047746222 -0.0075348713 0.44400004 4278603548
0.049409904 -0.0075688115 0.44600001 4278800927
0.051542707 -0.0076706344 0.45200002 4278669857
0.053128082 -0.0076876045 0.45300001 4278538273
0.054840483 -0.0077215456 0.45500001 4278669859
0.056318324 -0.0077215456 0.45500001 4278669087
0.05792319 -0.0077385162 0.45600003 4279391783
0.059534553 -0.0077554868 0.45700002 4279325220
0.061152413 -0.0077724573 0.45800003 4278203407
0.062639996 -0.0077724573 0.45800003 4278198784
0.064267598 -0.0077894274 0.45900002 4278200067
0.065901689 -0.007806398 0.46000001 4279127078
0.067395777 -0.007806398 0.46000001 4279128875
0.069039613 -0.0078233685 0.46100003 4279523373
0.070536949 -0.0078233685 0.46100003 4279387431
-0.0012045392 -0.0057080728 0.41600001 4280496676
0.00014662951 -0.0057080728 0.41600001 4280167711
0.0014977981 -0.0057080728 0.41600001 4279904539
0.0028489667 -0.0057080728 0.41600001 4280365090
0.0041395565 -0.0056257448 0.41000003 4280167711
0.005457893 -0.0056120232 0.40900001 4280496674
0.0067863255 -0.0056120232 0.40900001 4280825639
0.0081147579 -0.0056120232 0.40900001 4280431393
0.0094431909 -0.0056120232 0.40900001 4278926101
0.010771624 -0.0056120232 0.40900001 4279126047
0.012100057 -0.0056120232 0.40900001 4278667292
0.013461323 -0.0056257448 0.41000003 4278733855
0.014829082 -0.005639466 0.41100001 4278407198
0.017584093 -0.0056669088 0.41300002 4278933294
0.018971344 -0.0056806304 0.41400003 4279000109
0.020365089 -0.0056943516 0.41500002 4279329586
0.021765329 -0.0057080728 0.41600001 4279263793
0.023116497 -0.0057080728 0.41600001 4278869035
0.024526484 -0.0057217944 0.41700003 4278605861
0.025880901 -0.0057217944 0.41700003 4278671140
0.027235316 -0.0057217944 0.41700003 4278473761
0.039622691 -0.0059550568 0.43400002 4278800927
0.04112687 -0.0059687784 0.43500003 4278866720
0.042637542 -0.0059824996 0.43600002 4278998306
0.044255752 -0.0060099419 0.43800002 4278800927
0.045991242 -0.0060511059 0.44100001 4279129892
0.047638681 -0.0060785487 0.44300002 4279522599
0.049299117 -0.0061059915 0.44500002 4279062050
0.05120061 -0.0061608767 0.44900003 4278798367
0.052893527 -0.0061883195 0.45100003 4278202633
0.054478899 -0.0062020407 0.45200002 4278197248
0.056070771 -0.0062157619 0.45300001 4278201867
0.057796162 -0.0062432047 0.45500001 4279189791
0.05940428 -0.0062569259 0.45600003 4279979307
0.060885374 -0.0062569259 0.45600003 4280572209
0.062503226 -0.006270647 0.45700002 4279783463
0.064127579 -0.0062843687 0.45800003 4279125535
0.06561517 -0.0062843687 0.45800003 4279850031
0.067249268 -0.0062980899 0.45900002 4279326254
0.068889849 -0.006311811 0.46000001 4279391533
0.070383936 -0.006311811 0.46000001 4279846703
-0.002543421 -0.0043355017 0.41400003 4280235047
-0.0012045392 -0.0043564462 0.41600001 4280300327
0.0015013987 -0.0043669185 0.41700003 4280101664
0.0028421185 -0.004345974 0.41500002 4280101664
0.00415975 -0.0043145572 0.41200003 4280233504
0.0054845819 -0.0043040849 0.41100001 4280759846
0.0068195104 -0.0043040849 0.41100001 4281022503
0.0081345988 -0.0042936131 0.41000003 4280892196
0.0094662802 -0.0042936131 0.41000003 4279187476
0.010797961 -0.0042936131 0.41000003 4279190043
0.012159226 -0.0043040849 0.41100001 4278797595
0.013494154 -0.0043040849 0.41100001 4278732572
0.014865164 -0.0043145572 0.41200003 4278733855
0.01620334 -0.0043145572 0.41200003 4278800675
0.017584093 -0.0043250294 0.41300002 4278735652
0.018971344 -0.0043355017 0.41400003 4278670372
0.020365089 -0.004345974 0.41500002 4278539556
0.021765329 -0.0043564462 0.41600001 4278539556
0.023116497 -0.0043564462 0.41600001 4278671140
0.024526484 -0.0043669185 0.41700003 4278670370
0.025880901 -0.0043669185 0.41700003 4278604577
0.027300628 -0.0043773907 0.41800001 4278670372
0.028658295 -0.0043773907 0.41800001 4278206999
0.030087767 -0.004387863 0.41900003 4278470685
0.031523734 -0.0043983352 0.42000002 4278800673
0.036464226 -0.0045030573 0.43000001 4278866207
0.037948914 -0.0045135296 0.43100002 4279194658
0.039531395 -0.0045344741 0.43300003 4278997279
0.041032325 -0.0045449464 0.43400002 4278600214
0.042637542 -0.0045658909 0.43600002 4278797595
0.044154711 -0.0045763627 0.43700001 4278198784
0.045886952 -0.0046077799 0.44000003 4278198528
0.047531147 -0.0046287244 0.44200003 4278795548
0.049188334 -0.0046496685 0.44400004 4280308785
0.050972544 -0.0046810852 0.44700003 4279980074
0.052658964 -0.0047020297 0.44900003 4279915051
0.054358374 -0.0047229743 0.45100003 4279389734
0.055946995 -0.0047334465 0.45200002 4279126560
0.057542115 -0.0047439183 0.45300001 4279258146
0.059143737 -0.004754391 0.45400003 4279784490
0.060751848 -0.0047648628 0.45500001 4279652902
0.062366456 -0.0047753355 0.45600003 4279126045
0.063987561 -0.0047858073 0.45700002 4278203917
0.065471902 -0.0047858073 0.45700002 4279652906
0.067102753 -0.0047962801 0.45800003 4279129129
0.068740092 -0.0048067519 0.45900002 4279457326
-0.002543421 -0.0029903736 0.41400003 4280037670
0.0014977981 -0.0030048196 0.41600001 4280167971
0.0028421185 -0.0029975967 0.41500002 4280694055
0.004169846 -0.0029831503 0.41300002 4280628260
0.0081544397 -0.0029687041 0.41100001 4280300829
0.0094893686 -0.0029687041 0.41100001 4279451164
0.010824297 -0.0029687041 0.41100001 4279256351
0.012159226 -0.0029687041 0.41100001 4278797082
0.013526988 -0.0029759274 0.41200003 4278863388
0.014865164 -0.0029759274 0.41200003 4278931234
0.016242668 -0.0029831503 0.41300002 4278931748
0.017626671 -0.0029903736 0.41400003 4278734882
0.018971344 -0.0029903736 0.41400003 4278866468
0.020365089 -0.0029975967 0.41500002 4278735652
0.021765329 -0.0030048196 0.41600001 4278669857
0.023172066 -0.003012043 0.41700003 4278604064
0.024526484 -0.003012043 0.41700003 4278604064
0.025942964 -0.0030192661 0.41800001 4278604064
0.027300628 -0.0030192661 0.41800001 4279130408
0.028726855 -0.0030264892 0.41900003 4278468632
0.030159576 -0.0030337123 0.42000002 4279127332
0.031598791 -0.0030409356 0.42100003 4279258918
0.033201117 -0.0030626049 0.42400002 4278533912
0.034741372 -0.0030770511 0.42600003 4278199555
0.036379423 -0.0030987205 0.42900002 4278198532
0.037948914 -0.0031131667 0.43100002 4278395914
0.039440095 -0.0031203898 0.43200001 4278591755
0.041032325 -0.003134836 0.43400002 4278198283
0.042539749 -0.0031420593 0.43500003 4280373043
0.044154711 -0.0031565053 0.43700001 4279323174
0.045782663 -0.0031709515 0.43900001 4279586859
0.047423609 -0.0031853979 0.44100001 4279521320
0.049077548 -0.0031998442 0.44300002 4278336533
0.050858509 -0.0032215135 0.44600001 4278994461
0.052541681 -0.0032359597 0.44800001 4278202120
0.054117315 -0.003243183 0.44900003 4278928154
0.055823222 -0.0032576292 0.45100003 4278467603
0.057542115 -0.0032720752 0.45300001 4278203146
0.059143737 -0.0032792985 0.45400003 4278336017
0.060751848 -0.0032865216 0.45500001 4279388705
0.062366456 -0.0032937448 0.45600003 4279650594
0.063847549 -0.0032937448 0.45600003 4278270738
0.065471902 -0.0033009679 0.45700002 4279587881
0.066956237 -0.0033009679 0.45700002 4279260461
0.068590336 -0.0033081912 0.45800003 4279324972
-0.0012045392 -0.0016531934 0.41600001 4280037409
0.0014977981 -0.0016531934 0.41600001 4280562983
0.0081742806 -0.0016372973 0.41200003 4280170526
0.0095124571 -0.0016372973 0.41200003 4279188762
0.010850633 -0.0016372973 0.41200003 4279453730
0.012188811 -0.0016372973 0.41200003 4278928668
0.013526988 -0.0016372973 0.41200003 4278863388
0.014901243 -0.0016412713 0.41300002 4279193636
0.016242668 -0.0016412713 0.41300002 4278931234
0.017626671 -0.0016452454 0.41400003 4278404888
0.019017167 -0.0016492193 0.41500002 4278931746
0.020365089 -0.0016492193 0.41500002 4278537503
0.021765329 -0.0016531934 0.41600001 4278998054
0.023172066 -0.0016571674 0.41700003 4278734882
0.024526484 -0.0016571674 0.41700003 4278998052
0.025942964 -0.0016611414 0.41800001 4278669087
0.027300628 -0.0016611414 0.41800001 4278734367
0.028726855 -0.0016651155 0.41900003 4278600216
0.030159576 -0.0016690894 0.42000002 4279389732
0.031673849 -0.0016770376 0.42200002 4278199046
0.033201117 -0.0016849856 0.42400002 4278591757
0.034741372 -0.0016929336 0.42600003 4279050514
0.036379423 -0.0017048557 0.42900002 4278984467
0.037860863 -0.0017088297 0.43000001 4279182100
0.039440095 -0.0017167777 0.43200001 4278655756
0.041032325 -0.0017247257 0.43400002 4278657552
0.042539749 -0.0017286999 0.43500003 4280437553
0.044154711 -0.0017366478 0.43700001 4278729242
0.045678377 -0.0017406219 0.43800002 4278199303
0.047316074 -0.0017485699 0.44000003 4278796316
0.048966765 -0.001756518 0.44200003 4279586086
0.050744478 -0.00176844 0.44500002 4278598939
0.052424401 -0.0017763881 0.44700003 4278927904
0.054117315 -0.0017843362 0.44900003 4278201355
0.055823222 -0.0017922842 0.45100003 4278199815
0.057542115 -0.0018002321 0.45300001 4278201868
0.059143737 -0.0018042063 0.45400003 4279979307
0.060751848 -0.0018081802 0.45500001 4279255584
0.062366456 -0.0018121543 0.45600003 4280440112
0.063847549 -0.0018121543 0.45600003 4279717932
0.065471902 -0.0018161283 0.45700002 4279522349
0.066956237 -0.0018161283 0.45700002 4279720498
0.0081941206 -0.00029939206 0.41300002 4279579164
0.0095355455 -0.00029939206 0.41300002 4279451680
0.010850633 -0.00029866715 0.41200003 4279189791
0.012188811 -0.00029866715 0.41200003 4278862361
0.01355982 -0.00029939206 0.41300002 4278929179
0.014901243 -0.00029939206 0.41300002 4279062048
0.016242668 -0.00029939206 0.41300002 4279194404
0.017626671 -0.00030011698 0.41400003 4278799646
0.019017167 -0.0003008419 0.41500002 4278733853
0.020414161 -0.00030156682 0.41600001 4278931746
0.021765329 -0.00030156682 0.41600001 4278669089
0.023172066 -0.00030229174 0.41700003 4278800673
0.024585299 -0.00030301666 0.41800001 4278998052
0.025942964 -0.00030301666 0.41800001 4278931746
0.027365942 -0.00030374157 0.41900003 4278273302
0.028795416 -0.00030446649 0.42000002 4278202892
0.030231385 -0.00030519141 0.42100003 4280440623
0.031673849 -0.00030591633 0.42200002 4278526476
0.033279419 -0.00030809108 0.42500001 4278393865
0.034822926 -0.00030954092 0.42700002 4280038692
0.036379423 -0.00031099078 0.42900002 4280301864
0.037860863 -0.00031171567 0.43000001 4279314967
0.039440095 -0.00031316554 0.43200001 4280039203
0.040937781 -0.00031389046 0.43300003 4278197255
0.042539749 -0.00031534029 0.43500003 4280700977
0.04405367 -0.00031606521 0.43600002 4278330380
0.045678377 -0.00031751505 0.43800002 4278329869
0.047316074 -0.00031896491 0.44000003 4279584551
0.048966765 -0.00032041475 0.44200003 4278927132
0.050630447 -0.00032186459 0.44400004 4278202895
0.052307121 -0.00032331442 0.44600001 4279388453
0.053996786 -0.00032476426 0.44800001 4279454246
0.055823222 -0.00032693904 0.45100003 4279520293
0.057542115 -0.00032838885 0.45300001 4279849258
0.059143737 -0.0003291138 0.45400003 4279914027
0.060751848 -0.00032983869 0.45500001 4278333712
0.062366456 -0.00033056363 0.45600003 4278200586
0.063847549 -0.00033056363 0.45600003 4279586861
0.065471902 -0.00033128855 0.45700002 4279785523
0.066956237 -0.00033128855 0.45700002 4279915059
0.0081941206 0.0010424872 0.41300002 4279777567
0.0095355455 0.0010424872 0.41300002 4279386400
0.010876969 0.0010424872 0.41300002 4279058718
0.012218395 0.0010424872 0.41300002 4279125533
0.01355982 0.0010424872 0.41300002 4279060765
0.014901243 0.0010424872 0.41300002 4279062818
0.016281998 0.0010450114 0.41400003 4278800160
0.017626671 0.0010450114 0.41400003 4278865953
0.019017167 0.0010475356 0.41500002 4278734367
0.020414161 0.0010500597 0.41600001 4278998052
0.021817649 0.0010525839 0.41700003 4278669089
0.023172066 0.0010525839 0.41700003 4278866468
0.024585299 0.0010551082 0.41800001 4278866468
0.02600503 0.0010576323 0.41900003 4278602781
0.027365942 0.0010576323 0.41900003 4279522599
0.028795416 0.0010601565 0.42000002 4280309037
0.030231385 0.0010626807 0.42100003 4279255838
0.031748902 0.001067729 0.42300001 4279711774
0.033279419 0.0010727773 0.42500001 4279119637
0.034822926 0.0010778258 0.42700002 4280434475
0.036379423 0.0010828741 0.42900002 4279776033
0.037860863 0.0010853983 0.43000001 4279053592
0.039440095 0.0010904466 0.43200001 4280765491
0.040937781 0.0010929708 0.43300003 4278198279
0.042539749 0.0010980192 0.43500003 4280372782
0.04405367 0.0011005434 0.43600002 4278198280
0.045678377 0.0011055918 0.43800002 4279975207
0.047208536 0.0011081159 0.43900001 4279979822
0.048855979 0.0011131642 0.44100001 4280111406
0.050630447 0.0011207369 0.44400004 4279650855
0.052307121 0.0011257852 0.44600001 4278200068
0.053996786 0.0011308335 0.44800001 4278198786
0.055699442 0.0011358819 0.45000002 4278200583
0.057542115 0.0011434545 0.45300001 4279519271
0.059143737 0.0011459787 0.45400003 4280177199
0.060751848 0.0011485028 0.45500001 4279783211
0.062366456 0.001151027 0.45600003 4280177969
0.063847549 0.001151027 0.45600003 4279849518
0.065471902 0.0011535512 0.45700002 4279323174
0.066956237 0.0011535512 0.45700002 4284647541
-0.0038693107 0.0023785932 0.41200003 4280234786
0.0082139615 0.0023901397 0.41400003 4279778850
0.0095355455 0.0023843665 0.41300002 4279452447
0.010876969 0.0023843665 0.41300002 4279255838
0.012218395 0.0023843665 0.41300002 4278928668
0.01355982 0.0023843665 0.41300002 4279126560
0.014937324 0.0023901397 0.41400003 4279127843
0.016281998 0.0023901397 0.41400003 4278668576
0.017669247 0.002395913 0.41500002 4278734367
0.019017167 0.002395913 0.41500002 4278800160
0.020414161 0.0024016863 0.41600001 4278998052
0.021817649 0.0024074595 0.41700003 4278800673
0.023227634 0.0024132328 0.41800001 4278800675
0.024585299 0.0024132328 0.41800001 4278800675
0.02600503 0.0024190061 0.41900003 4278800162
0.027431253 0.0024247793 0.42000002 4278204432
0.028863978 0.0024305528 0.42100003 4279585832
0.030303193 0.0024363259 0.42200002 4278201353
0.031748902 0.0024420992 0.42300001 4279579934
0.033279419 0.0024536457 0.42500001 4278987797
0.034822926 0.0024651925 0.42700002 4278854418
0.036294624 0.0024709657 0.42800003 4278787855
0.037860863 0.0024825123 0.43000001 4278919441
0.039440095 0.0024940588 0.43200001 4278722832
0.040937781 0.0024998321 0.43300003 4280437039
0.042539749 0.0025113788 0.43500003 4279056670
0.04405367 0.0025171519 0.43600002 4278793752
0.045574088 0.0025229251 0.43700001 4278198018
0.047208536 0.0025344717 0.43900001 4278200330
0.048855979 0.0025460182 0.44100001 4279715367
0.050630447 0.0025633383 0.44400004 4280177201
0.052307121 0.0025748848 0.44600001 4279520039
0.053996786 0.0025864313 0.44800001 4279586600
0.055823222 0.0026037514 0.45100003 4279323941
0.05766914 0.0026210712 0.45400003 4279390504
0.059274007 0.0026268442 0.45500001 4279390250
0.060751848 0.0026268442 0.45500001 4279323174
0.062366456 0.0026326177 0.45600003 4279255845
0.0082139615 0.003735268 0.41400003 4279582496
0.0095586339 0.003735268 0.41400003 4279255838
0.010903306 0.003735268 0.41400003 4279190045
0.01224798 0.003735268 0.41400003 4278994461
0.013592653 0.003735268 0.41400003 4279061537
0.014937324 0.003735268 0.41400003 4279062048
0.016281998 0.003735268 0.41400003 4278865439
0.017669247 0.0037442902 0.41500002 4278800673
0.019062992 0.0037533126 0.41600001 4278405917
0.020414161 0.0037533126 0.41600001 4278800673
0.021817649 0.0037623351 0.41700003 4278800673
0.023227634 0.0037713575 0.41800001 4278998824
0.024644116 0.0037803799 0.41900003 4278604066
0.02600503 0.0037803799 0.41900003 4278800162
0.027431253 0.0037894021 0.42000002 4278202380
0.028863978 0.0037984247 0.42100003 4279519269
0.030303193 0.0038074469 0.42200002 4278199558
0.031748902 0.0038164693 0.42300001 4278723345
0.033279419 0.0038345142 0.42500001 4278722832
0.034741372 0.0038435366 0.42600003 4279116053
0.036294624 0.0038615814 0.42800003 4278918674
0.037860863 0.003879626 0.43000001 4278328074
0.0393488 0.0038886485 0.43100002 4279118617
0.040937781 0.0039066933 0.43300003 4280175664
0.042441957 0.0039157155 0.43400002 4280768055
0.04405367 0.0039337603 0.43600002 4279651109
0.045574088 0.0039427825 0.43700001 4279454500
0.047208536 0.0039608274 0.43900001 4279191842
0.048855979 0.0039788722 0.44100001 4279192355
0.050630447 0.0040059397 0.44400004 4279193125
0.052307121 0.0040239841 0.44600001 4279193125
0.053996786 0.0040420289 0.44800001 4279258918
0.055823222 0.0040690964 0.45100003 4278732320
0.057796162 0.0041051856 0.45500001 4279913264
0.0068692882 0.0050803963 0.41400003 4279777826
0.0082139615 0.0050803963 0.41400003 4279582496
0.0095586339 0.0050803963 0.41400003 4279321629
0.010903306 0.0050803963 0.41400003 4279058970
0.01224798 0.0050803963 0.41400003 4278994461
0.013592653 0.0050803963 0.41400003 4279258916
0.014937324 0.0050803963 0.41400003 4279062818
0.016321326 0.0050926679 0.41500002 4278865439
0.017669247 0.0050926679 0.41500002 4279195431
0.019062992 0.005104939 0.41600001 4278866466
0.020463234 0.005117211 0.41700003 4278800673
0.021869969 0.0051294821 0.41800001 4278275099
0.023227634 0.0051294821 0.41800001 4278604064
0.024644116 0.0051417537 0.41900003 4278669857
0.02600503 0.0051417537 0.41900003 4278996259
0.027431253 0.0051540253 0.42000002 4278334482
0.028863978 0.0051662968 0.42100003 4279716389
0.030303193 0.0051785684 0.42200002 4278200584
0.031748902 0.0051908395 0.42300001 4278791701
0.033201117 0.0052031111 0.42400002 4280107561
0.034741372 0.0052276542 0.42600003 4280307504
0.036294624 0.0052521974 0.42800003 4279518758
0.037860863 0.0052767401 0.43000001 4279389221
0.0393488 0.0052890116 0.43100002 4279323941
0.040937781 0.0053135548 0.43300003 4279323939
0.042441957 0.0053258259 0.43400002 4279127330
0.043952633 0.0053380979 0.43500003 4279193121
0.045574088 0.0053626406 0.43700001 4279193121
0.047100998 0.0053749122 0.43800002 4279390500
0.048745196 0.0053994553 0.44000003 4279061535
0.050630447 0.0054485411 0.44400004 4279388967
0.052307121 0.0054730838 0.44600001 4280242227
0.0068692882 0.0064255251 0.41400003 4280239401
0.0082139615 0.0064255251 0.41400003 4279779875
0.0095586339 0.0064255251 0.41400003 4279256349
0.010903306 0.0064255251 0.41400003 4279124763
0.01224798 0.0064255251 0.41400003 4278994459
0.013592653 0.0064255251 0.41400003 4279127328
0.014937324 0.0064255251 0.41400003 4278997025
0.016321326 0.0064410456 0.41500002 4278799646
0.017669247 0.0064410456 0.41500002 4278669087
0.019062992 0.0064565656 0.41600001 4278866466
0.020463234 0.0064720865 0.41700003 4278998052
0.021869969 0.006487607 0.41800001 4278800673
0.023227634 0.006487607 0.41800001 4278669857
0.024644116 0.006503128 0.41900003 4278472478
0.026067093 0.006518648 0.42000002 4278404120
0.027431253 0.006518648 0.42000002 4278336533
0.028863978 0.006534169 0.42100003 4278929183
0.030303193 0.0065496895 0.42200002 4279193125
0.031748902 0.0065652099 0.42300001 4279193638
0.033201117 0.0065807309 0.42400002 4279325224
0.034741372 0.0066117719 0.42600003 4278997027
0.036294624 0.0066428133 0.42800003 4278931232
0.037772816 0.0066583334 0.42900002 4278931232
0.0393488 0.0066893748 0.43100002 4278931232
0.040937781 0.0067204162 0.43300003 4279127841
0.042441957 0.0067359363 0.43400002 4279127843
0.043952633 0.0067514572 0.43500003 4279193125
0.045469798 0.0067669777 0.43600002 4279521320
0.047100998 0.0067980192 0.43800002 4280965950
0.048745196 0.0068290601 0.44000003 4285109630
0.050630447 0.0068911426 0.44400004 4286555792
0.0055379602 0.0077894228 0.41500002 4280631338
0.0068692882 0.0077706533 0.41400003 4279911463
0.0082139615 0.0077706533 0.41400003 4279714854
0.0095586339 0.0077706533 0.41400003 4279190558
0.010903306 0.0077706533 0.41400003 4279125533
0.01224798 0.0077706533 0.41400003 4279192351
0.013592653 0.0077706533 0.41400003 4279390500
0.014973405 0.0077894228 0.41500002 4279062818
0.016321326 0.0077894228 0.41500002 4278800160
0.017711822 0.0078081922 0.41600001 4278866466
0.019062992 0.0078081922 0.41600001 4278866466
0.020463234 0.0078269625 0.41700003 4278866466
0.021869969 0.0078457315 0.41800001 4278866466
0.023283204 0.0078645013 0.41900003 4278998052
0.024644116 0.0078645013 0.41900003 4278800675
0.026067093 0.0078832712 0.42000002 4278930212
0.027431253 0.0078832712 0.42000002 4279192871
0.028863978 0.0079020411 0.42100003 4279127591
0.030303193 0.007920811 0.42200002 4278865443
0.031673849 0.007920811 0.42200002 4278865443
0.033122811 0.0079395799 0.42300001 4278931236
0.034741372 0.0079958895 0.42600003 4278997029
0.037772816 0.0080521982 0.42900002 4280047151
0.039257504 0.0080709681 0.43000001 4279716902
0.040937781 0.0081272777 0.43300003 4280701495
0.0068692882 0.0091157816 0.41400003 4279647523
0.0082139615 0.0091157816 0.41400003 4279649059
0.0095586339 0.0091157816 0.41400003 4279321631
0.010903306 0.0091157816 0.41400003 4279256351
0.01224798 0.0091157816 0.41400003 4279323939
0.013592653 0.0091157816 0.41400003 4279193121
0.014973405 0.0091378 0.41500002 4278865439
0.016321326 0.0091378 0.41500002 4279260197
0.017711822 0.0091598183 0.41600001 4278734880
0.019108817 0.0091818376 0.41700003 4278735650
0.020463234 0.0091818376 0.41700003 4278669857
0.021869969 0.0092038559 0.41800001 4278735650
0.023283204 0.0092258751 0.41900003 4278735652
0.024644116 0.0092258751 0.41900003 4278866470
0.026067093 0.0092478935 0.42000002 4279260201
0.027431253 0.0092478935 0.42000002 4279457580
0.028863978 0.0092699127 0.42100003 4280048947
0.030231385 0.0092699127 0.42100003 4280113203
0.031673849 0.0092919311 0.42200002 4279519019
0.0082139615 0.010460909 0.41400003 4279712805
0.0095586339 0.010460909 0.41400003 4279450912
0.010903306 0.010460909 0.41400003 4279386402
0.01224798 0.010460909 0.41400003 4279191588
0.013592653 0.010460909 0.41400003 4279587113
0.014973405 0.010486177 0.41500002 4279258916
0.016321326 0.010486177 0.41500002 4279522601
0.017711822 0.010511445 0.41600001 4279720748
0.019108817 0.010536713 0.41700003 4279589676
0.020463234 0.010536713 0.41700003 4279983920
0.021869969 0.01056198 0.41800001 4279391015
0.023283204 0.010587249 0.41900003 4280047410
0.024644116 0.010587249 0.41900003 4279585834
0.02600503 0.010587249 0.41900003 4280571192
0.01224798 0.011806038 0.41400003 4279977776
0.013592653 0.011806038 0.41400003 4279517221
0.014973405 0.011834555 0.41500002 4279583781
0.016321326 0.011834555 0.41500002 4280307502
0.017711822 0.011863071 0.41600001 4279585062
0.019108817 0.01189159 0.41700003 4280637498
0.020463234 0.01189159 0.41700003 4282544984
0.032556597 -0.0019959135 0.43267831 4294967295
0.032556597 -0.0019959135 0.43267831 4294901760
0.032556597 -0.0019959135 0.43317831 4294901760
0.032556597 -0.0019959135 0.4336783 4294901760
0.032556597 -0.0019959135 0.43417832 4294901760
0.032556597 -0.0019959135 0.43467832 4294901760
0.032556597 -0.0019959135 0.43517831 4294901760
0.032556597 -0.0019959135 0.4356783 4294901760
0.032556597 -0.0019959135 0.43617833 4294901760
0.032556597 -0.0019959135 0.43667832 4294901760
0.032556597 -0.0019959135 0.43717831 4294901760
0.032556597 -0.0019959135 0.43767831 4294901760
0.032556597 -0.0019959135 0.4381783 4294901760
0.032556597 -0.0019959135 0.43867832 4294901760
0.032556597 -0.0019959135 0.43917832 4294901760
0.032556597 -0.0019959135 0.43967831 4294901760
0.032556597 -0.0019959135 0.4401783 4294901760
0.032556597 -0.0019959135 0.4406783 4294901760
0.032556597 -0.0019959135 0.44117832 4294901760
0.032556597 -0.0019959135 0.44167832 4294901760
0.032556597 -0.0019959135 0.44217831 4294901760
0.032556597 -0.0019959135 0.4426783 4294901760
0.032556597 -0.0019959135 0.44317833 4294901760
0.032556597 -0.0019959135 0.44367832 4294901760
0.032556597 -0.0019959135 0.44417831 4294901760
0.032556597 -0.0019959135 0.44467831 4294901760
0.032556597 -0.0019959135 0.44517833 4294901760
0.032556597 -0.0019959135 0.44567832 4294901760
0.032556597 -0.0019959135 0.44617832 4294901760
0.032556597 -0.0019959135 0.44667831 4294901760
0.032556597 -0.0019959135 0.4471783 4294901760
0.032556597 -0.0019959135 0.44767833 4294901760
0.032556597 -0.0019959135 0.44817832 4294901760
0.032556597 -0.0019959135 0.44867831 4294901760
0.032556597 -0.0019959135 0.44917831 4294901760
0.032556597 -0.0019959135 0.4496783 4294901760
0.032556597 -0.0019959135 0.45017833 4294901760
0.032556597 -0.0019959135 0.45067832 4294901760
0.032556597 -0.0019959135 0.45117831 4294901760
0.032556597 -0.0019959135 0.45167831 4294901760
0.032556597 -0.0019959135 0.45217833 4294901760
0.032556597 -0.0019959135 0.45267832 4294901760
0.032556597 -0.0019959135 0.45317832 4294901760
0.032556597 -0.0019959135 0.45367831 4294901760
0.032556597 -0.0019959135 0.45417833 4294901760
0.032556597 -0.0019959135 0.45467833 4294901760
0.032556597 -0.0019959135 0.45517832 4294901760
0.032556597 -0.0019959135 0.45567831 4294901760
0.032556597 -0.0019959135 0.45617831 4294901760
0.032556597 -0.0019959135 0.45667833 4294901760
0.032556597 -0.0019959135 0.45717832 4294901760
0.032556597 -0.0019959135 0.45767832 4294901760
0.032556597 -0.0019959135 0.45817831 4294901760
0.032556597 -0.0019959135 0.45867831 4294901760
0.032556597 -0.0019959135 0.45917833 4294901760
0.032556597 -0.0019959135 0.45967832 4294901760
0.032556597 -0.0019959135 0.46017832 4294901760
0.032556597 -0.0019959135 0.46067831 4294901760
0.032556597 -0.0019959135 0.4611783 4294901760
0.032556597 -0.0019959135 0.46167833 4294901760
0.032556597 -0.0019959135 0.46217832 4294901760
0.032556597 -0.0019959135 0.46267831 4294901760
0.032556597 -0.0019959135 0.46317831 4294901760
0.032556597 -0.0019959135 0.46367833 4294901760
0.032556597 -0.0019959135 0.46417832 4294901760
0.032556597 -0.0019959135 0.46467832 4294901760
0.032556597 -0.0019959135 0.46517831 4294901760
0.032556597 -0.0019959135 0.46567833 4294901760
0.032556597 -0.0019959135 0.46617833 4294901760
0.032556597 -0.0019959135 0.46667832 4294901760
0.032556597 -0.0019959135 0.46717831 4294901760
0.032556597 -0.0019959135 0.46767831 4294901760
0.032556597 -0.0019959135 0.46817833 4294901760
0.032556597 -0.0019959135 0.46867833 4294901760
0.032556597 -0.0019959135 0.46917832 4294901760
0.032556597 -0.0019959135 0.46967831 4294901760
0.032556597 -0.0019959135 0.47017831 4294901760
0.032556597 -0.0019959135 0.47067833 4294901760
0.032556597 -0.0019959135 0.47117832 4294901760
0.032556597 -0.0019959135 0.47167832 4294901760
0.032556597 -0.0019959135 0.47217831 4294901760
0.032556597 -0.0019959135 0.47267833 4294901760
0.032556597 -0.0019959135 0.47317833 4294901760
0.032556597 -0.0019959135 0.47367832 4294901760
0.032556597 -0.0019959135 0.47417831 4294901760
0.032556597 -0.0019959135 0.47467831 4294901760
0.032556597 -0.0019959135 0.47517833 4294901760
0.032556597 -0.0019959135 0.47567832 4294901760
0.032556597 -0.0019959135 0.47617832 4294901760
0.032556597 -0.0019959135 0.47667831 4294901760
0.032556597 -0.0019959135 0.47717834 4294901760
0.032556597 -0.0019959135 0.47767833 4294901760
0.032556597 -0.0019959135 0.47817832 4294901760
0.032556597 -0.0019959135 0.47867832 4294901760
0.032556597 -0.0019959135 0.47917831 4294901760
0.032556597 -0.0019959135 0.47967833 4294901760
0.032556597 -0.0019959135 0.48017833 4294901760
0.032556597 -0.0019959135 0.48067832 4294901760
0.032556597 -0.0019959135 0.48117831 4294901760
0.032556597 -0.0019959135 0.48167834 4294901760
0.032556597 -0.0019959135 0.48217833 4294901760
0.032556597 -0.0019959135 0.48267832 4294901760
0.032556597 -0.0019959135 0.43267831 4278255360
0.032920741 -0.0020725229 0.43234435 4278255360
0.033284884 -0.0021491323 0.43201038 4278255360
0.033649027 -0.0022257417 0.43167642 4278255360
0.034013167 -0.0023023512 0.43134245 4278255360
0.03437731 -0.0023789606 0.43100849 4278255360
0.034741454 -0.0024555698 0.43067452 4278255360
0.035105597 -0.0025321795 0.43034059 4278255360
0.035469741 -0.0026087887 0.43000662 4278255360
0.035833884 -0.0026853983 0.42967266 4278255360
0.036198027 -0.0027620075 0.42933869 4278255360
0.036562171 -0.002838617 0.42900473 4278255360
0.036926311 -0.0029152264 0.42867076 4278255360
0.037290454 -0.0029918358 0.4283368 4278255360
0.037654597 -0.0030684453 0.42800283 4278255360
0.038018741 -0.0031450547 0.42766887 4278255360
0.038382884 -0.0032216641 0.4273349 4278255360
0.038747028 -0.0032982733 0.42700094 4278255360
0.039111171 -0.003374883 0.42666698 4278255360
0.039475314 -0.0034514922 0.42633304 4278255360
0.039839454 -0.0035281018 0.42599908 4278255360
0.040203597 -0.003604711 0.42566511 4278255360
0.040567741 -0.0036813205 0.42533115 4278255360
0.040931884 -0.0037579299 0.42499718 4278255360
0.041296028 -0.0038345393 0.42466322 4278255360
0.041660171 -0.0039111488 0.42432925 4278255360
0.042024314 -0.0039877584 0.42399529 4278255360
0.042388454 -0.0040643676 0.42366132 4278255360
0.042752597 -0.0041409768 0.42332736 4278255360
0.043116741 -0.0042175865 0.42299339 4278255360
0.043480884 -0.0042941961 0.42265943 4278255360
0.043845028 -0.0043708053 0.42232546 4278255360
0.044209171 -0.0044474145 0.42199153 4278255360
0.044573314 -0.0045240242 0.42165756 4278255360
0.044937454 -0.0046006334 0.4213236 4278255360
0.045301601 -0.0046772426 0.42098963 4278255360
0.045665741 -0.0047538523 0.42065567 4278255360
0.046029884 -0.0048304619 0.4203217 4278255360
0.046394028 -0.0049070711 0.41998774 4278255360
0.046758171 -0.0049836803 0.41965377 4278255360
0.047122315 -0.00506029 0.41931981 4278255360
0.047486458 -0.0051368997 0.41898584 4278255360
0.047850601 -0.0052135084 0.41865188 4278255360
0.048214741 -0.005290118 0.41831791 4278255360
0.048578888 -0.0053667277 0.41798398 4278255360
0.048943028 -0.0054433369 0.41765001 4278255360
0.049307171 -0.0055199466 0.41731605 4278255360
0.049671315 -0.0055965558 0.41698208 4278255360
0.050035454 -0.0056731654 0.41664812 4278255360
0.050399601 -0.0057497746 0.41631415 4278255360
0.050763741 -0.0058263838 0.41598019 4278255360
0.051127888 -0.0059029935 0.41564623 4278255360
0.051492028 -0.0059796032 0.41531226 4278255360
0.051856171 -0.0060562119 0.4149783 4278255360
0.052220315 -0.0061328216 0.41464433 4278255360
0.052584458 -0.0062094312 0.41431037 4278255360
0.052948602 -0.0062860409 0.41397643 4278255360
0.053312741 -0.0063626496 0.41364247 4278255360
0.053676888 -0.0064392593 0.4133085 4278255360
0.054041028 -0.0065158689 0.41297454 4278255360
0.054405175 -0.0065924786 0.41264057 4278255360
0.054769315 -0.0066690873 0.41230661 4278255360
0.055133458 -0.006745697 0.41197264 4278255360
0.055497602 -0.0068223067 0.41163868 4278255360
0.055861741 -0.0068989154 0.41130471 4278255360
0.056225888 -0.0069755251 0.41097075 4278255360
0.056590028 -0.0070521347 0.41063678 4278255360
0.056954175 -0.0071287444 0.41030282 4278255360
0.057318315 -0.0072053531 0.40996885 4278255360
0.057682458 -0.0072819628 0.40963489 4278255360
0.058046602 -0.0073585724 0.40930095 4278255360
0.058410741 -0.0074351812 0.40896699 4278255360
0.058774889 -0.0075117918 0.40863302 4278255360
0.059139028 -0.0075884005 0.40829906 4278255360
0.059503175 -0.0076650102 0.40796509 4278255360
0.059867315 -0.0077416198 0.40763113 4278255360
0.060231458 -0.0078182286 0.40729716 4278255360
0.060595602 -0.0078948382 0.4069632 4278255360
0.060959741 -0.007971447 0.40662923 4278255360
0.061323889 -0.0080480576 0.40629527 4278255360
0.061688028 -0.0081246663 0.4059613 4278255360
0.062052175 -0.008201276 0.40562737 4278255360
0.062416315 -0.0082778856 0.40529341 4278255360
0.062780455 -0.0083544943 0.40495944 4278255360
0.063144602 -0.008431104 0.40462548 4278255360
0.063508749 -0.0085077137 0.40429151 4278255360
0.063872889 -0.0085843233 0.40395755 4278255360
0.064237028 -0.0086609321 0.40362358 4278255360
0.064601175 -0.0087375417 0.40328962 4278255360
0.064965315 -0.0088141514 0.40295565 4278255360
0.065329462 -0.0088907601 0.40262169 4278255360
0.065693602 -0.0089673698 0.40228772 4278255360
0.066057742 -0.0090439795 0.40195376 4278255360
0.066421889 -0.0091205891 0.40161979 4278255360
0.066786036 -0.0091971979 0.40128583 4278255360
0.067150176 -0.0092738075 0.40095189 4278255360
0.067514315 -0.0093504172 0.40061793 4278255360
0.067878462 -0.0094270268 0.40028396 4278255360
0.068242602 -0.0095036356 0.39995 4278255360
0.068606749 -0.0095802452 0.39961603 4278255360
0.068970889 -0.0096568549 0.39928207 4278255360
