# .PCD v0.7 - Point Cloud Data file format
VERSION 0.7
FIELDS x y z rgb
SIZE 4 4 4 4
TYPE F F F U
COUNT 1 1 1 1
WIDTH 1025
HEIGHT 1
VIEWPOINT 0 0 0 1 0 0 0
POINTS 1025
DATA ascii
0.11748386 -0.0030698278 0.42500001 4279191840
0.11914395 -0.0030770511 0.42600003 4279388707
0.1205276 -0.0030770511 0.42600003 4280173617
0.12191125 -0.0030770511 0.42600003 4285697663
0.034867216 -0.0015737129 0.39600003 4280167711
0.036153425 -0.0015737129 0.39600003 4279772953
0.037345089 -0.0015697388 0.39500001 4279706906
0.038628045 -0.0015697388 0.39500001 4279641113
0.039809968 -0.0015657649 0.39400002 4280628262
0.04108968 -0.0015657649 0.39400002 4279707160
0.042261854 -0.0015617908 0.39300001 4279904537
0.043538321 -0.0015617908 0.39300001 4280235297
0.044700753 -0.0015578169 0.39200002 4279126308
0.045973971 -0.0015578169 0.39200002 4279390763
0.047247186 -0.0015578169 0.39200002 4279522099
0.048520405 -0.0015578169 0.39200002 4280309567
0.04979362 -0.0015578169 0.39200002 4285766022
0.051066838 -0.0015578169 0.39200002 4285764993
0.055306535 -0.0015697388 0.39500001 4285764226
0.056589499 -0.0015697388 0.39500001 4285961605
0.058018975 -0.0015737129 0.39600003 4285895812
0.059604701 -0.0015816611 0.39800003 4285896325
0.061050415 -0.001585635 0.39900002 4286094728
0.062502623 -0.001589609 0.40000001 4286094728
0.064120829 -0.001597557 0.40200001 4283397474
0.065589286 -0.0016015311 0.40300003 4281162048
0.067064226 -0.0016055051 0.40400001 4280504883
0.068714917 -0.0016134531 0.40600002 4280242481
0.070206098 -0.0016174271 0.40700001 4279980590
0.07152804 -0.0016174271 0.40700001 4279587629
0.073028974 -0.0016214012 0.40800002 4279325222
0.074354149 -0.0016214012 0.40800002 4279127843
0.075864829 -0.0016253751 0.40900001 4278930464
0.07719326 -0.0016253751 0.40900001 4278865441
0.078713678 -0.0016293493 0.41000003 4278997025
0.080045357 -0.0016293493 0.41000003 4279194658
0.08157552 -0.0016333233 0.41100001 4278931486
0.082910441 -0.0016333233 0.41100001 4278865693
0.084450357 -0.0016372973 0.41200003 4279260451
0.085996754 -0.0016412713 0.41300002 4278865693
0.087549657 -0.0016452454 0.41400003 4278602521
0.089109041 -0.0016492193 0.41500002 4278273556
0.090674929 -0.0016531934 0.41600001 4278535958
0.0920261 -0.0016531934 0.41600001 4278667544
0.093601733 -0.0016571674 0.41700003 4278732824
0.095183864 -0.0016611414 0.41800001 4279653156
0.096772492 -0.0016651155 0.41900003 4278863386
0.098367609 -0.0016690894 0.42000002 4279060765
0.099969231 -0.0016730635 0.42100003 4278863386
0.10157734 -0.0016770376 0.42200002 4279126558
0.102948 -0.0016770376 0.42200002 4279126558
0.10456585 -0.0016810115 0.42300001 4279258144
0.10593975 -0.0016810115 0.42300001 4278664982
0.10731366 -0.0016810115 0.42300001 4278531343
0.10868756 -0.0016810115 0.42300001 4278198528
0.11006147 -0.0016810115 0.42300001 4278924820
0.11143538 -0.0016810115 0.42300001 4278266122
0.11307598 -0.0016849856 0.42400002 4279714852
0.11445314 -0.0016849856 0.42400002 4279387935
0.11610346 -0.0016889595 0.42500001 4279716900
0.11748386 -0.0016889595 0.42500001 4279388705
0.11886426 -0.0016889595 0.42500001 4279387683
0.1205276 -0.0016929336 0.42600003 4283462754
0.12191125 -0.0016929336 0.42600003 4285960837
0.034867216 -0.00028706843 0.39600003 4279904539
0.036153425 -0.00028706843 0.39600003 4279772953
0.037345089 -0.00028634348 0.39500001 4279575320
0.038530257 -0.00028561856 0.39400002 4279707160
0.039809968 -0.00028561856 0.39400002 4279838746
0.040985391 -0.00028489364 0.39300001 4279641367
0.042261854 -0.00028489364 0.39300001 4279772953
0.043538321 -0.00028489364 0.39300001 4279641365
0.044700753 -0.00028416872 0.39200002 4279124252
0.045973971 -0.00028416872 0.39200002 4278798367
0.047247186 -0.00028416872 0.39200002 4279062822
0.048520405 -0.00028416872 0.39200002 4279194408
0.04979362 -0.00028416872 0.39200002 4279981365
0.051197108 -0.00028489364 0.39300001 4281492809
0.052473575 -0.00028489364 0.39300001 4285503102
0.053886805 -0.00028561856 0.39400002 4286160519
0.05516652 -0.00028561856 0.39400002 4285832069
0.056589499 -0.00028634348 0.39500001 4284450930
0.058018975 -0.00028706843 0.39600003 4281885771
0.059454937 -0.00028779331 0.39700001 4281162559
0.061050415 -0.00028924318 0.39900002 4280374067
0.062502623 -0.00028996807 0.40000001 4279914029
0.063961327 -0.00029069302 0.40100002 4279388969
0.065426528 -0.00029141793 0.40200001 4279257894
0.067064226 -0.00029286777 0.40400001 4278995744
0.068545669 -0.00029359269 0.40500003 4279062050
0.070033602 -0.00029431761 0.40600002 4279062048
0.07152804 -0.00029504253 0.40700001 4279062048
0.073028974 -0.00029576744 0.40800002 4279194404
0.074354149 -0.00029576744 0.40800002 4279194404
0.075679339 -0.00029576744 0.40800002 4278997025
0.07719326 -0.00029649236 0.40900001 4278997025
0.078521691 -0.00029649236 0.40900001 4278734107
0.080045357 -0.00029721731 0.41000003 4278734107
0.081377044 -0.00029721731 0.41000003 4278206992
0.082910441 -0.0002979422 0.41100001 4278405142
0.084450357 -0.00029866715 0.41200003 4278733337
0.085788533 -0.00029866715 0.41200003 4278732824
0.087338179 -0.00029939206 0.41300002 4278798617
0.08889433 -0.00030011698 0.41400003 4278930203
0.09045697 -0.0003008419 0.41500002 4279126812
0.0920261 -0.00030156682 0.41600001 4279061019
0.09337727 -0.00030156682 0.41600001 4279126045
0.094956152 -0.00030229174 0.41700003 4279126045
0.096541531 -0.00030301666 0.41800001 4278994459
0.0981334 -0.00030374157 0.41900003 4279454496
0.099731773 -0.00030446649 0.42000002 4278203148
0.10133664 -0.00030519141 0.42100003 4278200579
0.10270405 -0.00030519141 0.42100003 4278200837
0.10431866 -0.00030591633 0.42200002 4278859795
0.10568931 -0.00030591633 0.42200002 4280307243
0.10705996 -0.00030591633 0.42200002 4279846690
0.10868756 -0.00030664125 0.42300001 4279649311
0.11006147 -0.00030664125 0.42300001 4279780897
0.11143538 -0.00030664125 0.42300001 4278198530
0.11280929 -0.00030664125 0.42300001 4279649572
0.11445314 -0.00030736616 0.42400002 4279584801
0.11583027 -0.00030736616 0.42400002 4279650594
0.11748386 -0.00030809108 0.42500001 4279453730
0.11886426 -0.00030809108 0.42500001 4279648807
0.1205276 -0.00030881603 0.42600003 4286355079
0.028436171 0.00099957618 0.39600003 4280563753
0.02972238 0.00099957618 0.39600003 4280563753
0.034867216 0.00099957618 0.39600003 4280693542
0.036153425 0.00099957618 0.39600003 4279969819
0.037345089 0.00099705195 0.39500001 4279968795
0.038628045 0.00099705195 0.39500001 4279969819
0.039809968 0.00099452771 0.39400002 4280101914
0.04108968 0.00099452771 0.39400002 4280233500
0.042261854 0.00099200348 0.39300001 4280496672
0.043538321 0.00099200348 0.39300001 4280694565
0.044814784 0.00099200348 0.39300001 4279120918
0.045973971 0.00098947936 0.39200002 4279124765
0.047367714 0.00099200348 0.39300001 4278666779
0.048644178 0.00099200348 0.39300001 4278733085
0.049920641 0.00099200348 0.39300001 4278997027
0.051197108 0.00099200348 0.39300001 4279260199
0.052473575 0.00099200348 0.39300001 4278995492
0.053886805 0.00099452771 0.39400002 4280047412
0.05516652 0.00099452771 0.39400002 4279718447
0.056589499 0.00099705195 0.39500001 4279652654
0.058018975 0.00099957618 0.39600003 4279390504
0.059454937 0.0010021003 0.39700001 4279127330
0.060897406 0.0010046245 0.39800003 4278996255
0.062346369 0.0010071486 0.39900002 4279127841
0.063961327 0.001012197 0.40100002 4278865439
0.065426528 0.0010147212 0.40200001 4279062818
0.066898227 0.0010172453 0.40300003 4279194404
0.068376414 0.0010197696 0.40400001 4278931232
0.069861114 0.0010222938 0.40500003 4279194404
0.071352296 0.0010248179 0.40600002 4278931232
0.072849974 0.001027342 0.40700001 4278471449
0.074354149 0.0010298663 0.40800002 4278207506
0.075679339 0.0010298663 0.40800002 4278274070
0.07700453 0.0010298663 0.40800002 4278799900
0.078521691 0.0010323904 0.40900001 4278667544
0.079850122 0.0010323904 0.40900001 4278733337
0.081377044 0.0010349146 0.41000003 4278864923
0.082708716 0.0010349146 0.41000003 4278930716
0.084245376 0.0010374389 0.41100001 4278798617
0.085788533 0.0010399631 0.41200003 4278930203
0.08712671 0.0010399631 0.41200003 4278798365
0.088679604 0.0010424872 0.41300002 4278732572
0.090239003 0.0010450114 0.41400003 4279520291
0.091804892 0.0010475356 0.41500002 4279453728
0.09337727 0.0010500597 0.41600001 4278200327
0.094956152 0.0010525839 0.41700003 4278198273
0.096541531 0.0010551082 0.41800001 4278661394
0.0981334 0.0010576323 0.41900003 4279648289
0.099494316 0.0010576323 0.41900003 4279977508
0.10109594 0.0010601565 0.42000002 4279715106
0.10270405 0.0010626807 0.42100003 4279649824
0.10407146 0.0010626807 0.42100003 4279781410
0.10568931 0.0010652049 0.42200002 4279386652
0.10705996 0.0010652049 0.42200002 4278794515
0.10843062 0.0010652049 0.42200002 4279715617
0.10980128 0.0010652049 0.42200002 4279584031
0.11143538 0.001067729 0.42300001 4280570161
0.11280929 0.001067729 0.42300001 4279584801
0.11418319 0.001067729 0.42300001 4279650592
0.11583027 0.0010702532 0.42400002 4279716385
0.11720743 0.0010702532 0.42400002 4279649572
0.11886426 0.0010727773 0.42500001 4284910450
0.02972238 0.0022862207 0.39600003 4280431913
0.034955263 0.0022919939 0.39700001 4280365088
0.036153425 0.0022862207 0.39600003 4280101916
0.037439633 0.0022862207 0.39600003 4280100635
0.038628045 0.0022804472 0.39500001 4280430368
0.044814784 0.0022689006 0.39300001 4279317527
0.046091251 0.0022689006 0.39300001 4278596625
0.047367714 0.0022689006 0.39300001 4278796566
0.048644178 0.0022689006 0.39300001 4278731287
0.049920641 0.0022689006 0.39300001 4278733853
0.051197108 0.0022689006 0.39300001 4278734367
0.052607097 0.0022746741 0.39400002 4283142502
0.053886805 0.0022746741 0.39400002 4279917107
0.05516652 0.0022746741 0.39400002 4279259947
0.056589499 0.0022804472 0.39500001 4279062822
0.058018975 0.0022862207 0.39600003 4279260197
0.059454937 0.0022919939 0.39700001 4279062818
0.060897406 0.0022977672 0.39800003 4279260451
0.062346369 0.0023035405 0.39900002 4279063072
0.063801818 0.0023093137 0.40000001 4278734621
0.065263778 0.002315087 0.40100002 4278471195
0.066732228 0.0023208603 0.40200001 4278405402
0.068207167 0.0023266335 0.40300003 4278207766
0.069688611 0.0023324068 0.40400001 4278602267
0.071176551 0.0023381801 0.40500003 4278602521
0.072670989 0.0023439534 0.40600002 4278733337
0.074171908 0.0023497266 0.40700001 4278733337
0.075679339 0.0023554999 0.40800002 4278798617
0.07700453 0.0023554999 0.40800002 4278732824
0.078329705 0.0023554999 0.40800002 4279061019
0.079850122 0.0023612732 0.40900001 4279061019
0.081178561 0.0023612732 0.40900001 4278929433
0.082708716 0.0023670467 0.41000003 4279192092
0.084040403 0.0023670467 0.41000003 4279257117
0.085580304 0.0023728197 0.41100001 4278203403
0.08712671 0.0023785932 0.41200003 4278198016
0.088679604 0.0023843665 0.41300002 4278199557
0.090021029 0.0023843665 0.41300002 4279582496
0.091583677 0.0023901397 0.41400003 4280109610
0.093152806 0.002395913 0.41500002 4279649059
0.09472844 0.0024016863 0.41600001 4279978024
0.096310571 0.0024074595 0.41700003 4278925336
0.097899191 0.0024132328 0.41800001 4279715106
0.099494316 0.0024190061 0.41900003 4279846692
0.10109594 0.0024247793 0.42000002 4279255068
0.10270405 0.0024305528 0.42100003 4278860310
0.10407146 0.0024305528 0.42100003 4279780899
0.10568931 0.0024363259 0.42200002 4279056152
0.10705996 0.0024363259 0.42200002 4279385117
0.10843062 0.0024363259 0.42200002 4279780899
0.10980128 0.0024363259 0.42200002 4279715106
0.11143538 0.0024420992 0.42300001 4279715619
0.11280929 0.0024420992 0.42300001 4279584801
0.11418319 0.0024420992 0.42300001 4279650594
0.11555709 0.0024420992 0.42300001 4279716387
0.11720743 0.0024478727 0.42400002 4279910697
0.11858459 0.0024478727 0.42400002 4286487179
0.033665806 0.0035818873 0.39700001 4280957225
0.034955263 0.0035818873 0.39700001 4280364575
0.036244716 0.0035818873 0.39700001 4280101403
0.037439633 0.0035728649 0.39600003 4280100633
0.038725842 0.0035728649 0.39600003 4279772438
0.044928819 0.0035548203 0.39400002 4279185941
0.046208534 0.0035548203 0.39400002 4279187224
0.047488246 0.0035548203 0.39400002 4278795285
0.048767958 0.0035548203 0.39400002 4278599187
0.05004767 0.0035548203 0.39400002 4278863386
0.051327381 0.0035548203 0.39400002 4278733083
0.052607097 0.0035548203 0.39400002 4278472482
0.053886805 0.0035548203 0.39400002 4278209053
0.055306535 0.0035638425 0.39500001 4278405917
0.056589499 0.0035638425 0.39500001 4278603296
0.058018975 0.0035728649 0.39600003 4278668828
0.059454937 0.0035818873 0.39700001 4278471449
0.060897406 0.0035909098 0.39800003 4278536728
0.062190115 0.0035909098 0.39800003 4278602521
0.063642316 0.0035999322 0.39900002 4278536728
0.06510102 0.0036089544 0.40000001 4278602267
0.066566229 0.003617977 0.40100002 4278930462
0.068207167 0.0036360216 0.40300003 4278667290
0.069688611 0.0036450441 0.40400001 4278929949
0.071176551 0.0036540665 0.40500003 4278798363
0.072670989 0.0036630889 0.40600002 4278798617
0.073989674 0.0036630889 0.40600002 4278863640
0.07549385 0.0036721111 0.40700001 4279061019
0.076815784 0.0036721111 0.40700001 4279126299
0.078329705 0.0036811335 0.40800002 4279453213
0.079654895 0.0036811335 0.40800002 4278333451
0.081178561 0.0036901559 0.40900001 4278197248
0.082506984 0.0036901559 0.40900001 4278198278
0.084040403 0.0036991783 0.41000003 4279978278
0.085580304 0.0037082008 0.41100001 4280241448
0.086915232 0.0037082008 0.41100001 4279715106
0.088464886 0.0037172232 0.41200003 4279715106
0.090021029 0.0037262456 0.41300002 4279517725
0.091583677 0.003735268 0.41400003 4278201093
0.093152806 0.0037442902 0.41500002 4279649826
0.09472844 0.0037533126 0.41600001 4279123228
0.096310571 0.0037623351 0.41700003 4279912233
0.097899191 0.0037713575 0.41800001 4279911209
0.099494316 0.0037803799 0.41900003 4279186713
0.10109594 0.0037894021 0.42000002 4278923541
0.10270405 0.0037984247 0.42100003 4278331915
0.10407146 0.0037984247 0.42100003 4278661394
0.10568931 0.0038074469 0.42200002 4280109610
0.10705996 0.0038074469 0.42200002 4280372782
0.10843062 0.0038074469 0.42200002 4280043047
0.10980128 0.0038074469 0.42200002 4278595087
0.11143538 0.0038164693 0.42300001 4279782182
0.11280929 0.0038164693 0.42300001 4279848488
0.11418319 0.0038164693 0.42300001 4280374319
0.11555709 0.0038164693 0.42300001 4279452195
0.033750609 0.0048840526 0.39800003 4280759846
0.035043314 0.0048840526 0.39800003 4280561182
0.036336016 0.0048840526 0.39800003 4280363803
0.037534177 0.004871781 0.39700001 4280363292
0.04504285 0.0048472378 0.39500001 4279449113
0.046325814 0.0048472378 0.39500001 4279319578
0.04760877 0.0048472378 0.39500001 4278991383
0.048891731 0.0048472378 0.39500001 4278992664
0.050174691 0.0048472378 0.39500001 4278928154
0.051327381 0.0048349667 0.39400002 4278928668
0.052607097 0.0048349667 0.39400002 4278601499
0.054023571 0.0048472378 0.39500001 4278602269
0.055306535 0.0048472378 0.39500001 4278865439
0.056589499 0.0048472378 0.39500001 4278602267
0.058018975 0.0048595094 0.39600003 4278799646
0.059454937 0.004871781 0.39700001 4278996509
0.060744397 0.004871781 0.39700001 4278930716
0.062190115 0.0048840526 0.39800003 4278864923
0.063642316 0.0048963241 0.39900002 4278733083
0.06510102 0.0049085952 0.40000001 4278798363
0.066566229 0.0049208668 0.40100002 4279979561
0.06803792 0.0049331384 0.40200001 4278926103
0.069516115 0.0049454099 0.40300003 4279585314
0.071000807 0.0049576815 0.40400001 4279124763
0.072491996 0.0049699531 0.40500003 4278859027
0.073989674 0.0049822242 0.40600002 4278199299
0.07530836 0.0049822242 0.40600002 4278263556
0.076815784 0.0049944958 0.40700001 4278525703
0.078329705 0.0050067673 0.40800002 4278852365
0.079654895 0.0050067673 0.40800002 4278852363
0.081178561 0.0050190389 0.40900001 4278655754
0.082506984 0.0050190389 0.40900001 4278195974
0.084040403 0.0050313105 0.41000003 4279517727
0.085372083 0.0050313105 0.41000003 4279254555
0.086915232 0.0050435816 0.41100001 4278461966
0.088464886 0.0050558536 0.41200003 4278593554
0.090021029 0.0050681247 0.41300002 4278991383
0.091583677 0.0050803963 0.41400003 4279780897
0.093152806 0.0050926679 0.41500002 4278925338
0.09472844 0.005104939 0.41600001 4279845670
0.096310571 0.005117211 0.41700003 4279385889
0.097899191 0.0051294821 0.41800001 4279649059
0.099494316 0.0051417537 0.41900003 4279780899
0.10109594 0.0051540253 0.42000002 4280109094
0.10270405 0.0051662968 0.42100003 4279976994
0.10407146 0.0051662968 0.42100003 4278660880
0.10568931 0.0051785684 0.42200002 4278199046
0.10705996 0.0051785684 0.42200002 4279121947
0.10843062 0.0051785684 0.42200002 4280174121
0.11006147 0.0051908395 0.42300001 4280372014
0.11143538 0.0051908395 0.42300001 4280175403
0.11280929 0.0051908395 0.42300001 4279846951
0.11418319 0.0051908395 0.42300001 4282541134
0.033750609 0.0061771953 0.39800003 4280496674
0.035043314 0.0061771953 0.39800003 4280627745
0.036336016 0.0061771953 0.39800003 4280561182
0.037628721 0.0061771953 0.39800003 4280429598
0.043870676 0.0061461544 0.39600003 4279775770
0.045156885 0.0061461544 0.39600003 4279581723
0.046443094 0.0061461544 0.39600003 4279319062
0.047729302 0.0061461544 0.39600003 4279189273
0.048891731 0.0061306334 0.39500001 4278664212
0.050174691 0.0061306334 0.39500001 4278862361
0.051457655 0.0061306334 0.39500001 4278862875
0.052740615 0.0061306334 0.39500001 4278732572
0.054023571 0.0061306334 0.39500001 4278995744
0.055306535 0.0061306334 0.39500001 4279061535
0.056732766 0.0061461544 0.39600003 4278929949
0.058018975 0.0061461544 0.39600003 4278798363
0.059454937 0.0061616744 0.39700001 4278798363
0.060744397 0.0061616744 0.39700001 4278929179
0.062190115 0.0061771953 0.39800003 4279060765
0.063642316 0.0061927158 0.39900002 4279060765
0.06510102 0.0062082363 0.40000001 4278797080
0.066400222 0.0062082363 0.40000001 4278794517
0.067868672 0.0062237573 0.40100002 4279453217
0.069343619 0.0062392773 0.40200001 4278530062
0.070825063 0.0062547983 0.40300003 4278460937
0.072313003 0.0062703188 0.40400001 4278853135
0.073807433 0.0062858397 0.40500003 4278655756
0.07530836 0.0063013597 0.40600002 4278853133
0.076815784 0.0063168802 0.40700001 4279050512
0.078137718 0.0063168802 0.40700001 4279774235
0.079654895 0.0063324012 0.40800002 4279182098
0.080980077 0.0063324012 0.40800002 4279708957
0.082506984 0.0063479217 0.40900001 4278920720
0.083835423 0.0063479217 0.40900001 4280306219
0.085372083 0.0063634426 0.41000003 4278461453
0.086915232 0.0063789627 0.41100001 4278920211
0.088464886 0.0063944836 0.41200003 4280171303
0.090021029 0.0064100041 0.41300002 4278529294
0.091583677 0.0064255251 0.41400003 4279319578
0.093152806 0.0064410456 0.41500002 4279584033
0.09472844 0.0064565656 0.41600001 4279912744
0.096310571 0.0064720865 0.41700003 4279451680
0.097899191 0.006487607 0.41800001 4278333199
0.099494316 0.006503128 0.41900003 4278199046
0.10109594 0.006518648 0.42000002 4278924568
0.10270405 0.006534169 0.42100003 4280438577
0.10407146 0.006534169 0.42100003 4279912233
0.10568931 0.0065496895 0.42200002 4280044330
0.10705996 0.0065496895 0.42200002 4279846951
0.10868756 0.0065652099 0.42300001 4279911463
0.11006147 0.0065652099 0.42300001 4280503086
0.11143538 0.0065652099 0.42300001 4285040757
0.033750609 0.0074703381 0.39800003 4280298784
0.035131361 0.0074891075 0.39900002 4280955940
0.036427312 0.0074891075 0.39900002 4280495389
0.037723266 0.0074891075 0.39900002 4280955940
0.042692002 0.0074515683 0.39700001 4283130443
0.043981459 0.0074515683 0.39700001 4279118353
0.045270916 0.0074515683 0.39700001 4279450650
0.046560373 0.0074515683 0.39700001 4279187992
0.047729302 0.0074327989 0.39600003 4278794002
0.049015511 0.0074327989 0.39600003 4278861078
0.050301719 0.0074327989 0.39600003 4278993947
0.051587928 0.0074327989 0.39600003 4279059740
0.05287414 0.0074327989 0.39600003 4278928668
0.054023571 0.007414029 0.39500001 4279258146
0.055446554 0.0074327989 0.39600003 4279061535
0.056732766 0.0074327989 0.39600003 4278995742
0.058018975 0.0074327989 0.39600003 4278995742
0.059454937 0.0074515683 0.39700001 4279060765
0.060897406 0.0074703381 0.39800003 4279126558
0.062190115 0.0074703381 0.39800003 4278929179
0.063642316 0.0074891075 0.39900002 4278994459
0.06510102 0.007507877 0.40000001 4278201609
0.066400222 0.007507877 0.40000001 4278198787
0.067868672 0.0075266473 0.40100002 4279453217
0.069343619 0.0075454167 0.40200001 4278263306
0.070825063 0.0075641866 0.40300003 4279314199
0.072313003 0.007582956 0.40400001 4279576858
0.073807433 0.0076017259 0.40500003 4280498473
0.07530836 0.0076204957 0.40600002 4278920209
0.076627053 0.0076204957 0.40600002 4279446551
0.078137718 0.0076392652 0.40700001 4278854414
0.079654895 0.007658035 0.40800002 4280631338
0.080980077 0.007658035 0.40800002 4279052308
0.082506984 0.0076768044 0.40900001 4280698415
0.083835423 0.0076768044 0.40900001 4279910947
0.085372083 0.0076955743 0.41000003 4278329867
0.086915232 0.0077143437 0.41100001 4280302887
0.088464886 0.0077331141 0.41200003 4280699182
0.089803062 0.0077331141 0.41200003 4279121431
0.091362454 0.0077518835 0.41300002 4278199303
0.093152806 0.0077894228 0.41500002 4278200845
0.09472844 0.0078081922 0.41600001 4279911463
0.096310571 0.0078269625 0.41700003 4279846440
0.097899191 0.0078457315 0.41800001 4279978026
0.099494316 0.0078645013 0.41900003 4280109610
0.10109594 0.0078832712 0.42000002 4280109610
0.10270405 0.0079020411 0.42100003 4279912231
0.10431866 0.007920811 0.42200002 4279911461
0.10568931 0.007920811 0.42200002 4281358141
0.10705996 0.007920811 0.42200002 4284844657
0.10868756 0.0079395799 0.42300001 4286355845
0.11006147 0.0079395799 0.42300001 4285961087
0.035131361 0.0087854993 0.39900002 4279969045
0.036427312 0.0087854993 0.39900002 4280495389
0.037723266 0.0087854993 0.39900002 4280232989
0.044092245 0.0087634809 0.39800003 4279842074
0.045384951 0.0087634809 0.39800003 4279318810
0.046560373 0.0087414617 0.39700001 4278990359
0.04784983 0.0087414617 0.39700001 4278860310
0.049139284 0.0087414617 0.39700001 4278927384
0.050428741 0.0087414617 0.39700001 4279124763
0.051587928 0.0087194433 0.39600003 4279125533
0.05287414 0.0087194433 0.39600003 4279060767
0.054160345 0.0087194433 0.39600003 4278995744
0.055446554 0.0087194433 0.39600003 4279193123
0.056732766 0.0087194433 0.39600003 4279061537
0.058165487 0.0087414617 0.39700001 4278929951
0.059454937 0.0087414617 0.39700001 4278929951
0.060897406 0.0087634809 0.39800003 4278929181
0.062346369 0.0087854993 0.39900002 4279258146
0.063642316 0.0087854993 0.39900002 4279059740
0.06510102 0.0088075176 0.40000001 4278201610
0.066400222 0.0088075176 0.40000001 4279846951
0.067868672 0.0088295368 0.40100002 4279715365
0.069343619 0.0088515552 0.40200001 4278591757
0.070825063 0.0088735744 0.40300003 4279776033
0.072313003 0.0088955928 0.40400001 4279710238
0.073807433 0.008917612 0.40500003 4280104483
0.07530836 0.0089396304 0.40600002 4278590476
0.076627053 0.0089396304 0.40600002 4278721549
0.078137718 0.0089616496 0.40700001 4278195718
0.079654895 0.0089836689 0.40800002 4278656267
0.080980077 0.0089836689 0.40800002 4278195972
0.082506984 0.0090056872 0.40900001 4279581471
0.083835423 0.0090056872 0.40900001 4278198787
0.085372083 0.0090277065 0.41000003 4278199046
0.086915232 0.0090497248 0.41100001 4279318299
0.088464886 0.009071744 0.41200003 4280634159
0.089803062 0.009071744 0.41200003 4279977254
0.091362454 0.0090937624 0.41300002 4279912485
0.093152806 0.0091378 0.41500002 4279781412
0.09472844 0.0091598183 0.41600001 4280044584
0.096310571 0.0091818376 0.41700003 4280044584
0.097899191 0.0092038559 0.41800001 4280110377
0.099494316 0.0092258751 0.41900003 4280108840
0.10109594 0.0092478935 0.42000002 4282673488
0.10270405 0.0092699127 0.42100003 4285763456
0.10431866 0.0092919311 0.42200002 4286618251
0.10568931 0.0092919311 0.42200002 4285697917
0.036427312 0.010081891 0.39900002 4280562979
0.037723266 0.010081891 0.39900002 4280692770
0.044203028 0.010081891 0.39900002 4279645211
0.045384951 0.010056623 0.39800003 4279187738
0.046677656 0.010056623 0.39800003 4278990613
0.047970362 0.010056623 0.39800003 4278795287
0.049263064 0.010056623 0.39800003 4278993179
0.050428741 0.010031355 0.39700001 4279059740
0.051718198 0.010031355 0.39700001 4278468117
0.053007659 0.010031355 0.39700001 4279126560
0.054160345 0.010006087 0.39600003 4278798365
0.055586569 0.010031355 0.39700001 4278929951
0.056876026 0.010031355 0.39700001 4279061535
0.058165487 0.010031355 0.39700001 4279126558
0.059604701 0.010056623 0.39800003 4278929179
0.060897406 0.010056623 0.39800003 4279060767
0.062346369 0.010081891 0.39900002 4278929181
0.063642316 0.010081891 0.39900002 4279191840
0.06510102 0.010107159 0.40000001 4278197504
0.066566229 0.010132426 0.40100002 4279979307
0.067868672 0.010132426 0.40100002 4278925849
0.069343619 0.010157694 0.40200001 4278722828
0.070825063 0.010182963 0.40300003 4278853646
0.072313003 0.01020823 0.40400001 4278655756
0.073807433 0.010233498 0.40500003 4278721549
0.075122878 0.010233498 0.40500003 4278852881
0.076627053 0.010258766 0.40600002 4278589963
0.078137718 0.010284034 0.40700001 4278458377
0.07945966 0.010284034 0.40700001 4279248404
0.080980077 0.010309302 0.40800002 4280173608
0.082506984 0.010334569 0.40900001 4280043047
0.083835423 0.010334569 0.40900001 4280110123
0.085372083 0.010359838 0.41000003 4279715365
0.086703762 0.010359838 0.41000003 4279649572
0.08825016 0.010385105 0.41100001 4279912744
0.089803062 0.010410374 0.41200003 4279912998
0.091362454 0.010435641 0.41300002 4279716389
0.093152806 0.010486177 0.41500002 4279715619
0.09472844 0.010511445 0.41600001 4280175403
0.096310571 0.010536713 0.41700003 4283463006
0.097899191 0.01056198 0.41800001 4285699198
0.099494316 0.010587249 0.41900003 4285567101
0.10109594 0.010612517 0.42000002 4285566847
0.037723266 0.011378283 0.39900002 4283327572
0.042907074 0.011378283 0.39900002 4279118351
0.044203028 0.011378283 0.39900002 4279514906
0.045498982 0.011378283 0.39900002 4278990359
0.046794936 0.011378283 0.39900002 4278924566
0.048090886 0.011378283 0.39900002 4278531861
0.049263064 0.011349767 0.39800003 4278862363
0.050555769 0.011349767 0.39800003 4278862875
0.051718198 0.011321248 0.39700001 4278994461
0.053007659 0.011321248 0.39700001 4279258146
0.054297112 0.011321248 0.39700001 4279126560
0.055586569 0.011321248 0.39700001 4279060767
0.056876026 0.011321248 0.39700001 4279126560
0.058312003 0.011349767 0.39800003 4279060767
0.059604701 0.011349767 0.39800003 4279126560
0.061050415 0.011378283 0.39900002 4279060767
0.062346369 0.011378283 0.39900002 4279060767
0.063801818 0.0114068 0.40000001 4279650342
0.06510102 0.0114068 0.40000001 4278198789
0.066566229 0.011435317 0.40100002 4279781412
0.067868672 0.011435317 0.40100002 4278199301
0.069343619 0.011463834 0.40200001 4278984719
0.070825063 0.011492351 0.40300003 4278983951
0.072313003 0.011520868 0.40400001 4278524683
0.073625192 0.011520868 0.40400001 4279643934
0.075122878 0.011549385 0.40500003 4280369963
0.076627053 0.011577902 0.40600002 4280568879
0.078137718 0.011606419 0.40700001 4279780645
0.07945966 0.011606419 0.40700001 4280110123
0.080980077 0.011634936 0.40800002 4279519010
0.08230526 0.011634936 0.40800002 4279585316
0.083835423 0.011663453 0.40900001 4279585316
0.085163854 0.011663453 0.40900001 4279651109
0.086703762 0.01169197 0.41000003 4280110377
0.08825016 0.011720487 0.41100001 4279649059
0.089803062 0.011749004 0.41200003 4281423423
0.091362454 0.011777521 0.41300002 4284646510
0.043014612 0.012706441 0.40000001 4279382807
0.044313814 0.012706441 0.40000001 4279450396
0.045613013 0.012706441 0.40000001 4279056152
0.046794936 0.012674675 0.39900002 4278925336
0.048090886 0.012674675 0.39900002 4278861080
0.04938684 0.012674675 0.39900002 4278928154
0.050555769 0.01264291 0.39800003 4278994459
0.051848475 0.01264291 0.39800003 4278994459
0.05314118 0.01264291 0.39800003 4279258144
0.054433882 0.01264291 0.39800003 4279127328
0.055726588 0.01264291 0.39800003 4279061535
0.057019293 0.01264291 0.39800003 4278929949
0.058312003 0.01264291 0.39800003 4279061537
0.059754461 0.012674675 0.39900002 4278929951
0.061050415 0.012674675 0.39900002 4279258146
0.062502623 0.012706441 0.40000001 4279126560
0.063801818 0.012706441 0.40000001 4279517475
0.065263778 0.012738207 0.40100002 4279910949
0.066566229 0.012738207 0.40100002 4279846690
0.06803792 0.012769973 0.40200001 4279846690
0.069343619 0.012769973 0.40200001 4280174371
0.070825063 0.012801739 0.40300003 4280306473
0.07213401 0.012801739 0.40300003 4279781158
0.073625192 0.012833506 0.40400001 4279584549
0.075122878 0.012865272 0.40500003 4279716389
0.076627053 0.012897038 0.40600002 4279650596
0.077945739 0.012897038 0.40600002 4279716389
0.07945966 0.012928803 0.40700001 4279848488
0.080980077 0.01296057 0.40800002 4279650857
0.08230526 0.01296057 0.40800002 4279715113
0.083835423 0.012992335 0.40900001 4281094969
0.085163854 0.012992335 0.40900001 4283528801
0.086492293 0.012992335 0.40900001 4285697917
0.04171541 0.014006081 0.40000001 4279380758
0.043014612 0.014006081 0.40000001 4279514908
0.044313814 0.014006081 0.40000001 4279318812
0.045613013 0.014006081 0.40000001 4278991642
0.046912216 0.014006081 0.40000001 4279123482
0.048090886 0.013971067 0.39900002 4278992664
0.04938684 0.013971067 0.39900002 4279124763
0.050682791 0.013971067 0.39900002 4278928666
0.051848475 0.013936052 0.39800003 4279126045
0.05314118 0.013936052 0.39800003 4279389217
0.054433882 0.013936052 0.39800003 4279192351
0.055726588 0.013936052 0.39800003 4279192351
0.057019293 0.013936052 0.39800003 4279323937
0.058458511 0.013971067 0.39900002 4279192351
0.059754461 0.013971067 0.39900002 4279060765
0.06120342 0.014006081 0.40000001 4279257633
0.062502623 0.014006081 0.40000001 4279389219
0.063801818 0.014006081 0.40000001 4278465298
0.065263778 0.014041097 0.40100002 4279320094
0.066566229 0.014041097 0.40100002 4279585316
0.06803792 0.014076112 0.40200001 4279585316
0.069343619 0.014076112 0.40200001 4279585314
0.070825063 0.014111128 0.40300003 4279585314
0.07213401 0.014111128 0.40300003 4279716900
0.073625192 0.014146143 0.40400001 4279651107
0.075122878 0.014181159 0.40500003 4279519008
0.076438315 0.014181159 0.40500003 4279452193
0.077945739 0.014216173 0.40600002 4281818692
0.07945966 0.014251187 0.40700001 4284647280
0.080781594 0.014251187 0.40700001 4286158468
0.08230526 0.014286203 0.40800002 4285697917
0.08363045 0.014286203 0.40800002 4285565817
0.084955633 0.014286203 0.40800002 4285565817
0.086492293 0.014321218 0.40900001 4285565817
0.043014612 0.015305722 0.40000001 4279250969
0.044313814 0.015305722 0.40000001 4279515678
0.045613013 0.015305722 0.40000001 4279189275
0.046912216 0.015305722 0.40000001 4278991896
0.048211414 0.015305722 0.40000001 4278796570
0.04938684 0.015267458 0.39900002 4279126047
0.050682791 0.015267458 0.39900002 4278863388
0.051978745 0.015267458 0.39900002 4279258146
0.053274699 0.015267458 0.39900002 4279258146
0.054433882 0.015229194 0.39800003 4279258144
0.055866603 0.015267458 0.39900002 4279192351
0.057162557 0.015267458 0.39900002 4279258144
0.058458511 0.015267458 0.39900002 4279126558
0.059904218 0.015305722 0.40000001 4279389730
0.06120342 0.015305722 0.40000001 4279323426
0.062502623 0.015305722 0.40000001 4279389219
0.063961327 0.015343987 0.40100002 4279651109
0.065263778 0.015343987 0.40100002 4279716902
0.066566229 0.015343987 0.40100002 4279716902
0.06803792 0.015382251 0.40200001 4279190558
0.069343619 0.015382251 0.40200001 4279912744
0.070825063 0.015420516 0.40300003 4280240426
0.07213401 0.015420516 0.40300003 4282739796
0.073625192 0.015458779 0.40400001 4284844659
0.075122878 0.015497045 0.40500003 4286027652
0.076438315 0.015497045 0.40500003 4285500538
0.077945739 0.015535308 0.40600002 4285500538
0.07945966 0.015573572 0.40700001 4285303159
0.080781594 0.015573572 0.40700001 4285500538
0.08230526 0.015611837 0.40800002 4285500538
0.08363045 0.015611837 0.40800002 4285500538
0.084955633 0.015611837 0.40800002 4285631610
0.086280823 0.015611837 0.40800002 4285565817
0.045613013 0.016605362 0.40000001 4279252765
0.046912216 0.016605362 0.40000001 4278991129
0.048211414 0.016605362 0.40000001 4278928156
0.049510613 0.016605362 0.40000001 4278928670
0.050682791 0.01656385 0.39900002 4279126562
0.051978745 0.01656385 0.39900002 4279323941
0.053274699 0.01656385 0.39900002 4278995746
0.054570649 0.01656385 0.39900002 4279193125
0.055866603 0.01656385 0.39900002 4279127330
0.057162557 0.01656385 0.39900002 4279258146
0.058458511 0.01656385 0.39900002 4279389732
0.059904218 0.016605362 0.40000001 4279521318
0.06120342 0.016605362 0.40000001 4279455012
0.062658884 0.016646877 0.40100002 4279586600
0.063961327 0.016646877 0.40100002 4279452193
0.065263778 0.016646877 0.40100002 4280832311
0.066566229 0.016646877 0.40100002 4283924070
0.06803792 0.01668839 0.40200001 4286028163
0.069343619 0.01668839 0.40200001 4285699198
0.070649318 0.01668839 0.40200001 4285303927
0.07213401 0.016729904 0.40300003 4285435513
0.073442951 0.016729904 0.40300003 4285501306
0.075122878 0.01681293 0.40500003 4285567101
0.076438315 0.01681293 0.40500003 4285567101
0.077945739 0.016854443 0.40600002 4285500538
0.07945966 0.016895955 0.40700001 4285434491
0.046912216 0.017905002 0.40000001 4279317275
0.048211414 0.017905002 0.40000001 4279320607
0.049510613 0.017905002 0.40000001 4279190304
0.050809812 0.017905002 0.40000001 4279323687
0.051978745 0.017860241 0.39900002 4279586859
0.053274699 0.017860241 0.39900002 4279521320
0.054570649 0.017860241 0.39900002 4279521320
0.055866603 0.017860241 0.39900002 4279454246
0.057162557 0.017860241 0.39900002 4279520039
0.058605023 0.017905002 0.40000001 4279714854
0.062658884 0.017949766 0.40100002 4285567612
0.063961327 0.017949766 0.40100002 4285699200
0.065263778 0.017949766 0.40100002 4285303929
0.066566229 0.017949766 0.40100002 4285501308
0.074632116 0.004489148 0.40747714 4294967295
0.074632116 0.004489148 0.40747714 4294901760
0.07456211 0.0039968076 0.40752912 4294901760
0.074492104 0.0035044677 0.40758106 4294901760
0.074422099 0.0030121272 0.40763304 4294901760
0.074352093 0.0025197871 0.40768501 4294901760
0.074282095 0.0020274466 0.40773696 4294901760
0.074212089 0.0015351067 0.40778893 4294901760
0.074142084 0.0010427663 0.40784091 4294901760
0.074072078 0.00055042608 0.40789285 4294901760
0.074002072 5.8085658e-05 0.40794483 4294901760
0.073932067 -0.00043425476 0.4079968 4294901760
0.073862061 -0.00092659472 0.40804875 4294901760
0.073792055 -0.0014189347 0.40810072 4294901760
0.07372205 -0.0019112751 0.4081527 4294901760
0.073652044 -0.0024036155 0.40820464 4294901760
0.073582038 -0.0028959559 0.40825662 4294901760
0.07351204 -0.0033882959 0.4083086 4294901760
0.073442034 -0.0038806368 0.40836054 4294901760
0.073372029 -0.0043729767 0.40841252 4294901760
0.073302023 -0.0048653167 0.40846449 4294901760
0.073232017 -0.0053576576 0.40851644 4294901760
0.073162012 -0.0058499966 0.40856841 4294901760
0.073092006 -0.0063423375 0.40862039 4294901760
0.073022 -0.0068346784 0.40867233 4294901760
0.072951995 -0.0073270174 0.40872431 4294901760
0.072881997 -0.0078193583 0.40877628 4294901760
0.072811991 -0.0083116982 0.40882823 4294901760
0.072741985 -0.0088040391 0.4088802 4294901760
0.07267198 -0.0092963791 0.40893218 4294901760
0.072601974 -0.009788719 0.40898412 4294901760
0.072531968 -0.01028106 0.4090361 4294901760
0.072461963 -0.0107734 0.40908808 4294901760
0.072391957 -0.01126574 0.40914002 4294901760
0.072321951 -0.011758082 0.409192 4294901760
0.072251946 -0.012250422 0.40924397 4294901760
0.07218194 -0.01274276 0.40929592 4294901760
0.072111942 -0.013235101 0.40934789 4294901760
0.072041936 -0.013727441 0.40939987 4294901760
0.071971931 -0.014219781 0.40945181 4294901760
0.071901925 -0.014712121 0.40950379 4294901760
0.071831919 -0.015204463 0.40955576 4294901760
0.071761914 -0.015696801 0.40960771 4294901760
0.071691908 -0.016189141 0.40965968 4294901760
0.071621902 -0.016681483 0.40971166 4294901760
0.071551897 -0.017173823 0.4097636 4294901760
0.071481898 -0.017666163 0.40981558 4294901760
0.071411893 -0.018158505 0.40986755 4294901760
0.071341887 -0.018650843 0.4099195 4294901760
0.071271881 -0.019143183 0.40997148 4294901760
0.071201876 -0.019635525 0.41002345 4294901760
0.07113187 -0.020127865 0.41007543 4294901760
0.071061864 -0.020620205 0.41012737 4294901760
0.070991859 -0.021112544 0.41017935 4294901760
0.070921853 -0.021604884 0.41023132 4294901760
0.070851848 -0.022097226 0.41028327 4294901760
0.070781842 -0.022589566 0.41033524 4294901760
0.070711844 -0.023081906 0.41038722 4294901760
0.070641838 -0.023574246 0.41043916 4294901760
0.070571832 -0.024066586 0.41049114 4294901760
0.070501827 -0.024558926 0.41054311 4294901760
0.070431821 -0.025051268 0.41059506 4294901760
0.070361815 -0.025543608 0.41064703 4294901760
0.07029181 -0.026035948 0.41069901 4294901760
0.070221804 -0.026528288 0.41075096 4294901760
0.070151798 -0.027020628 0.41080293 4294901760
0.0700818 -0.027512966 0.41085491 4294901760
0.070011795 -0.028005311 0.41090685 4294901760
0.069941789 -0.028497649 0.41095883 4294901760
0.069871783 -0.028989991 0.4110108 4294901760
0.069801778 -0.029482329 0.41106275 4294901760
0.069731772 -0.029974667 0.41111472 4294901760
0.069661766 -0.030467009 0.4111667 4294901760
0.069591761 -0.030959351 0.41121864 4294901760
0.069521755 -0.031451695 0.41127062 4294901760
0.069451749 -0.031944029 0.41132259 4294901760
0.069381744 -0.032436371 0.41137454 4294901760
0.069311745 -0.032928713 0.41142651 4294901760
0.06924174 -0.033421047 0.41147849 4294901760
0.069171734 -0.033913389 0.41153044 4294901760
0.069101728 -0.034405731 0.41158241 4294901760
0.069031723 -0.034898072 0.41163439 4294901760
0.068961717 -0.035390414 0.41168633 4294901760
0.068891712 -0.035882749 0.41173831 4294901760
0.068821706 -0.03637509 0.41179028 4294901760
0.0687517 -0.036867432 0.41184223 4294901760
0.068681702 -0.037359774 0.4118942 4294901760
0.068611696 -0.037852116 0.41194618 4294901760
0.068541691 -0.038344458 0.41199812 4294901760
0.068471685 -0.038836792 0.4120501 4294901760
0.068401679 -0.039329134 0.41210207 4294901760
0.068331674 -0.039821476 0.41215402 4294901760
0.068261668 -0.040313818 0.41220599 4294901760
0.068191662 -0.040806159 0.41225797 4294901760
0.068121657 -0.041298494 0.41230991 4294901760
0.068051651 -0.041790836 0.41236189 4294901760
0.067981645 -0.042283177 0.41241387 4294901760
0.067911647 -0.042775512 0.41246581 4294901760
0.067841642 -0.043267861 0.41251779 4294901760
0.067771636 -0.043760195 0.41256976 4294901760
0.06770163 -0.044252537 0.41262171 4294901760
0.067631625 -0.044744879 0.41267368 4294901760
0.074632116 0.004489148 0.40747714 4278255360
0.075090133 0.0044446648 0.4076727 4278255360
0.075548142 0.0044001816 0.40786827 4278255360
0.076006159 0.0043556988 0.40806383 4278255360
0.076464176 0.0043112156 0.40825939 4278255360
0.076922186 0.0042667324 0.40845495 4278255360
0.077380203 0.0042222491 0.40865052 4278255360
0.077838212 0.0041777659 0.40884608 4278255360
0.078296229 0.0041332832 0.40904164 4278255360
0.078754246 0.0040887999 0.40923721 4278255360
0.079212256 0.0040443167 0.40943277 4278255360
0.079670273 0.0039998335 0.4096283 4278255360
0.08012829 0.0039553503 0.40982386 4278255360
0.080586299 0.0039108675 0.41001943 4278255360
0.081044316 0.003866384 0.41021499 4278255360
0.081502333 0.003821901 0.41041055 4278255360
0.081960343 0.0037774178 0.41060612 4278255360
0.08241836 0.0037329346 0.41080168 4278255360
0.082876369 0.0036884516 0.41099724 4278255360
0.083334386 0.0036439684 0.4111928 4278255360
0.083792403 0.0035994854 0.41138837 4278255360
0.084250413 0.0035550022 0.41158393 4278255360
0.08470843 0.0035105189 0.41177949 4278255360
0.085166439 0.0034660357 0.41197506 4278255360
0.085624456 0.0034215527 0.41217062 4278255360
0.086082473 0.0033770697 0.41236618 4278255360
0.086540483 0.0033325865 0.41256174 4278255360
0.0869985 0.0032881033 0.41275731 4278255360
0.087456517 0.00324362 0.41295287 4278255360
0.087914526 0.003199137 0.41314843 4278255360
0.088372543 0.0031546538 0.413344 4278255360
0.08883056 0.0031101708 0.41353953 4278255360
0.08928857 0.0030656876 0.41373509 4278255360
0.089746587 0.0030212044 0.41393065 4278255360
0.090204597 0.0029767214 0.41412622 4278255360
0.090662614 0.0029322384 0.41432178 4278255360
0.091120631 0.0028877552 0.41451734 4278255360
0.09157864 0.0028432719 0.41471291 4278255360
0.092036657 0.0027987887 0.41490847 4278255360
0.092494667 0.0027543057 0.41510403 4278255360
0.092952684 0.0027098225 0.41529959 4278255360
0.093410701 0.0026653395 0.41549516 4278255360
0.093868718 0.0026208563 0.41569072 4278255360
0.094326727 0.0025763731 0.41588628 4278255360
0.094784744 0.0025318901 0.41608185 4278255360
0.095242754 0.0024874068 0.41627741 4278255360
0.095700771 0.0024429236 0.41647297 4278255360
0.096158788 0.0023984406 0.41666853 4278255360
0.096616797 0.0023539574 0.4168641 4278255360
0.097074814 0.0023094742 0.41705966 4278255360
0.097532824 0.0022649912 0.41725522 4278255360
0.097990841 0.0022205082 0.41745076 4278255360
0.098448858 0.002176025 0.41764632 4278255360
0.098906867 0.002131542 0.41784188 4278255360
0.099364884 0.0020870585 0.41803744 4278255360
0.099822901 0.0020425755 0.41823301 4278255360
0.10028091 0.0019980923 0.41842857 4278255360
0.10073893 0.0019536093 0.41862413 4278255360
0.10119694 0.0019091261 0.4188197 4278255360
0.10165495 0.0018646431 0.41901526 4278255360
0.10211297 0.0018201596 0.41921082 4278255360
0.10257098 0.0017756766 0.41940638 4278255360
0.103029 0.0017311934 0.41960195 4278255360
0.10348701 0.0016867104 0.41979751 4278255360
0.10394502 0.0016422274 0.41999307 4278255360
0.10440304 0.0015977442 0.42018864 4278255360
0.10486106 0.001553261 0.4203842 4278255360
0.10531907 0.0015087777 0.42057976 4278255360
0.10577708 0.0014642947 0.42077532 4278255360
0.1062351 0.0014198115 0.42097089 4278255360
0.10669311 0.0013753285 0.42116642 4278255360
0.10715112 0.0013308453 0.42136198 4278255360
0.10760914 0.0012863621 0.42155755 4278255360
0.10806715 0.0012418788 0.42175311 4278255360
0.10852517 0.0011973958 0.42194867 4278255360
0.10898318 0.0011529126 0.42214423 4278255360
0.1094412 0.0011084296 0.4223398 4278255360
0.10989921 0.0010639466 0.42253536 4278255360
0.11035722 0.0010194634 0.42273092 4278255360
0.11081524 0.00097498018 0.42292649 4278255360
0.11127326 0.00093049696 0.42312205 4278255360
0.11173127 0.00088601396 0.42331761 4278255360
0.11218928 0.00084153074 0.42351317 4278255360
0.11264729 0.00079704775 0.42370874 4278255360
0.11310531 0.00075256452 0.4239043 4278255360
0.11356333 0.00070808129 0.42409986 4278255360
0.11402135 0.00066359807 0.42429543 4278255360
0.11447936 0.00061911508 0.42449099 4278255360
0.11493737 0.00057463208 0.42468655 4278255360
0.11539538 0.00053014886 0.42488211 4278255360
0.1158534 0.00048566563 0.42507768 4278255360
0.11631142 0.0004411824 0.42527321 4278255360
0.11676943 0.00039669918 0.42546877 4278255360
0.11722744 0.00035221642 0.42566434 4278255360
0.11768545 0.00030773319 0.4258599 4278255360
0.11814347 0.00026324997 0.42605546 4278255360
0.11860149 0.00021876674 0.42625102 4278255360
0.1190595 0.00017428352 0.42644659 4278255360
0.11951751 0.00012980029 0.42664215 4278255360
0.11997552 8.531753e-05 0.42683771 4278255360
0.12043354 4.0834304e-05 0.42703328 4278255360
0.074632116 0.004489148 0.40747714 4278190335
0.074409679 0.0045673139 0.40791807 4278190335
0.074187249 0.0046454798 0.40835899 4278190335
0.073964812 0.0047236457 0.40879992 4278190335
0.073742375 0.0048018117 0.40924084 4278190335
0.073519945 0.0048799771 0.40968177 4278190335
0.073297508 0.004958143 0.41012269 4278190335
0.073075071 0.0050363089 0.41056359 4278190335
0.072852641 0.0051144748 0.41100451 4278190335
0.072630204 0.0051926407 0.41144544 4278190335
0.072407767 0.0052708066 0.41188636 4278190335
0.072185338 0.0053489725 0.41232729 4278190335
0.0719629 0.0054271379 0.41276821 4278190335
0.071740463 0.0055053039 0.41320914 4278190335
0.071518034 0.0055834698 0.41365007 4278190335
0.071295597 0.0056616357 0.41409099 4278190335
0.07107316 0.0057398016 0.41453192 4278190335
0.07085073 0.0058179675 0.41497284 4278190335
0.070628293 0.0058961334 0.41541377 4278190335
0.070405856 0.0059742993 0.41585466 4278190335
0.070183426 0.0060524652 0.41629559 4278190335
0.069960989 0.0061306306 0.41673651 4278190335
0.069738552 0.0062087965 0.41717744 4278190335
0.069516122 0.0062869624 0.41761836 4278190335
0.069293685 0.0063651283 0.41805929 4278190335
0.069071248 0.0064432942 0.41850021 4278190335
0.068848819 0.0065214597 0.41894114 4278190335
0.068626381 0.006599626 0.41938207 4278190335
0.068403944 0.0066777915 0.41982299 4278190335
0.068181515 0.0067559574 0.42026392 4278190335
0.067959078 0.0068341233 0.42070484 4278190335
0.067736648 0.0069122892 0.42114577 4278190335
0.067514211 0.0069904551 0.42158666 4278190335
0.067291774 0.007068621 0.42202759 4278190335
0.067069344 0.0071467869 0.42246851 4278190335
0.066846907 0.0072249528 0.42290944 4278190335
0.06662447 0.0073031187 0.42335036 4278190335
0.06640204 0.0073812846 0.42379129 4278190335
0.066179603 0.0074594505 0.42423221 4278190335
0.065957166 0.007537616 0.42467314 4278190335
0.065734737 0.0076157823 0.42511407 4278190335
0.0655123 0.0076939478 0.42555499 4278190335
0.065289862 0.0077721132 0.42599592 4278190335
0.065067433 0.00785028 0.42643684 4278190335
0.064844996 0.007928445 0.42687774 4278190335
0.064622559 0.0080066109 0.42731866 4278190335
0.064400129 0.0080847768 0.42775959 4278190335
0.064177692 0.0081629427 0.42820051 4278190335
0.063955255 0.0082411086 0.42864144 4278190335
0.063732825 0.0083192745 0.42908236 4278190335
0.063510388 0.0083974404 0.42952329 4278190335
0.063287951 0.0084756063 0.42996421 4278190335
0.063065521 0.0085537713 0.43040514 4278190335
0.062843084 0.0086319372 0.43084607 4278190335
0.062620647 0.008710104 0.43128699 4278190335
0.062398214 0.0087882699 0.43172792 4278190335
0.062175781 0.0088664349 0.43216884 4278190335
0.061953347 0.0089446008 0.43260974 4278190335
0.061730914 0.0090227667 0.43305066 4278190335
0.061508477 0.0091009326 0.43349159 4278190335
0.061286043 0.0091790985 0.43393251 4278190335
0.06106361 0.0092572644 0.43437344 4278190335
0.060841173 0.0093354303 0.43481436 4278190335
0.06061874 0.0094135962 0.43525529 4278190335
0.060396306 0.0094917621 0.43569621 4278190335
0.060173869 0.0095699281 0.43613714 4278190335
0.059951436 0.009648094 0.43657807 4278190335
0.059729002 0.0097262599 0.43701899 4278190335
0.059506565 0.0098044258 0.43745992 4278190335
0.059284132 0.0098825917 0.43790084 4278190335
0.059061699 0.0099607576 0.43834174 4278190335
0.058839262 0.010038923 0.43878266 4278190335
0.058616828 0.010117089 0.43922359 4278190335
0.058394395 0.010195255 0.43966451 4278190335
0.058171958 0.010273421 0.44010544 4278190335
0.057949524 0.010351587 0.44054636 4278190335
0.057727091 0.010429753 0.44098729 4278190335
0.057504654 0.010507918 0.44142821 4278190335
0.057282221 0.010586084 0.44186914 4278190335
0.057059787 0.010664251 0.44231007 4278190335
0.05683735 0.010742417 0.44275099 4278190335
0.056614917 0.010820582 0.44319189 4278190335
0.056392483 0.010898747 0.44363281 4278190335
0.056170046 0.010976913 0.44407374 4278190335
0.055947617 0.011055078 0.44451466 4278190335
0.05572518 0.011133245 0.44495559 4278190335
0.055502743 0.011211411 0.44539651 4278190335
0.055280309 0.011289577 0.44583744 4278190335
0.055057876 0.011367742 0.44627836 4278190335
0.054835439 0.011445908 0.44671929 4278190335
0.054613009 0.011524074 0.44716021 4278190335
0.054390572 0.011602241 0.44760114 4278190335
0.054168135 0.011680406 0.44804206 4278190335
0.053945702 0.011758571 0.44848299 4278190335
0.053723268 0.011836737 0.44892389 4278190335
0.053500831 0.011914903 0.44936481 4278190335
0.053278401 0.011993069 0.44980574 4278190335
0.053055964 0.012071235 0.45024666 4278190335
0.052833527 0.012149401 0.45068759 4278190335
