# .PCD v0.7 - Point Cloud Data file format
VERSION 0.7
FIELDS x y z rgb
SIZE 4 4 4 4
TYPE F F F U
COUNT 1 1 1 1
WIDTH 1053
HEIGHT 1
VIEWPOINT 0 0 0 1 0 0 0
POINTS 1053
DATA ascii
0.040598705 0.045587562 0.32800001 4286989628
0.041664049 0.045587562 0.32800001 4285869605
0.042729393 0.045587562 0.32800001 4285999651
0.04379474 0.045587562 0.32800001 4285736477
0.044723313 0.045448579 0.32700002 4285276180
0.045785412 0.045448579 0.32700002 4285801752
0.046847511 0.045448579 0.32700002 4285669396
0.047909606 0.045448579 0.32700002 4285669396
0.048971701 0.045448579 0.32700002 4285078801
0.010384156 0.04992469 0.35100001 4287078289
0.011524205 0.04992469 0.35100001 4287867289
0.012664253 0.04992469 0.35100001 4284165413
0.013804302 0.04992469 0.35100001 4284490523
0.01494435 0.04992469 0.35100001 4284489753
0.016084399 0.04992469 0.35100001 4284095765
0.017224448 0.04992469 0.35100001 4283179542
0.018312177 0.049782455 0.35000002 4289110163
0.019448977 0.049782455 0.35000002 4287078543
0.02052696 0.049640216 0.34900001 4287144336
0.021598449 0.049497984 0.34800002 4287209875
0.022663439 0.049355745 0.347 4281747775
0.023721937 0.049213514 0.34600002 4280626212
0.024702128 0.048929039 0.34400001 4282073138
0.025744384 0.048786808 0.34300002 4279638797
0.026780145 0.048644569 0.34200001 4283390281
0.027809409 0.048502333 0.34100002 4283062338
0.028832177 0.048360098 0.34 4283983440
0.029936496 0.048360098 0.34 4281284392
0.03094952 0.048217863 0.33900002 4282797631
0.032050595 0.048217863 0.33900002 4280559899
0.033053875 0.048075628 0.33800003 4279309064
0.034050658 0.047933392 0.33700001 4279047180
0.035145234 0.047933392 0.33700001 4279112973
0.036132276 0.047791157 0.33600003 4281216032
0.037223604 0.047791157 0.33600003 4280819218
0.037402671 0.046653271 0.32800001 4280817163
0.038350739 0.046511035 0.32700002 4283049498
0.039412834 0.046511035 0.32700002 4286000162
0.040474929 0.046511035 0.32700002 4286854442
0.041537024 0.046511035 0.32700002 4286000416
0.042599123 0.046511035 0.32700002 4287119665
0.043661222 0.046511035 0.32700002 4286129690
0.044723313 0.046511035 0.32700002 4285932311
0.045785412 0.046511035 0.32700002 4285537555
0.046847511 0.046511035 0.32700002 4285537555
0.047909606 0.046511035 0.32700002 4285275410
0.048971701 0.046511035 0.32700002 4285078549
0.010384156 0.051065121 0.35100001 4287341461
0.011524205 0.051065121 0.35100001 4287012496
0.012664253 0.051065121 0.35100001 4285089597
0.013804302 0.051065121 0.35100001 4285016867
0.01494435 0.051065121 0.35100001 4284817435
0.016084399 0.051065121 0.35100001 4284555546
0.017224448 0.051065121 0.35100001 4284162587
0.018312177 0.050919637 0.35000002 4287458913
0.019448977 0.050919637 0.35000002 4287012750
0.02052696 0.05077415 0.34900001 4287144336
0.021598449 0.05062867 0.34800002 4287210129
0.022663439 0.050483182 0.347 4287802525
0.023721937 0.050337698 0.34600002 4279575320
0.024702128 0.050046727 0.34400001 4279837463
0.025744384 0.049901247 0.34300002 4280363294
0.026780145 0.04975576 0.34200001 4278981641
0.02789096 0.04975576 0.34200001 4281154091
0.028916979 0.049610276 0.34100002 4284048211
0.029936496 0.049464788 0.34 4283522121
0.031040816 0.049464788 0.34 4280363290
0.032050595 0.049319305 0.33900002 4279309836
0.033053875 0.049173824 0.33800003 4279243019
0.034151699 0.049173824 0.33800003 4279177996
0.035145234 0.049028337 0.33700001 4279703570
0.03623981 0.049028337 0.33700001 4281148956
0.037223604 0.048882853 0.33600003 4280753171
0.03728864 0.047573492 0.32700002 4281080335
0.038350739 0.047573492 0.32700002 4283179288
0.039412834 0.047573492 0.32700002 4286459682
0.040474929 0.047573492 0.32700002 4286786850
0.041537024 0.047573492 0.32700002 4287844415
0.04246885 0.047428004 0.32600001 4285672219
0.043527696 0.047428004 0.32600001 4285997588
0.044586543 0.047428004 0.32600001 4285669139
0.045645393 0.047428004 0.32600001 4285471760
0.046704244 0.047428004 0.32600001 4285340431
0.047763094 0.047428004 0.32600001 4284683789
0.048821937 0.047428004 0.32600001 4284750867
0.049880788 0.047428004 0.32600001 4284030226
0.0092441076 0.052205559 0.35100001 4287012496
0.010384156 0.052205559 0.35100001 4287078289
0.011524205 0.052205559 0.35100001 4287078543
0.012664253 0.052205559 0.35100001 4286275926
0.013804302 0.052205559 0.35100001 4285345832
0.01494435 0.052205559 0.35100001 4285277470
0.016084399 0.052205559 0.35100001 4285014814
0.017175376 0.052056827 0.35000002 4284817435
0.018312177 0.052056827 0.35000002 4283635729
0.019448977 0.052056827 0.35000002 4287339660
0.02052696 0.051908091 0.34900001 4287209359
0.021598449 0.051759358 0.34800002 4287144336
0.022663439 0.051610623 0.347 4286552712
0.023721937 0.05146189 0.34600002 4283919457
0.024773939 0.051313158 0.34500003 4280891696
0.025819439 0.051164422 0.34400001 4279574037
0.026858451 0.05101569 0.34300002 4282206011
0.02789096 0.050866954 0.34200001 4279375375
0.028916979 0.050718222 0.34100002 4279374605
0.030024547 0.050718222 0.34100002 4279506961
0.031040816 0.050569486 0.34 4282666049
0.032050595 0.050420754 0.33900002 4283192652
0.033151668 0.050420754 0.33900002 4279244561
0.034151699 0.050272021 0.33800003 4279308814
0.035249524 0.050272021 0.33800003 4281413415
0.03623981 0.050123286 0.33700001 4281214749
0.037223604 0.049974553 0.33600003 4281610279
0.03728864 0.048635948 0.32700002 4281344792
0.038350739 0.048635948 0.32700002 4283969058
0.039292302 0.048487213 0.32600001 4286326301
0.040351149 0.048487213 0.32600001 4285734416
0.041409999 0.048487213 0.32600001 4291002731
0.04246885 0.048487213 0.32600001 4285538062
0.043527696 0.048487213 0.32600001 4285866518
0.044586543 0.048487213 0.32600001 4285340431
0.045645393 0.048487213 0.32600001 4285078031
0.046704244 0.048487213 0.32600001 4284684043
0.047763094 0.048487213 0.32600001 4284158985
0.048821937 0.048487213 0.32600001 4284160527
0.0092441076 0.053345989 0.35100001 4287275668
0.010384156 0.053345989 0.35100001 4287144082
0.011524205 0.053345989 0.35100001 4287011465
0.012664253 0.053345989 0.35100001 4288380015
0.013804302 0.053345989 0.35100001 4285542695
0.01494435 0.053345989 0.35100001 4285408797
0.016038576 0.053194009 0.35000002 4285211418
0.017175376 0.053194009 0.35000002 4285211420
0.018312177 0.053194009 0.35000002 4285080091
0.019448977 0.053194009 0.35000002 4288190344
0.02052696 0.053042024 0.34900001 4287472016
0.021598449 0.052890044 0.34800002 4287341715
0.022663439 0.052738059 0.347 4287341715
0.023721937 0.052586075 0.34600002 4287604633
0.024773939 0.052434094 0.34500003 4281945152
0.025819439 0.05228211 0.34400001 4280297760
0.026858451 0.052130129 0.34300002 4282601539
0.02789096 0.051978145 0.34200001 4278982154
0.029001778 0.051978145 0.34200001 4284508512
0.030024547 0.051826164 0.34100002 4283653203
0.031040816 0.051674176 0.34 4283587151
0.032145139 0.051674176 0.34 4282271802
0.033151668 0.051522195 0.33900002 4279309836
0.034151699 0.051370215 0.33800003 4279898893
0.035249524 0.051370215 0.33800003 4282002468
0.03623981 0.05121823 0.33700001 4282597685
0.037445176 0.051370215 0.33800003 4288062869
0.03728864 0.049698401 0.32700002 4288979345
0.038350739 0.049698401 0.32700002 4284296739
0.039292302 0.049546417 0.32600001 4286260508
0.040351149 0.049546417 0.32600001 4286326553
0.041409999 0.049546417 0.32600001 4285603598
0.04246885 0.049546417 0.32600001 4285932563
0.043527696 0.049546417 0.32600001 4285670166
0.044586543 0.049546417 0.32600001 4285078547
0.045645393 0.049546417 0.32600001 4284618509
0.046704244 0.049546417 0.32600001 4284158985
0.047763094 0.049546417 0.32600001 4283438089
0.048821937 0.049546417 0.32600001 4283504141
0.010384156 0.054486427 0.35100001 4287209359
0.011524205 0.054486427 0.35100001 4286678132
0.012664253 0.054486427 0.35100001 4286264361
0.013764974 0.054331198 0.35000002 4286065442
0.014901774 0.054331198 0.35000002 4285671969
0.016038576 0.054331198 0.35000002 4285276439
0.017175376 0.054331198 0.35000002 4285342232
0.018312177 0.054331198 0.35000002 4285342232
0.019393407 0.054175962 0.34900001 4283835421
0.02052696 0.054175962 0.34900001 4289242519
0.021598449 0.054020733 0.34800002 4287210129
0.022663439 0.0538655 0.347 4287210642
0.023721937 0.053710267 0.34600002 4287144849
0.024773939 0.053555038 0.34500003 4287407508
0.025819439 0.053399805 0.34400001 4284707688
0.026858451 0.053244572 0.34300002 4279706395
0.027972514 0.053244572 0.34300002 4280692520
0.029001778 0.053089339 0.34200001 4280296477
0.030024547 0.05293411 0.34100002 4282335033
0.031040816 0.052778874 0.34 4279045383
0.032145139 0.052778874 0.34 4280360210
0.033151668 0.052623644 0.33900002 4280227341
0.034151699 0.052468415 0.33800003 4281079056
0.035249524 0.052468415 0.33800003 4282394146
0.036347348 0.052468415 0.33800003 4285493606
0.037445176 0.052468415 0.33800003 4287208076
0.037174605 0.050605629 0.32600001 4286278236
0.038350739 0.050760861 0.32700002 4284951841
0.039412834 0.050760861 0.32700002 4285998361
0.040351149 0.050605629 0.32600001 4285471760
0.041409999 0.050605629 0.32600001 4285537555
0.04246885 0.050605629 0.32600001 4285603605
0.043527696 0.050605629 0.32600001 4284684302
0.044586543 0.050605629 0.32600001 4284290314
0.045645393 0.050605629 0.32600001 4283830794
0.046704244 0.050605629 0.32600001 4283306249
0.047763094 0.050605629 0.32600001 4282782217
0.048821937 0.050605629 0.32600001 4282586121
0.049880788 0.050605629 0.32600001 4282455565
0.0081040589 0.055626858 0.35100001 4287210129
0.0092441076 0.055626858 0.35100001 4287210129
0.010384156 0.055626858 0.35100001 4288522135
0.011491373 0.05546838 0.35000002 4284365872
0.012628173 0.05546838 0.35000002 4286657063
0.013764974 0.05546838 0.35000002 4288238921
0.014901774 0.05546838 0.35000002 4287053877
0.016038576 0.05546838 0.35000002 4285737244
0.017175376 0.05546838 0.35000002 4285670938
0.018259855 0.055309895 0.34900001 4285539352
0.019393407 0.055309895 0.34900001 4285474592
0.02052696 0.055309895 0.34900001 4287322965
0.021598449 0.055151418 0.34800002 4287340430
0.022663439 0.054992933 0.347 4287275922
0.023721937 0.054834455 0.34600002 4287407508
0.024773939 0.054675978 0.34500003 4287275922
0.025819439 0.054517493 0.34400001 4287144849
0.026858451 0.054359011 0.34300002 4287736219
0.027972514 0.054359011 0.34300002 4285430899
0.029001778 0.05420053 0.34200001 4280164121
0.030024547 0.054042049 0.34100002 4280553743
0.031040816 0.053883567 0.34 4281276437
0.032145139 0.053883567 0.34 4282786844
0.033151668 0.053725086 0.33900002 4283640354
0.034151699 0.053566609 0.33800003 4283574046
0.035249524 0.053566609 0.33800003 4283180573
0.03623981 0.053408124 0.33700001 4287599754
0.03733439 0.053408124 0.33700001 4287997592
0.038542997 0.053566609 0.33800003 4284298023
0.038350739 0.051823314 0.32700002 4284884250
0.039412834 0.051823314 0.32700002 4285342486
0.040474929 0.051823314 0.32700002 4285276693
0.041537024 0.051823314 0.32700002 4284815888
0.04246885 0.051664833 0.32600001 4284815888
0.043527696 0.051664833 0.32600001 4284027403
0.044586543 0.051664833 0.32600001 4283831310
0.045645393 0.051664833 0.32600001 4283240971
0.046704244 0.051664833 0.32600001 4282715911
0.047763094 0.051664833 0.32600001 4282257418
0.048971701 0.051823314 0.32700002 4282324494
0.0500338 0.051823314 0.32700002 4282391057
0.0081040589 0.056767296 0.35100001 4287209359
0.0092441076 0.056767296 0.35100001 4287340945
0.010354572 0.05660557 0.35000002 4287202164
0.011491373 0.05660557 0.35000002 4285414707
0.012628173 0.05660557 0.35000002 4288764744
0.013764974 0.05660557 0.35000002 4287120946
0.014901774 0.05660557 0.35000002 4285999903
0.015992749 0.056443837 0.34900001 4285867547
0.017126303 0.056443837 0.34900001 4285998363
0.018259855 0.056443837 0.34900001 4286064156
0.019393407 0.056443837 0.34900001 4285868063
0.020468144 0.056282107 0.34800002 4285539613
0.021536384 0.056120373 0.347 4288516481
0.022663439 0.056120373 0.347 4287668363
0.023721937 0.055958647 0.34600002 4287406738
0.024773939 0.055796918 0.34500003 4287275922
0.025819439 0.055635184 0.34400001 4287341715
0.026858451 0.055473458 0.34300002 4287341715
0.027972514 0.055473458 0.34300002 4287735190
0.029001778 0.055311725 0.34200001 4282202929
0.030024547 0.055149995 0.34100002 4284622624
0.031040816 0.054988265 0.34 4284687904
0.032145139 0.054988265 0.34 4284883998
0.033151668 0.054826535 0.33900002 4285278240
0.034151699 0.054664806 0.33800003 4284819742
0.035145234 0.054503076 0.33700001 4283376151
0.036132276 0.054341346 0.33600003 4288126096
0.037223604 0.054341346 0.33600003 4286480242
0.038542997 0.054664806 0.33800003 4284162323
0.038468018 0.053047501 0.32800001 4284621591
0.039533362 0.053047501 0.32800001 4285015836
0.040474929 0.052885775 0.32700002 4284753177
0.041537024 0.052885775 0.32700002 4284557083
0.042599123 0.052885775 0.32700002 4284096532
0.043661222 0.052885775 0.32700002 4283702034
0.044723313 0.052885775 0.32700002 4283438862
0.045785412 0.052885775 0.32700002 4283111182
0.046847511 0.052885775 0.32700002 4282585867
0.047909606 0.052885775 0.32700002 4282324494
0.048971701 0.052885775 0.32700002 4282522643
0.0500338 0.052885775 0.32700002 4282523156
0.0081040589 0.05790773 0.35100001 4287407508
0.0092177708 0.057742752 0.35000002 4287012750
0.010354572 0.057742752 0.35000002 4286147679
0.011491373 0.057742752 0.35000002 4284821285
0.012628173 0.057742752 0.35000002 4286132000
0.013725644 0.05757777 0.34900001 4285737242
0.014859198 0.05757777 0.34900001 4285605658
0.015992749 0.05757777 0.34900001 4285802524
0.017126303 0.05757777 0.34900001 4286525993
0.018207535 0.057412792 0.34800002 4285999649
0.01933784 0.057412792 0.34800002 4285933088
0.020468144 0.057412792 0.34800002 4286392871
0.021536384 0.05724781 0.347 4285146148
0.022598127 0.057082832 0.34600002 4289366660
0.023653379 0.056917857 0.34500003 4287340430
0.024773939 0.056917857 0.34500003 4287406736
0.025819439 0.056752875 0.34400001 4287538324
0.026858451 0.056587897 0.34300002 4287472531
0.02789096 0.056422915 0.34200001 4287603604
0.029001778 0.056422915 0.34200001 4283582524
0.030024547 0.056257937 0.34100002 4285408799
0.031040816 0.056092955 0.34 4285343006
0.032050595 0.055927977 0.33900002 4285539613
0.033053875 0.055763002 0.33800003 4285606174
0.034050658 0.055598021 0.33700001 4285016349
0.035040949 0.055433042 0.33600003 4283178258
0.036024738 0.05526806 0.33500001 4288451720
0.037002034 0.055103082 0.33400002 4284431151
0.037744772 0.054608148 0.33100003 4284162839
0.038585298 0.054278187 0.32900003 4284360734
0.039533362 0.054113206 0.32800001 4283638809
0.040598705 0.054113206 0.32800001 4283968288
0.041664049 0.054113206 0.32800001 4283836188
0.042599123 0.053948227 0.32700002 4283638807
0.043661222 0.053948227 0.32700002 4283178258
0.044723313 0.053948227 0.32700002 4282980879
0.045785412 0.053948227 0.32700002 4282520588
0.046847511 0.053948227 0.32700002 4282717969
0.047909606 0.053948227 0.32700002 4282588436
0.048971701 0.053948227 0.32700002 4282588949
0.0500338 0.053948227 0.32700002 4282457879
0.051095899 0.053948227 0.32700002 4282853407
0.0080809705 0.058879938 0.35000002 4287275668
0.0092177708 0.058879938 0.35000002 4287275152
0.010354572 0.058879938 0.35000002 4284698437
0.011491373 0.058879938 0.35000002 4285281068
0.012592091 0.058711708 0.34900001 4285869605
0.013725644 0.058711708 0.34900001 4285080089
0.014859198 0.058711708 0.34900001 4284882453
0.015946927 0.058543481 0.34800002 4285276443
0.017077232 0.058543481 0.34800002 4287381819
0.018207535 0.058543481 0.34800002 4285936686
0.01928227 0.058375251 0.347 4285998881
0.020409327 0.058375251 0.347 4286458662
0.02147432 0.058207024 0.34600002 4287118132
0.022598127 0.058207024 0.34600002 4285671201
0.023653379 0.058038797 0.34500003 4286934367
0.024702128 0.057870567 0.34400001 4287732360
0.025744384 0.05770234 0.34300002 4287340430
0.026858451 0.05770234 0.34300002 4287472016
0.02789096 0.05753411 0.34200001 4287405455
0.028916979 0.057365883 0.34100002 4284305475
0.029936496 0.057197653 0.34 4285341721
0.03094952 0.057029426 0.33900002 4285670686
0.031956051 0.056861199 0.33800003 4285802272
0.033053875 0.056861199 0.33800003 4285868063
0.034050658 0.056692969 0.33700001 4286200625
0.035040949 0.056524742 0.33600003 4283636759
0.036024738 0.056356512 0.33500001 4285280814
0.036891248 0.056020055 0.333 4284820003
0.037744772 0.055683602 0.33100003 4283770659
0.038702577 0.055515371 0.33000001 4284893769
0.03965389 0.055347145 0.32900003 4288191119
0.040722482 0.055347145 0.32900003 4282594346
0.041664049 0.055178914 0.32800001 4283706145
0.042729393 0.055178914 0.32800001 4283508507
0.04379474 0.055178914 0.32800001 4283113495
0.04486008 0.055178914 0.32800001 4283047702
0.045785412 0.055010688 0.32700002 4282785043
0.046847511 0.055010688 0.32700002 4282720022
0.047909606 0.055010688 0.32700002 4282786328
0.048971701 0.055010688 0.32700002 4282983707
0.0500338 0.055010688 0.32700002 4282787612
0.0080809705 0.060017124 0.35000002 4287275668
0.0092177708 0.060017124 0.35000002 4287340691
0.010354572 0.060017124 0.35000002 4286279013
0.01145854 0.059845641 0.34900001 4285085490
0.012592091 0.059845641 0.34900001 4285279271
0.013725644 0.059845641 0.34900001 4284489755
0.014816621 0.059674166 0.34800002 4284227353
0.015946927 0.059674166 0.34800002 4284358167
0.017077232 0.059674166 0.34800002 4285409052
0.018155213 0.059502687 0.347 4288172358
0.01928227 0.059502687 0.347 4287846218
0.020350512 0.059331212 0.34600002 4285803553
0.02147432 0.059331212 0.34600002 4286195483
0.022532815 0.059159737 0.34500003 4287511600
0.023584817 0.058988255 0.34400001 4285999133
0.024630321 0.058816779 0.34300002 4286331698
0.025744384 0.058816779 0.34300002 4288714890
0.026780145 0.058645301 0.34200001 4287798666
0.027809409 0.058473825 0.34100002 4287601805
0.028832177 0.058302343 0.34 4284567618
0.029936496 0.058302343 0.34 4285736477
0.03094952 0.058130868 0.33900002 4285933088
0.031956051 0.057959393 0.33800003 4286392867
0.032956082 0.057787914 0.33700001 4286458660
0.033949621 0.057616439 0.33600003 4286329897
0.034936655 0.057444956 0.33500001 4285673764
0.0359172 0.057273481 0.33400002 4285148453
0.036891248 0.057102002 0.333 4284360482
0.037744772 0.056759052 0.33100003 4282331433
0.038702577 0.056587569 0.33000001 4288193174
0.039774418 0.056587569 0.33000001 4287603604
0.040722482 0.056416094 0.32900003 4288129176
0.041791074 0.056416094 0.32900003 4285096023
0.04285967 0.056416094 0.32900003 4282983709
0.04379474 0.056244615 0.32800001 4283574559
0.04486008 0.056244615 0.32800001 4282522641
0.045925427 0.056244615 0.32800001 4282588951
0.046990775 0.056244615 0.32800001 4283115295
0.048056118 0.056244615 0.32800001 4283115809
0.049121458 0.056244615 0.32800001 4283642153
0.0500338 0.05607314 0.32700002 4282854436
0.0092177708 0.06115431 0.35000002 4287209875
0.010324988 0.060979582 0.34900001 4288784798
0.01145854 0.060979582 0.34900001 4283843389
0.012592091 0.060979582 0.34900001 4284822833
0.013686316 0.060804859 0.34800002 4284362282
0.014816621 0.060804859 0.34800002 4284163616
0.015901102 0.060630128 0.347 4283966491
0.017028159 0.060630128 0.347 4283637011
0.018155213 0.060630128 0.347 4284360216
0.019226702 0.060455404 0.34600002 4285345053
0.020350512 0.060455404 0.34600002 4291792767
0.021412257 0.060280677 0.34500003 4286327326
0.022467503 0.06010595 0.34400001 4286721059
0.023516256 0.059931226 0.34300002 4286852132
0.024630321 0.059931226 0.34300002 4286852132
0.025669327 0.059756495 0.34200001 4286525995
0.026701842 0.059581771 0.34100002 4286267188
0.027727855 0.05940704 0.34 4287587925
0.028832177 0.05940704 0.34 4285478183
0.029848449 0.059232317 0.33900002 4286065442
0.030858226 0.059057593 0.33800003 4286261281
0.031861506 0.058882862 0.33700001 4286524196
0.03285829 0.058708139 0.33600003 4286458660
0.033848576 0.058533408 0.33500001 4286459684
0.03483237 0.058358684 0.33400002 4285803553
0.0359172 0.058358684 0.33400002 4284623654
0.036891248 0.058183957 0.333 4283378727
0.037858803 0.05800923 0.33200002 4288128664
0.038819861 0.057834506 0.33100003 4287602834
0.039774418 0.057659779 0.33000001 4287537041
0.040846258 0.057659779 0.33000001 4287274639
0.041918095 0.057659779 0.33000001 4288586647
0.04285967 0.057485051 0.32900003 4281737238
0.043928262 0.057485051 0.32900003 4283048215
0.04499685 0.057485051 0.32900003 4283443743
0.045925427 0.057310324 0.32800001 4283906608
0.046990775 0.057310324 0.32800001 4283315241
0.048056118 0.057310324 0.32800001 4283119666
0.049121458 0.057310324 0.32800001 4287597442
0.050186805 0.057310324 0.32800001 4285691755
0.0092177708 0.062291499 0.35000002 4287407254
0.010324988 0.06211352 0.34900001 4287472277
0.01145854 0.06211352 0.34900001 4286746498
0.012556012 0.061935548 0.34800002 4284038458
0.013686316 0.061935548 0.34800002 4283971634
0.014774044 0.061757568 0.347 4283969319
0.015901102 0.061757568 0.347 4283574046
0.017028159 0.061757568 0.347 4283310104
0.018102894 0.061579596 0.34600002 4283179288
0.019226702 0.061579596 0.34600002 4284428323
0.020291695 0.061401621 0.34500003 4284621078
0.02135019 0.061223641 0.34400001 4286722856
0.022402192 0.061045669 0.34300002 4286656036
0.023516256 0.061045669 0.34300002 4286786852
0.024558511 0.06086769 0.34200001 4286721059
0.025594272 0.060689718 0.34100002 4286720805
0.026623536 0.060511738 0.34 4286655012
0.027646303 0.060333766 0.33900002 4286656034
0.028747378 0.060333766 0.33900002 4287184688
0.029760402 0.06015579 0.33800003 4287647036
0.030766927 0.059977815 0.33700001 4287054129
0.031766962 0.059799839 0.33600003 4287579448
0.03285829 0.059799839 0.33600003 4285999649
0.033848576 0.059621859 0.33500001 4285803555
0.03483237 0.059443887 0.33400002 4285016867
0.035809662 0.059265908 0.333 4282856494
0.036891248 0.059265908 0.333 4288520856
0.037858803 0.059087936 0.33200002 4287603604
0.038819861 0.05890996 0.33100003 4287603604
0.03989495 0.05890996 0.33100003 4287340432
0.040970035 0.05890996 0.33100003 4287472018
0.041918095 0.058731984 0.33000001 4285290062
0.042989939 0.058731984 0.33000001 4283244313
0.04406178 0.058731984 0.33000001 4283310106
0.04499685 0.058554009 0.32900003 4283508770
0.046065446 0.058554009 0.32900003 4282591779
0.046990775 0.058376029 0.32800001 4285688677
0.048056118 0.058376029 0.32800001 4287997340
0.049121458 0.058376029 0.32800001 4287274385
0.050186805 0.058376029 0.32800001 4287274639
0.010324988 0.063247457 0.34900001 4287407254
0.011425707 0.063066229 0.34800002 4287275922
0.012556012 0.063066229 0.34800002 4287799186
0.013686316 0.063066229 0.34800002 4283781448
0.014774044 0.062885001 0.347 4283446575
0.015901102 0.062885001 0.347 4283774257
0.016979085 0.062703781 0.34600002 4283773485
0.018102894 0.062703781 0.34600002 4282918176
0.019171134 0.06252256 0.34500003 4282654744
0.020232879 0.062341332 0.34400001 4283442975
0.02135019 0.062341332 0.34400001 4285411109
0.022402192 0.062160108 0.34300002 4286132520
0.023447696 0.06197888 0.34200001 4286721832
0.024486704 0.06179766 0.34100002 4286853161
0.025519213 0.061616432 0.34 4286721059
0.026545232 0.061435208 0.33900002 4286786339
0.027646303 0.061435208 0.33900002 4286720546
0.028662577 0.061253987 0.33800003 4286523167
0.029672351 0.061072759 0.33700001 4286787620
0.030766927 0.061072759 0.33700001 4286722084
0.031766962 0.060891535 0.33600003 4285999903
0.032760497 0.060710307 0.33500001 4285540381
0.033848576 0.060710307 0.33500001 4283507485
0.03483237 0.060529083 0.33400002 4285818462
0.0359172 0.060529083 0.33400002 4287931545
0.036891248 0.060347855 0.333 4287471764
0.037858803 0.060166635 0.33200002 4287472018
0.03893714 0.060166635 0.33200002 4287406225
0.040015474 0.060166635 0.33200002 4287472018
0.040970035 0.05998541 0.33100003 4285888362
0.042045124 0.05998541 0.33100003 4283638557
0.043120213 0.05998541 0.33100003 4283967009
0.044195306 0.05998541 0.33100003 4283903528
0.045133617 0.059804182 0.33000001 4283050534
0.046065446 0.059622962 0.32900003 4286614912
0.047134038 0.059622962 0.32900003 4287405971
0.048202634 0.059622962 0.32900003 4287406484
0.049271222 0.059622962 0.32900003 4287340691
0.050339818 0.059622962 0.32900003 4287274385
0.011425707 0.064196922 0.34800002 4287407254
0.012556012 0.064196922 0.34800002 4287472277
0.013646987 0.064012446 0.347 4287472277
0.014774044 0.064012446 0.347 4287668375
0.015901102 0.064012446 0.347 4285693558
0.016979085 0.063827977 0.34600002 4285032030
0.018050574 0.0636435 0.34500003 4284371018
0.019171134 0.0636435 0.34500003 4283708464
0.020232879 0.063459024 0.34400001 4283050532
0.021288127 0.063274555 0.34300002 4283508768
0.022336878 0.063090079 0.34200001 4285613629
0.023379136 0.062905602 0.34100002 4284623906
0.024414893 0.062721126 0.34 4285542695
0.025444157 0.062536657 0.33900002 4286327844
0.026545232 0.062536657 0.33900002 4286195231
0.027564751 0.062352184 0.33800003 4286985001
0.028577777 0.062167708 0.33700001 4287050022
0.029672351 0.062167708 0.33700001 4286393119
0.030675631 0.061983235 0.33600003 4285800984
0.031672414 0.061798759 0.33500001 4284816665
0.032760497 0.061798759 0.33500001 4283438096
0.033747539 0.061614286 0.33400002 4287664777
0.03483237 0.061614286 0.33400002 4287275668
0.0359172 0.061614286 0.33400002 4287406484
0.036891248 0.06142981 0.333 4287274898
0.037972834 0.06142981 0.333 4287340432
0.03905442 0.06142981 0.333 4287603604
0.040015474 0.061245337 0.33200002 4285818714
0.041093811 0.061245337 0.33200002 4283048219
0.042172145 0.061245337 0.33200002 4284164390
0.043250486 0.061245337 0.33200002 4284033315
0.044328824 0.061245337 0.33200002 4282528301
0.045133617 0.060876392 0.33000001 4287863957
0.046205461 0.060876392 0.33000001 4287078291
0.047277302 0.060876392 0.33000001 4287341461
0.048349146 0.060876392 0.33000001 4287340691
0.049420983 0.060876392 0.33000001 4287538070
0.050492823 0.060876392 0.33000001 4287406738
0.012556012 0.065327607 0.34800002 4287669656
0.013646987 0.065139882 0.347 4287538070
0.014774044 0.065139882 0.347 4287406484
0.015855277 0.064952157 0.34600002 4287274898
0.016979085 0.064952157 0.34600002 4287603350
0.018050574 0.06476444 0.34500003 4287603350
0.019115565 0.064576715 0.34400001 4288060305
0.020232879 0.064576715 0.34400001 4283516993
0.021288127 0.06438899 0.34300002 4283772973
0.022336878 0.064201266 0.34200001 4283443495
0.023379136 0.064013548 0.34100002 4284037681
0.024414893 0.063825816 0.34 4285750093
0.025444157 0.063638099 0.33900002 4286728252
0.026466928 0.063450381 0.33800003 4286131235
0.027483199 0.063262649 0.33700001 4286984483
0.028577777 0.063262649 0.33700001 4286129944
0.029584303 0.063074932 0.33600003 4291200630
0.030675631 0.063074932 0.33600003 4285539611
0.031672414 0.062887207 0.33500001 4285079834
0.032760497 0.062887207 0.33500001 4284094482
0.033747539 0.062699482 0.33400002 4288121217
0.03483237 0.062699482 0.33400002 4287405455
0.0359172 0.062699482 0.33400002 4286945933
0.037002034 0.062699482 0.33400002 4287011726
0.037972834 0.062511757 0.333 4287997078
0.03905442 0.062511757 0.333 4283583297
0.040136002 0.062511757 0.333 4283375385
0.041217584 0.062511757 0.333 4283901731
0.04229917 0.062511757 0.333 4283837222
0.043380756 0.062511757 0.333 4282787362
0.044462342 0.062511757 0.333 4287733654
0.045543924 0.062511757 0.333 4287209877
0.04662551 0.062511757 0.333 4287209877
0.047707096 0.062511757 0.333 4287406486
0.048788682 0.062511757 0.333 4287406484
0.04987026 0.062511757 0.333 4287406484
0.05095185 0.062511757 0.333 4287472277
0.018050574 0.06588538 0.34500003 4287012496
0.019115565 0.065694407 0.34400001 4287801242
0.020174062 0.065503433 0.34300002 4287998108
0.021226062 0.06531246 0.34200001 4288653723
0.022271566 0.065121494 0.34100002 4285032028
0.023310574 0.064930514 0.34 4283050793
0.024343086 0.064739548 0.33900002 4281998875
0.025369102 0.064548574 0.33800003 4285809976
0.026466928 0.064548574 0.33800003 4285869346
0.027483199 0.064357601 0.33700001 4286786850
0.028492976 0.064166635 0.33600003 4289024582
0.029584303 0.064166635 0.33600003 4286920233
0.030584333 0.063975655 0.33500001 4285998361
0.031672414 0.063975655 0.33500001 4285474072
0.032760497 0.063975655 0.33500001 4284882710
0.033747539 0.063784689 0.33400002 4283570196
0.03483237 0.063784689 0.33400002 4282783512
0.0359172 0.063784689 0.33400002 4283712573
0.037002034 0.063784689 0.33400002 4284502089
0.038086869 0.063784689 0.33400002 4282062867
0.039171703 0.063784689 0.33400002 4283245081
0.040256534 0.063784689 0.33400002 4283835934
0.041341364 0.063784689 0.33400002 4283639841
0.042426195 0.063784689 0.33400002 4282790192
0.043380756 0.063593708 0.333 4287863191
0.044462342 0.063593708 0.333 4287406486
0.045680694 0.063784689 0.33400002 4287274900
0.046765529 0.063784689 0.33400002 4287274900
0.047850363 0.063784689 0.33400002 4287340693
0.048935197 0.063784689 0.33400002 4287669658
0.050020024 0.063784689 0.33400002 4287406484
0.051104859 0.063784689 0.33400002 4287406484
0.020174062 0.066617876 0.34300002 4287407256
0.021226062 0.066423655 0.34200001 4287275670
0.022271566 0.066229433 0.34100002 4287144084
0.023310574 0.066035211 0.34 4288325276
0.024343086 0.065840989 0.33900002 4283847754
0.025369102 0.065646768 0.33800003 4285482556
0.026388623 0.065452546 0.33700001 4285543465
0.027483199 0.065452546 0.33700001 4286261533
0.028492976 0.065258324 0.33600003 4286194713
0.029584303 0.065258324 0.33600003 4285998363
0.030584333 0.065064102 0.33500001 4285801754
0.031672414 0.065064102 0.33500001 4285079314
0.032760497 0.065064102 0.33500001 4284422157
0.033747539 0.064869888 0.33400002 4283569423
0.03483237 0.064869888 0.33400002 4283110928
0.0359172 0.064869888 0.33400002 4282653459
0.037002034 0.064869888 0.33400002 4282390289
0.038086869 0.064869888 0.33400002 4282981141
0.039171703 0.064869888 0.33400002 4283770395
0.040256534 0.064869888 0.33400002 4283639839
0.041341364 0.064869888 0.33400002 4282983455
0.042426195 0.064869888 0.33400002 4287404428
0.043511029 0.064869888 0.33400002 4287472277
0.044595864 0.064869888 0.33400002 4287340693
0.045680694 0.064869888 0.33400002 4287538072
0.046765529 0.064869888 0.33400002 4287472277
0.047850363 0.064869888 0.33400002 4287340691
0.048935197 0.064869888 0.33400002 4287406484
0.050020024 0.064869888 0.33400002 4287472277
0.051104859 0.064869888 0.33400002 4287405971
0.021226062 0.067534849 0.34200001 4287340693
0.022271566 0.067337379 0.34100002 4287275670
0.023310574 0.067139909 0.34 4287275668
0.024343086 0.066942438 0.33900002 4287340691
0.025369102 0.066744968 0.33800003 4287398518
0.026388623 0.066547498 0.33700001 4284427558
0.027401647 0.066350028 0.33600003 4285606176
0.028492976 0.066350028 0.33600003 4285342234
0.029496254 0.066152558 0.33500001 4285276439
0.030584333 0.066152558 0.33500001 4284750095
0.031672414 0.066152558 0.33500001 4284685074
0.032760497 0.066152558 0.33500001 4283896333
0.033747539 0.065955088 0.33400002 4283307276
0.03483237 0.065955088 0.33400002 4282585608
0.0359172 0.065955088 0.33400002 4282521871
0.037002034 0.065955088 0.33400002 4282719252
0.038086869 0.065955088 0.33400002 4283572764
0.039171703 0.065955088 0.33400002 4283770655
0.040377058 0.066152558 0.33500001 4283708462
0.041465141 0.066152558 0.33500001 4287529850
0.04255322 0.066152558 0.33500001 4287537041
0.043511029 0.065955088 0.33400002 4287472018
0.044595864 0.065955088 0.33400002 4287340691
0.045680694 0.065955088 0.33400002 4287538070
0.046765529 0.065955088 0.33400002 4287472277
0.047850363 0.065955088 0.33400002 4287340691
0.048935197 0.065955088 0.33400002 4287340691
0.050020024 0.065955088 0.33400002 4287538070
0.051104859 0.065955088 0.33400002 4287340691
0.025294045 0.067642443 0.33700001 4288324760
0.026388623 0.067642443 0.33700001 4283184938
0.027401647 0.067441724 0.33600003 4285477931
0.028492976 0.067441724 0.33600003 4284951076
0.029496254 0.067240998 0.33500001 4284621341
0.030584333 0.067240998 0.33500001 4284358169
0.031672414 0.067240998 0.33500001 4284029974
0.032760497 0.067240998 0.33500001 4283635729
0.033747539 0.067040287 0.33400002 4282914573
0.03483237 0.067040287 0.33400002 4282784014
0.0359172 0.067040287 0.33400002 4282653459
0.037002034 0.067040287 0.33400002 4282719252
0.038086869 0.067040287 0.33400002 4283245596
0.039288979 0.067240998 0.33500001 4283575333
0.040377058 0.067240998 0.33500001 4283913034
0.041465141 0.067240998 0.33500001 4287864725
0.04255322 0.067240998 0.33500001 4287602580
0.043641303 0.067240998 0.33500001 4287602580
0.044729382 0.067240998 0.33500001 4287405971
0.045817461 0.067240998 0.33500001 4287603350
0.046905544 0.067240998 0.33500001 4287537557
0.047993623 0.067240998 0.33500001 4287471764
0.049081706 0.067240998 0.33500001 4287472277
0.050169785 0.067240998 0.33500001 4287472277
0.051257867 0.067240998 0.33500001 4287472277
0.025294045 0.068737388 0.33700001 4287602834
0.026388623 0.068737388 0.33700001 4286547066
0.027401647 0.068533428 0.33600003 4284231208
0.028492976 0.068533428 0.33600003 4284624937
0.029496254 0.068329453 0.33500001 4284558115
0.030584333 0.068329453 0.33500001 4284097564
0.031672414 0.068329453 0.33500001 4283505940
0.032760497 0.068329453 0.33500001 4283374870
0.033848576 0.068329453 0.33500001 4282849553
0.03483237 0.068125486 0.33400002 4283047702
0.0359172 0.068125486 0.33400002 4282720022
0.037112817 0.068329453 0.33500001 4282983194
0.0382009 0.068329453 0.33500001 4282983969
0.039288979 0.068329453 0.33500001 4282525473
0.040377058 0.068329453 0.33500001 4288128924
0.041465141 0.068329453 0.33500001 4287538072
0.04255322 0.068329453 0.33500001 4287538072
0.043641303 0.068329453 0.33500001 4287406486
0.044729382 0.068329453 0.33500001 4287537559
0.045817461 0.068329453 0.33500001 4287405971
0.046905544 0.068329453 0.33500001 4287472018
0.047993623 0.068329453 0.33500001 4287735190
0.049081706 0.068329453 0.33500001 4287603604
0.050169785 0.068329453 0.33500001 4287537811
0.051257867 0.068329453 0.33500001 4287735703
0.024199469 0.069832332 0.33700001 4287669656
0.025294045 0.069832332 0.33700001 4287603350
0.026388623 0.069832332 0.33700001 4287800983
0.027401647 0.069625117 0.33600003 4285558111
0.028492976 0.069625117 0.33600003 4284103987
0.029584303 0.069625117 0.33600003 4284297769
0.030584333 0.069417901 0.33500001 4283902241
0.031672414 0.069417901 0.33500001 4283638555
0.032760497 0.069417901 0.33500001 4283375385
0.033848576 0.069417901 0.33500001 4282916118
0.034936655 0.069417901 0.33500001 4283114010
0.036024738 0.069417901 0.33500001 4283049502
0.037112817 0.069417901 0.33500001 4283312934
0.0382009 0.069417901 0.33500001 4283052330
0.039288979 0.069417901 0.33500001 4286874750
0.040377058 0.069417901 0.33500001 4287405971
0.041465141 0.069417901 0.33500001 4287537557
0.04255322 0.069417901 0.33500001 4287472277
0.043641303 0.069417901 0.33500001 4287406484
0.044729382 0.069417901 0.33500001 4287471764
0.045817461 0.069417901 0.33500001 4287734936
0.046905544 0.069417901 0.33500001 4287472531
0.047993623 0.069417901 0.33500001 4287472531
0.049081706 0.069417901 0.33500001 4287472531
0.050169785 0.069417901 0.33500001 4287669910
0.051257867 0.069417901 0.33500001 4287406225
0.024199469 0.070927285 0.33700001 4287603350
0.025294045 0.070927285 0.33700001 4287472277
0.026388623 0.070927285 0.33700001 4287472277
0.027483199 0.070927285 0.33700001 4287472277
0.028492976 0.070716821 0.33600003 4287141256
0.029584303 0.070716821 0.33600003 4283645751
0.030675631 0.070716821 0.33600003 4283972401
0.031672414 0.070506349 0.33500001 4284300083
0.032760497 0.070506349 0.33500001 4283313188
0.033848576 0.070506349 0.33500001 4283312420
0.034936655 0.070506349 0.33500001 4283247141
0.036024738 0.070506349 0.33500001 4283511083
0.037112817 0.070506349 0.33500001 4283052330
0.0382009 0.070506349 0.33500001 4286350203
0.039288979 0.070506349 0.33500001 4287734168
0.040377058 0.070506349 0.33500001 4287472279
0.041465141 0.070506349 0.33500001 4287406484
0.04255322 0.070506349 0.33500001 4287538070
0.043641303 0.070506349 0.33500001 4287472277
0.044729382 0.070506349 0.33500001 4287471764
0.045817461 0.070506349 0.33500001 4287472018
0.046905544 0.070506349 0.33500001 4287538324
0.047993623 0.070506349 0.33500001 4287538324
0.049081706 0.070506349 0.33500001 4287669910
0.050169785 0.070506349 0.33500001 4287472531
0.051257867 0.070506349 0.33500001 4287472531
0.024199469 0.072022237 0.33700001 4287472277
0.025294045 0.072022237 0.33700001 4287538070
0.026388623 0.072022237 0.33700001 4287472277
0.027483199 0.072022237 0.33700001 4287407254
0.028577777 0.072022237 0.33700001 4287669656
0.029584303 0.071808524 0.33600003 4288261280
0.030675631 0.071808524 0.33600003 4287997592
0.031766962 0.071808524 0.33600003 4286679422
0.03285829 0.071808524 0.33600003 4285361765
0.033848576 0.071594805 0.33500001 4284570964
0.034936655 0.071594805 0.33500001 4284702550
0.036024738 0.071594805 0.33500001 4285626734
0.037112817 0.071594805 0.33500001 4287865240
0.0382009 0.071594805 0.33500001 4287537559
0.039288979 0.071594805 0.33500001 4287734938
0.040377058 0.071594805 0.33500001 4287538072
0.041465141 0.071594805 0.33500001 4287472279
0.04255322 0.071594805 0.33500001 4287472277
0.043641303 0.071594805 0.33500001 4287669656
0.044729382 0.071594805 0.33500001 4287538070
0.045817461 0.071594805 0.33500001 4287340178
0.046905544 0.071594805 0.33500001 4287537557
0.047993623 0.071594805 0.33500001 4287471764
0.049081706 0.071594805 0.33500001 4287538070
0.050169785 0.071594805 0.33500001 4287538070
0.051257867 0.071594805 0.33500001 4287472277
0.025294045 0.073117182 0.33700001 4287472277
0.026388623 0.073117182 0.33700001 4287669656
0.027483199 0.073117182 0.33700001 4287538070
0.028577777 0.073117182 0.33700001 4287801242
0.029672351 0.073117182 0.33700001 4287406484
0.030675631 0.072900221 0.33600003 4287406484
0.031766962 0.072900221 0.33600003 4287538070
0.03285829 0.072900221 0.33600003 4287406484
0.033949621 0.072900221 0.33600003 4287932828
0.035040949 0.072900221 0.33600003 4287538070
0.036132276 0.072900221 0.33600003 4287472277
0.037112817 0.072683245 0.33500001 4287669656
0.0382009 0.072683245 0.33500001 4287669658
0.039288979 0.072683245 0.33500001 4287406486
0.040377058 0.072683245 0.33500001 4287538070
0.041465141 0.072683245 0.33500001 4287406484
0.04255322 0.072683245 0.33500001 4287472277
0.043641303 0.072683245 0.33500001 4287538070
0.044729382 0.072683245 0.33500001 4287472277
0.045817461 0.072683245 0.33500001 4287538070
0.046905544 0.072683245 0.33500001 4287537557
0.047993623 0.072683245 0.33500001 4287537557
0.026466928 0.074432343 0.33800003 4287669656
0.027483199 0.074212126 0.33700001 4287669656
0.028662577 0.074432343 0.33800003 4287669656
0.029672351 0.074212126 0.33700001 4287669656
0.030766927 0.074212126 0.33700001 4287735449
0.031861506 0.074212126 0.33700001 4287669656
0.03285829 0.073991917 0.33600003 4287669656
0.033949621 0.073991917 0.33600003 4287669656
0.035040949 0.073991917 0.33600003 4287472277
0.036132276 0.073991917 0.33600003 4287472277
0.037223604 0.073991917 0.33600003 4287472277
0.038314931 0.073991917 0.33600003 4287472277
0.039406262 0.073991917 0.33600003 4287472277
0.04049759 0.073991917 0.33600003 4287538070
0.041588917 0.073991917 0.33600003 4287669656
0.042680245 0.073991917 0.33600003 4287538070
0.043771576 0.073991917 0.33600003 4287538070
0.044862907 0.073991917 0.33600003 4287669656
0.045954231 0.073991917 0.33600003 4287538070
0.047045562 0.073991917 0.33600003 4287538070
0.04813689 0.073991917 0.33600003 4287538070
0.028662577 0.075530544 0.33800003 4287735451
0.029760402 0.075530544 0.33800003 4287735451
0.030858226 0.075530544 0.33800003 4287669658
0.031861506 0.075307071 0.33700001 4287801242
0.032956082 0.075307071 0.33700001 4287538070
0.034050658 0.075307071 0.33700001 4287538070
0.035145234 0.075307071 0.33700001 4287472277
0.03623981 0.075307071 0.33700001 4287538070
0.03733439 0.075307071 0.33700001 4287669656
0.038428962 0.075307071 0.33700001 4287669656
0.039523542 0.075307071 0.33700001 4287538070
0.040618118 0.075307071 0.33700001 4287472277
0.041712694 0.075307071 0.33700001 4287538070
0.04280727 0.075307071 0.33700001 4287538070
0.043901846 0.075307071 0.33700001 4287472277
0.044996426 0.075307071 0.33700001 4287537557
0.046090998 0.075307071 0.33700001 4287603350
0.047185577 0.075307071 0.33700001 4287669656
0.048280153 0.075307071 0.33700001 4287669656
0.029400393 0.043726649 0.33860368 4294967295
0.029400393 0.043726649 0.33860368 4294901760
0.029400393 0.043726649 0.33910367 4294901760
0.029400393 0.043726649 0.33960366 4294901760
0.029400393 0.043726649 0.34010369 4294901760
0.029400393 0.043726649 0.34060368 4294901760
0.029400393 0.043726649 0.34110367 4294901760
0.029400393 0.043726649 0.34160367 4294901760
0.029400393 0.043726649 0.34210369 4294901760
0.029400393 0.043726649 0.34260368 4294901760
0.029400393 0.043726649 0.34310368 4294901760
0.029400393 0.043726649 0.34360367 4294901760
0.029400393 0.043726649 0.34410366 4294901760
0.029400393 0.043726649 0.34460369 4294901760
0.029400393 0.043726649 0.34510368 4294901760
0.029400393 0.043726649 0.34560367 4294901760
0.029400393 0.043726649 0.34610367 4294901760
0.029400393 0.043726649 0.34660369 4294901760
0.029400393 0.043726649 0.34710369 4294901760
0.029400393 0.043726649 0.34760368 4294901760
0.029400393 0.043726649 0.34810367 4294901760
0.029400393 0.043726649 0.34860367 4294901760
0.029400393 0.043726649 0.34910369 4294901760
0.029400393 0.043726649 0.34960368 4294901760
0.029400393 0.043726649 0.35010368 4294901760
0.029400393 0.043726649 0.35060367 4294901760
0.029400393 0.043726649 0.35110366 4294901760
0.029400393 0.043726649 0.35160369 4294901760
0.029400393 0.043726649 0.35210368 4294901760
0.029400393 0.043726649 0.35260367 4294901760
0.029400393 0.043726649 0.35310367 4294901760
0.029400393 0.043726649 0.35360369 4294901760
0.029400393 0.043726649 0.35410368 4294901760
0.029400393 0.043726649 0.35460368 4294901760
0.029400393 0.043726649 0.35510367 4294901760
0.029400393 0.043726649 0.35560369 4294901760
0.029400393 0.043726649 0.35610369 4294901760
0.029400393 0.043726649 0.35660368 4294901760
0.029400393 0.043726649 0.35710368 4294901760
0.029400393 0.043726649 0.35760367 4294901760
0.029400393 0.043726649 0.35810369 4294901760
0.029400393 0.043726649 0.35860369 4294901760
0.029400393 0.043726649 0.35910368 4294901760
0.029400393 0.043726649 0.35960367 4294901760
0.029400393 0.043726649 0.36010367 4294901760
0.029400393 0.043726649 0.36060369 4294901760
0.029400393 0.043726649 0.36110368 4294901760
0.029400393 0.043726649 0.36160368 4294901760
0.029400393 0.043726649 0.36210367 4294901760
0.029400393 0.043726649 0.36260369 4294901760
0.029400393 0.043726649 0.36310369 4294901760
0.029400393 0.043726649 0.36360368 4294901760
0.029400393 0.043726649 0.36410367 4294901760
0.029400393 0.043726649 0.36460367 4294901760
0.029400393 0.043726649 0.36510369 4294901760
0.029400393 0.043726649 0.36560369 4294901760
0.029400393 0.043726649 0.36610368 4294901760
0.029400393 0.043726649 0.36660367 4294901760
0.029400393 0.043726649 0.3671037 4294901760
0.029400393 0.043726649 0.36760369 4294901760
0.029400393 0.043726649 0.36810368 4294901760
0.029400393 0.043726649 0.36860368 4294901760
0.029400393 0.043726649 0.36910367 4294901760
0.029400393 0.043726649 0.36960369 4294901760
0.029400393 0.043726649 0.37010369 4294901760
0.029400393 0.043726649 0.37060368 4294901760
0.029400393 0.043726649 0.37110367 4294901760
0.029400393 0.043726649 0.3716037 4294901760
0.029400393 0.043726649 0.37210369 4294901760
0.029400393 0.043726649 0.37260368 4294901760
0.029400393 0.043726649 0.37310368 4294901760
0.029400393 0.043726649 0.37360367 4294901760
0.029400393 0.043726649 0.3741037 4294901760
0.029400393 0.043726649 0.37460369 4294901760
0.029400393 0.043726649 0.37510368 4294901760
0.029400393 0.043726649 0.37560368 4294901760
0.029400393 0.043726649 0.3761037 4294901760
0.029400393 0.043726649 0.37660369 4294901760
0.029400393 0.043726649 0.37710369 4294901760
0.029400393 0.043726649 0.37760368 4294901760
0.029400393 0.043726649 0.37810367 4294901760
0.029400393 0.043726649 0.3786037 4294901760
0.029400393 0.043726649 0.37910369 4294901760
0.029400393 0.043726649 0.37960368 4294901760
0.029400393 0.043726649 0.38010368 4294901760
0.029400393 0.043726649 0.38060367 4294901760
0.029400393 0.043726649 0.38110369 4294901760
0.029400393 0.043726649 0.38160369 4294901760
0.029400393 0.043726649 0.38210368 4294901760
0.029400393 0.043726649 0.38260368 4294901760
0.029400393 0.043726649 0.38310367 4294901760
0.029400393 0.043726649 0.38360369 4294901760
0.029400393 0.043726649 0.38410369 4294901760
0.029400393 0.043726649 0.38460368 4294901760
0.029400393 0.043726649 0.3851037 4294901760
0.029400393 0.043726649 0.3856037 4294901760
0.029400393 0.043726649 0.38610369 4294901760
0.029400393 0.043726649 0.38660368 4294901760
0.029400393 0.043726649 0.38710368 4294901760
0.029400393 0.043726649 0.3876037 4294901760
0.029400393 0.043726649 0.38810369 4294901760
0.029400393 0.043726649 0.38860369 4294901760
0.029400393 0.043726649 0.33860368 4278255360
0.029688152 0.043759711 0.33901122 4278255360
0.029975908 0.043792773 0.3394188 4278255360
0.030263666 0.043825831 0.33982635 4278255360
0.030551424 0.043858893 0.34023389 4278255360
0.030839182 0.043891955 0.34064147 4278255360
0.031126939 0.043925017 0.34104902 4278255360
0.031414699 0.043958075 0.34145656 4278255360
0.031702455 0.043991137 0.34186414 4278255360
0.031990211 0.044024199 0.34227169 4278255360
0.032277972 0.044057261 0.34267923 4278255360
0.032565728 0.044090319 0.34308681 4278255360
0.032853484 0.044123381 0.34349436 4278255360
0.033141244 0.044156443 0.3439019 4278255360
0.033429001 0.044189505 0.34430948 4278255360
0.033716761 0.044222564 0.34471703 4278255360
0.034004517 0.044255625 0.34512457 4278255360
0.034292273 0.044288687 0.34553215 4278255360
0.034580033 0.044321749 0.3459397 4278255360
0.03486779 0.044354808 0.34634724 4278255360
0.035155546 0.04438787 0.34675482 4278255360
0.035443306 0.044420931 0.34716237 4278255360
0.035731062 0.044453993 0.34756991 4278255360
0.036018819 0.044487052 0.34797749 4278255360
0.036306579 0.044520114 0.34838504 4278255360
0.036594335 0.044553176 0.34879258 4278255360
0.036882095 0.044586238 0.34920016 4278255360
0.037169851 0.044619299 0.34960771 4278255360
0.037457608 0.044652358 0.35001525 4278255360
0.037745368 0.04468542 0.35042283 4278255360
0.038033124 0.044718482 0.35083038 4278255360
0.038320884 0.044751544 0.35123792 4278255360
0.03860864 0.044784602 0.3516455 4278255360
0.038896397 0.044817664 0.35205305 4278255360
0.039184153 0.044850726 0.35246059 4278255360
0.039471913 0.044883788 0.35286817 4278255360
0.039759673 0.044916846 0.35327572 4278255360
0.04004743 0.044949908 0.35368326 4278255360
0.040335186 0.04498297 0.35409084 4278255360
0.040622942 0.045016032 0.35449839 4278255360
0.040910702 0.04504909 0.35490593 4278255360
0.041198459 0.045082152 0.35531348 4278255360
0.041486219 0.045115214 0.35572106 4278255360
0.041773975 0.045148276 0.3561286 4278255360
0.042061731 0.045181334 0.35653615 4278255360
0.042349488 0.045214396 0.35694373 4278255360
0.042637248 0.045247458 0.35735127 4278255360
0.042925008 0.04528052 0.35775882 4278255360
0.043212764 0.045313578 0.3581664 4278255360
0.04350052 0.04534664 0.35857394 4278255360
0.043788277 0.045379702 0.35898149 4278255360
0.044076037 0.045412764 0.35938907 4278255360
0.044363793 0.045445822 0.35979661 4278255360
0.044651553 0.045478884 0.36020416 4278255360
0.044939309 0.045511946 0.36061174 4278255360
0.045227066 0.045545008 0.36101928 4278255360
0.045514822 0.04557807 0.36142683 4278255360
0.045802582 0.045611128 0.36183441 4278255360
0.046090342 0.04564419 0.36224195 4278255360
0.046378098 0.045677252 0.3626495 4278255360
0.046665855 0.045710314 0.36305708 4278255360
0.046953611 0.045743372 0.36346462 4278255360
0.047241371 0.045776434 0.36387217 4278255360
0.047529131 0.045809496 0.36427975 4278255360
0.047816887 0.045842558 0.36468729 4278255360
0.048104644 0.045875616 0.36509484 4278255360
0.0483924 0.045908678 0.36550242 4278255360
