# .PCD v0.7 - Point Cloud Data file format
VERSION 0.7
FIELDS x y z rgb
SIZE 4 4 4 4
TYPE F F F U
COUNT 1 1 1 1
WIDTH 1039
HEIGHT 1
VIEWPOINT 0 0 0 1 0 0 0
POINTS 1039
DATA ascii
0.061728265 0.027382312 0.38700002 4278532113
0.062985241 0.027382312 0.38700002 4278598419
0.064242221 0.027382312 0.38700002 4278927386
0.065499194 0.027382312 0.38700002 4278729753
0.066756174 0.027382312 0.38700002 4280369965
-0.033133656 0.029157747 0.39400002 4279707674
-0.031934787 0.029231749 0.39500001 4280430370
-0.030651828 0.029231749 0.39500001 4279509268
-0.029443221 0.029305754 0.39600003 4279640600
-0.028157011 0.029305754 0.39600003 4279509014
-0.026870804 0.029305754 0.39600003 4279903774
-0.025584595 0.029305754 0.39600003 4280298532
-0.024237026 0.029231749 0.39500001 4280101153
-0.022895953 0.029157747 0.39400002 4280693803
-0.021561377 0.02908374 0.39300001 4281220147
-0.020233298 0.029009737 0.39200002 4279903774
-0.018814977 0.028787725 0.38900003 4279903002
-0.017371027 0.028491706 0.38500002 4280034588
-0.016078675 0.028417701 0.384 4279642649
-0.014792819 0.028343696 0.38300002 4279512857
-0.013513459 0.028269693 0.38200003 4279187740
-0.012240593 0.028195687 0.38100001 4278925336
-0.011003105 0.028195687 0.38100001 4278664212
-0.0097656166 0.028195687 0.38100001 4278730005
-0.0085057449 0.028121684 0.38000003 4278795798
-0.0072715036 0.028121684 0.38000003 4278664212
-0.0060372627 0.028121684 0.38000003 4278730005
-0.0048030224 0.028121684 0.38000003 4278532626
-0.0035687818 0.028121684 0.38000003 4278335247
-0.0023283972 0.028047679 0.37900001 4278532113
-0.0010974046 0.028047679 0.37900001 4278729494
0.00013358794 0.028047679 0.37900001 4278400529
0.0013645806 0.028047679 0.37900001 4278532115
0.0025887247 0.027973674 0.37800002 4278860310
0.0038164693 0.027973674 0.37800002 4278196228
0.0050442144 0.027973674 0.37800002 4279578139
0.0062719584 0.027973674 0.37800002 4278661394
0.0074997037 0.027973674 0.37800002 4278462990
0.0087274481 0.027973674 0.37800002 4278588939
0.0099551929 0.027973674 0.37800002 4279576604
0.011212522 0.028047679 0.37900001 4278787855
0.012443515 0.028047679 0.37900001 4278985234
0.013674506 0.028047679 0.37900001 4279709727
0.014905499 0.028047679 0.37900001 4278195718
0.016136492 0.028047679 0.37900001 4279643680
0.017367486 0.028047679 0.37900001 4278195720
0.018598478 0.028047679 0.37900001 4278194951
0.019881791 0.028121684 0.38000003 4279314199
0.021116031 0.028121684 0.38000003 4278393867
0.022350272 0.028121684 0.38000003 4278458123
0.023584513 0.028121684 0.38000003 4279578650
0.024818754 0.028121684 0.38000003 4278792466
0.026052997 0.028121684 0.38000003 4278594576
0.027359042 0.028195687 0.38100001 4278262279
0.02859653 0.028195687 0.38100001 4278327304
0.029834021 0.028195687 0.38100001 4278262281
0.031071508 0.028195687 0.38100001 4278331150
0.032224201 0.028121684 0.38000003 4278660628
0.033458438 0.028121684 0.38000003 4278199049
0.034692679 0.028121684 0.38000003 4278660882
0.035926919 0.028121684 0.38000003 4278200074
0.03716116 0.028121684 0.38000003 4278198532
0.038395401 0.028121684 0.38000003 4278397710
0.039629642 0.028121684 0.38000003 4278924566
0.040863883 0.028121684 0.38000003 4278727187
0.042098124 0.028121684 0.38000003 4278924566
0.043332364 0.028121684 0.38000003 4278661394
0.044683885 0.028195687 0.38100001 4278661394
0.045921374 0.028195687 0.38100001 4278858773
0.04715886 0.028195687 0.38100001 4278924566
0.048523374 0.028269693 0.38200003 4278858773
0.049764112 0.028269693 0.38200003 4278727187
0.051138371 0.028343696 0.38300002 4278924566
0.05238235 0.028343696 0.38300002 4278727187
0.053766351 0.028417701 0.384 4279054873
0.055013586 0.028417701 0.384 4278198026
0.056407336 0.028491706 0.38500002 4278464017
0.057807572 0.028565709 0.38600001 4278728470
0.0590613 0.028565709 0.38600001 4278662677
0.060471293 0.028639715 0.38700002 4278728470
0.061728265 0.028639715 0.38700002 4278532115
0.062985241 0.028639715 0.38700002 4278532115
0.064242221 0.028639715 0.38700002 4278729494
0.065499194 0.028639715 0.38700002 4278597654
0.066756174 0.028639715 0.38700002 4278660119
-0.028299218 0.030746907 0.39800003 4281351468
-0.027006514 0.030746907 0.39800003 4282733121
-0.025713811 0.030746907 0.39800003 4283654477
-0.024298385 0.030592399 0.39600003 4283457359
-0.022954063 0.030515144 0.39500001 4282405185
-0.020284912 0.030360637 0.39300001 4280100381
-0.019056816 0.030437892 0.39400002 4279968795
-0.017325906 0.029665355 0.384 4280561702
-0.016036803 0.029588103 0.38300002 4280103198
-0.014754196 0.02951085 0.38200003 4279513371
-0.013513459 0.02951085 0.38200003 4279187738
-0.012240593 0.029433595 0.38100001 4278926103
-0.011003105 0.029433595 0.38100001 4278597908
-0.0097656166 0.029433595 0.38100001 4278795285
-0.0085057449 0.029356342 0.38000003 4278597906
-0.0072715036 0.029356342 0.38000003 4278532626
-0.0060372627 0.029356342 0.38000003 4278730005
-0.0048030224 0.029356342 0.38000003 4278466833
-0.0035687818 0.029356342 0.38000003 4278335247
-0.0023345409 0.029356342 0.38000003 4278532626
-0.0010974046 0.029279089 0.37900001 4278466833
0.00013358794 0.029279089 0.37900001 4278597906
0.0013645806 0.029279089 0.37900001 4278532113
0.0025955732 0.029279089 0.37900001 4278399759
0.0038265658 0.029279089 0.37900001 4278393097
0.0050442144 0.029201835 0.37800002 4278195972
0.0062719584 0.029201835 0.37800002 4278727441
0.0074997037 0.029201835 0.37800002 4278791953
0.0087274481 0.029201835 0.37800002 4278786058
0.0099815289 0.029279089 0.37900001 4278654218
0.011212522 0.029279089 0.37900001 4278522634
0.012443515 0.029279089 0.37900001 4278522634
0.013674506 0.029279089 0.37900001 4278325767
0.014905499 0.029279089 0.37900001 4278391560
0.016136492 0.029279089 0.37900001 4278523146
0.017367486 0.029279089 0.37900001 4278523146
0.018598478 0.029279089 0.37900001 4278852881
0.019881791 0.029356342 0.38000003 4279314969
0.021116031 0.029356342 0.38000003 4279381273
0.022350272 0.029356342 0.38000003 4278392330
0.023584513 0.029356342 0.38000003 4279250453
0.024818754 0.029356342 0.38000003 4278990359
0.026052997 0.029356342 0.38000003 4278196742
0.027287235 0.029356342 0.38000003 4278589193
0.02859653 0.029433595 0.38100001 4278785804
0.029834021 0.029433595 0.38100001 4278392330
0.031071508 0.029433595 0.38100001 4278197511
0.032308999 0.029433595 0.38100001 4278989593
0.033546485 0.029433595 0.38100001 4278989593
0.034692679 0.029356342 0.38000003 4278265357
0.035926919 0.029356342 0.38000003 4278462736
0.03716116 0.029356342 0.38000003 4278923287
0.038395401 0.029356342 0.38000003 4278331404
0.039629642 0.029356342 0.38000003 4279251482
0.040863883 0.029356342 0.38000003 4278790931
0.042208906 0.029433595 0.38100001 4278197252
0.043446396 0.029433595 0.38100001 4278529296
0.044683885 0.029433595 0.38100001 4278660882
0.045921374 0.029433595 0.38100001 4278198018
0.04728264 0.02951085 0.38200003 4278265611
0.048523374 0.02951085 0.38200003 4279055638
0.049894385 0.029588103 0.38300002 4278726673
0.051138371 0.029588103 0.38300002 4278595601
0.052519117 0.029665355 0.384 4278727187
0.053766351 0.029665355 0.384 4278596371
0.055156853 0.02974261 0.38500002 4278197765
0.056407336 0.02974261 0.38500002 4278726675
0.057807572 0.029819863 0.38600001 4278596373
0.059214313 0.029897118 0.38700002 4278728470
0.060471293 0.029897118 0.38700002 4278531091
0.061728265 0.029897118 0.38700002 4278334482
0.063147992 0.029974369 0.38800001 4278597654
0.06440822 0.029974369 0.38800001 4278400275
0.065668441 0.029974369 0.38800001 4278531863
0.06692867 0.029974369 0.38800001 4278462740
-0.024298385 0.031879045 0.39600003 4279770387
-0.022954063 0.031798538 0.39500001 4279509266
-0.021616241 0.031718038 0.39400002 4279838231
-0.020336529 0.031718038 0.39400002 4283917912
-0.018524772 0.030832509 0.38300002 4279706395
-0.017280787 0.030832509 0.38300002 4279706908
-0.015994933 0.030752007 0.38200003 4279578137
-0.014754196 0.030752007 0.38200003 4279448602
-0.013478083 0.030671503 0.38100001 4278991383
-0.012240593 0.030671503 0.38100001 4278794517
-0.011003105 0.030671503 0.38100001 4278729494
-0.0097656166 0.030671503 0.38100001 4278664214
-0.0085281283 0.030671503 0.38100001 4278730005
-0.007290639 0.030671503 0.38100001 4278664212
-0.0060531502 0.030671503 0.38100001 4278532626
-0.0048030224 0.030591002 0.38000003 4278532626
-0.0035687818 0.030591002 0.38000003 4278598419
-0.0023345409 0.030591002 0.38000003 4278466833
-0.0011003002 0.030591002 0.38000003 4278466833
0.00013358794 0.030510496 0.37900001 4278269454
0.0013645806 0.030510496 0.37900001 4278532113
0.0025955732 0.030510496 0.37900001 4278465552
0.0038265658 0.030510496 0.37900001 4279052820
0.0050575584 0.030510496 0.37900001 4279579164
0.0062885508 0.030510496 0.37900001 4278924820
0.0075195436 0.030510496 0.37900001 4279120918
0.0087505365 0.030510496 0.37900001 4278785804
0.0099815289 0.030510496 0.37900001 4278719498
0.011212522 0.030510496 0.37900001 4278916879
0.012443515 0.030510496 0.37900001 4278654220
0.013674506 0.030510496 0.37900001 4278654220
0.014905499 0.030510496 0.37900001 4278654220
0.016136492 0.030510496 0.37900001 4278587914
0.017367486 0.030510496 0.37900001 4278719500
0.018647552 0.030591002 0.38000003 4278522634
0.019881791 0.030591002 0.38000003 4278654220
0.021116031 0.030591002 0.38000003 4278588939
0.022350272 0.030591002 0.38000003 4278523146
0.023584513 0.030591002 0.38000003 4279054357
0.024818754 0.030591002 0.38000003 4278727187
0.026052997 0.030591002 0.38000003 4278328587
0.027287235 0.030591002 0.38000003 4278654472
0.028521474 0.030591002 0.38000003 4278523146
0.029834021 0.030671503 0.38100001 4279248152
0.031071508 0.030671503 0.38100001 4278461968
0.032308999 0.030671503 0.38100001 4278462736
0.033546485 0.030671503 0.38100001 4278198276
0.034783974 0.030671503 0.38100001 4279120920
0.036021464 0.030671503 0.38100001 4278725138
0.037258953 0.030671503 0.38100001 4279054873
0.038496442 0.030671503 0.38100001 4278199307
0.039733931 0.030671503 0.38100001 4279054873
0.040971417 0.030671503 0.38100001 4278460687
0.042208906 0.030671503 0.38100001 4278723857
0.043446396 0.030671503 0.38100001 4278197255
0.044683885 0.030671503 0.38100001 4278329867
0.046041902 0.030752007 0.38200003 4279120666
0.04728264 0.030752007 0.38200003 4278527759
0.048523374 0.030752007 0.38200003 4278527246
0.049894385 0.030832509 0.38300002 4278856724
0.051138371 0.030832509 0.38300002 4278330380
0.052519117 0.03091301 0.384 4278727187
0.05390637 0.030993514 0.38500002 4278595601
0.055156853 0.030993514 0.38500002 4278197252
0.056553848 0.031074015 0.38600001 4278792468
0.057807572 0.031074015 0.38600001 4278728472
0.059214313 0.031154519 0.38700002 4278662679
0.060471293 0.031154519 0.38700002 4278662677
0.061887767 0.031235021 0.38800001 4278465298
0.063147992 0.031235021 0.38800001 4278663447
0.06440822 0.031235021 0.38800001 4278597654
0.065668441 0.031235021 0.38800001 4278597654
0.06692867 0.031235021 0.38800001 4278660628
0.068188891 0.031235021 0.38800001 4284909430
-0.017280787 0.032076914 0.38300002 4284380008
-0.015994933 0.031993162 0.38200003 4279118103
-0.014715571 0.03190941 0.38100001 4279448861
-0.013478083 0.03190941 0.38100001 4279123228
-0.012240593 0.03190941 0.38100001 4278926103
-0.011003105 0.03190941 0.38100001 4278730007
-0.0097656166 0.03190941 0.38100001 4278730007
-0.0085281283 0.03190941 0.38100001 4278664212
-0.007290639 0.03190941 0.38100001 4278730005
-0.0060531502 0.03190941 0.38100001 4278466833
-0.0048156618 0.03190941 0.38100001 4278927384
-0.0035781732 0.03190941 0.38100001 4278466833
-0.0023345409 0.031825658 0.38000003 4278466833
-0.0011003002 0.031825658 0.38000003 4278466833
0.00013394043 0.031825658 0.38000003 4278335247
0.0013645806 0.031741906 0.37900001 4278532113
0.0025955732 0.031741906 0.37900001 4278200072
0.0038265658 0.031741906 0.37900001 4278396427
0.0050575584 0.031741906 0.37900001 4278198791
0.0062885508 0.031741906 0.37900001 4278859543
0.0075195436 0.031741906 0.37900001 4278727957
0.0087505365 0.031741906 0.37900001 4279185943
0.0099815289 0.031741906 0.37900001 4279184406
0.011212522 0.031741906 0.37900001 4279381273
0.012443515 0.031741906 0.37900001 4279052310
0.013674506 0.031741906 0.37900001 4278590476
0.014905499 0.031741906 0.37900001 4278655756
0.016136492 0.031741906 0.37900001 4278522632
0.017367486 0.031741906 0.37900001 4278522632
0.018647552 0.031825658 0.38000003 4278785293
0.019881791 0.031825658 0.38000003 4278654220
0.021116031 0.031825658 0.38000003 4278720013
0.022350272 0.031825658 0.38000003 4278259976
0.023584513 0.031825658 0.38000003 4278922517
0.024818754 0.031825658 0.38000003 4278660628
0.026052997 0.031825658 0.38000003 4279054103
0.027287235 0.031825658 0.38000003 4279118615
0.028521474 0.031825658 0.38000003 4279644447
0.029755717 0.031825658 0.38000003 4279184408
0.030989956 0.031825658 0.38000003 4278857494
0.032308999 0.03190941 0.38100001 4279055640
0.033546485 0.03190941 0.38100001 4279121433
0.034783974 0.03190941 0.38100001 4278989847
0.036021464 0.03190941 0.38100001 4279055386
0.037258953 0.03190941 0.38100001 4278792216
0.038496442 0.03190941 0.38100001 4278924314
0.039733931 0.03190941 0.38100001 4279056154
0.040971417 0.03190941 0.38100001 4278989593
0.042208906 0.03190941 0.38100001 4279054873
0.043446396 0.03190941 0.38100001 4278593554
0.044683885 0.03190941 0.38100001 4279120668
0.046041902 0.031993162 0.38200003 4278196739
0.04728264 0.031993162 0.38200003 4278198281
0.048650399 0.032076914 0.38300002 4279185691
0.049894385 0.032076914 0.38300002 4278527248
0.051271889 0.032160666 0.384 4278198280
0.052519117 0.032160666 0.384 4278726675
0.05390637 0.032244418 0.38500002 4279318810
0.055156853 0.032244418 0.38500002 4278196996
0.056553848 0.03232817 0.38600001 4278661396
0.057957333 0.032411922 0.38700002 4278728472
0.059214313 0.032411922 0.38700002 4278597654
0.060627546 0.032495674 0.38800001 4278597654
0.061887767 0.032495674 0.38800001 4278597654
0.063147992 0.032495674 0.38800001 4278400275
0.06440822 0.032495674 0.38800001 4278597654
0.065668441 0.032495674 0.38800001 4278400275
0.06692867 0.032495674 0.38800001 4279056154
0.068188891 0.032495674 0.38800001 4284844659
-0.01595306 0.033147316 0.38100001 4279906854
-0.014715571 0.033147316 0.38100001 4279644195
-0.013478083 0.033147316 0.38100001 4279319842
-0.012240593 0.033147316 0.38100001 4278991642
-0.011003105 0.033147316 0.38100001 4278992412
-0.0097656166 0.033147316 0.38100001 4278729240
-0.0085281283 0.033147316 0.38100001 4278730007
-0.007290639 0.033147316 0.38100001 4278598421
-0.0060531502 0.033147316 0.38100001 4278598421
-0.0048156618 0.033147316 0.38100001 4278335249
-0.0035781732 0.033147316 0.38100001 4278597908
-0.0023406844 0.033147316 0.38100001 4278532115
-0.0011003002 0.03306032 0.38000003 4278597908
0.00013394043 0.03306032 0.38000003 4278532115
0.0013681811 0.03306032 0.38000003 4278532115
0.0025955732 0.032973316 0.37900001 4278531091
0.0038265658 0.032973316 0.37900001 4278727187
0.0050575584 0.032973316 0.37900001 4278595601
0.0062885508 0.032973316 0.37900001 4278596371
0.0075195436 0.032973316 0.37900001 4278662677
0.0087505365 0.032973316 0.37900001 4278859543
0.0099815289 0.032973316 0.37900001 4278925336
0.011212522 0.032973316 0.37900001 4278727957
0.012443515 0.032973316 0.37900001 4278793750
0.013674506 0.032973316 0.37900001 4278924566
0.014905499 0.032973316 0.37900001 4278727187
0.016136492 0.032973316 0.37900001 4278989847
0.017413311 0.03306032 0.38000003 4278989847
0.018647552 0.03306032 0.38000003 4279055127
0.019881791 0.03306032 0.38000003 4279252506
0.021116031 0.03306032 0.38000003 4278923541
0.022350272 0.03306032 0.38000003 4279448861
0.023584513 0.03306032 0.38000003 4278857494
0.024818754 0.03306032 0.38000003 4278857494
0.026052997 0.03306032 0.38000003 4278922004
0.027287235 0.03306032 0.38000003 4278592271
0.028521474 0.03306032 0.38000003 4278195715
0.029755717 0.03306032 0.38000003 4278195715
0.030989956 0.03306032 0.38000003 4278194944
0.032224201 0.03306032 0.38000003 4278195713
0.033546485 0.033147316 0.38100001 4278194432
0.034783974 0.033147316 0.38100001 4278196482
0.036021464 0.033147316 0.38100001 4278196225
0.037258953 0.033147316 0.38100001 4278330380
0.038496442 0.033147316 0.38100001 4278922517
0.039733931 0.033147316 0.38100001 4278462736
0.040971417 0.033147316 0.38100001 4278858007
0.042208906 0.033147316 0.38100001 4279186972
0.043446396 0.033147316 0.38100001 4279055640
0.044801168 0.033234321 0.38200003 4278727189
0.046041902 0.033234321 0.38200003 4278858775
0.04728264 0.033234321 0.38200003 4278661396
0.048650399 0.033321321 0.38300002 4278858775
0.049894385 0.033321321 0.38300002 4278858775
0.051271889 0.033408321 0.384 4278858261
0.052655887 0.033495322 0.38500002 4278727187
0.05390637 0.033495322 0.38500002 4278858261
0.055300117 0.033582322 0.38600001 4278196227
0.05670036 0.033669323 0.38700002 4278859545
0.057957333 0.033669323 0.38700002 4278597656
0.059367318 0.033756323 0.38800001 4278400275
0.060627546 0.033756323 0.38800001 4278597654
0.061887767 0.033756323 0.38800001 4278531861
0.06331075 0.033843327 0.38900003 4278663447
0.06440822 0.033756323 0.38800001 4278597654
0.065668441 0.033756323 0.38800001 4278728470
0.06692867 0.033756323 0.38800001 4278857496
-0.01595306 0.034385227 0.38100001 4284314983
-0.014715571 0.034385227 0.38100001 4284117604
-0.013478083 0.034385227 0.38100001 4278725142
-0.012240593 0.034385227 0.38100001 4279120668
-0.011003105 0.034385227 0.38100001 4279188510
-0.0097656166 0.034385227 0.38100001 4279254303
-0.0085281283 0.034385227 0.38100001 4279188510
-0.007290639 0.034385227 0.38100001 4279386402
-0.0060531502 0.034385227 0.38100001 4279189793
-0.0048156618 0.034385227 0.38100001 4278860828
-0.0035781732 0.034385227 0.38100001 4278860826
-0.0023406844 0.034385227 0.38100001 4278795033
-0.0011031957 0.034385227 0.38100001 4278729240
0.00013394043 0.034294982 0.38000003 4278729240
0.0013681811 0.034294982 0.38000003 4278663447
0.0026024217 0.034294982 0.38000003 4278663447
0.0038265658 0.034204729 0.37900001 4278663447
0.0050575584 0.034204729 0.37900001 4278728470
0.0062885508 0.034204729 0.37900001 4278794263
0.0075195436 0.034204729 0.37900001 4278531091
0.0087505365 0.034204729 0.37900001 4278662931
0.0099815289 0.034204729 0.37900001 4278728724
0.011212522 0.034204729 0.37900001 4278794517
0.012443515 0.034204729 0.37900001 4278662931
0.013674506 0.034204729 0.37900001 4278728724
0.014905499 0.034204729 0.37900001 4278531345
0.01617907 0.034294982 0.38000003 4278728724
0.017413311 0.034294982 0.38000003 4278728724
0.018647552 0.034294982 0.38000003 4278596625
0.019881791 0.034294982 0.38000003 4278859797
0.021116031 0.034294982 0.38000003 4278728211
0.022350272 0.034294982 0.38000003 4278793750
0.023584513 0.034294982 0.38000003 4278727957
0.024818754 0.034294982 0.38000003 4278794004
0.026052997 0.034294982 0.38000003 4278596371
0.027287235 0.034294982 0.38000003 4278924566
0.028521474 0.034294982 0.38000003 4278924566
0.029755717 0.034294982 0.38000003 4279055638
0.030989956 0.034294982 0.38000003 4278989847
0.032224201 0.034294982 0.38000003 4278989593
0.033546485 0.034385227 0.38100001 4279121179
0.034783974 0.034385227 0.38100001 4279055386
0.036021464 0.034385227 0.38100001 4278923287
0.037258953 0.034385227 0.38100001 4279318045
0.038496442 0.034385227 0.38100001 4279054105
0.039733931 0.034385227 0.38100001 4279251484
0.040971417 0.034385227 0.38100001 4278658834
0.042208906 0.034385227 0.38100001 4278460685
0.043446396 0.034385227 0.38100001 4278197513
0.044801168 0.034475479 0.38200003 4278196227
0.046041902 0.034475479 0.38200003 4278194944
0.04728264 0.034475479 0.38200003 4278194176
0.048650399 0.034565728 0.38300002 4278195973
0.049894385 0.034565728 0.38300002 4278195971
0.051271889 0.034655977 0.384 4278196227
0.052655887 0.03474623 0.38500002 4278461455
0.054046385 0.034836479 0.38600001 4278395662
0.055300117 0.034836479 0.38600001 4278789648
0.05670036 0.034926727 0.38700002 4278793752
0.058107093 0.035016976 0.38800001 4278794265
0.059367318 0.035016976 0.38800001 4278400275
0.060783803 0.035107229 0.38900003 4278597654
0.062047273 0.035107229 0.38900003 4278531861
0.06331075 0.035107229 0.38900003 4278597654
0.064574219 0.035107229 0.38900003 4278531091
0.065837689 0.035107229 0.38900003 4279056922
0.06692867 0.035016976 0.38800001 4283461984
-0.014715571 0.035623137 0.38100001 4284249703
-0.013478083 0.035623137 0.38100001 4284184164
-0.012240593 0.035623137 0.38100001 4285236852
-0.011003105 0.035623137 0.38100001 4283724643
-0.0097656166 0.035623137 0.38100001 4281093436
-0.0085281283 0.035623137 0.38100001 4279252515
-0.007290639 0.035623137 0.38100001 4278660632
-0.0060531502 0.035623137 0.38100001 4278989595
-0.0048156618 0.035623137 0.38100001 4278990109
-0.0035781732 0.035623137 0.38100001 4278990879
-0.0023406844 0.035623137 0.38100001 4279056672
-0.0011031957 0.035623137 0.38100001 4278925086
0.00013394043 0.03552964 0.38000003 4279056672
0.0013681811 0.03552964 0.38000003 4279122976
0.0026024217 0.03552964 0.38000003 4278925597
0.0038366623 0.03552964 0.38000003 4278860056
0.0050575584 0.035436139 0.37900001 4278860056
0.0062885508 0.035436139 0.37900001 4278860056
0.0075195436 0.035436139 0.37900001 4278925849
0.0087505365 0.035436139 0.37900001 4278860310
0.010007866 0.03552964 0.38000003 4278531345
0.011242107 0.03552964 0.38000003 4278860310
0.012476347 0.03552964 0.38000003 4278860310
0.013710587 0.03552964 0.38000003 4278794517
0.014944828 0.03552964 0.38000003 4278794517
0.01617907 0.03552964 0.38000003 4278728724
0.017413311 0.03552964 0.38000003 4278860310
0.018647552 0.03552964 0.38000003 4278728724
0.019881791 0.03552964 0.38000003 4278728724
0.021116031 0.03552964 0.38000003 4278860310
0.022350272 0.03552964 0.38000003 4278662931
0.023584513 0.03552964 0.38000003 4278531345
0.024818754 0.03552964 0.38000003 4278662931
0.026052997 0.03552964 0.38000003 4278531345
0.027287235 0.03552964 0.38000003 4278728724
0.028521474 0.03552964 0.38000003 4278794517
0.029755717 0.03552964 0.38000003 4278662931
0.030989956 0.03552964 0.38000003 4278728470
0.032224201 0.03552964 0.38000003 4278728470
0.033546485 0.035623137 0.38100001 4278531091
0.034783974 0.035623137 0.38100001 4278531091
0.036021464 0.035623137 0.38100001 4278727957
0.037258953 0.035623137 0.38100001 4278727957
0.038496442 0.035623137 0.38100001 4278793750
0.039733931 0.035623137 0.38100001 4278727957
0.040971417 0.035623137 0.38100001 4278793750
0.042208906 0.035623137 0.38100001 4278727957
0.043446396 0.035623137 0.38100001 4278793750
0.044801168 0.035716638 0.38200003 4278727957
0.046041902 0.035716638 0.38200003 4278727189
0.04728264 0.035716638 0.38200003 4278727189
0.048650399 0.035810135 0.38300002 4278858261
0.050024655 0.035903633 0.384 4278923541
0.051271889 0.035903633 0.384 4279383068
0.052655887 0.035997134 0.38500002 4279383070
0.054046385 0.036090631 0.38600001 4279317275
0.055443384 0.036184132 0.38700002 4279120920
0.05670036 0.036184132 0.38700002 4278398992
0.058107093 0.036277629 0.38800001 4278728470
0.05952033 0.03637113 0.38900003 4278729240
0.060783803 0.03637113 0.38900003 4278531861
0.062047273 0.03637113 0.38900003 4278531861
0.06331075 0.03637113 0.38900003 4278597654
0.064574219 0.03637113 0.38900003 4278860056
0.065837689 0.03637113 0.38900003 4278266636
-0.014715571 0.036861043 0.38100001 4284249190
-0.013513459 0.036957793 0.38200003 4284314983
-0.012272721 0.036957793 0.38200003 4284578155
-0.011031985 0.036957793 0.38200003 4284644461
-0.0097912485 0.036957793 0.38200003 4284710768
-0.0085505117 0.036957793 0.38200003 4284710768
-0.007290639 0.036861043 0.38100001 4284710770
-0.0060531502 0.036861043 0.38100001 4284973942
-0.0048156618 0.036861043 0.38100001 4285369470
-0.0035781732 0.036861043 0.38100001 4285106296
-0.0023406844 0.036861043 0.38100001 4284908917
-0.0011031957 0.036861043 0.38100001 4284119401
0.00013394043 0.036764298 0.38000003 4282935642
0.0013681811 0.036764298 0.38000003 4281883724
0.0026024217 0.036764298 0.38000003 4280041518
0.0038366623 0.036764298 0.38000003 4278988060
0.0050709033 0.036764298 0.38000003 4278922521
0.0062885508 0.036667548 0.37900001 4278397460
0.0075195436 0.036667548 0.37900001 4278661146
0.0087505365 0.036667548 0.37900001 4278661144
0.010007866 0.036764298 0.38000003 4278661144
0.011242107 0.036764298 0.38000003 4279121693
0.012476347 0.036764298 0.38000003 4279055900
0.013710587 0.036764298 0.38000003 4279187486
0.014944828 0.036764298 0.38000003 4278925084
0.01617907 0.036764298 0.38000003 4278859804
0.017413311 0.036764298 0.38000003 4278859804
0.018647552 0.036764298 0.38000003 4279254816
0.019881791 0.036764298 0.38000003 4278728472
0.021116031 0.036764298 0.38000003 4278860058
0.022350272 0.036764298 0.38000003 4278991644
0.023584513 0.036764298 0.38000003 4278794265
0.024818754 0.036764298 0.38000003 4278794265
0.026052997 0.036764298 0.38000003 4278728472
0.027287235 0.036764298 0.38000003 4278728472
0.028521474 0.036764298 0.38000003 4278662679
0.029755717 0.036764298 0.38000003 4278728472
0.030989956 0.036764298 0.38000003 4278662679
0.032224201 0.036764298 0.38000003 4278662679
0.033546485 0.036861043 0.38100001 4278531093
0.034783974 0.036861043 0.38100001 4278728470
0.036021464 0.036861043 0.38100001 4278794263
0.037258953 0.036861043 0.38100001 4278794263
0.038496442 0.036861043 0.38100001 4278794263
0.039733931 0.036861043 0.38100001 4278794263
0.040971417 0.036861043 0.38100001 4278662677
0.042208906 0.036861043 0.38100001 4278662677
0.04356043 0.036957793 0.38200003 4278662679
0.044801168 0.036957793 0.38200003 4278662679
0.046041902 0.036957793 0.38200003 4278662679
0.04728264 0.036957793 0.38200003 4278662679
0.048650399 0.037054539 0.38300002 4278662677
0.050024655 0.037151288 0.384 4278859543
0.051405411 0.037248038 0.38500002 4278727957
0.052655887 0.037248038 0.38500002 4278793750
0.054046385 0.037344784 0.38600001 4278727957
0.055443384 0.037441533 0.38700002 4278727957
0.056846872 0.037538283 0.38800001 4278727957
0.058107093 0.037538283 0.38800001 4278531091
0.05952033 0.037635032 0.38900003 4278662677
0.060783803 0.037635032 0.38900003 4278728470
0.062047273 0.037635032 0.38900003 4278728470
0.06331075 0.037635032 0.38900003 4278728470
0.064574219 0.037635032 0.38900003 4279056154
0.065837689 0.037635032 0.38900003 4282738515
-0.013513459 0.038198952 0.38200003 4284314983
-0.012272721 0.038198952 0.38200003 4284512362
-0.011031985 0.038198952 0.38200003 4284512877
-0.0097912485 0.038198952 0.38200003 4284644463
-0.0085505117 0.038198952 0.38200003 4284973428
-0.0023406844 0.03809895 0.38100001 4284907635
-0.0011031957 0.03809895 0.38100001 4284776049
0.010007866 0.037998956 0.38000003 4283856744
0.011242107 0.037998956 0.38000003 4284054893
0.012476347 0.037998956 0.38000003 4283791721
0.013710587 0.037998956 0.38000003 4283001435
0.014944828 0.037998956 0.38000003 4281619782
0.01617907 0.037998956 0.38000003 4280304690
0.017413311 0.037998956 0.38000003 4279647273
0.018647552 0.037998956 0.38000003 4279318308
0.019881791 0.037998956 0.38000003 4278528794
0.021116031 0.037998956 0.38000003 4278266906
0.022350272 0.037998956 0.38000003 4278661146
0.023584513 0.037998956 0.38000003 4278792216
0.024818754 0.037998956 0.38000003 4279055388
0.026052997 0.037998956 0.38000003 4279186974
0.027287235 0.037998956 0.38000003 4279055902
0.028521474 0.037998956 0.38000003 4279187488
0.029755717 0.037998956 0.38000003 4279055902
0.030989956 0.037998956 0.38000003 4278990109
0.032308999 0.03809895 0.38100001 4279121695
0.033546485 0.03809895 0.38100001 4279056670
0.034783974 0.03809895 0.38100001 4279188510
0.036021464 0.03809895 0.38100001 4278991129
0.037258953 0.03809895 0.38100001 4278925336
0.038496442 0.03809895 0.38100001 4278793750
0.039733931 0.03809895 0.38100001 4278991131
0.040971417 0.03809895 0.38100001 4278991131
0.042208906 0.03809895 0.38100001 4279254303
0.04356043 0.038198952 0.38200003 4279188510
0.044801168 0.038198952 0.38200003 4278925338
0.046041902 0.038198952 0.38200003 4278991644
0.047406413 0.038298946 0.38300002 4279123230
0.048650399 0.038298946 0.38300002 4278860058
0.050024655 0.038398944 0.384 4278925849
0.051405411 0.038498942 0.38500002 4278860056
0.052792657 0.038598936 0.38600001 4278925336
0.054186404 0.038698938 0.38700002 4278991129
0.055443384 0.038698938 0.38700002 4279056922
0.056846872 0.038798932 0.38800001 4278925338
0.058256857 0.03889893 0.38900003 4279254303
0.05952033 0.03889893 0.38900003 4278925338
0.060783803 0.03889893 0.38900003 4278925338
0.062206775 0.038998928 0.39000002 4279188510
0.06331075 0.03889893 0.38900003 4278727189
0.064574219 0.03889893 0.38900003 4282145613
0.065837689 0.03889893 0.38900003 4284514161
0.067101166 0.03889893 0.38900003 4284644977
-0.011031985 0.039440107 0.38200003 4284578157
-0.0097912485 0.039440107 0.38200003 4284776049
0.028521474 0.039233614 0.38000003 4283396445
0.029755717 0.039233614 0.38000003 4282672722
0.030989956 0.039233614 0.38000003 4282541136
0.032308999 0.03933686 0.38100001 4282080585
0.033546485 0.03933686 0.38100001 4281290815
0.034783974 0.03933686 0.38100001 4281356608
0.036021464 0.03933686 0.38100001 4280765241
0.037258953 0.03933686 0.38100001 4280304690
0.038496442 0.03933686 0.38100001 4280041518
0.039733931 0.03933686 0.38100001 4280041518
0.040971417 0.03933686 0.38100001 4279778346
0.042319693 0.039440107 0.38200003 4279515174
0.04356043 0.039440107 0.38200003 4279515174
0.044801168 0.039440107 0.38200003 4279252256
0.046041902 0.039440107 0.38200003 4279186463
0.047406413 0.039543353 0.38300002 4279121183
0.048650399 0.039543353 0.38300002 4279121183
0.050024655 0.039646596 0.384 4279055390
0.051405411 0.039749846 0.38500002 4279318049
0.052792657 0.039853089 0.38600001 4279317279
0.054186404 0.039956339 0.38700002 4279252002
0.055586647 0.040059585 0.38800001 4279186209
0.056846872 0.040059585 0.38800001 4279252002
0.058256857 0.040162832 0.38900003 4279186463
0.05952033 0.040162832 0.38900003 4279515428
0.060940061 0.040266078 0.39000002 4280173358
0.062206775 0.040266078 0.39000002 4283001174
0.06331075 0.040162832 0.38900003 4284973426
0.064574219 0.040162832 0.38900003 4284973428
0.065837689 0.040162832 0.38900003 4284841842
0.036021464 0.040574767 0.38100001 4284645747
0.037258953 0.040574767 0.38100001 4284579954
0.038496442 0.040574767 0.38100001 4284645747
0.039733931 0.040574767 0.38100001 4284579954
0.040971417 0.040574767 0.38100001 4284645747
0.042319693 0.040681265 0.38200003 4284645747
0.04356043 0.040681265 0.38200003 4284645747
0.044801168 0.040681265 0.38200003 4284645747
0.046041902 0.040681265 0.38200003 4284843124
0.047406413 0.040787756 0.38300002 4284579952
0.048650399 0.040787756 0.38300002 4284448879
0.050024655 0.040894251 0.384 4284514672
0.051405411 0.04100075 0.38500002 4284579952
0.052792657 0.041107245 0.38600001 4284711538
0.054186404 0.04121374 0.38700002 4284579952
0.055586647 0.041320235 0.38800001 4284514159
0.056993388 0.041426733 0.38900003 4284579952
0.058256857 0.041426733 0.38900003 4284580206
0.05952033 0.041426733 0.38900003 4284514159
0.060940061 0.041533228 0.39000002 4284448366
0.062206775 0.041533228 0.39000002 4284644975
0.0634735 0.041533228 0.39000002 4284973426
0.064740218 0.041533228 0.39000002 4284973426
0.066006936 0.041533228 0.39000002 4284841840
0.015670337 0.028275024 0.38340959 4294967295
0.015670337 0.028275024 0.38340959 4294901760
0.015732648 0.027779547 0.38338467 4294901760
0.015794959 0.027284073 0.38335973 4294901760
0.015857268 0.026788596 0.38333482 4294901760
0.015919579 0.026293121 0.3833099 4294901760
0.01598189 0.025797645 0.38328499 4294901760
0.016044201 0.02530217 0.38326004 4294901760
0.016106512 0.024806693 0.38323513 4294901760
0.016168822 0.024311218 0.38321021 4294901760
0.016231133 0.023815742 0.38318527 4294901760
0.016293444 0.023320265 0.38316035 4294901760
0.016355755 0.02282479 0.38313544 4294901760
0.016418066 0.022329316 0.38311052 4294901760
0.016480375 0.021833839 0.38308558 4294901760
0.016542686 0.021338362 0.38306066 4294901760
0.016604997 0.020842887 0.38303575 4294901760
0.016667308 0.020347413 0.38301083 4294901760
0.016729619 0.019851936 0.38298589 4294901760
0.01679193 0.019356459 0.38296098 4294901760
0.01685424 0.018860985 0.38293606 4294901760
0.016916551 0.018365508 0.38291112 4294901760
0.016978862 0.017870033 0.3828862 4294901760
0.017041173 0.017374557 0.38286129 4294901760
0.017103484 0.016879082 0.38283637 4294901760
0.017165793 0.016383605 0.38281143 4294901760
0.017228104 0.015888128 0.38278651 4294901760
0.017290415 0.015392654 0.3827616 4294901760
0.017352726 0.014897177 0.38273665 4294901760
0.017415037 0.014401702 0.38271174 4294901760
0.017477347 0.013906226 0.38268682 4294901760
0.017539658 0.01341075 0.38266191 4294901760
0.017601969 0.012915274 0.38263696 4294901760
0.01766428 0.012419799 0.38261205 4294901760
0.017726591 0.011924323 0.38258713 4294901760
0.017788902 0.011428848 0.38256219 4294901760
0.017851211 0.010933371 0.38253728 4294901760
0.017913522 0.010437895 0.38251236 4294901760
0.017975833 0.0099424198 0.38248745 4294901760
0.018038144 0.009446945 0.3824625 4294901760
0.018100455 0.0089514684 0.38243759 4294901760
0.018162765 0.0084559917 0.38241267 4294901760
0.018225076 0.007960517 0.38238776 4294901760
0.018287387 0.0074650422 0.38236281 4294901760
0.018349698 0.0069695655 0.3823379 4294901760
0.018412009 0.0064740889 0.38231298 4294901760
0.018474318 0.0059786141 0.38228804 4294901760
0.018536629 0.0054831374 0.38226312 4294901760
0.01859894 0.0049876627 0.38223821 4294901760
0.018661251 0.004492186 0.38221329 4294901760
0.018723562 0.0039967094 0.38218835 4294901760
0.018785872 0.0035012346 0.38216344 4294901760
0.018848183 0.0030057598 0.38213852 4294901760
0.018910494 0.0025102831 0.38211358 4294901760
0.018972805 0.0020148084 0.38208866 4294901760
0.019035116 0.0015193298 0.38206375 4294901760
0.019097427 0.0010238551 0.38203883 4294901760
0.019159736 0.00052838027 0.38201389 4294901760
0.019222047 3.2903627e-05 0.38198897 4294901760
0.019284358 -0.00046257116 0.38196406 4294901760
0.019346669 -0.00095804594 0.38193911 4294901760
0.01940898 -0.0014535245 0.3819142 4294901760
0.019471291 -0.0019489992 0.38188928 4294901760
0.019533601 -0.0024444759 0.38186437 4294901760
0.019595912 -0.0029399507 0.38183942 4294901760
0.019658223 -0.0034354255 0.38181451 4294901760
0.019720532 -0.0039309002 0.38178959 4294901760
0.019782845 -0.0044263788 0.38176468 4294901760
0.019845154 -0.0049218535 0.38173974 4294901760
0.019907465 -0.0054173283 0.38171482 4294901760
0.019969776 -0.0059128068 0.38168991 4294901760
0.020032087 -0.0064082816 0.38166496 4294901760
0.020094398 -0.0069037564 0.38164005 4294901760
0.020156708 -0.0073992349 0.38161513 4294901760
0.020219019 -0.0078947097 0.38159022 4294901760
0.02028133 -0.0083901845 0.38156527 4294901760
0.020343641 -0.0088856593 0.38154036 4294901760
0.020405952 -0.0093811341 0.38151544 4294901760
0.020468261 -0.0098766126 0.3814905 4294901760
0.020530572 -0.010372087 0.38146558 4294901760
0.020592883 -0.010867566 0.38144067 4294901760
0.020655194 -0.011363041 0.38141575 4294901760
0.020717505 -0.011858515 0.38139081 4294901760
0.020779815 -0.01235399 0.3813659 4294901760
0.020842126 -0.012849465 0.38134098 4294901760
0.020904437 -0.01334494 0.38131604 4294901760
0.020966748 -0.013840418 0.38129112 4294901760
0.021029059 -0.014335893 0.38126621 4294901760
0.021091368 -0.014831372 0.38124129 4294901760
0.021153679 -0.015326846 0.38121635 4294901760
0.02121599 -0.015822321 0.38119143 4294901760
0.021278301 -0.016317796 0.38116652 4294901760
0.021340612 -0.016813274 0.3811416 4294901760
0.021402922 -0.017308749 0.38111666 4294901760
0.021465233 -0.017804224 0.38109174 4294901760
0.021527544 -0.018299699 0.38106683 4294901760
0.021589855 -0.018795174 0.38104188 4294901760
0.021652166 -0.019290652 0.38101697 4294901760
0.021714477 -0.019786131 0.38099205 4294901760
0.021776788 -0.020281605 0.38096714 4294901760
0.021839097 -0.02077708 0.3809422 4294901760
0.021901408 -0.021272555 0.38091728 4294901760
0.015670337 0.028275024 0.38340959 4278255360
0.016165525 0.028338665 0.38338241 4278255360
0.016660715 0.028402306 0.38335526 4278255360
0.017155902 0.028465947 0.38332808 4278255360
0.01765109 0.028529588 0.38330093 4278255360
0.01814628 0.028593229 0.38327375 4278255360
0.018641468 0.02865687 0.38324657 4278255360
0.019136656 0.028720513 0.38321942 4278255360
0.019631846 0.028784154 0.38319224 4278255360
0.020127034 0.028847795 0.38316509 4278255360
0.020622224 0.028911436 0.38313791 4278255360
0.021117412 0.028975077 0.38311076 4278255360
0.021612599 0.029038718 0.38308358 4278255360
0.022107787 0.029102359 0.3830564 4278255360
0.022602977 0.029166 0.38302925 4278255360
0.023098167 0.029229641 0.38300207 4278255360
0.023593355 0.029293282 0.38297492 4278255360
0.024088543 0.029356923 0.38294774 4278255360
0.024583731 0.029420564 0.38292056 4278255360
0.025078921 0.029484205 0.38289341 4278255360
0.02557411 0.029547848 0.38286623 4278255360
0.026069298 0.029611489 0.38283908 4278255360
0.026564486 0.02967513 0.3828119 4278255360
0.027059674 0.029738771 0.38278472 4278255360
0.027554862 0.029802412 0.38275757 4278255360
0.028050052 0.029866053 0.38273039 4278255360
0.02854524 0.029929694 0.38270324 4278255360
0.02904043 0.029993335 0.38267606 4278255360
0.029535618 0.030056976 0.38264889 4278255360
0.030030806 0.030120617 0.38262174 4278255360
0.030525995 0.030184258 0.38259456 4278255360
0.031021183 0.030247901 0.38256741 4278255360
0.031516373 0.03031154 0.38254023 4278255360
0.032011561 0.030375183 0.38251308 4278255360
0.032506749 0.030438824 0.3824859 4278255360
0.033001937 0.030502465 0.38245872 4278255360
0.033497125 0.030566106 0.38243157 4278255360
0.033992313 0.030629747 0.38240439 4278255360
0.034487505 0.030693388 0.38237724 4278255360
0.034982692 0.030757029 0.38235006 4278255360
0.035477884 0.03082067 0.38232288 4278255360
0.035973072 0.030884311 0.38229573 4278255360
0.03646826 0.030947952 0.38226855 4278255360
0.036963448 0.031011593 0.3822414 4278255360
0.037458636 0.031075235 0.38221422 4278255360
0.037953824 0.031138875 0.38218704 4278255360
0.038449012 0.031202517 0.38215989 4278255360
0.0389442 0.031266157 0.38213271 4278255360
0.039439388 0.031329799 0.38210556 4278255360
0.039934579 0.031393439 0.38207838 4278255360
0.040429767 0.031457081 0.38205123 4278255360
0.040924955 0.031520724 0.38202405 4278255360
0.041420143 0.031584363 0.38199687 4278255360
0.041915331 0.031648006 0.38196972 4278255360
0.042410523 0.031711645 0.38194254 4278255360
0.042905711 0.031775288 0.38191539 4278255360
0.043400899 0.031838927 0.38188821 4278255360
0.043896087 0.03190257 0.38186103 4278255360
0.044391274 0.031966209 0.38183388 4278255360
0.044886462 0.032029852 0.3818067 4278255360
0.045381654 0.032093491 0.38177955 4278255360
0.045876842 0.032157134 0.38175237 4278255360
0.04637203 0.032220773 0.38172519 4278255360
0.046867222 0.032284416 0.38169804 4278255360
0.047362406 0.032348059 0.38167086 4278255360
0.047857594 0.032411698 0.38164371 4278255360
0.048352785 0.032475341 0.38161653 4278255360
0.048847973 0.03253898 0.38158935 4278255360
0.049343161 0.032602623 0.3815622 4278255360
0.049838349 0.032666262 0.38153502 4278255360
0.050333537 0.032729905 0.38150787 4278255360
0.050828725 0.032793544 0.38148069 4278255360
0.051323917 0.032857187 0.38145354 4278255360
0.051819105 0.03292083 0.38142636 4278255360
0.052314293 0.032984469 0.38139918 4278255360
0.052809484 0.033048108 0.38137203 4278255360
0.053304672 0.033111751 0.38134485 4278255360
0.05379986 0.033175394 0.3813177 4278255360
0.054295048 0.033239033 0.38129053 4278255360
0.05479024 0.033302676 0.38126335 4278255360
0.055285428 0.033366315 0.3812362 4278255360
0.055780616 0.033429958 0.38120902 4278255360
0.056275804 0.033493597 0.38118187 4278255360
0.056770992 0.03355724 0.38115469 4278255360
0.057266179 0.033620879 0.38112751 4278255360
0.057761371 0.033684522 0.38110036 4278255360
0.058256559 0.033748165 0.38107318 4278255360
0.058751747 0.033811804 0.38104603 4278255360
0.059246935 0.033875443 0.38101885 4278255360
0.059742123 0.033939086 0.38099167 4278255360
0.060237311 0.034002729 0.38096452 4278255360
0.060732502 0.034066368 0.38093734 4278255360
0.06122769 0.034130011 0.38091019 4278255360
0.061722878 0.03419365 0.38088301 4278255360
0.062218066 0.034257293 0.38085586 4278255360
0.062713251 0.034320932 0.38082868 4278255360
0.063208446 0.034384575 0.3808015 4278255360
0.063703634 0.034448214 0.38077435 4278255360
0.064198822 0.034511857 0.38074717 4278255360
0.06469401 0.0345755 0.38072002 4278255360
0.065189198 0.034639139 0.38069284 4278255360
0.015670337 0.028275024 0.38340959 4278190335
0.015656497 0.02824818 0.38390869 4278190335
0.01564266 0.028221333 0.38440776 4278190335
0.01562882 0.028194489 0.38490686 4278190335
0.015614982 0.028167643 0.38540593 4278190335
0.015601143 0.028140798 0.38590503 4278190335
0.015587305 0.028113954 0.3864041 4278190335
0.015573466 0.028087107 0.3869032 4278190335
0.015559627 0.028060263 0.3874023 4278190335
0.015545788 0.028033417 0.38790137 4278190335
0.01553195 0.028006572 0.38840047 4278190335
0.015518111 0.027979728 0.38889953 4278190335
0.015504272 0.027952882 0.38939863 4278190335
0.015490433 0.027926037 0.38989773 4278190335
0.015476595 0.027899193 0.3903968 4278190335
0.015462756 0.027872346 0.3908959 4278190335
0.015448918 0.027845502 0.39139497 4278190335
0.015435078 0.027818656 0.39189407 4278190335
0.01542124 0.027791811 0.39239314 4278190335
0.015407401 0.027764967 0.39289224 4278190335
0.015393563 0.02773812 0.39339134 4278190335
0.015379724 0.027711276 0.39389041 4278190335
0.015365885 0.02768443 0.39438951 4278190335
0.015352046 0.027657585 0.39488858 4278190335
0.015338208 0.027630741 0.39538768 4278190335
0.015324369 0.027603894 0.39588678 4278190335
0.015310531 0.02757705 0.39638585 4278190335
0.015296691 0.027550204 0.39688495 4278190335
0.015282853 0.027523359 0.39738402 4278190335
0.015269014 0.027496515 0.39788312 4278190335
0.015255176 0.027469669 0.39838219 4278190335
0.015241336 0.027442824 0.39888129 4278190335
0.015227498 0.02741598 0.39938039 4278190335
0.015213659 0.027389133 0.39987946 4278190335
0.015199821 0.027362289 0.40037856 4278190335
0.015185982 0.027335443 0.40087762 4278190335
0.015172143 0.027308598 0.40137672 4278190335
0.015158304 0.027281754 0.40187579 4278190335
0.015144465 0.027254907 0.40237489 4278190335
0.015130627 0.027228063 0.40287399 4278190335
0.015116788 0.027201217 0.40337306 4278190335
0.015102949 0.027174372 0.40387216 4278190335
0.01508911 0.027147528 0.40437123 4278190335
0.015075272 0.027120681 0.40487033 4278190335
0.015061433 0.027093837 0.4053694 4278190335
0.015047595 0.027066991 0.4058685 4278190335
0.015033755 0.027040146 0.4063676 4278190335
0.015019917 0.027013302 0.40686667 4278190335
0.015006078 0.026986456 0.40736577 4278190335
0.01499224 0.026959611 0.40786484 4278190335
0.014978401 0.026932765 0.40836394 4278190335
0.014964562 0.02690592 0.40886304 4278190335
0.014950723 0.026879076 0.40936211 4278190335
0.014936885 0.02685223 0.40986121 4278190335
0.014923046 0.026825385 0.41036028 4278190335
0.014909207 0.026798541 0.41085938 4278190335
0.014895368 0.026771694 0.41135848 4278190335
0.01488153 0.02674485 0.41185755 4278190335
0.014867691 0.026718004 0.41235664 4278190335
0.014853853 0.026691159 0.41285571 4278190335
0.014840013 0.026664315 0.41335481 4278190335
0.014826175 0.026637468 0.41385388 4278190335
0.014812336 0.026610624 0.41435298 4278190335
0.014798498 0.026583778 0.41485208 4278190335
0.014784659 0.026556933 0.41535115 4278190335
0.01477082 0.026530089 0.41585025 4278190335
0.014756981 0.026503243 0.41634932 4278190335
0.014743143 0.026476398 0.41684842 4278190335
0.014729304 0.026449554 0.41734749 4278190335
0.014715465 0.026422707 0.41784659 4278190335
0.014701626 0.026395863 0.41834569 4278190335
0.014687788 0.026369017 0.41884476 4278190335
0.014673949 0.026342172 0.41934386 4278190335
0.014660111 0.026315328 0.41984293 4278190335
0.014646271 0.026288481 0.42034203 4278190335
0.014632433 0.026261637 0.4208411 4278190335
0.014618594 0.026234791 0.4213402 4278190335
0.014604756 0.026207946 0.4218393 4278190335
0.014590917 0.026181102 0.42233837 4278190335
0.014577078 0.026154255 0.42283747 4278190335
0.014563239 0.026127411 0.42333654 4278190335
0.014549401 0.026100565 0.42383564 4278190335
0.014535562 0.02607372 0.4243347 4278190335
0.014521724 0.026046876 0.4248338 4278190335
0.014507884 0.02602003 0.4253329 4278190335
0.014494046 0.025993185 0.42583197 4278190335
0.014480207 0.025966339 0.42633107 4278190335
0.014466369 0.025939494 0.42683017 4278190335
0.01445253 0.02591265 0.42732924 4278190335
0.014438691 0.025885804 0.42782834 4278190335
0.014424852 0.025858959 0.42832741 4278190335
0.014411014 0.025832113 0.42882651 4278190335
0.014397175 0.025805268 0.42932558 4278190335
0.014383337 0.025778424 0.42982468 4278190335
0.014369497 0.025751578 0.43032378 4278190335
0.014355659 0.025724733 0.43082285 4278190335
0.01434182 0.025697889 0.43132195 4278190335
0.014327982 0.025671043 0.43182102 4278190335
0.014314142 0.025644198 0.43232012 4278190335
0.014300304 0.025617352 0.43281919 4278190335
0.014286465 0.025590507 0.43331829 4278190335
0.015670337 0.028275024 0.38340959 4294967295
0.01575337 0.028436095 0.38041508 4294967295
0.015836401 0.028597167 0.37742054 4294967295
0.015919434 0.028758237 0.37442604 4294967295
0.016002467 0.028919308 0.3714315 4294967295
0.016085498 0.02908038 0.36843699 4294967295
0.016168531 0.02924145 0.36544245 4294967295
0.016251562 0.029402521 0.36244795 4294967295
0.016334595 0.029563593 0.35945341 4294967295
0.016417628 0.029724663 0.3564589 4294967295
0.016500659 0.029885734 0.35346437 4294967295
0.016583692 0.030046806 0.35046986 4294967295
0.016666725 0.030207876 0.34747532 4294967295
0.016749756 0.030368946 0.34448081 4294967295
0.016832789 0.030530019 0.34148628 4294967295
0.016915822 0.030691089 0.33849177 4294967295
0.016998854 0.030852159 0.33549723 4294967295
0.017081887 0.031013232 0.33250272 4294967295
0.01716492 0.031174302 0.32950819 4294967295
0.017247951 0.031335372 0.32651368 4294967295
0.017330984 0.031496443 0.32351914 4294967295
0.017414015 0.031657517 0.32052463 4294967295
0.017497048 0.031818587 0.3175301 4294967295
0.017580081 0.031979658 0.31453559 4294967295
0.017663112 0.032140728 0.31154105 4294967295
0.017746145 0.032301798 0.30854654 4294967295
0.017829178 0.032462869 0.30555201 4294967295
0.017912209 0.032623943 0.3025575 4294967295
0.017995242 0.032785013 0.29956296 4294967295
0.018078275 0.032946084 0.29656845 4294967295
0.018161306 0.033107154 0.29357392 4294967295
0.018244339 0.033268224 0.29057941 4294967295
0.01832737 0.033429295 0.2875849 4294967295
0.018410403 0.033590369 0.28459036 4294967295
0.018493436 0.033751439 0.28159583 4294967295
0.018576467 0.03391251 0.27860132 4294967295
0.0186595 0.03407358 0.27560678 4294967295
0.018742533 0.03423465 0.27261227 4294967295
0.018825565 0.034395725 0.26961774 4294967295
0.018908598 0.034556795 0.26662323 4294967295
0.018991631 0.034717865 0.26362869 4294967295
0.019074662 0.034878936 0.26063418 4294967295
0.019157695 0.035040006 0.25763965 4294967295
0.019240726 0.035201076 0.25464514 4294967295
0.019323759 0.035362147 0.25165063 4294967295
0.019406792 0.035523221 0.24865609 4294967295
0.019489825 0.035684291 0.24566157 4294967295
0.019572856 0.035845362 0.24266705 4294967295
0.019655889 0.036006432 0.23967253 4294967295
0.01973892 0.036167502 0.236678 4294967295
0.019821953 0.036328577 0.23368348 4294967295
0.019904986 0.036489647 0.23068896 4294967295
0.019988017 0.036650717 0.22769444 4294967295
0.02007105 0.036811788 0.22469993 4294967295
0.020154083 0.036972858 0.22170539 4294967295
0.020237114 0.037133932 0.21871087 4294967295
0.020320147 0.037294999 0.21571635 4294967295
0.02040318 0.037456073 0.21272182 4294967295
0.020486211 0.037617143 0.2097273 4294967295
