# .PCD v0.7 - Point Cloud Data file format
VERSION 0.7
FIELDS x y z rgb
SIZE 4 4 4 4
TYPE F F F U
COUNT 1 1 1 1
WIDTH 822
HEIGHT 1
VIEWPOINT 0 0 0 1 0 0 0
POINTS 822
DATA ascii
-0.0078838412 -0.013684968 0.41200003 4283922276
-0.0065456638 -0.013684968 0.41200003 4283460955
-0.0052074874 -0.013684968 0.41200003 4284316264
0.046478644 -0.015279333 0.46000001 4286751886
0.047972724 -0.015279333 0.46000001 4286422921
0.049466804 -0.015279333 0.46000001 4286159751
0.050960883 -0.015279333 0.46000001 4286159751
0.052454963 -0.015279333 0.46000001 4286159751
0.053949047 -0.015279333 0.46000001 4285896579
0.055443127 -0.015279333 0.46000001 4286028165
0.056937207 -0.015279333 0.46000001 4285962372
0.058304261 -0.015246117 0.45900002 4285962372
0.059795097 -0.015246117 0.45900002 4286028165
0.061285932 -0.015246117 0.45900002 4285962372
0.062776759 -0.015246117 0.45900002 4285962372
0.064267598 -0.015246117 0.45900002 4286620302
0.065758429 -0.015246117 0.45900002 4286225544
0.00014486714 -0.012316371 0.41100001 4281682493
0.034826223 -0.013904613 0.46400002 4286817681
0.036333296 -0.013904613 0.46400002 4286949267
0.037840366 -0.013904613 0.46400002 4286751888
0.039262641 -0.013874647 0.46300003 4286817681
0.040766466 -0.013874647 0.46300003 4286751886
0.042178992 -0.01384468 0.46200001 4287146644
0.04498456 -0.013784746 0.46000001 4286489997
0.046478644 -0.013784746 0.46000001 4285307007
0.047972724 -0.013784746 0.46000001 4283859561
0.049466804 -0.013784746 0.46000001 4282938457
0.050850101 -0.013754779 0.45900002 4282544212
0.052340932 -0.013754779 0.45900002 4281558600
0.053831767 -0.013754779 0.45900002 4280901956
0.055322599 -0.013754779 0.45900002 4281231434
0.05681343 -0.013754779 0.45900002 4280639295
0.058304261 -0.013754779 0.45900002 4281034053
0.059795097 -0.013754779 0.45900002 4279981619
0.061285932 -0.013754779 0.45900002 4280574526
0.062776759 -0.013754779 0.45900002 4280574526
0.064267598 -0.013754779 0.45900002 4279850803
0.065758429 -0.013754779 0.45900002 4279851316
0.067249268 -0.013754779 0.45900002 4279850549
0.068889849 -0.013784746 0.46000001 4281558602
-0.0011929572 -0.011007708 0.41200003 4281418808
0.00014486714 -0.010980991 0.41100001 4281747773
0.028859997 -0.012423749 0.46500003 4286883474
0.030370317 -0.012423749 0.46500003 4286751888
0.031880639 -0.012423749 0.46500003 4286818451
0.033390958 -0.012423749 0.46500003 4287147416
0.034826223 -0.01239703 0.46400002 4287082136
0.036333296 -0.01239703 0.46400002 4286293132
0.037840366 -0.01239703 0.46400002 4284254832
0.039262641 -0.012370314 0.46300003 4282742363
0.040766466 -0.012370314 0.46300003 4281362245
0.042178992 -0.012343595 0.46200001 4280639549
0.043585028 -0.012316878 0.46100003 4280048693
0.04498456 -0.012290159 0.46000001 4279456810
0.046478644 -0.012290159 0.46000001 4279787059
0.047868434 -0.012263442 0.45900002 4279852852
0.049359266 -0.012263442 0.45900002 4279260713
0.050739318 -0.012236725 0.45800003 4279523885
0.052226901 -0.012236725 0.45800003 4279524398
0.053714488 -0.012236725 0.45800003 4279458605
0.055202074 -0.012236725 0.45800003 4279458607
0.056689657 -0.012236725 0.45800003 4279327021
0.05817724 -0.012236725 0.45800003 4280116537
0.059664827 -0.012236725 0.45800003 4279064617
0.061152413 -0.012236725 0.45800003 4279459375
0.062639996 -0.012236725 0.45800003 4279393582
0.064267598 -0.012263442 0.45900002 4279130923
0.065758429 -0.012263442 0.45900002 4279130923
0.067249268 -0.012263442 0.45900002 4278933292
0.068889849 -0.012290159 0.46000001 4279459123
0.070383936 -0.012290159 0.46000001 4281360710
0.0066867708 -0.0094578601 0.40300003 4281224761
0.0079957154 -0.0094578601 0.40300003 4279780906
0.0093046604 -0.0094578601 0.40300003 4280181051
0.010613605 -0.0094578601 0.40300003 4279786807
0.01192255 -0.0094578601 0.40300003 4281428813
0.013231495 -0.0094578601 0.40300003 4285046401
0.028859997 -0.010912916 0.46500003 4283992430
0.030370317 -0.010912916 0.46500003 4282282323
0.031880639 -0.010912916 0.46500003 4281493831
0.033390958 -0.010912916 0.46500003 4280573756
0.03490128 -0.010912916 0.46500003 4280113975
0.036333296 -0.010889446 0.46400002 4280246072
0.037840366 -0.010889446 0.46400002 4279787570
0.039262641 -0.010865978 0.46300003 4279524398
0.040766466 -0.010865978 0.46300003 4279393582
0.042087696 -0.010819041 0.46100003 4279459888
0.043490481 -0.010795572 0.46000001 4279723058
0.04498456 -0.010795572 0.46000001 4279394093
0.046377603 -0.010772103 0.45900002 4279328300
0.047868434 -0.010772103 0.45900002 4279065128
0.049251731 -0.010748635 0.45800003 4278670370
0.050628532 -0.010725167 0.45700002 4278868003
0.052112866 -0.010725167 0.45700002 4278868001
0.053597208 -0.010725167 0.45700002 4278868001
0.055081543 -0.010725167 0.45700002 4278341657
0.056565877 -0.010725167 0.45700002 4278604829
0.05817724 -0.010748635 0.45800003 4278670624
0.059664827 -0.010748635 0.45800003 4278539038
0.061152413 -0.010748635 0.45800003 4278604829
0.062639996 -0.010748635 0.45800003 4278210073
0.064127579 -0.010748635 0.45800003 4278408222
0.06561517 -0.010748635 0.45800003 4278474015
0.067249268 -0.010772103 0.45900002 4278538784
0.068740092 -0.010772103 0.45900002 4279196205
0.070383936 -0.010795572 0.46000001 4279257131
-0.0051948479 -0.0083102286 0.41100001 4281878338
-0.003859919 -0.0083102286 0.41100001 4283524951
-0.0025311338 -0.0083304485 0.41200003 4281617724
0.0080155563 -0.0081686918 0.40400001 4280434727
0.0093277488 -0.0081686918 0.40400001 4278996007
0.010639941 -0.0081686918 0.40400001 4279129388
0.011952134 -0.0081686918 0.40400001 4278801706
0.013264327 -0.0081686918 0.40400001 4279393843
0.028859997 -0.0094020832 0.46500003 4279590963
0.030370317 -0.0094020832 0.46500003 4279459890
0.031880639 -0.0094020832 0.46500003 4279525683
0.033390958 -0.0094020832 0.46500003 4279525683
0.03490128 -0.0094020832 0.46500003 4279460658
0.036333296 -0.0093818633 0.46400002 4279263277
0.037840366 -0.0093818633 0.46400002 4278868519
0.039347444 -0.0093818633 0.46400002 4279394863
0.040854514 -0.0093818633 0.46400002 4278802980
0.042087696 -0.0093212053 0.46100003 4278671394
0.043490481 -0.0093009854 0.46000001 4278802980
0.044886768 -0.0092807664 0.45900002 4278539808
0.046377603 -0.0092807664 0.45900002 4278670624
0.047764149 -0.0092605464 0.45800003 4278539038
0.049144194 -0.0092403265 0.45700002 4278539038
0.050406963 -0.0091998875 0.45500001 4278604831
0.051884804 -0.0091998875 0.45500001 4278538523
0.053479929 -0.0092201075 0.45600003 4278538523
0.054961015 -0.0092201075 0.45600003 4278735132
0.056442104 -0.0092201075 0.45600003 4278472730
0.058050212 -0.0092403265 0.45700002 4278539036
0.059534553 -0.0092403265 0.45700002 4278407450
0.061018892 -0.0092403265 0.45700002 4278406937
0.062503226 -0.0092403265 0.45700002 4278604318
0.064127579 -0.0092605464 0.45800003 4279129892
0.06561517 -0.0092605464 0.45800003 4278735134
0.067249268 -0.0092807664 0.45900002 4279325990
0.068740092 -0.0092807664 0.45900002 4279391787
0.070383936 -0.0093009854 0.46000001 4278993447
-0.0051822085 -0.0069578765 0.41000003 4281616187
-0.003859919 -0.0069748466 0.41100001 4283394133
0.0093508381 -0.0068730246 0.40500003 4278862361
0.010666278 -0.0068730246 0.40500003 4279193636
0.012011304 -0.0068899947 0.40600002 4278406687
0.013329992 -0.0068899947 0.40600002 4278407968
0.014756921 -0.0069409059 0.40900001 4279328302
0.030435629 -0.0079082204 0.46600002 4278671656
0.0319492 -0.0079082204 0.46600002 4278671656
0.033462767 -0.0079082204 0.46600002 4278737449
0.034976333 -0.0079082204 0.46600002 4278605861
0.036489904 -0.0079082204 0.46600002 4278342689
0.038003474 -0.0079082204 0.46600002 4278540322
0.039517045 -0.0079082204 0.46600002 4278539808
0.041030612 -0.0079082204 0.46600002 4279065380
0.042544179 -0.0079082204 0.46600002 4278604829
0.044057749 -0.0079082204 0.46600002 4278670624
0.045571316 -0.0079082204 0.46600002 4278670111
0.047084887 -0.0079082204 0.46600002 4278867490
0.047659859 -0.0077554868 0.45700002 4278735904
0.049144194 -0.0077554868 0.45700002 4278604318
0.050185394 -0.0076876045 0.45300001 4278800927
0.051656738 -0.0076876045 0.45300001 4278866718
0.053245366 -0.0077045755 0.45400003 4278866718
0.054840483 -0.0077215456 0.45500001 4278734619
0.056318324 -0.0077215456 0.45500001 4278800412
0.057796162 -0.0077215456 0.45500001 4279392035
0.05940428 -0.0077385162 0.45600003 4278535704
0.060885374 -0.0077385162 0.45600003 4278203918
0.062503226 -0.0077554868 0.45700002 4278199296
0.063987561 -0.0077554868 0.45700002 4278199811
0.065471902 -0.0077554868 0.45700002 4279652906
0.067102753 -0.0077724573 0.45800003 4279522601
0.068740092 -0.0077894274 0.45900002 4279654189
0.070230931 -0.0077894274 0.45900002 4279584814
-0.011609576 -0.005515974 0.40200001 4281551677
-0.010355142 -0.0055434168 0.40400001 4281485884
0.00014662951 -0.0057080728 0.41600001 4279904287
0.0093739256 -0.0055708596 0.40600002 4279254553
0.01071895 -0.0055845808 0.40700001 4278862875
0.012070472 -0.005598302 0.40800002 4278601499
0.013395658 -0.005598302 0.40800002 4278602267
0.014793002 -0.0056257448 0.41000003 4278669857
0.01620334 -0.0056531876 0.41200003 4278670372
0.017584093 -0.0056669088 0.41300002 4278408234
0.018971344 -0.0056806304 0.41400003 4279000623
0.020365089 -0.0056943516 0.41500002 4279132205
0.021713009 -0.0056943516 0.41500002 4279329324
0.034822926 -0.0058590076 0.42700002 4278670624
0.036294624 -0.0058727288 0.42800003 4278999589
0.037860863 -0.0059001711 0.43000001 4278604318
0.039440095 -0.0059276139 0.43200001 4278670111
0.040937781 -0.0059413356 0.43300003 4278866466
0.042637542 -0.0059824996 0.43600002 4279064099
0.044255752 -0.0060099419 0.43800002 4278866720
0.045991242 -0.0060511059 0.44100001 4278932000
0.047638681 -0.0060785487 0.44300002 4279062818
0.049742259 -0.0061608767 0.44900003 4279061535
0.051428676 -0.0061883195 0.45100003 4278466831
0.053010803 -0.0062020407 0.45200002 4278201860
0.054599427 -0.0062157619 0.45300001 4278201091
0.056194548 -0.0062294835 0.45400003 4278202122
0.05766914 -0.0062294835 0.45400003 4279321377
0.059274007 -0.0062432047 0.45500001 4280046383
0.060751848 -0.0062432047 0.45500001 4279585832
0.062366456 -0.0062569259 0.45600003 4279849004
0.063847549 -0.0062569259 0.45600003 4278862363
0.065471902 -0.006270647 0.45700002 4279850285
0.067102753 -0.0062843687 0.45800003 4279391017
0.068590336 -0.0062843687 0.45800003 4279785523
0.070230931 -0.0062980899 0.45900002 4280109875
0.0014977981 -0.0043564462 0.41600001 4280102432
0.0028489667 -0.0043564462 0.41600001 4279970844
0.0094201034 -0.0042726686 0.40800002 4279450648
0.010771624 -0.0042831404 0.40900001 4279320859
0.012100057 -0.0042831404 0.40900001 4278797080
0.013461323 -0.0042936131 0.41000003 4278929949
0.014829082 -0.0043040849 0.41100001 4278865439
0.016242668 -0.0043250294 0.41300002 4278931746
0.017626671 -0.0043355017 0.41400003 4278867236
0.019017167 -0.004345974 0.41500002 4278538784
0.020365089 -0.004345974 0.41500002 4278670370
0.021765329 -0.0043564462 0.41600001 4278538784
0.023172066 -0.0043669185 0.41700003 4278473761
0.024526484 -0.0043669185 0.41700003 4278539808
0.025942964 -0.0043773907 0.41800001 4278737187
0.027365942 -0.004387863 0.41900003 4278933796
0.028726855 -0.004387863 0.41900003 4278207252
0.030231385 -0.0044088075 0.42100003 4279260451
0.031673849 -0.0044192798 0.42200002 4278800927
0.033201117 -0.0044402243 0.42400002 4278735134
0.034741372 -0.0044611688 0.42600003 4279064099
0.036294624 -0.0044821128 0.42800003 4278735134
0.037860863 -0.0045030573 0.43000001 4278800673
0.0393488 -0.0045135296 0.43100002 4279063332
0.040937781 -0.0045344741 0.43300003 4278929951
0.042539749 -0.0045554186 0.43500003 4278797595
0.044255752 -0.0045868354 0.43800002 4278200064
0.045886952 -0.0046077799 0.44000003 4278201349
0.047638681 -0.0046391962 0.44300002 4279650596
0.04952069 -0.0046810852 0.44700003 4280440110
0.05120061 -0.0047020297 0.44900003 4280242731
0.052776244 -0.004712502 0.45000002 4279519521
0.054478899 -0.0047334465 0.45200002 4279586084
0.056070771 -0.0047439183 0.45300001 4279257633
0.05766914 -0.004754391 0.45400003 4279257633
0.059143737 -0.004754391 0.45400003 4279652904
0.060751848 -0.0047648628 0.45500001 4278929181
0.062229685 -0.0047648628 0.45500001 4279257635
0.063847549 -0.0047753355 0.45600003 4278202120
0.065471902 -0.0047858073 0.45700002 4279521320
0.066956237 -0.0047858073 0.45700002 4279522603
0.068590336 -0.0047962801 0.45800003 4279785775
0.070230931 -0.0048067519 0.45900002 4283990895
-0.0064980011 -0.0029542579 0.40900001 4281682484
0.0014941978 -0.0029975967 0.41500002 4279773467
0.0081345988 -0.002961481 0.41000003 4279906584
0.0094662802 -0.002961481 0.41000003 4279254555
0.010797961 -0.002961481 0.41000003 4279255836
0.012159226 -0.0029687041 0.41100001 4278731289
0.013494154 -0.0029687041 0.41100001 4279126045
0.014865164 -0.0029759274 0.41200003 4278995742
0.016242668 -0.0029831503 0.41300002 4279127841
0.017626671 -0.0029903736 0.41400003 4278800160
0.019017167 -0.0029975967 0.41500002 4278866466
0.020414161 -0.0030048196 0.41600001 4278669087
0.021765329 -0.0030048196 0.41600001 4278669089
0.023172066 -0.003012043 0.41700003 4278735650
0.024585299 -0.0030192661 0.41800001 4278669857
0.025942964 -0.0030192661 0.41800001 4278669857
0.027365942 -0.0030264892 0.41900003 4278669087
0.028795416 -0.0030337123 0.42000002 4278337044
0.031673849 -0.0030481585 0.42200002 4279127328
0.033201117 -0.0030626049 0.42400002 4278203146
0.034741372 -0.0030770511 0.42600003 4278201610
0.036294624 -0.0030914973 0.42800003 4278199301
0.037860863 -0.0031059433 0.43000001 4278198535
0.0393488 -0.0031131667 0.43100002 4278459658
0.040937781 -0.0031276129 0.43300003 4278329097
0.042539749 -0.0031420593 0.43500003 4280240426
0.044154711 -0.0031565053 0.43700001 4279257119
0.045782663 -0.0031709515 0.43900001 4280046635
0.047531147 -0.0031926211 0.44200003 4279323426
0.049299117 -0.0032142904 0.44500002 4278533910
0.050972544 -0.0032287366 0.44700003 4278533908
0.052658964 -0.003243183 0.44900003 4278270736
0.054237843 -0.0032504059 0.45000002 4279126047
0.055946995 -0.0032648523 0.45200002 4278599191
0.057542115 -0.0032720752 0.45300001 4278796570
0.059143737 -0.0032792985 0.45400003 4278599191
0.060751848 -0.0032865216 0.45500001 4278796316
0.062229685 -0.0032865216 0.45500001 4280309555
0.063847549 -0.0032937448 0.45600003 4278994209
0.065328635 -0.0032937448 0.45600003 4279521836
0.066956237 -0.0033009679 0.45700002 4279588142
0.068440571 -0.0033009679 0.45700002 4278995494
-0.0051948479 -0.0016333233 0.41100001 4281682482
0.0081544397 -0.0016333233 0.41100001 4279579418
0.0094893686 -0.0016333233 0.41100001 4279255068
0.010850633 -0.0016372973 0.41200003 4279124763
0.012188811 -0.0016372973 0.41200003 4278731289
0.01355982 -0.0016412713 0.41300002 4278994459
0.014901243 -0.0016412713 0.41300002 4279127328
0.016281998 -0.0016452454 0.41400003 4279127328
0.017669247 -0.0016492193 0.41500002 4278865953
0.019062992 -0.0016531934 0.41600001 4279129638
0.020414161 -0.0016531934 0.41600001 4278734880
0.021817649 -0.0016571674 0.41700003 4278800673
0.023172066 -0.0016571674 0.41700003 4278866466
0.024585299 -0.0016611414 0.41800001 4278866466
0.025942964 -0.0016611414 0.41800001 4278866466
0.027365942 -0.0016651155 0.41900003 4278668574
0.028795416 -0.0016690894 0.42000002 4278731804
0.031673849 -0.0016770376 0.42200002 4278198275
0.033201117 -0.0016849856 0.42400002 4278657550
0.034741372 -0.0016929336 0.42600003 4278918928
0.036294624 -0.0017008816 0.42800003 4278787855
0.037860863 -0.0017088297 0.43000001 4278655756
0.0393488 -0.0017128037 0.43100002 4279050514
0.040937781 -0.0017207518 0.43300003 4278591759
0.042539749 -0.0017286999 0.43500003 4279780645
0.044154711 -0.0017366478 0.43700001 4278201864
0.045782663 -0.0017445958 0.43900001 4278198529
0.047423609 -0.001752544 0.44100001 4278862361
0.049188334 -0.0017644661 0.44400004 4278993947
0.050858509 -0.001772414 0.44600001 4279717670
0.052541681 -0.0017803621 0.44800001 4278204176
0.054237843 -0.0017883101 0.45000002 4278199814
0.055823222 -0.0017922842 0.45100003 4278728472
0.057542115 -0.0018002321 0.45300001 4278201353
0.059143737 -0.0018042063 0.45400003 4279519523
0.060751848 -0.0018081802 0.45500001 4278796570
0.062229685 -0.0018081802 0.45500001 4280309555
0.063847549 -0.0018121543 0.45600003 4279126310
0.065328635 -0.0018121543 0.45600003 4279456045
0.066809729 -0.0018121543 0.45600003 4279391535
0.068440571 -0.0018161283 0.45700002 4280770368
0.0081742806 -0.00029866715 0.41200003 4279711772
0.0095355455 -0.00029939206 0.41300002 4279453217
0.010876969 -0.00029939206 0.41300002 4279190556
0.012218395 -0.00029939206 0.41300002 4278993945
0.013592653 -0.00030011698 0.41400003 4278928920
0.014937324 -0.00030011698 0.41400003 4279193375
0.016321326 -0.0003008419 0.41500002 4278931486
0.017669247 -0.0003008419 0.41500002 4278668828
0.019062992 -0.00030156682 0.41600001 4278800927
0.020463234 -0.00030229174 0.41700003 4278800927
0.021817649 -0.00030229174 0.41700003 4278800927
0.023227634 -0.00030301666 0.41800001 4278800414
0.024585299 -0.00030301666 0.41800001 4278800414
0.02600503 -0.00030374157 0.41900003 4278866207
0.027365942 -0.00030374157 0.41900003 4278799900
0.028795416 -0.00030446649 0.42000002 4278202894
0.030231385 -0.00030519141 0.42100003 4279388707
0.031748902 -0.00030664125 0.42300001 4278658834
0.033201117 -0.00030736616 0.42400002 4279315482
0.034741372 -0.00030881603 0.42600003 4279710240
0.036294624 -0.00031026587 0.42800003 4280104996
0.037860863 -0.00031171567 0.43000001 4278196744
0.0393488 -0.00031244062 0.43100002 4279513375
0.040937781 -0.00031389046 0.43300003 4278197509
0.042539749 -0.00031534029 0.43500003 4280373295
0.04405367 -0.00031606521 0.43600002 4278264589
0.045678377 -0.00031751505 0.43800002 4278329869
0.047316074 -0.00031896491 0.44000003 4279321631
0.049077548 -0.00032113967 0.44300002 4278796570
0.050744478 -0.00032258951 0.44500002 4278203405
0.052424401 -0.00032403934 0.44700003 4279454500
0.054117315 -0.00032548918 0.44900003 4279980844
0.055823222 -0.00032693904 0.45100003 4279915565
0.057542115 -0.00032838885 0.45300001 4280244014
0.059143737 -0.0003291138 0.45400003 4278993947
0.060751848 -0.00032983869 0.45500001 4278202124
0.062229685 -0.00032983869 0.45500001 4278202895
0.063847549 -0.00033056363 0.45600003 4279850031
0.065328635 -0.00033056363 0.45600003 4279653935
0.066809729 -0.00033056363 0.45600003 4279388715
0.068440571 -0.00033128855 0.45700002 4286030478
0.0081941206 0.0010424872 0.41300002 4279975198
0.0095586339 0.0010450114 0.41400003 4279453217
0.010903306 0.0010450114 0.41400003 4279059742
0.01224798 0.0010450114 0.41400003 4278994459
0.013592653 0.0010450114 0.41400003 4279323937
0.014973405 0.0010475356 0.41500002 4278996255
0.016360654 0.0010500597 0.41600001 4278733083
0.017711822 0.0010500597 0.41600001 4278734367
0.019108817 0.0010525839 0.41700003 4278865953
0.020463234 0.0010525839 0.41700003 4278734880
0.021817649 0.0010525839 0.41700003 4278800673
0.023227634 0.0010551082 0.41800001 4278800160
0.024585299 0.0010551082 0.41800001 4279063332
0.02600503 0.0010576323 0.41900003 4278997279
0.027431253 0.0010601565 0.42000002 4278271503
0.028795416 0.0010601565 0.42000002 4279585314
0.030303193 0.0010652049 0.42200002 4278795800
0.031748902 0.001067729 0.42300001 4280435758
0.033279419 0.0010727773 0.42500001 4279119385
0.034741372 0.0010753016 0.42600003 4280434477
0.036294624 0.00108035 0.42800003 4280500270
0.037860863 0.0010853983 0.43000001 4279579936
0.0393488 0.0010879225 0.43100002 4280568112
0.040937781 0.0010929708 0.43300003 4278198532
0.042539749 0.0010980192 0.43500003 4280307756
0.04405367 0.0011005434 0.43600002 4278198537
0.045678377 0.0011055918 0.43800002 4280239147
0.047316074 0.0011106401 0.44000003 4280111660
0.048966765 0.0011156885 0.44200003 4279716900
0.050630447 0.0011207369 0.44400004 4278993177
0.052424401 0.0011283094 0.44700003 4278200064
0.054117315 0.0011333578 0.44900003 4278198272
0.055823222 0.0011384061 0.45100003 4278202382
0.057542115 0.0011434545 0.45300001 4279979820
0.059143737 0.0011459787 0.45400003 4279914027
0.060751848 0.0011485028 0.45500001 4280046383
0.062229685 0.0011485028 0.45500001 4279783725
0.063847549 0.001151027 0.45600003 4279784238
0.065328635 0.001151027 0.45600003 4278863138
0.066809729 0.001151027 0.45600003 4285568643
0.0082139615 0.0023901397 0.41400003 4279909664
0.0095586339 0.0023901397 0.41400003 4279256349
0.010929643 0.002395913 0.41500002 4279124763
0.012277564 0.002395913 0.41500002 4278928666
0.013625485 0.002395913 0.41500002 4278929179
0.015009484 0.0024016863 0.41600001 4279193634
0.016360654 0.0024016863 0.41600001 4278931232
0.0177544 0.0024074595 0.41700003 4278734621
0.019108817 0.0024074595 0.41700003 4279063586
0.020463234 0.0024074595 0.41700003 4278866207
0.021869969 0.0024132328 0.41800001 4278734880
0.023227634 0.0024132328 0.41800001 4278274329
0.024644116 0.0024190061 0.41900003 4278800673
0.02600503 0.0024190061 0.41900003 4278866207
0.027431253 0.0024247793 0.42000002 4278204429
0.030303193 0.0024363259 0.42200002 4278201352
0.031748902 0.0024420992 0.42300001 4278922521
0.033279419 0.0024536457 0.42500001 4278329871
0.034822926 0.0024651925 0.42700002 4278657552
0.036294624 0.0024709657 0.42800003 4278854418
0.037860863 0.0024825123 0.43000001 4278853648
0.0393488 0.0024882855 0.43100002 4278722832
0.040937781 0.0024998321 0.43300003 4280568625
0.042441957 0.0025056053 0.43400002 4279254303
0.04405367 0.0025171519 0.43600002 4278200588
0.045678377 0.0025286984 0.43800002 4278198018
0.047316074 0.0025402452 0.44000003 4278397970
0.048966765 0.0025517917 0.44200003 4279780647
0.050630447 0.0025633383 0.44400004 4279913768
0.052307121 0.0025748848 0.44600001 4279914279
0.054117315 0.0025922046 0.44900003 4279586084
0.055823222 0.0026037514 0.45100003 4279586598
0.057542115 0.0026152977 0.45300001 4279390502
0.059143737 0.0026210712 0.45400003 4279456295
0.060751848 0.0026268442 0.45500001 4279323174
0.062229685 0.0026268442 0.45500001 4279453478
0.063847549 0.0026326177 0.45600003 4283530598
0.065328635 0.0026326177 0.45600003 4286555538
0.0082338015 0.0037442902 0.41500002 4279779361
0.0095817223 0.0037442902 0.41500002 4279124763
0.010929643 0.0037442902 0.41500002 4279059740
0.012307148 0.0037533126 0.41600001 4278665494
0.013658317 0.0037533126 0.41600001 4279126558
0.015009484 0.0037533126 0.41600001 4279062048
0.016399983 0.0037623351 0.41700003 4278997279
0.0177544 0.0037623351 0.41700003 4278800412
0.019108817 0.0037623351 0.41700003 4278800412
0.020512305 0.0037713575 0.41800001 4278866207
0.021869969 0.0037713575 0.41800001 4278800160
0.023283204 0.0037803799 0.41900003 4278669087
0.024644116 0.0037803799 0.41900003 4278800673
0.026067093 0.0037894021 0.42000002 4279194404
0.027431253 0.0037894021 0.42000002 4278200323
0.028863978 0.0037984247 0.42100003 4279584803
0.030303193 0.0038074469 0.42200002 4278200845
0.031748902 0.0038164693 0.42300001 4278723091
0.033279419 0.0038345142 0.42500001 4278723091
0.034822926 0.0038525588 0.42700002 4278853394
0.036294624 0.0038615814 0.42800003 4278985234
0.037860863 0.003879626 0.43000001 4278460171
0.0393488 0.0038886485 0.43100002 4278658064
0.040937781 0.0039066933 0.43300003 4280175918
0.042441957 0.0039157155 0.43400002 4279979820
0.04405367 0.0039337603 0.43600002 4279586346
0.045574088 0.0039427825 0.43700001 4279257381
0.047316074 0.00396985 0.44000003 4279323428
0.048966765 0.0039878949 0.44200003 4279126047
0.050630447 0.0040059397 0.44400004 4279060767
0.052307121 0.0040239841 0.44600001 4279192355
0.054117315 0.0040510516 0.44900003 4279258918
0.055823222 0.0040690964 0.45100003 4278666011
0.057542115 0.0040871408 0.45300001 4280637502
0.059143737 0.0040961634 0.45400003 4283596391
0.060751848 0.0041051856 0.45500001 4286094474
-0.0090653328 0.0049699531 0.40500003 4281486138
0.0069024726 0.005104939 0.41600001 4279252506
0.0082536414 0.005104939 0.41600001 4279517473
0.0096048107 0.005104939 0.41600001 4279255836
0.010955979 0.005104939 0.41600001 4279256349
0.012307148 0.005104939 0.41600001 4278928154
0.013658317 0.005104939 0.41600001 4279323939
0.015045566 0.005117211 0.41700003 4279062048
0.016399983 0.005117211 0.41700003 4278931486
0.0177544 0.005117211 0.41700003 4278800412
0.01915464 0.0051294821 0.41800001 4278866205
0.020512305 0.0051294821 0.41800001 4278866207
0.02192229 0.0051417537 0.41900003 4278800160
0.023283204 0.0051417537 0.41900003 4278800673
0.024702933 0.0051540253 0.42000002 4278669087
0.026067093 0.0051540253 0.42000002 4279062048
0.027496567 0.0051662968 0.42100003 4278400527
0.028863978 0.0051662968 0.42100003 4279651107
0.030303193 0.0051785684 0.42200002 4278334484
0.031823963 0.0052031111 0.42400002 4279581732
0.033279419 0.0052153827 0.42500001 4280042797
0.034741372 0.0052276542 0.42600003 4280110125
0.036294624 0.0052521974 0.42800003 4279781158
0.037772816 0.0052644685 0.42900002 4279716902
0.0393488 0.0052890116 0.43100002 4279586086
0.040937781 0.0053135548 0.43300003 4279127332
0.042441957 0.0053258259 0.43400002 4279193123
0.043952633 0.0053380979 0.43500003 4279062050
0.045574088 0.0053626406 0.43700001 4278930464
0.047208536 0.0053871833 0.43900001 4278995744
0.048966765 0.005423998 0.44200003 4279323941
0.050630447 0.0054485411 0.44400004 4279650855
0.052189842 0.0054608122 0.44500002 4281031227
0.054117315 0.0055098985 0.44900003 4284845170
0.055823222 0.0055344417 0.45100003 4286160521
0.057542115 0.0055589844 0.45300001 4286291083
-0.0090653328 0.0062858397 0.40500003 4281552444
0.0082536414 0.0064565656 0.41600001 4279583779
0.0096048107 0.0064565656 0.41600001 4279387683
0.010955979 0.0064565656 0.41600001 4279387937
0.012307148 0.0064565656 0.41600001 4278928666
0.01369115 0.0064720865 0.41700003 4279389730
0.015045566 0.0064720865 0.41700003 4279062048
0.016399983 0.0064720865 0.41700003 4278997025
0.017796976 0.006487607 0.41800001 4278998052
0.01915464 0.006487607 0.41800001 4278734880
0.020561378 0.006503128 0.41900003 4278734621
0.02192229 0.006503128 0.41900003 4278735134
0.023338772 0.006518648 0.42000002 4278340376
0.024702933 0.006518648 0.42000002 4278735134
0.026067093 0.006518648 0.42000002 4278600984
0.027496567 0.006534169 0.42100003 4278202375
0.028932538 0.0065496895 0.42200002 4279193121
0.030303193 0.0065496895 0.42200002 4279193634
0.031748902 0.0065652099 0.42300001 4279390502
0.033279419 0.0065962509 0.42500001 4279127330
0.034741372 0.0066117719 0.42600003 4279062050
0.036294624 0.0066428133 0.42800003 4279127843
0.037772816 0.0066583334 0.42900002 4279127843
0.039257504 0.0066738538 0.43000001 4279062050
0.040843233 0.0067048953 0.43200001 4279127843
0.042441957 0.0067359363 0.43400002 4278733857
0.043952633 0.0067514572 0.43500003 4279192101
0.045469798 0.0067669777 0.43600002 4279257381
0.047208536 0.0068135392 0.43900001 4281425220
0.048966765 0.0068601016 0.44200003 4285700479
0.050630447 0.0068911426 0.44400004 4286488966
0.052189842 0.0069066631 0.44500002 4285962368
0.0069190655 0.0078269625 0.41700003 4279910947
0.0096278992 0.0078269625 0.41700003 4279190304
0.010982316 0.0078269625 0.41700003 4279059742
0.012336733 0.0078269625 0.41700003 4278863386
0.01369115 0.0078269625 0.41700003 4279193121
0.015045566 0.0078269625 0.41700003 4278997025
0.016439311 0.0078457315 0.41800001 4278997025
0.017796976 0.0078457315 0.41800001 4278668574
0.019200467 0.0078645013 0.41900003 4278931746
0.020561378 0.0078645013 0.41900003 4278735134
0.02197461 0.0078832712 0.42000002 4278735134
0.023338772 0.0078832712 0.42000002 4278866207
0.024702933 0.0078832712 0.42000002 4278931746
0.02612916 0.0079020411 0.42100003 4278996255
0.027496567 0.0079020411 0.42100003 4279258916
0.028932538 0.007920811 0.42200002 4279522088
0.030375 0.0079395799 0.42300001 4279193636
0.031748902 0.0079395799 0.42300001 4279062050
0.033201117 0.0079583498 0.42400002 4279456295
0.034741372 0.0079958895 0.42600003 4279456297
0.036294624 0.0080334293 0.42800003 4279390250
0.037772816 0.0080521982 0.42900002 4279783725
0.039257504 0.0080709681 0.43000001 4280177201
0.0055646491 0.0091818376 0.41700003 4279448350
0.0069190655 0.0091818376 0.41700003 4279648037
0.0082734823 0.0091818376 0.41700003 4279189023
0.0096278992 0.0091818376 0.41700003 4279321377
0.010982316 0.0091818376 0.41700003 4279256867
0.012336733 0.0091818376 0.41700003 4279192351
0.01369115 0.0091818376 0.41700003 4279325220
0.015045566 0.0091818376 0.41700003 4278997025
0.016439311 0.0092038559 0.41800001 4278865953
0.017796976 0.0092038559 0.41800001 4278998054
0.019200467 0.0092258751 0.41900003 4279063847
0.020561378 0.0092258751 0.41900003 4278998052
0.02197461 0.0092478935 0.42000002 4278866466
0.023338772 0.0092478935 0.42000002 4279129125
0.024761749 0.0092699127 0.42100003 4279063334
0.02612916 0.0092699127 0.42100003 4279391015
0.027496567 0.0092699127 0.42100003 4279653674
0.028932538 0.0092919311 0.42200002 4280048180
0.031748902 0.0093139503 0.42300001 4280308535
0.0082734823 0.010536713 0.41700003 4279712807
0.0096278992 0.010536713 0.41700003 4279187486
0.010982316 0.010536713 0.41700003 4279452195
0.01369115 0.010536713 0.41700003 4279390504
0.015081646 0.01056198 0.41800001 4279588396
0.016439311 0.01056198 0.41800001 4279260199
0.017796976 0.01056198 0.41800001 4279325992
0.019200467 0.010587249 0.41900003 4279654959
0.020610452 0.010612517 0.42000002 4279720752
0.02197461 0.010612517 0.42000002 4279654189
0.028932538 0.010663052 0.42200002 4286489997
0.020610452 0.01197714 0.42000002 4283727457
0.02197461 0.01197714 0.42000002 4286687374
0.036125824 -0.0022361733 0.4356578 4294967295
0.036125824 -0.0022361733 0.4356578 4294901760
0.036125824 -0.0022361733 0.43615779 4294901760
0.036125824 -0.0022361733 0.43665779 4294901760
0.036125824 -0.0022361733 0.43715781 4294901760
0.036125824 -0.0022361733 0.4376578 4294901760
0.036125824 -0.0022361733 0.4381578 4294901760
0.036125824 -0.0022361733 0.43865779 4294901760
0.036125824 -0.0022361733 0.43915781 4294901760
0.036125824 -0.0022361733 0.43965781 4294901760
0.036125824 -0.0022361733 0.4401578 4294901760
0.036125824 -0.0022361733 0.44065779 4294901760
0.036125824 -0.0022361733 0.44115779 4294901760
0.036125824 -0.0022361733 0.44165781 4294901760
0.036125824 -0.0022361733 0.4421578 4294901760
0.036125824 -0.0022361733 0.4426578 4294901760
0.036125824 -0.0022361733 0.44315779 4294901760
0.036125824 -0.0022361733 0.44365782 4294901760
0.036125824 -0.0022361733 0.44415781 4294901760
0.036125824 -0.0022361733 0.4446578 4294901760
0.036125824 -0.0022361733 0.4451578 4294901760
0.036125824 -0.0022361733 0.44565779 4294901760
0.036125824 -0.0022361733 0.44615781 4294901760
0.036125824 -0.0022361733 0.44665781 4294901760
0.036125824 -0.0022361733 0.4471578 4294901760
0.036125824 -0.0022361733 0.44765779 4294901760
0.036125824 -0.0022361733 0.44815779 4294901760
0.036125824 -0.0022361733 0.44865781 4294901760
0.036125824 -0.0022361733 0.4491578 4294901760
0.036125824 -0.0022361733 0.4496578 4294901760
0.036125824 -0.0022361733 0.45015779 4294901760
0.036125824 -0.0022361733 0.45065781 4294901760
0.036125824 -0.0022361733 0.45115781 4294901760
0.036125824 -0.0022361733 0.4516578 4294901760
0.036125824 -0.0022361733 0.4521578 4294901760
0.036125824 -0.0022361733 0.45265782 4294901760
0.036125824 -0.0022361733 0.45315781 4294901760
0.036125824 -0.0022361733 0.45365781 4294901760
0.036125824 -0.0022361733 0.4541578 4294901760
0.036125824 -0.0022361733 0.45465779 4294901760
0.036125824 -0.0022361733 0.45515782 4294901760
0.036125824 -0.0022361733 0.45565781 4294901760
0.036125824 -0.0022361733 0.4561578 4294901760
0.036125824 -0.0022361733 0.4566578 4294901760
0.036125824 -0.0022361733 0.45715779 4294901760
0.036125824 -0.0022361733 0.45765781 4294901760
0.036125824 -0.0022361733 0.45815781 4294901760
0.036125824 -0.0022361733 0.4586578 4294901760
0.036125824 -0.0022361733 0.45915779 4294901760
0.036125824 -0.0022361733 0.45965782 4294901760
0.036125824 -0.0022361733 0.46015781 4294901760
0.036125824 -0.0022361733 0.46065781 4294901760
0.036125824 -0.0022361733 0.4611578 4294901760
0.036125824 -0.0022361733 0.46165779 4294901760
0.036125824 -0.0022361733 0.46215782 4294901760
0.036125824 -0.0022361733 0.46265781 4294901760
0.036125824 -0.0022361733 0.4631578 4294901760
0.036125824 -0.0022361733 0.4636578 4294901760
0.036125824 -0.0022361733 0.46415782 4294901760
0.036125824 -0.0022361733 0.46465781 4294901760
0.036125824 -0.0022361733 0.46515781 4294901760
0.036125824 -0.0022361733 0.4656578 4294901760
0.036125824 -0.0022361733 0.46615779 4294901760
0.036125824 -0.0022361733 0.46665782 4294901760
0.036125824 -0.0022361733 0.46715781 4294901760
0.036125824 -0.0022361733 0.4676578 4294901760
0.036125824 -0.0022361733 0.4681578 4294901760
0.036125824 -0.0022361733 0.46865782 4294901760
0.036125824 -0.0022361733 0.46915781 4294901760
0.036125824 -0.0022361733 0.46965781 4294901760
0.036125824 -0.0022361733 0.4701578 4294901760
0.036125824 -0.0022361733 0.4706578 4294901760
0.036125824 -0.0022361733 0.47115782 4294901760
0.036125824 -0.0022361733 0.47165781 4294901760
0.036125824 -0.0022361733 0.47215781 4294901760
0.036125824 -0.0022361733 0.4726578 4294901760
0.036125824 -0.0022361733 0.47315782 4294901760
0.036125824 -0.0022361733 0.47365782 4294901760
0.036125824 -0.0022361733 0.47415781 4294901760
0.036125824 -0.0022361733 0.4746578 4294901760
0.036125824 -0.0022361733 0.4751578 4294901760
0.036125824 -0.0022361733 0.47565782 4294901760
0.036125824 -0.0022361733 0.47615781 4294901760
0.036125824 -0.0022361733 0.47665781 4294901760
0.036125824 -0.0022361733 0.4771578 4294901760
0.036125824 -0.0022361733 0.47765779 4294901760
0.036125824 -0.0022361733 0.47815782 4294901760
0.036125824 -0.0022361733 0.47865781 4294901760
0.036125824 -0.0022361733 0.47915781 4294901760
0.036125824 -0.0022361733 0.4796578 4294901760
0.036125824 -0.0022361733 0.48015779 4294901760
0.036125824 -0.0022361733 0.48065782 4294901760
0.036125824 -0.0022361733 0.48115781 4294901760
0.036125824 -0.0022361733 0.4816578 4294901760
0.036125824 -0.0022361733 0.48215783 4294901760
0.036125824 -0.0022361733 0.48265782 4294901760
0.036125824 -0.0022361733 0.48315781 4294901760
0.036125824 -0.0022361733 0.48365781 4294901760
0.036125824 -0.0022361733 0.4841578 4294901760
0.036125824 -0.0022361733 0.48465782 4294901760
0.036125824 -0.0022361733 0.48515782 4294901760
0.036125824 -0.0022361733 0.48565781 4294901760
0.036125824 -0.0022361733 0.4356578 4278255360
0.03649807 -0.0022466136 0.43532416 4278255360
0.036870319 -0.002257054 0.4349905 4278255360
0.037242565 -0.0022674946 0.43465686 4278255360
0.037614811 -0.0022779349 0.43432319 4278255360
0.037987061 -0.0022883753 0.43398955 4278255360
0.038359307 -0.0022988156 0.43365589 4278255360
0.038731553 -0.0023092562 0.43332225 4278255360
0.039103802 -0.0023196966 0.43298858 4278255360
0.039476048 -0.002330137 0.43265495 4278255360
0.039848294 -0.0023405773 0.43232128 4278255360
0.040220544 -0.0023510179 0.43198764 4278255360
0.04059279 -0.0023614583 0.43165398 4278255360
0.040965036 -0.0023718986 0.43132034 4278255360
0.041337281 -0.002382339 0.43098667 4278255360
0.041709531 -0.0023927796 0.43065304 4278255360
0.042081777 -0.0024032199 0.43031937 4278255360
0.042454027 -0.0024136603 0.42998573 4278255360
0.042826273 -0.0024241006 0.42965207 4278255360
0.043198518 -0.002434541 0.42931843 4278255360
0.043570764 -0.0024449816 0.42898476 4278255360
0.043943014 -0.002455422 0.42865112 4278255360
0.04431526 -0.0024658623 0.42831746 4278255360
0.04468751 -0.0024763027 0.42798382 4278255360
0.045059755 -0.002486743 0.42765015 4278255360
0.045432001 -0.0024971836 0.42731652 4278255360
0.045804247 -0.002507624 0.42698288 4278255360
0.046176497 -0.0025180643 0.42664921 4278255360
0.046548743 -0.0025285049 0.42631558 4278255360
0.046920989 -0.0025389453 0.42598191 4278255360
0.047293238 -0.0025493857 0.42564827 4278255360
0.047665484 -0.002559826 0.42531461 4278255360
0.04803773 -0.0025702664 0.42498097 4278255360
0.04840998 -0.002580707 0.4246473 4278255360
0.048782226 -0.0025911473 0.42431366 4278255360
0.049154472 -0.0026015877 0.42398 4278255360
0.049526721 -0.002612028 0.42364636 4278255360
0.049898967 -0.0026224684 0.42331269 4278255360
0.050271213 -0.002632909 0.42297906 4278255360
0.050643459 -0.0026433493 0.42264539 4278255360
0.051015709 -0.0026537897 0.42231175 4278255360
0.051387955 -0.0026642301 0.42197809 4278255360
0.051760204 -0.0026746707 0.42164445 4278255360
0.05213245 -0.002685111 0.42131078 4278255360
0.052504696 -0.0026955514 0.42097715 4278255360
0.052876942 -0.0027059917 0.42064348 4278255360
0.053249191 -0.0027164323 0.42030984 4278255360
0.053621437 -0.0027268727 0.41997617 4278255360
0.053993687 -0.002737313 0.41964254 4278255360
0.054365933 -0.0027477534 0.4193089 4278255360
0.054738179 -0.0027581938 0.41897523 4278255360
0.055110425 -0.0027686344 0.41864157 4278255360
0.055482671 -0.0027790747 0.41830793 4278255360
0.055854917 -0.0027895151 0.41797429 4278255360
0.05622717 -0.0027999557 0.41764063 4278255360
0.056599416 -0.002810396 0.41730699 4278255360
0.056971662 -0.0028208364 0.41697332 4278255360
0.057343908 -0.0028312767 0.41663969 4278255360
0.057716154 -0.0028417171 0.41630602 4278255360
0.058088399 -0.0028521577 0.41597238 4278255360
0.058460653 -0.002862598 0.41563872 4278255360
0.058832899 -0.0028730384 0.41530508 4278255360
0.059205145 -0.0028834788 0.41497141 4278255360
0.059577391 -0.0028939191 0.41463777 4278255360
0.059949636 -0.0029043597 0.41430411 4278255360
0.060321882 -0.0029148001 0.41397047 4278255360
0.060694136 -0.0029252404 0.4136368 4278255360
0.061066382 -0.002935681 0.41330317 4278255360
0.061438628 -0.0029461214 0.4129695 4278255360
0.061810873 -0.0029565617 0.41263586 4278255360
0.062183119 -0.0029670021 0.4123022 4278255360
0.062555365 -0.0029774425 0.41196856 4278255360
0.062927619 -0.0029878831 0.41163489 4278255360
0.063299865 -0.0029983234 0.41130126 4278255360
0.06367211 -0.0030087638 0.41096759 4278255360
0.064044356 -0.0030192041 0.41063395 4278255360
0.064416602 -0.0030296445 0.41030031 4278255360
0.064788848 -0.0030400851 0.40996665 4278255360
0.065161094 -0.0030505254 0.40963301 4278255360
0.065533347 -0.0030609658 0.40929934 4278255360
0.065905593 -0.0030714064 0.40896571 4278255360
0.066277839 -0.0030818467 0.40863204 4278255360
0.066650085 -0.0030922871 0.4082984 4278255360
0.067022331 -0.0031027275 0.40796474 4278255360
0.067394584 -0.0031131678 0.4076311 4278255360
0.06776683 -0.0031236084 0.40729743 4278255360
0.068139076 -0.0031340488 0.4069638 4278255360
0.068511322 -0.0031444891 0.40663013 4278255360
0.068883568 -0.0031549295 0.40629649 4278255360
0.069255814 -0.0031653699 0.40596282 4278255360
0.06962806 -0.0031758104 0.40562919 4278255360
0.070000306 -0.0031862508 0.40529552 4278255360
0.070372559 -0.0031966912 0.40496188 4278255360
0.070744805 -0.0032071318 0.40462822 4278255360
0.071117051 -0.0032175719 0.40429458 4278255360
0.071489297 -0.0032280125 0.40396091 4278255360
0.07186155 -0.0032384528 0.40362728 4278255360
0.072233796 -0.0032488932 0.40329361 4278255360
0.072606042 -0.0032593338 0.40295997 4278255360
0.072978288 -0.0032697741 0.40262634 4278255360
0.073350534 -0.0032802145 0.40229267 4278255360
