# .PCD v0.7 - Point Cloud Data file format
VERSION 0.7
FIELDS x y z rgb
SIZE 4 4 4 4
TYPE F F F U
COUNT 1 1 1 1
WIDTH 896
HEIGHT 1
VIEWPOINT 0 0 0 1 0 0 0
POINTS 896
DATA ascii
-0.023554998 0.020217029 0.48700002 4279975457
-0.021837862 0.020092489 0.48400003 4279517473
-0.020223958 0.020050975 0.48300001 4278797084
-0.018655173 0.020050975 0.48300001 4279258148
-0.01542122 0.019926436 0.48000002 4283201113
-0.0138333 0.019884923 0.47900003 4279321127
-0.02350663 0.02175458 0.48600003 4279251736
-0.021837862 0.021665055 0.48400003 4279189021
-0.020223958 0.021620292 0.48300001 4278599189
-0.01861655 0.021575529 0.48200002 4278731289
-0.016980261 0.021486005 0.48000002 4278797082
-0.015389093 0.021441242 0.47900003 4278731291
-0.0138333 0.021441242 0.47900003 4278336792
-0.012226244 0.021351717 0.47700003 4278731550
-0.010654564 0.021306954 0.47600001 4278929183
-0.0090893796 0.021262191 0.47500002 4278863390
-0.0075306911 0.02121743 0.47400004 4279060769
-0.0059911385 0.02121743 0.47400004 4279126049
-0.004442194 0.021172667 0.47300002 4279125795
-0.023458261 0.023285633 0.48500001 4279119383
-0.021792741 0.02318961 0.48300001 4278924566
-0.020182086 0.023141598 0.48200002 4278993177
-0.018577926 0.023093587 0.48100004 4278599189
-0.016980261 0.023045575 0.48000002 4278468117
-0.015389093 0.022997564 0.47900003 4278402324
-0.013804421 0.022949552 0.47800002 4278336531
-0.012226244 0.022901541 0.47700003 4278402324
-0.010654564 0.022853527 0.47600001 4278402324
-0.0090893796 0.022805518 0.47500002 4278402324
-0.0075306911 0.022757506 0.47400004 4278402324
-0.0059911385 0.022757506 0.47400004 4278665496
-0.004442194 0.022709493 0.47300002 4278204945
-0.0029058892 0.022709493 0.47300002 4278468117
-0.0013695842 0.022709493 0.47300002 4278533910
-0.023409896 0.024810188 0.48400003 4279119383
-0.021747623 0.024707666 0.48200002 4279056152
-0.020140216 0.024656406 0.48100004 4278598421
-0.018539302 0.024605144 0.48000002 4278599191
-0.016944887 0.024553884 0.47900003 4278533398
-0.015389093 0.024553884 0.47900003 4278467605
-0.013804421 0.024502622 0.47800002 4278466833
-0.012226244 0.024451362 0.47700003 4278335247
-0.010654564 0.0244001 0.47600001 4278466833
-0.0090893796 0.02434884 0.47500002 4278532626
-0.0075306911 0.02429758 0.47400004 4278598419
-0.0059911385 0.02429758 0.47400004 4278466833
-0.0044515859 0.02429758 0.47400004 4278202122
-0.0029058892 0.024246318 0.47300002 4278400529
-0.0013695842 0.024246318 0.47300002 4278335247
0.00016672058 0.024246318 0.47300002 4278598419
-0.023361526 0.026328241 0.48300001 4279317016
-0.021747623 0.026273731 0.48200002 4279055638
-0.020140216 0.026219223 0.48100004 4278466835
-0.018539302 0.026164712 0.48000002 4278664214
-0.016944887 0.026110204 0.47900003 4278664214
-0.015356964 0.026055692 0.47800002 4278466835
-0.013804421 0.026055692 0.47800002 4278598421
-0.012226244 0.026001183 0.47700003 4278532628
-0.010654564 0.025946673 0.47600001 4278335247
-0.0090893796 0.025892163 0.47500002 4278466833
-0.0075465781 0.025892163 0.47500002 4278466833
-0.0059911385 0.025837654 0.47400004 4278532628
-0.0044515859 0.025837654 0.47400004 4279186972
-0.0029120327 0.025837654 0.47400004 4278200331
-0.0013724798 0.025837654 0.47400004 4278663701
0.00016707306 0.025837654 0.47400004 4278400527
0.0017066259 0.025837654 0.47400004 4278728722
0.0032461786 0.025837654 0.47400004 4278466833
-0.023361526 0.027897557 0.48300001 4279251223
-0.021747623 0.027839798 0.48200002 4279055892
-0.020140216 0.027782042 0.48100004 4278664212
-0.018539302 0.027724281 0.48000002 4278599189
-0.016944887 0.027666522 0.47900003 4278467603
-0.015356964 0.027608763 0.47800002 4278401812
-0.013804421 0.027608763 0.47800002 4278401812
-0.012226244 0.027551005 0.47700003 4278467605
-0.010654564 0.027493244 0.47600001 4278335249
-0.0090893796 0.027435487 0.47500002 4278466835
-0.0075465781 0.027435487 0.47500002 4278598421
-0.006003778 0.027435487 0.47500002 4278335249
-0.0044515859 0.027377728 0.47400004 4279187226
-0.0029120327 0.027377728 0.47400004 4278727189
-0.0013724798 0.027377728 0.47400004 4278728211
0.00016707306 0.027377728 0.47400004 4278199555
0.0017102263 0.027435487 0.47500002 4278198789
0.0032530271 0.027435487 0.47500002 4278726160
0.0047958279 0.027435487 0.47500002 4278595601
0.0063519734 0.027493244 0.47600001 4278596371
0.0078980215 0.027493244 0.47600001 4278859543
0.009444071 0.027493244 0.47600001 4278465298
0.01099012 0.027493244 0.47600001 4278531345
0.012536168 0.027493244 0.47600001 4278531345
0.014111802 0.027551005 0.47700003 4278532115
0.0156611 0.027551005 0.47700003 4278597906
0.017174315 0.027493244 0.47600001 4278335247
0.018720362 0.027493244 0.47600001 4278467603
0.020266412 0.027493244 0.47600001 4278467603
0.021812461 0.027493244 0.47600001 4278203146
0.023358511 0.027493244 0.47600001 4278401810
0.037272949 0.027493244 0.47600001 4278862361
-0.023361526 0.029466873 0.48300001 4279055127
-0.021747623 0.029405866 0.48200002 4278859027
-0.020140216 0.029344859 0.48100004 4278335247
-0.018539302 0.02928385 0.48000002 4278599189
-0.016944887 0.029222842 0.47900003 4278533396
-0.015356964 0.029161833 0.47800002 4278336017
-0.013804421 0.029161833 0.47800002 4278204433
-0.012226244 0.029100826 0.47700003 4278466835
-0.010654564 0.029039817 0.47600001 4278532628
-0.0091085145 0.029039817 0.47600001 4278335249
-0.0075465781 0.02897881 0.47500002 4278663701
-0.006003778 0.02897881 0.47500002 4278334736
-0.0044609774 0.02897881 0.47500002 4278196744
-0.0029181761 0.02897881 0.47500002 4278791701
-0.0013753753 0.02897881 0.47500002 4278791185
0.00016742553 0.02897881 0.47500002 4278262277
0.0017102263 0.02897881 0.47500002 4278392582
0.0032530271 0.02897881 0.47500002 4278523400
0.0048059244 0.029039817 0.47600001 4278260998
0.0063519734 0.029039817 0.47600001 4278327304
0.0078980215 0.029039817 0.47600001 4278393097
0.009444071 0.029039817 0.47600001 4278262279
0.01099012 0.029039817 0.47600001 4278195971
0.012562505 0.029100826 0.47700003 4278196226
0.014111802 0.029100826 0.47700003 4278196480
0.0156611 0.029100826 0.47700003 4278397708
0.017210396 0.029100826 0.47700003 4278464015
0.018720362 0.029039817 0.47600001 4278595601
0.020266412 0.029039817 0.47600001 4278596371
0.021812461 0.029039817 0.47600001 4278531091
0.023358511 0.029039817 0.47600001 4278662931
0.024904558 0.029039817 0.47600001 4278531345
0.026450608 0.029039817 0.47600001 4278400529
0.029542705 0.029039817 0.47600001 4278334736
0.031088753 0.029039817 0.47600001 4278269454
0.032634802 0.029039817 0.47600001 4278598419
0.03418085 0.029039817 0.47600001 4278204431
0.035726897 0.029039817 0.47600001 4278401810
0.037272949 0.029039817 0.47600001 4278467603
0.03890055 0.029100826 0.47700003 4278467603
0.04044985 0.029100826 0.47700003 4278664982
0.042087194 0.029161833 0.47800002 4278468117
0.043639734 0.029161833 0.47800002 4278797082
0.045286831 0.029222842 0.47900003 4278731289
0.046940412 0.02928385 0.48000002 4278797082
0.048499454 0.02928385 0.48000002 4278797082
0.050162785 0.029344859 0.48100004 4278928670
0.051725071 0.029344859 0.48100004 4278731037
0.053287365 0.029344859 0.48100004 4278467099
-0.023361526 0.031036191 0.48300001 4279252504
-0.021747623 0.030971935 0.48200002 4279056406
-0.020140216 0.030907677 0.48100004 4278467603
-0.018539302 0.03084342 0.48000002 4278599189
-0.016944887 0.030779164 0.47900003 4278796568
-0.015389093 0.030779164 0.47900003 4278204431
-0.013804421 0.030714905 0.47800002 4278466833
-0.012226244 0.030650649 0.47700003 4278598419
-0.010676947 0.030650649 0.47700003 4278532626
-0.0091085145 0.030586392 0.47600001 4278532628
-0.0075624655 0.030586392 0.47600001 4278335249
-0.006003778 0.030522134 0.47500002 4279190045
-0.0044609774 0.030522134 0.47500002 4278196742
-0.0029181761 0.030522134 0.47500002 4279055127
-0.0013753753 0.030522134 0.47500002 4278460683
0.00016742553 0.030522134 0.47500002 4278524683
0.0017102263 0.030522134 0.47500002 4278588939
0.0032530271 0.030522134 0.47500002 4278720011
0.0048059244 0.030586392 0.47600001 4278851597
0.0063519734 0.030586392 0.47600001 4278456839
0.0078980215 0.030586392 0.47600001 4278654732
0.009444071 0.030586392 0.47600001 4278523146
0.01099012 0.030586392 0.47600001 4278588939
0.012562505 0.030650649 0.47700003 4278588939
0.014111802 0.030650649 0.47700003 4278196228
0.0156611 0.030650649 0.47700003 4279054103
0.017210396 0.030650649 0.47700003 4279383838
0.018759692 0.030650649 0.47700003 4279120666
0.020266412 0.030586392 0.47600001 4278725908
0.021812461 0.030586392 0.47600001 4278198537
0.023358511 0.030586392 0.47600001 4278198537
0.024904558 0.030586392 0.47600001 4278196738
0.026450608 0.030586392 0.47600001 4278195968
0.027996656 0.030586392 0.47600001 4278196224
0.029542705 0.030586392 0.47600001 4278198019
0.031088753 0.030586392 0.47600001 4278199818
0.032634802 0.030586392 0.47600001 4278200845
0.03418085 0.030586392 0.47600001 4278530580
0.035726897 0.030586392 0.47600001 4278727957
0.037272949 0.030586392 0.47600001 4278465298
0.03890055 0.030650649 0.47700003 4278465552
0.04044985 0.030650649 0.47700003 4278465552
0.042087194 0.030714905 0.47800002 4278268943
0.043731034 0.030779164 0.47900003 4278203663
0.045286831 0.030779164 0.47900003 4278204176
0.046940412 0.03084342 0.48000002 4278599191
0.048499454 0.03084342 0.48000002 4278467603
0.050162785 0.030907677 0.48100004 4278468117
0.051725071 0.030907677 0.48100004 4278862875
0.053287365 0.030907677 0.48100004 4278928670
0.054963682 0.030971935 0.48200002 4278598939
-0.023361526 0.032605506 0.48300001 4279384344
-0.021747623 0.032538 0.48200002 4278859795
-0.020140216 0.032470495 0.48100004 4278730005
-0.018539302 0.032402989 0.48000002 4278795798
-0.016944887 0.032335483 0.47900003 4278598419
-0.015389093 0.032335483 0.47900003 4278466833
-0.013804421 0.032267977 0.47800002 4278335247
-0.012226244 0.032200471 0.47700003 4278795798
-0.010676947 0.032200471 0.47700003 4278598419
-0.0091085145 0.032132965 0.47600001 4278532626
-0.0075624655 0.032132965 0.47600001 4278598419
-0.0060164174 0.032132965 0.47600001 4279189275
-0.0044609774 0.032065459 0.47500002 4278592271
-0.0029181761 0.032065459 0.47500002 4279055125
-0.0013753753 0.032065459 0.47500002 4278196228
0.00016742553 0.032065459 0.47500002 4278919187
0.0017138268 0.032132965 0.47600001 4279050773
0.0032598756 0.032132965 0.47600001 4278524429
0.0048059244 0.032132965 0.47600001 4279905823
0.0063519734 0.032132965 0.47600001 4278524170
0.0078980215 0.032132965 0.47600001 4278919441
0.009444071 0.032132965 0.47600001 4278853135
0.011013209 0.032200471 0.47700003 4278589963
0.012562505 0.032200471 0.47700003 4279379479
0.014111802 0.032200471 0.47700003 4278723343
0.0156611 0.032200471 0.47700003 4278923541
0.017210396 0.032200471 0.47700003 4278989593
0.018759692 0.032200471 0.47700003 4278199563
0.02030899 0.032200471 0.47700003 4278726675
0.021858286 0.032200471 0.47700003 4279055640
0.023358511 0.032132965 0.47600001 4278858261
0.02495688 0.032200471 0.47700003 4279055640
0.026506176 0.032200471 0.47700003 4278990099
0.028055474 0.032200471 0.47700003 4279055892
0.029542705 0.032132965 0.47600001 4278858513
0.031088753 0.032132965 0.47600001 4279121685
0.032634802 0.032132965 0.47600001 4279253017
0.03418085 0.032132965 0.47600001 4279121433
0.035801958 0.032200471 0.47700003 4278595089
0.037351254 0.032200471 0.47700003 4278266124
0.03890055 0.032200471 0.47700003 4278198276
0.040534649 0.032267977 0.47800002 4278194432
0.042087194 0.032267977 0.47800002 4278195456
0.043731034 0.032335483 0.47900003 4278196224
0.045381371 0.032402989 0.48000002 4278199817
0.046940412 0.032402989 0.48000002 4278399505
0.048600499 0.032470495 0.48100004 4278532115
0.050162785 0.032470495 0.48100004 4278598419
0.051832609 0.032538 0.48200002 4278532626
0.053398147 0.032538 0.48200002 4278533396
0.054963682 0.032538 0.48200002 4278993179
0.05652922 0.032538 0.48200002 4278202639
-0.023361526 0.034174822 0.48300001 4279384344
-0.021747623 0.034104068 0.48200002 4278925590
-0.020140216 0.034033313 0.48100004 4278926101
-0.018539302 0.033962559 0.48000002 4278795285
-0.016980261 0.033962559 0.48000002 4278664212
-0.015389093 0.033891805 0.47900003 4278598419
-0.013804421 0.033821046 0.47800002 4278532626
-0.012226244 0.033750292 0.47700003 4278466833
-0.010676947 0.033750292 0.47700003 4278466833
-0.0091085145 0.033679534 0.47600001 4278466833
-0.0075624655 0.033679534 0.47600001 4278663701
-0.0060164174 0.033679534 0.47600001 4278198789
-0.0044703684 0.033679534 0.47600001 4278723857
-0.0029181761 0.033608783 0.47500002 4278923541
-0.0013753753 0.033608783 0.47500002 4278196486
0.00016742553 0.033608783 0.47500002 4278458890
0.0017138268 0.033679534 0.47600001 4278458123
0.0032598756 0.033679534 0.47600001 4278984721
0.0048059244 0.033679534 0.47600001 4278918928
0.0063519734 0.033679534 0.47600001 4278392584
0.0078980215 0.033679534 0.47600001 4278720779
0.009444071 0.033679534 0.47600001 4278918928
0.011013209 0.033750292 0.47700003 4279511576
0.012562505 0.033750292 0.47700003 4278458377
0.014111802 0.033750292 0.47700003 4279578650
0.0156611 0.033750292 0.47700003 4279055125
0.017210396 0.033750292 0.47700003 4278197254
0.018759692 0.033750292 0.47700003 4278458888
0.02030899 0.033750292 0.47700003 4278195201
0.021858286 0.033750292 0.47700003 4278197510
0.023407584 0.033750292 0.47700003 4278989593
0.02495688 0.033750292 0.47700003 4278199303
0.026506176 0.033750292 0.47700003 4278198532
0.028055474 0.033750292 0.47700003 4278595087
0.02960477 0.033750292 0.47700003 4278726927
0.031154066 0.033750292 0.47700003 4279055892
0.032703366 0.033750292 0.47700003 4278859027
0.034252662 0.033750292 0.47700003 4278859027
0.035801958 0.033750292 0.47700003 4278859027
0.037351254 0.033750292 0.47700003 4278727441
0.038982101 0.033821046 0.47800002 4278858773
0.040534649 0.033821046 0.47800002 4278858773
0.042175245 0.033891805 0.47900003 4278858261
0.043731034 0.033891805 0.47900003 4278858261
0.045381371 0.033962559 0.48000002 4278593039
0.047038205 0.034033313 0.48100004 4278989847
0.048600499 0.034033313 0.48100004 4278662931
0.050267071 0.034104068 0.48200002 4278532115
0.051832609 0.034104068 0.48200002 4278400529
0.053398147 0.034104068 0.48200002 4278597908
0.054963682 0.034104068 0.48200002 4278729494
0.0566465 0.034174822 0.48300001 4278531861
-0.023361526 0.035744138 0.48300001 4279384090
-0.021747623 0.035670135 0.48200002 4278925590
-0.020140216 0.035596132 0.48100004 4278992664
-0.018539302 0.035522126 0.48000002 4278861078
-0.016980261 0.035522126 0.48000002 4278795285
-0.015389093 0.035448123 0.47900003 4278466833
-0.013804421 0.035374116 0.47800002 4278664212
-0.012226244 0.035300113 0.47700003 4278335247
-0.010676947 0.035300113 0.47700003 4278466833
-0.0091085145 0.035226107 0.47600001 4278466833
-0.0075624655 0.035226107 0.47600001 4278662931
-0.0060164174 0.035226107 0.47600001 4278596371
-0.0044703684 0.035226107 0.47600001 4279053592
-0.0029181761 0.035152104 0.47500002 4278858261
-0.0013753753 0.035152104 0.47500002 4278196486
0.00016742553 0.035152104 0.47500002 4278786058
0.0017138268 0.035226107 0.47600001 4278654732
0.0032598756 0.035226107 0.47600001 4278785804
0.0048059244 0.035226107 0.47600001 4278720011
0.0063519734 0.035226107 0.47600001 4278654218
0.0078980215 0.035226107 0.47600001 4278720011
0.009444071 0.035226107 0.47600001 4278720011
0.011013209 0.035300113 0.47700003 4278523400
0.012562505 0.035300113 0.47700003 4278523400
0.014111802 0.035300113 0.47700003 4279579418
0.0156611 0.035300113 0.47700003 4278858259
0.017210396 0.035300113 0.47700003 4278458375
0.018759692 0.035300113 0.47700003 4278720779
0.02030899 0.035300113 0.47700003 4278392584
0.021858286 0.035300113 0.47700003 4278526478
0.023407584 0.035300113 0.47700003 4278989593
0.02495688 0.035300113 0.47700003 4278265870
0.026506176 0.035300113 0.47700003 4278199820
0.028055474 0.035300113 0.47700003 4278858775
0.02960477 0.035300113 0.47700003 4278196992
0.031154066 0.035300113 0.47700003 4278198019
0.032703366 0.035300113 0.47700003 4278197248
0.034252662 0.035300113 0.47700003 4278265611
0.035801958 0.035300113 0.47700003 4278331404
0.03742956 0.035374116 0.47800002 4278196992
0.038982101 0.035374116 0.47800002 4278989847
0.040619452 0.035448123 0.47900003 4278200072
0.042175245 0.035448123 0.47900003 4278595601
0.043822329 0.035522126 0.48000002 4278727187
0.045381371 0.035522126 0.48000002 4278197768
0.047038205 0.035596132 0.48100004 4279186459
0.048701536 0.035670135 0.48200002 4278531345
0.050267071 0.035670135 0.48200002 4279123482
0.051940143 0.035744138 0.48300001 4278531861
0.05350893 0.035744138 0.48300001 4278531861
0.055077713 0.035744138 0.48300001 4278597654
0.0566465 0.035744138 0.48300001 4278662677
0.058215283 0.035744138 0.48300001 4284647541
-0.028532773 0.037931483 0.49100003 4284972395
-0.026773416 0.037699725 0.48800004 4283788893
-0.025085159 0.037545215 0.48600003 4279381787
-0.023409896 0.037390709 0.48400003 4279319324
-0.021747623 0.037236203 0.48200002 4278991642
-0.020140216 0.037158951 0.48100004 4278860826
-0.018539302 0.037081696 0.48000002 4278795287
-0.016980261 0.037081696 0.48000002 4278597908
-0.015389093 0.037004441 0.47900003 4278598421
-0.013804421 0.036927186 0.47800002 4278664212
-0.012226244 0.036849935 0.47700003 4278598419
-0.010676947 0.036849935 0.47700003 4278532113
-0.0091085145 0.03677268 0.47600001 4278532113
-0.0075624655 0.03677268 0.47600001 4278926103
-0.0060164174 0.03677268 0.47600001 4278200843
-0.0044609774 0.036695428 0.47500002 4278198533
-0.0029181761 0.036695428 0.47500002 4279055638
-0.0013753753 0.036695428 0.47500002 4279121431
0.00016742553 0.036695428 0.47500002 4279318299
0.0017102263 0.036695428 0.47500002 4279118613
0.0032530271 0.036695428 0.47500002 4278920722
0.0048059244 0.03677268 0.47600001 4278525453
0.0063519734 0.03677268 0.47600001 4278194947
0.0078980215 0.03677268 0.47600001 4278391560
0.009444071 0.03677268 0.47600001 4278391046
0.01099012 0.03677268 0.47600001 4278720011
0.012536168 0.03677268 0.47600001 4278654732
0.014111802 0.036849935 0.47700003 4279645211
0.0156611 0.036849935 0.47700003 4278988562
0.017210396 0.036849935 0.47700003 4279578650
0.018759692 0.036849935 0.47700003 4279708953
0.020266412 0.03677268 0.47600001 4279447580
0.021812461 0.03677268 0.47600001 4279054105
0.023358511 0.03677268 0.47600001 4279120666
0.024904558 0.03677268 0.47600001 4279120666
0.026450608 0.03677268 0.47600001 4278858007
0.027996656 0.03677268 0.47600001 4278199049
0.029542705 0.03677268 0.47600001 4279055638
0.031088753 0.03677268 0.47600001 4278331402
0.032703366 0.036849935 0.47700003 4278923541
0.034252662 0.036849935 0.47700003 4278988564
0.035801958 0.036849935 0.47700003 4278198280
0.03742956 0.036927186 0.47800002 4278790931
0.039063655 0.037004441 0.47900003 4278791701
0.040619452 0.037004441 0.47900003 4278594322
0.042263292 0.037081696 0.48000002 4278266124
0.043822329 0.037081696 0.48000002 4278990359
0.045475919 0.037158951 0.48100004 4278196992
0.047135998 0.037236203 0.48200002 4279055640
0.048701536 0.037236203 0.48200002 4278662677
0.05037136 0.037313454 0.48300001 4278662677
0.051940143 0.037313454 0.48300001 4278794263
0.05350893 0.037313454 0.48300001 4278729240
0.055077713 0.037313454 0.48300001 4278663447
0.0566465 0.037313454 0.48300001 4278794263
0.058215283 0.037313454 0.48300001 4284055145
-0.030372981 0.039848804 0.49500003 4284642919
-0.028590884 0.039607294 0.49200001 4284052065
-0.02682828 0.039365787 0.48900002 4284381541
-0.025085159 0.03912428 0.48600003 4281552442
-0.023409896 0.038963273 0.48400003 4279186972
-0.021747623 0.03880227 0.48200002 4278859291
-0.020140216 0.038721766 0.48100004 4278992414
-0.018539302 0.038641263 0.48000002 4278860828
-0.016980261 0.038641263 0.48000002 4278795033
-0.015389093 0.038560763 0.47900003 4278729240
-0.013804421 0.038480259 0.47800002 4278663447
-0.012226244 0.038399756 0.47700003 4278729494
-0.010676947 0.038399756 0.47700003 4278532113
-0.0091085145 0.038319252 0.47600001 4278729492
-0.0075624655 0.038319252 0.47600001 4278532115
-0.0060164174 0.038319252 0.47600001 4278728724
-0.0044609774 0.038238753 0.47500002 4279254555
-0.0029181761 0.038238753 0.47500002 4278728211
-0.0013753753 0.038238753 0.47500002 4278728724
0.00016742553 0.038238753 0.47500002 4278662931
0.0017102263 0.038238753 0.47500002 4278728724
0.0032530271 0.038238753 0.47500002 4278728211
0.0047958279 0.038238753 0.47500002 4278990613
0.0063519734 0.038319252 0.47600001 4278858773
0.0078980215 0.038319252 0.47600001 4279121431
0.009444071 0.038319252 0.47600001 4279187224
0.01099012 0.038319252 0.47600001 4279121431
0.012536168 0.038319252 0.47600001 4279318812
0.014082218 0.038319252 0.47600001 4279055640
0.015628267 0.038319252 0.47600001 4279252506
0.017174315 0.038319252 0.47600001 4278988310
0.018720362 0.038319252 0.47600001 4278395660
0.020266412 0.038319252 0.47600001 4278195712
0.021812461 0.038319252 0.47600001 4278195969
0.023358511 0.038319252 0.47600001 4278195712
0.024904558 0.038319252 0.47600001 4278193920
0.026450608 0.038319252 0.47600001 4278196738
0.027996656 0.038319252 0.47600001 4278528013
0.029542705 0.038319252 0.47600001 4278791953
0.031088753 0.038319252 0.47600001 4278791953
0.032634802 0.038319252 0.47600001 4279384090
0.034252662 0.038399756 0.47700003 4279253019
0.035877012 0.038480259 0.47800002 4278858259
0.03742956 0.038480259 0.47800002 4279450396
0.039063655 0.038560763 0.47900003 4278661394
0.04070425 0.038641263 0.48000002 4278726675
0.042263292 0.038641263 0.48000002 4278792466
0.043913629 0.038721766 0.48100004 4278858773
0.045475919 0.038721766 0.48100004 4278196736
0.047135998 0.03880227 0.48200002 4278858773
0.048701536 0.03880227 0.48200002 4278531091
0.05037136 0.03888277 0.48300001 4278662677
0.051940143 0.03888277 0.48300001 4278728470
0.05350893 0.03888277 0.48300001 4278729240
0.055191748 0.038963273 0.48400003 4278597654
0.056763783 0.038963273 0.48400003 4279056924
0.058215283 0.03888277 0.48300001 4284909430
-0.030495699 0.041624609 0.49700001 4284971884
-0.028707108 0.041373357 0.49400002 4284117088
-0.026883142 0.041038349 0.49000001 4283986272
-0.025136774 0.040787093 0.48700002 4284249442
-0.023409896 0.040535841 0.48400003 4284973165
-0.021747623 0.040368337 0.48200002 4283855197
-0.020140216 0.040284585 0.48100004 4280501038
-0.018539302 0.040200833 0.48000002 4279053590
-0.016944887 0.040117081 0.47900003 4278726935
-0.015389093 0.040117081 0.47900003 4278990879
-0.013804421 0.040033329 0.47800002 4279254051
-0.012226244 0.039949577 0.47700003 4279319074
-0.010676947 0.039949577 0.47700003 4279254049
-0.0091085145 0.039865825 0.47600001 4278990877
-0.0075624655 0.039865825 0.47600001 4278991131
-0.0060164174 0.039865825 0.47600001 4279056922
-0.0044609774 0.039782073 0.47500002 4279056922
-0.0029181761 0.039782073 0.47500002 4278793750
-0.0013753753 0.039782073 0.47500002 4278860056
0.00016742553 0.039782073 0.47500002 4278794517
0.0017102263 0.039782073 0.47500002 4278662931
0.0032530271 0.039782073 0.47500002 4278728724
0.0047958279 0.039782073 0.47500002 4278728724
0.0063386289 0.039782073 0.47500002 4278399759
0.0078980215 0.039865825 0.47600001 4278662931
0.009444071 0.039865825 0.47600001 4278728724
0.01099012 0.039865825 0.47600001 4278662931
0.012536168 0.039865825 0.47600001 4278794517
0.014082218 0.039865825 0.47600001 4278728724
0.015628267 0.039865825 0.47600001 4278728724
0.017174315 0.039865825 0.47600001 4278793750
0.018720362 0.039865825 0.47600001 4278793750
0.020266412 0.039865825 0.47600001 4278924566
0.021812461 0.039865825 0.47600001 4279121431
0.023358511 0.039865825 0.47600001 4279055638
0.024852239 0.039782073 0.47500002 4279055638
0.02639504 0.039782073 0.47500002 4279187224
0.027937841 0.039782073 0.47500002 4279187224
0.029542705 0.039865825 0.47600001 4279318297
0.031088753 0.039865825 0.47600001 4279055127
0.032634802 0.039865825 0.47600001 4279185689
0.034252662 0.039949577 0.47700003 4278264587
0.035801958 0.039949577 0.47700003 4278198534
0.03742956 0.040033329 0.47800002 4278196224
0.039063655 0.040117081 0.47900003 4278194176
0.04070425 0.040200833 0.48000002 4278195968
0.042351339 0.040284585 0.48100004 4278197510
0.043913629 0.040284585 0.48100004 4278329867
0.045570463 0.040368337 0.48200002 4278197509
0.047135998 0.040368337 0.48200002 4278858773
0.048802577 0.040452085 0.48300001 4278728470
0.05037136 0.040452085 0.48300001 4278531091
0.052047681 0.040535841 0.48400003 4278860056
0.053619716 0.040535841 0.48400003 4278925849
0.055191748 0.040535841 0.48400003 4278794263
0.056763783 0.040535841 0.48400003 4278660882
0.058335815 0.040535841 0.48400003 4284579182
-0.030557061 0.043326415 0.49800003 4284905319
-0.02876522 0.043065414 0.49500003 4284051293
-0.026883142 0.042630408 0.49000001 4283920479
-0.025136774 0.042369407 0.48700002 4284249444
-0.023409896 0.042108405 0.48400003 4284315237
-0.021747623 0.041934405 0.48200002 4284446821
-0.020140216 0.041847404 0.48100004 4284512614
-0.018539302 0.0417604 0.48000002 4284907372
-0.016944887 0.0416734 0.47900003 4284711022
-0.015389093 0.0416734 0.47900003 4285303675
-0.013804421 0.041586399 0.47800002 4285172089
-0.012251875 0.041586399 0.47800002 4284514159
-0.010676947 0.041499399 0.47700003 4283198812
-0.0091085145 0.041412398 0.47600001 4281817413
-0.0075624655 0.041412398 0.47600001 4279843110
-0.0060164174 0.041412398 0.47600001 4278922521
-0.0044609774 0.041325398 0.47500002 4278529046
-0.0029181761 0.041325398 0.47500002 4278265874
-0.0013753753 0.041325398 0.47500002 4278989593
0.00016742553 0.041325398 0.47500002 4279121947
0.0017102263 0.041325398 0.47500002 4278925338
0.0032530271 0.041325398 0.47500002 4278925851
0.0047958279 0.041325398 0.47500002 4278860058
0.0063386289 0.041325398 0.47500002 4278860058
0.007881429 0.041325398 0.47500002 4279123228
0.009424231 0.041325398 0.47500002 4278860056
0.01099012 0.041412398 0.47600001 4279123228
0.012536168 0.041412398 0.47600001 4278793750
0.014082218 0.041412398 0.47600001 4278925336
0.015628267 0.041412398 0.47600001 4278991383
0.017174315 0.041412398 0.47600001 4278991383
0.018720362 0.041412398 0.47600001 4278794004
0.020266412 0.041412398 0.47600001 4278859797
0.021766638 0.041325398 0.47500002 4278728211
0.023309439 0.041325398 0.47500002 4278596371
0.024852239 0.041325398 0.47500002 4278727957
0.02639504 0.041325398 0.47500002 4278859543
0.027937841 0.041325398 0.47500002 4278794263
0.029480642 0.041325398 0.47500002 4278728470
0.031023441 0.041325398 0.47500002 4278728470
0.032634802 0.041412398 0.47600001 4278991129
0.03418085 0.041412398 0.47600001 4278859543
0.035801958 0.041499399 0.47700003 4278925336
0.03742956 0.041586399 0.47800002 4278858773
0.039063655 0.0416734 0.47900003 4278990359
0.04070425 0.0417604 0.48000002 4278858775
0.042351339 0.041847404 0.48100004 4278858007
0.043913629 0.041847404 0.48100004 4278989593
0.045570463 0.041934405 0.48200002 4278990361
0.04723379 0.042021401 0.48300001 4278925336
0.048802577 0.042021401 0.48300001 4278794517
0.05037136 0.042021401 0.48300001 4278794517
0.052047681 0.042108405 0.48400003 4278730007
0.053619716 0.042108405 0.48400003 4278795800
0.055191748 0.042108405 0.48400003 4278925084
0.056763783 0.042108405 0.48400003 4283330139
0.058335815 0.042108405 0.48400003 4284710254
-0.028881442 0.04485422 0.49700001 4284511333
-0.025136774 0.043951724 0.48700002 4284052065
-0.023409896 0.043680973 0.48400003 4284051811
-0.021747623 0.043500472 0.48200002 4284446569
-0.020140216 0.043410223 0.48100004 4284775788
-0.018539302 0.043319974 0.48000002 4284841581
-0.016944887 0.043229725 0.47900003 4284907633
-0.015389093 0.043229725 0.47900003 4284776563
-0.013804421 0.043139473 0.47800002 4284644975
-0.012251875 0.043139473 0.47800002 4284710768
-0.010676947 0.043049224 0.47700003 4284644975
-0.0091276504 0.043049224 0.47700003 4284579182
-0.0075624655 0.042958971 0.47600001 4284644975
-0.0060164174 0.042958971 0.47600001 4284250217
-0.0044609774 0.042868722 0.47500002 4283789666
-0.0029181761 0.042868722 0.47500002 4284183910
-0.0013753753 0.042868722 0.47500002 4283790436
0.00016742553 0.042868722 0.47500002 4283067226
0.0017102263 0.042868722 0.47500002 4281356862
0.0032530271 0.042868722 0.47500002 4282475343
0.0047958279 0.042868722 0.47500002 4281685827
0.0063386289 0.042868722 0.47500002 4280501040
0.007881429 0.042868722 0.47500002 4279318308
0.009424231 0.042868722 0.47500002 4278791964
0.010967032 0.042868722 0.47500002 4278791964
0.012536168 0.042958971 0.47600001 4278989597
0.014082218 0.042958971 0.47600001 4278595353
0.015595434 0.042868722 0.47500002 4278990879
0.017138233 0.042868722 0.47500002 4278990877
0.018681034 0.042868722 0.47500002 4279056670
0.020223835 0.042868722 0.47500002 4279187740
0.021766638 0.042868722 0.47500002 4279121947
0.023309439 0.042868722 0.47500002 4279188510
0.024852239 0.042868722 0.47500002 4278925338
0.026339471 0.042778477 0.47400004 4278793752
0.027879026 0.042778477 0.47400004 4278793752
0.029480642 0.042868722 0.47500002 4278925338
0.031023441 0.042868722 0.47500002 4278925338
0.032566246 0.042868722 0.47500002 4278925338
0.03418085 0.042958971 0.47600001 4278859545
0.035801958 0.043049224 0.47700003 4278794265
0.03742956 0.043139473 0.47800002 4278794265
0.039063655 0.043229725 0.47900003 4278860058
0.04070425 0.043319974 0.48000002 4278794265
0.042351339 0.043410223 0.48100004 4278925851
0.044004925 0.043500472 0.48200002 4278794265
0.045570463 0.043500472 0.48200002 4278860056
0.04723379 0.043590721 0.48300001 4278728470
0.048802577 0.043590721 0.48300001 4278794517
0.05047565 0.043680973 0.48400003 4278662931
0.052047681 0.043680973 0.48400003 4279123482
0.053619716 0.043680973 0.48400003 4278991896
0.055191748 0.043680973 0.48400003 4279712807
0.056763783 0.043680973 0.48400003 4284448366
0.058335815 0.043680973 0.48400003 4284644977
-0.029055776 0.046749521 0.5 4284576356
-0.027486643 0.046843026 0.50100005 4283788123
-0.023361526 0.045160037 0.48300001 4283986018
-0.021747623 0.045066539 0.48200002 4284314983
-0.020140216 0.044973042 0.48100004 4284578155
0.015595434 0.044412047 0.47500002 4284909430
0.017138233 0.044412047 0.47500002 4284252270
0.018681034 0.044412047 0.47500002 4283791973
0.020223835 0.044412047 0.47500002 4282410320
0.021766638 0.044412047 0.47500002 4281686597
0.023309439 0.044412047 0.47500002 4280700215
0.024799919 0.044318549 0.47400004 4279779113
0.026339471 0.044318549 0.47400004 4279910699
0.027879026 0.044318549 0.47400004 4279515941
0.029418578 0.044318549 0.47400004 4278989597
0.031023441 0.044412047 0.47500002 4278660632
0.032566246 0.044412047 0.47500002 4278660632
0.03418085 0.044505544 0.47600001 4278397460
0.035801958 0.044599045 0.47700003 4278397458
0.03742956 0.044692542 0.47800002 4278594837
0.039145209 0.044879541 0.48000002 4279252254
0.04070425 0.044879541 0.48000002 4278791701
0.042351339 0.044973042 0.48100004 4278265357
0.044004925 0.045066539 0.48200002 4279120666
0.045570463 0.045066539 0.48200002 4278529042
0.04723379 0.045160037 0.48300001 4278660628
0.048802577 0.045160037 0.48300001 4278792214
0.05047565 0.045253538 0.48400003 4278726421
0.052047681 0.045253538 0.48400003 4278858009
0.053619716 0.045253538 0.48400003 4282147148
0.055191748 0.045253538 0.48400003 4284711538
0.056763783 0.045253538 0.48400003 4284514161
-0.029113891 0.048470825 0.50100005 4284378977
0.024799919 0.045858625 0.47400004 4284711792
0.026339471 0.045858625 0.47400004 4284645999
0.027879026 0.045858625 0.47400004 4284448620
0.029418578 0.045858625 0.47400004 4284580206
0.030958129 0.045858625 0.47400004 4284580206
0.032566246 0.045955371 0.47500002 4284711022
0.034109045 0.045955371 0.47500002 4284645229
0.035801958 0.046148866 0.47700003 4284580206
0.03742956 0.046245612 0.47800002 4284514926
0.039145209 0.046439111 0.48000002 4284646512
0.040789053 0.046535861 0.48100004 4284778098
0.042351339 0.046535861 0.48100004 4284646258
0.044004925 0.046632607 0.48200002 4284449133
0.045570463 0.046632607 0.48200002 4284580719
0.04723379 0.046729356 0.48300001 4284580719
0.048802577 0.046729356 0.48300001 4284645745
0.05047565 0.046826106 0.48400003 4284777844
0.052047681 0.046826106 0.48400003 4284119914
0.053619716 0.046826106 0.48400003 4284514672
0.055191748 0.046826106 0.48400003 4284448366
0.056763783 0.046826106 0.48400003 4284514159
0.013195806 0.035423778 0.47830966 4294967295
0.013195806 0.035423778 0.47830966 4294901760
0.013195806 0.035423778 0.47880965 4294901760
0.013195806 0.035423778 0.47930965 4294901760
0.013195806 0.035423778 0.47980967 4294901760
0.013195806 0.035423778 0.48030967 4294901760
0.013195806 0.035423778 0.48080966 4294901760
0.013195806 0.035423778 0.48130965 4294901760
0.013195806 0.035423778 0.48180965 4294901760
0.013195806 0.035423778 0.48230967 4294901760
0.013195806 0.035423778 0.48280966 4294901760
0.013195806 0.035423778 0.48330966 4294901760
0.013195806 0.035423778 0.48380965 4294901760
0.013195806 0.035423778 0.48430967 4294901760
0.013195806 0.035423778 0.48480967 4294901760
0.013195806 0.035423778 0.48530966 4294901760
0.013195806 0.035423778 0.48580965 4294901760
0.013195806 0.035423778 0.48630965 4294901760
0.013195806 0.035423778 0.48680967 4294901760
0.013195806 0.035423778 0.48730966 4294901760
0.013195806 0.035423778 0.48780966 4294901760
0.013195806 0.035423778 0.48830965 4294901760
0.013195806 0.035423778 0.48880965 4294901760
0.013195806 0.035423778 0.48930967 4294901760
0.013195806 0.035423778 0.48980966 4294901760
0.013195806 0.035423778 0.49030966 4294901760
0.013195806 0.035423778 0.49080965 4294901760
0.013195806 0.035423778 0.49130964 4294901760
0.013195806 0.035423778 0.49180967 4294901760
0.013195806 0.035423778 0.49230966 4294901760
0.013195806 0.035423778 0.49280965 4294901760
0.013195806 0.035423778 0.49330965 4294901760
0.013195806 0.035423778 0.49380964 4294901760
0.013195806 0.035423778 0.49430966 4294901760
0.013195806 0.035423778 0.49480966 4294901760
0.013195806 0.035423778 0.49530965 4294901760
0.013195806 0.035423778 0.49580964 4294901760
0.013195806 0.035423778 0.49630967 4294901760
0.013195806 0.035423778 0.49680966 4294901760
0.013195806 0.035423778 0.49730965 4294901760
0.013195806 0.035423778 0.49780965 4294901760
0.013195806 0.035423778 0.49830964 4294901760
0.013195806 0.035423778 0.49880967 4294901760
0.013195806 0.035423778 0.49930966 4294901760
0.013195806 0.035423778 0.49980965 4294901760
0.013195806 0.035423778 0.50030965 4294901760
0.013195806 0.035423778 0.50080967 4294901760
0.013195806 0.035423778 0.50130963 4294901760
0.013195806 0.035423778 0.50180966 4294901760
0.013195806 0.035423778 0.50230968 4294901760
0.013195806 0.035423778 0.50280964 4294901760
0.013195806 0.035423778 0.50330967 4294901760
0.013195806 0.035423778 0.50380963 4294901760
0.013195806 0.035423778 0.50430965 4294901760
0.013195806 0.035423778 0.50480968 4294901760
0.013195806 0.035423778 0.50530964 4294901760
0.013195806 0.035423778 0.50580966 4294901760
0.013195806 0.035423778 0.50630963 4294901760
0.013195806 0.035423778 0.50680965 4294901760
0.013195806 0.035423778 0.50730968 4294901760
0.013195806 0.035423778 0.50780964 4294901760
0.013195806 0.035423778 0.50830966 4294901760
0.013195806 0.035423778 0.50880963 4294901760
0.013195806 0.035423778 0.50930965 4294901760
0.013195806 0.035423778 0.50980967 4294901760
0.013195806 0.035423778 0.51030964 4294901760
0.013195806 0.035423778 0.51080966 4294901760
0.013195806 0.035423778 0.51130962 4294901760
0.013195806 0.035423778 0.51180965 4294901760
0.013195806 0.035423778 0.51230967 4294901760
0.013195806 0.035423778 0.51280963 4294901760
0.013195806 0.035423778 0.51330966 4294901760
0.013195806 0.035423778 0.51380962 4294901760
0.013195806 0.035423778 0.51430964 4294901760
0.013195806 0.035423778 0.51480967 4294901760
0.013195806 0.035423778 0.51530963 4294901760
0.013195806 0.035423778 0.51580966 4294901760
0.013195806 0.035423778 0.51630962 4294901760
0.013195806 0.035423778 0.51680964 4294901760
0.013195806 0.035423778 0.51730967 4294901760
0.013195806 0.035423778 0.51780963 4294901760
0.013195806 0.035423778 0.51830965 4294901760
0.013195806 0.035423778 0.51880968 4294901760
0.013195806 0.035423778 0.51930964 4294901760
0.013195806 0.035423778 0.51980966 4294901760
0.013195806 0.035423778 0.52030963 4294901760
0.013195806 0.035423778 0.52080965 4294901760
0.013195806 0.035423778 0.52130967 4294901760
0.013195806 0.035423778 0.52180964 4294901760
0.013195806 0.035423778 0.52230966 4294901760
0.013195806 0.035423778 0.52280962 4294901760
0.013195806 0.035423778 0.52330965 4294901760
0.013195806 0.035423778 0.52380967 4294901760
0.013195806 0.035423778 0.52430964 4294901760
0.013195806 0.035423778 0.52480966 4294901760
0.013195806 0.035423778 0.52530962 4294901760
0.013195806 0.035423778 0.52580965 4294901760
0.013195806 0.035423778 0.52630967 4294901760
0.013195806 0.035423778 0.52680963 4294901760
0.013195806 0.035423778 0.52730966 4294901760
0.013195806 0.035423778 0.52780962 4294901760
0.013195806 0.035423778 0.52830964 4294901760
0.013195806 0.035423778 0.47830966 4278255360
0.013179354 0.03551802 0.47880042 4278255360
0.013162903 0.035612263 0.4792912 4278255360
0.013146452 0.035706505 0.47978196 4278255360
0.01313 0.035800748 0.48027271 4278255360
0.013113548 0.03589499 0.48076347 4278255360
0.013097096 0.035989232 0.48125422 4278255360
0.013080645 0.036083475 0.481745 4278255360
0.013064194 0.036177717 0.48223576 4278255360
0.013047742 0.03627196 0.48272651 4278255360
0.01303129 0.036366202 0.4832173 4278255360
0.013014839 0.036460448 0.48370805 4278255360
0.012998387 0.03655469 0.48419881 4278255360
0.012981935 0.036648933 0.48468956 4278255360
0.012965484 0.036743175 0.48518032 4278255360
0.012949033 0.036837418 0.4856711 4278255360
0.012932581 0.03693166 0.48616186 4278255360
0.012916129 0.037025902 0.48665261 4278255360
0.012899677 0.037120145 0.4871434 4278255360
0.012883226 0.037214387 0.48763415 4278255360
0.012866775 0.03730863 0.48812491 4278255360
0.012850323 0.037402872 0.48861566 4278255360
0.012833871 0.037497114 0.48910642 4278255360
0.01281742 0.037591357 0.4895972 4278255360
0.012800968 0.037685599 0.49008796 4278255360
0.012784516 0.037779842 0.49057871 4278255360
0.012768065 0.037874084 0.49106947 4278255360
0.012751613 0.037968326 0.49156025 4278255360
0.012735162 0.038062569 0.49205101 4278255360
0.01271871 0.038156811 0.49254176 4278255360
0.012702258 0.038251057 0.49303254 4278255360
0.012685806 0.0383453 0.4935233 4278255360
0.012669356 0.038439542 0.49401405 4278255360
0.012652904 0.038533784 0.49450481 4278255360
0.012636452 0.038628027 0.49499559 4278255360
0.01262 0.038722269 0.49548635 4278255360
0.012603549 0.038816512 0.4959771 4278255360
0.012587097 0.038910754 0.49646786 4278255360
0.012570646 0.039004996 0.49695861 4278255360
0.012554194 0.039099239 0.4974494 4278255360
0.012537743 0.039193481 0.49794015 4278255360
0.012521291 0.039287724 0.49843091 4278255360
0.012504839 0.039381966 0.49892169 4278255360
0.012488388 0.039476208 0.49941245 4278255360
0.012471937 0.039570451 0.4999032 4278255360
0.012455485 0.039664693 0.50039399 4278255360
0.012439033 0.039758936 0.50088471 4278255360
0.012422581 0.039853178 0.5013755 4278255360
0.01240613 0.03994742 0.50186622 4278255360
0.012389679 0.040041663 0.50235701 4278255360
0.012373227 0.040135905 0.50284779 4278255360
0.012356775 0.040230148 0.50333852 4278255360
0.012340324 0.04032439 0.5038293 4278255360
0.012323872 0.040418636 0.50432009 4278255360
0.01230742 0.040512878 0.50481081 4278255360
0.012290969 0.040607121 0.50530159 4278255360
0.012274517 0.040701363 0.50579238 4278255360
0.012258066 0.040795606 0.5062831 4278255360
0.012241614 0.040889848 0.50677389 4278255360
0.012225162 0.04098409 0.50726461 4278255360
0.01220871 0.041078333 0.5077554 4278255360
0.01219226 0.041172575 0.50824618 4278255360
0.012175808 0.041266818 0.50873691 4278255360
0.012159356 0.04136106 0.50922769 4278255360
0.012142904 0.041455302 0.50971842 4278255360
0.012126453 0.041549545 0.5102092 4278255360
0.012110001 0.041643787 0.51069999 4278255360
0.01209355 0.04173803 0.51119071 4278255360
0.012077098 0.041832272 0.5116815 4278255360
0.012060647 0.041926518 0.51217228 4278255360
0.012044195 0.04202076 0.51266301 4278255360
0.012027743 0.042115003 0.51315379 4278255360
0.012011291 0.042209245 0.51364458 4278255360
0.011994841 0.042303488 0.5141353 4278255360
0.011978389 0.04239773 0.51462609 4278255360
0.011961937 0.042491972 0.51511681 4278255360
0.011945485 0.042586215 0.5156076 4278255360
0.011929033 0.042680457 0.51609838 4278255360
0.011912582 0.0427747 0.51658911 4278255360
0.011896131 0.042868942 0.51707989 4278255360
0.011879679 0.042963184 0.51757061 4278255360
0.011863227 0.043057427 0.5180614 4278255360
0.011846776 0.043151669 0.51855218 4278255360
0.011830324 0.043245912 0.51904291 4278255360
0.011813872 0.043340154 0.51953369 4278255360
0.011797421 0.043434396 0.52002448 4278255360
0.01178097 0.043528639 0.5205152 4278255360
0.011764518 0.043622881 0.52100599 4278255360
0.011748066 0.043717124 0.52149677 4278255360
0.011731614 0.043811366 0.5219875 4278255360
0.011715163 0.043905608 0.52247828 4278255360
0.011698712 0.043999851 0.52296901 4278255360
0.01168226 0.044094097 0.52345979 4278255360
0.011665808 0.044188339 0.52395058 4278255360
0.011649357 0.044282582 0.5244413 4278255360
0.011632905 0.044376824 0.52493209 4278255360
0.011616454 0.044471066 0.52542281 4278255360
0.011600002 0.044565309 0.5259136 4278255360
0.01158355 0.044659551 0.52640438 4278255360
0.011567099 0.044753794 0.52689511 4278255360
0.011550647 0.044848036 0.52738589 4278255360
