# .PCD v0.7 - Point Cloud Data file format
VERSION 0.7
FIELDS x y z rgb
SIZE 4 4 4 4
TYPE F F F U
COUNT 1 1 1 1
WIDTH 1062
HEIGHT 1
VIEWPOINT 0 0 0 1 0 0 0
POINTS 1062
DATA ascii
0.084595665 0.057100665 0.29900002 4285497206
0.085566819 0.057100665 0.29900002 4285365620
0.086537972 0.057100665 0.29900002 4285628276
0.087509118 0.057100665 0.29900002 4285694069
0.088776186 0.057291634 0.30000001 4286416250
0.089750588 0.057291634 0.30000001 4280620304
0.09072499 0.057291634 0.30000001 4282847756
0.091699392 0.057291634 0.30000001 4282847243
0.092982709 0.057482608 0.30100003 4283109131
0.09396036 0.057482608 0.30100003 4283503889
0.094938003 0.057482608 0.30100003 4283701009
0.096234307 0.057673577 0.30200002 4283831825
0.097215205 0.057673577 0.30200002 4284555033
0.098196104 0.057673577 0.30200002 4285279523
0.099176995 0.057673577 0.30200002 4284825398
0.065172613 0.058072142 0.29900002 4279902489
0.068086065 0.058072142 0.29900002 4281350189
0.069057226 0.058072142 0.29900002 4279967766
0.069794163 0.057877917 0.29800001 4280427547
0.070762068 0.057877917 0.29800001 4281348649
0.071729973 0.057877917 0.29800001 4281414181
0.07269787 0.057877917 0.29800001 4281214738
0.073912986 0.058072142 0.29900002 4281346578
0.074884132 0.058072142 0.29900002 4281149199
0.075855285 0.058072142 0.29900002 4281017613
0.076826438 0.058072142 0.29900002 4280689677
0.077797592 0.058072142 0.29900002 4280887573
0.082653359 0.058072142 0.29900002 4286220415
0.083624512 0.058072142 0.29900002 4285497206
0.084595665 0.058072142 0.29900002 4285562999
0.085566819 0.058072142 0.29900002 4285497206
0.086537972 0.058072142 0.29900002 4285562999
0.087509118 0.058072142 0.29900002 4285497204
0.088776186 0.05826636 0.30000001 4286283894
0.089750588 0.05826636 0.30000001 4281012747
0.09072499 0.05826636 0.30000001 4283044106
0.091699392 0.05826636 0.30000001 4283044106
0.092982709 0.058460586 0.30100003 4283504143
0.09396036 0.058460586 0.30100003 4283569423
0.094938003 0.058460586 0.30100003 4283962896
0.095915653 0.058460586 0.30100003 4284685079
0.097215205 0.058654804 0.30200002 4285013271
0.098196104 0.058654804 0.30200002 4285144342
0.099176995 0.058654804 0.30200002 4284490523
0.066143766 0.059043627 0.29900002 4280099868
0.069057226 0.059043627 0.29900002 4280758052
0.070028372 0.059043627 0.29900002 4280758052
0.070999525 0.059043627 0.29900002 4281282854
0.071970679 0.059043627 0.29900002 4281545769
0.072941832 0.059043627 0.29900002 4281348642
0.073912986 0.059043627 0.29900002 4280953882
0.074884132 0.059043627 0.29900002 4281150230
0.075855285 0.059043627 0.29900002 4281018644
0.077083379 0.059241094 0.30000001 4280888343
0.082653359 0.059043627 0.29900002 4285628278
0.083624512 0.059043627 0.29900002 4285562999
0.084595665 0.059043627 0.29900002 4285694585
0.085566819 0.059043627 0.29900002 4285694585
0.086537972 0.059043627 0.29900002 4285825657
0.087509118 0.059043627 0.29900002 4285628276
0.088776186 0.059241094 0.30000001 4286149228
0.089750588 0.059241094 0.30000001 4282390037
0.09072499 0.059241094 0.30000001 4283109899
0.091699392 0.059241094 0.30000001 4283372555
0.092673793 0.059241094 0.30000001 4283503628
0.09396036 0.059438568 0.30100003 4283897616
0.094938003 0.059438568 0.30100003 4284488722
0.095915653 0.059438568 0.30100003 4285145880
0.096893303 0.059438568 0.30100003 4285210133
0.098196104 0.059636038 0.30200002 4285209363
0.099176995 0.059636038 0.30200002 4285078547
0.10015789 0.059636038 0.30200002 4284622622
0.070028372 0.060015105 0.29900002 4281810486
0.070999525 0.060015105 0.29900002 4281218601
0.071970679 0.060015105 0.29900002 4281415208
0.072941832 0.060015105 0.29900002 4281217059
0.073912986 0.060015105 0.29900002 4281151266
0.075134575 0.060215823 0.30000001 4281085216
0.076108977 0.060215823 0.30000001 4280690458
0.077083379 0.060215823 0.30000001 4279900174
0.081682198 0.060015105 0.29900002 4285496177
0.082653359 0.060015105 0.29900002 4285694585
0.083624512 0.060015105 0.29900002 4285562999
0.084595665 0.060015105 0.29900002 4285562997
0.085566819 0.060015105 0.29900002 4285562997
0.086537972 0.060015105 0.29900002 4285497204
0.087801784 0.060215823 0.30000001 4285496690
0.088776186 0.060215823 0.30000001 4281999642
0.089750588 0.060215823 0.30000001 4283176725
0.09072499 0.060215823 0.30000001 4283438350
0.091699392 0.060215823 0.30000001 4283634698
0.092673793 0.060215823 0.30000001 4283700491
0.093648195 0.060215823 0.30000001 4284292113
0.094938003 0.060416546 0.30100003 4286594868
0.095915653 0.060416546 0.30100003 4290412408
0.096893303 0.060416546 0.30100003 4284223755
0.097870953 0.060416546 0.30100003 4285077779
0.099176995 0.060617261 0.30200002 4285077779
0.10015789 0.060617261 0.30200002 4284750869
0.067339376 0.061190557 0.30000001 4280363040
0.068313777 0.061190557 0.30000001 4280560932
0.071236983 0.061190557 0.30000001 4279638799
0.072211385 0.061190557 0.30000001 4280757280
0.073185779 0.061190557 0.30000001 4282402105
0.074160181 0.061190557 0.30000001 4281020450
0.075134575 0.061190557 0.30000001 4278650112
0.080980986 0.061190557 0.30000001 4282074941
0.081955381 0.061190557 0.30000001 4285694069
0.082653359 0.06098659 0.29900002 4285628790
0.083624512 0.06098659 0.29900002 4285562997
0.084595665 0.06098659 0.29900002 4285562997
0.085566819 0.06098659 0.29900002 4285365618
0.08682739 0.061190557 0.30000001 4285562997
0.087801784 0.061190557 0.30000001 4286022775
0.088776186 0.061190557 0.30000001 4282256139
0.089750588 0.061190557 0.30000001 4283503891
0.09072499 0.061190557 0.30000001 4283568653
0.091699392 0.061190557 0.30000001 4283831310
0.092673793 0.061190557 0.30000001 4283831564
0.093648195 0.061190557 0.30000001 4284093966
0.094938003 0.061394528 0.30100003 4284881683
0.095915653 0.061394528 0.30100003 4287909188
0.096893303 0.061394528 0.30100003 4284487697
0.097870953 0.061394528 0.30100003 4285209367
0.098848604 0.061394528 0.30100003 4284881170
0.10015789 0.061598495 0.30200002 4284750867
0.065390579 0.062165283 0.30000001 4281284144
0.067339376 0.062165283 0.30000001 4280758311
0.068313777 0.062165283 0.30000001 4280363553
0.070262581 0.062165283 0.30000001 4281809716
0.075385034 0.062372506 0.30100003 4278453248
0.077340335 0.062372506 0.30100003 4279572754
0.080980986 0.062165283 0.30000001 4285497976
0.081955381 0.062165283 0.30000001 4285562746
0.082929783 0.062165283 0.30000001 4285628792
0.083904184 0.062165283 0.30000001 4285694583
0.084878586 0.062165283 0.30000001 4285628790
0.085852988 0.062165283 0.30000001 4285497204
0.08682739 0.062165283 0.30000001 4285496690
0.087801784 0.062165283 0.30000001 4282661684
0.088776186 0.062165283 0.30000001 4283700757
0.089750588 0.062165283 0.30000001 4283503630
0.09072499 0.062165283 0.30000001 4283699724
0.091699392 0.062165283 0.30000001 4283897357
0.092673793 0.062165283 0.30000001 4284028173
0.093648195 0.062165283 0.30000001 4284224782
0.09462259 0.062165283 0.30000001 4284487695
0.095915653 0.062372506 0.30100003 4284948246
0.096893303 0.062372506 0.30100003 4285079834
0.097870953 0.062372506 0.30100003 4285144857
0.098848604 0.062372506 0.30100003 4284750099
0.099826254 0.062372506 0.30100003 4284487697
0.066364981 0.06314002 0.30000001 4280627495
0.068313777 0.06314002 0.30000001 4280099868
0.069519147 0.063350484 0.30100003 4281087017
0.07049679 0.063350484 0.30100003 4280165915
0.073429734 0.063350484 0.30100003 4282074425
0.074654587 0.063560948 0.30200002 4282140218
0.075635478 0.063560948 0.30200002 4278387712
0.076616377 0.063560948 0.30200002 4281480751
0.080273278 0.063350484 0.30100003 4286089343
0.081250928 0.063350484 0.30100003 4285497976
0.082228571 0.063350484 0.30100003 4285432183
0.082929783 0.06314002 0.30000001 4285497206
0.083904184 0.06314002 0.30000001 4285694585
0.084878586 0.06314002 0.30000001 4285497204
0.085852988 0.06314002 0.30000001 4285562997
0.08682739 0.06314002 0.30000001 4286281584
0.087801784 0.06314002 0.30000001 4282718487
0.088776186 0.06314002 0.30000001 4283831823
0.089750588 0.06314002 0.30000001 4283831310
0.09072499 0.06314002 0.30000001 4284028173
0.091699392 0.06314002 0.30000001 4283962380
0.092673793 0.06314002 0.30000001 4284225552
0.093648195 0.06314002 0.30000001 4284028173
0.09462259 0.06314002 0.30000001 4284487954
0.095596991 0.06314002 0.30000001 4284356368
0.096893303 0.063350484 0.30100003 4284619283
0.097870953 0.063350484 0.30100003 4285014041
0.098848604 0.063350484 0.30100003 4284619540
0.099826254 0.063350484 0.30100003 4284225298
0.049136166 0.063259885 0.296 4282654227
0.050097574 0.063259885 0.296 4282914573
0.051058982 0.063259885 0.296 4282848010
0.05202039 0.063259885 0.296 4281010949
0.052981801 0.063259885 0.296 4279111430
0.053943206 0.063259885 0.296 4279045383
0.07049679 0.064328469 0.30100003 4281284142
0.073673688 0.064542182 0.30200002 4281481003
0.074654587 0.064542182 0.30200002 4281679667
0.076616377 0.064542182 0.30200002 4278519040
0.078578167 0.064542182 0.30200002 4280029452
0.079559065 0.064542182 0.30200002 4286350203
0.080539964 0.064542182 0.30200002 4285430899
0.081520863 0.064542182 0.30200002 4285497206
0.082228571 0.064328469 0.30100003 4285497206
0.083206221 0.064328469 0.30100003 4285760376
0.084183872 0.064328469 0.30100003 4285562997
0.085161522 0.064328469 0.30100003 4285562997
0.085852988 0.064114749 0.30000001 4286220413
0.087116823 0.064328469 0.30100003 4283309854
0.088094465 0.064328469 0.30100003 4283963927
0.089072116 0.064328469 0.30100003 4284027919
0.090049759 0.064328469 0.30100003 4284093966
0.091027409 0.064328469 0.30100003 4284158989
0.092005059 0.064328469 0.30100003 4284487697
0.092982709 0.064328469 0.30100003 4284158989
0.093648195 0.064114749 0.30000001 4283962380
0.09462259 0.064114749 0.30000001 4284094736
0.095596991 0.064114749 0.30000001 4284093966
0.096893303 0.064328469 0.30100003 4284356368
0.097870953 0.064328469 0.30100003 4284487954
0.098848604 0.064328469 0.30100003 4284093966
0.099826254 0.064328469 0.30100003 4283962896
0.047372855 0.064438581 0.29700002 4278979590
0.048337512 0.064438581 0.29700002 4281410333
0.049302168 0.064438581 0.29700002 4282719250
0.050097574 0.064221613 0.296 4283242766
0.051058982 0.064221613 0.296 4283833106
0.05202039 0.064221613 0.296 4283374354
0.052981801 0.064221613 0.296 4280421380
0.053943206 0.064221613 0.296 4280095243
0.054904617 0.064221613 0.296 4279899661
0.077854216 0.065740369 0.303 4281997328
0.078838356 0.065740369 0.303 4282391059
0.079822503 0.065740369 0.303 4286018923
0.080539964 0.065523408 0.30200002 4285693810
0.081520863 0.065523408 0.30200002 4285628276
0.082501754 0.065523408 0.30200002 4285694069
0.083206221 0.065306447 0.30100003 4285694069
0.084183872 0.065306447 0.30100003 4285694323
0.085161522 0.065306447 0.30100003 4285890419
0.086139172 0.065306447 0.30100003 4283252537
0.087116823 0.065306447 0.30100003 4284160277
0.088094465 0.065306447 0.30100003 4284158735
0.089072116 0.065306447 0.30100003 4284224525
0.090049759 0.065306447 0.30100003 4284421904
0.091027409 0.065306447 0.30100003 4284421904
0.092005059 0.065306447 0.30100003 4284421904
0.092982709 0.065306447 0.30100003 4284028173
0.09396036 0.065306447 0.30100003 4283831564
0.094938003 0.065306447 0.30100003 4283635214
0.095915653 0.065306447 0.30100003 4283766800
0.096893303 0.065306447 0.30100003 4283964179
0.097870953 0.065306447 0.30100003 4283898386
0.098848604 0.065306447 0.30100003 4283766802
0.047372855 0.065403573 0.29700002 4279439625
0.048337512 0.065403573 0.29700002 4281277462
0.049302168 0.065403573 0.29700002 4283178518
0.050097574 0.065183349 0.296 4283504655
0.051058982 0.065183349 0.296 4283897103
0.05202039 0.065183349 0.296 4284094482
0.052981801 0.065183349 0.296 4284160788
0.053943206 0.065183349 0.296 4284228378
0.054904617 0.065183349 0.296 4283177491
0.055866025 0.065183349 0.296 4283439380
0.056827433 0.065183349 0.296 4283569423
0.057788841 0.065183349 0.296 4283701007
0.058750253 0.065183349 0.296 4283766800
0.059711657 0.065183349 0.296 4284162073
0.060878046 0.065403573 0.29700002 4284040507
0.074161589 0.066945069 0.30400002 4281603086
0.075148985 0.066945069 0.30400002 4281996560
0.076136373 0.066945069 0.30400002 4282324494
0.077123769 0.066945069 0.30400002 4283046932
0.078111164 0.066945069 0.30400002 4283571733
0.078838356 0.066724852 0.303 4283439634
0.079822503 0.066724852 0.303 4283910206
0.08080665 0.066724852 0.303 4285889904
0.081520863 0.066504642 0.30200002 4285496944
0.082501754 0.066504642 0.30200002 4285628530
0.083482653 0.066504642 0.30200002 4285760116
0.084463552 0.066504642 0.30200002 4285825909
0.085161522 0.066284426 0.30100003 4285551179
0.086139172 0.066284426 0.30100003 4283569682
0.087116823 0.066284426 0.30100003 4284487443
0.088094465 0.066284426 0.30100003 4284420880
0.089072116 0.066284426 0.30100003 4284552718
0.090348929 0.066504642 0.30200002 4284421132
0.091329828 0.066504642 0.30200002 4284487695
0.092310719 0.066504642 0.30200002 4284224780
0.093291618 0.066504642 0.30200002 4283570188
0.09396036 0.066284426 0.30100003 4282979081
0.094938003 0.066284426 0.30100003 4282913803
0.095915653 0.066284426 0.30100003 4283176975
0.096893303 0.066284426 0.30100003 4283374100
0.097870953 0.066284426 0.30100003 4283637272
0.098848604 0.066284426 0.30100003 4283310106
0.047372855 0.06636855 0.29700002 4279505418
0.048337512 0.06636855 0.29700002 4281738267
0.049302168 0.06636855 0.29700002 4283375383
0.050266825 0.06636855 0.29700002 4283438864
0.051058982 0.066145085 0.296 4284161558
0.05202039 0.066145085 0.296 4284358421
0.052981801 0.066145085 0.296 4284357136
0.053943206 0.066145085 0.296 4284619538
0.054904617 0.066145085 0.296 4285079062
0.055866025 0.066145085 0.296 4284750869
0.056827433 0.066145085 0.296 4285937453
0.057788841 0.066145085 0.296 4283766284
0.058750253 0.066145085 0.296 4284291345
0.059711657 0.066145085 0.296 4284094482
0.060878046 0.06636855 0.29700002 4283768345
0.073174201 0.067932792 0.30400002 4282717453
0.074161589 0.067932792 0.30400002 4283240971
0.07539618 0.06815625 0.30500001 4283240971
0.076136373 0.067932792 0.30400002 4283240971
0.077123769 0.067932792 0.30400002 4283635729
0.078111164 0.067932792 0.30400002 4283964694
0.07909856 0.067932792 0.30400002 4283964181
0.079822503 0.067709327 0.303 4283050784
0.08080665 0.067709327 0.303 4286546035
0.081790797 0.067709327 0.303 4285496944
0.082501754 0.067485869 0.30200002 4285628530
0.083482653 0.067485869 0.30200002 4285824626
0.084463552 0.067485869 0.30200002 4283514424
0.085444443 0.067485869 0.30200002 4284161558
0.086425342 0.067485869 0.30200002 4284291091
0.08740624 0.067485869 0.30200002 4284420880
0.088387132 0.067485869 0.30200002 4284552718
0.08936803 0.067485869 0.30200002 4284750095
0.090348929 0.067485869 0.30200002 4284552716
0.091329828 0.067485869 0.30200002 4284224780
0.092310719 0.067485869 0.30200002 4283569421
0.093291618 0.067485869 0.30200002 4282587151
0.094272517 0.067485869 0.30200002 4282389772
0.094938003 0.067262404 0.30100003 4282455567
0.095915653 0.067262404 0.30100003 4282587153
0.096893303 0.067262404 0.30100003 4282849555
0.097870953 0.067262404 0.30100003 4283508253
0.047372855 0.067333534 0.29700002 4279504905
0.048337512 0.067333534 0.29700002 4282067232
0.049302168 0.067333534 0.29700002 4283375383
0.050266825 0.067333534 0.29700002 4283768599
0.051231481 0.067333534 0.29700002 4284096278
0.05202039 0.067106821 0.296 4284096019
0.052981801 0.067106821 0.296 4284291343
0.053943206 0.067106821 0.296 4284487952
0.054904617 0.067106821 0.296 4285340951
0.055866025 0.067106821 0.296 4288895828
0.056635451 0.066880114 0.29500002 4285806635
0.05759361 0.066880114 0.29500002 4285014037
0.058551773 0.066880114 0.29500002 4284882453
0.059711657 0.067106821 0.296 4284619281
0.060878046 0.067333534 0.29700002 4284422161
0.062050927 0.067560248 0.29800001 4284424984
0.073414907 0.069147229 0.30500001 4283176462
0.074405544 0.069147229 0.30500001 4283635214
0.07539618 0.069147229 0.30500001 4283437835
0.076386817 0.069147229 0.30500001 4283568651
0.077377461 0.069147229 0.30500001 4283897616
0.078111164 0.068920523 0.30400002 4284160788
0.07909856 0.068920523 0.30400002 4284358167
0.080085948 0.068920523 0.30400002 4282981139
0.08080665 0.068693802 0.303 4287201651
0.081790797 0.068693802 0.303 4285562222
0.082774937 0.068693802 0.303 4286153076
0.083482653 0.068467095 0.30200002 4283770143
0.084463552 0.068467095 0.30200002 4284291609
0.085444443 0.068467095 0.30200002 4284553493
0.086425342 0.068467095 0.30200002 4284421907
0.08740624 0.068467095 0.30200002 4284618513
0.088387132 0.068467095 0.30200002 4284618511
0.089663945 0.068693802 0.303 4284684302
0.090648092 0.068693802 0.303 4284487693
0.09163224 0.068693802 0.303 4283635727
0.092616387 0.068693802 0.303 4282585867
0.093600526 0.068693802 0.303 4283114780
0.094272517 0.068467095 0.30200002 4283378981
0.094938003 0.068240389 0.30100003 4282723363
0.095915653 0.068240389 0.30100003 4283053612
0.096893303 0.068240389 0.30100003 4284767050
0.047372855 0.068298519 0.29700002 4280031249
0.048337512 0.068298519 0.29700002 4281936416
0.049302168 0.068298519 0.29700002 4283441944
0.050266825 0.068298519 0.29700002 4283572503
0.051231481 0.068298519 0.29700002 4283965206
0.052196138 0.068298519 0.29700002 4284030485
0.052981801 0.068068549 0.296 4284160527
0.053943206 0.068068549 0.296 4284422159
0.054904617 0.068068549 0.296 4284815377
0.055866025 0.068068549 0.296 4285077779
0.056635451 0.067838594 0.29500002 4285606178
0.05759361 0.067838594 0.29500002 4285342234
0.058551773 0.067838594 0.29500002 4285078547
0.059308197 0.067608625 0.294 4284881168
0.060263112 0.067608625 0.294 4284618511
0.062050927 0.068528473 0.29800001 4284421902
0.063230306 0.068758443 0.29900002 4284422931
0.064416178 0.068988398 0.30000001 4284491298
0.065390579 0.068988398 0.30000001 4285751386
0.073414907 0.070138201 0.30500001 4283046418
0.074649498 0.070368171 0.30600002 4283766030
0.07564339 0.070368171 0.30600002 4283634444
0.076637276 0.070368171 0.30600002 4283765517
0.077377461 0.070138201 0.30500001 4283962896
0.078368105 0.070138201 0.30500001 4284555033
0.07909856 0.069908246 0.30400002 4284423447
0.080085948 0.069908246 0.30400002 4284752666
0.08080665 0.069678284 0.303 4287519059
0.081790797 0.069678284 0.303 4286142805
0.082774937 0.069678284 0.303 4283440665
0.083759077 0.069678284 0.303 4284553495
0.084743224 0.069678284 0.303 4284553238
0.085444443 0.069448322 0.30200002 4284619283
0.086425342 0.069448322 0.30200002 4284553490
0.087695666 0.069678284 0.303 4284553488
0.088679798 0.069678284 0.303 4284685074
0.089663945 0.069678284 0.303 4284421902
0.090648092 0.069678284 0.303 4284093194
0.091934659 0.069908246 0.30400002 4282388742
0.092922054 0.069908246 0.30400002 4282192395
0.09390945 0.069908246 0.30400002 4281275404
0.047372855 0.069263503 0.29700002 4280031762
0.048337512 0.069263503 0.29700002 4281804830
0.049302168 0.069263503 0.29700002 4283310874
0.050266825 0.069263503 0.29700002 4283376151
0.051231481 0.069263503 0.29700002 4283637526
0.052196138 0.069263503 0.29700002 4283637013
0.052981801 0.069030285 0.296 4284094482
0.053943206 0.069030285 0.296 4284356368
0.054904617 0.069030285 0.296 4284683791
0.055677291 0.068797082 0.29500002 4285077779
0.056635451 0.068797082 0.29500002 4284289546
0.05759361 0.068797082 0.29500002 4289753697
0.058551773 0.068797082 0.29500002 4284421130
0.059308197 0.068563864 0.294 4284881168
0.060263112 0.068563864 0.294 4284815890
0.061218027 0.068563864 0.294 4284487695
0.062172942 0.068563864 0.294 4284553490
0.064416178 0.069963135 0.30000001 4284553490
0.065390579 0.069963135 0.30000001 4284422677
0.066364981 0.069963135 0.30000001 4283701007
0.067339376 0.069963135 0.30000001 4285881427
0.073414907 0.07112918 0.30500001 4284891704
0.074649498 0.071362399 0.30600002 4284161560
0.07564339 0.071362399 0.30600002 4284029202
0.076637276 0.071362399 0.30600002 4284160275
0.077377461 0.07112918 0.30500001 4284356884
0.078368105 0.07112918 0.30500001 4284488724
0.07909856 0.070895977 0.30400002 4284686103
0.080085948 0.070895977 0.30400002 4284750869
0.08080665 0.070662759 0.303 4284685076
0.081790797 0.070662759 0.303 4284882201
0.082774937 0.070662759 0.303 4284750869
0.083759077 0.070662759 0.303 4284685076
0.084743224 0.070662759 0.303 4284815892
0.085727371 0.070662759 0.303 4284815890
0.086711518 0.070662759 0.303 4284685074
0.087695666 0.070662759 0.303 4284685074
0.088679798 0.070662759 0.303 4284553488
0.089959875 0.070895977 0.30400002 4284094734
0.090947263 0.070895977 0.30400002 4282913288
0.091934659 0.070895977 0.30400002 4282323983
0.092922054 0.070895977 0.30400002 4283840563
0.047532357 0.070464939 0.29800001 4279835408
0.048500262 0.070464939 0.29800001 4281410072
0.049468167 0.070464939 0.29800001 4282852119
0.050266825 0.07022848 0.29700002 4282983192
0.051231481 0.07022848 0.29700002 4283309844
0.052196138 0.07022848 0.29700002 4283374354
0.053160798 0.07022848 0.29700002 4283700237
0.053943206 0.069992021 0.296 4284093712
0.054904617 0.069992021 0.296 4284487697
0.055677291 0.069755562 0.29500002 4284684304
0.056635451 0.069755562 0.29500002 4284750865
0.05759361 0.069755562 0.29500002 4284621078
0.05835329 0.069519103 0.294 4284092939
0.059308197 0.069519103 0.294 4284618511
0.060263112 0.069519103 0.294 4284421904
0.061218027 0.069519103 0.294 4284224525
0.062172942 0.069519103 0.294 4284487695
0.064416178 0.070937857 0.30000001 4284553488
0.065390579 0.070937857 0.30000001 4284619281
0.066364981 0.070937857 0.30000001 4284553488
0.067339376 0.070937857 0.30000001 4284685076
0.068541497 0.071174324 0.30100003 4284224782
0.0697501 0.071410783 0.30200002 4283176975
0.073414907 0.07212016 0.30500001 4283505688
0.074649498 0.072356619 0.30600002 4284685333
0.07564339 0.072356619 0.30600002 4284685076
0.076637276 0.072356619 0.30600002 4284619283
0.077377461 0.07212016 0.30500001 4284618513
0.078368105 0.07212016 0.30500001 4284815890
0.07909856 0.071883701 0.30400002 4284750097
0.080085948 0.071883701 0.30400002 4284815890
0.08080665 0.071647234 0.303 4285079062
0.081790797 0.071647234 0.303 4284815890
0.082774937 0.071647234 0.303 4284815890
0.083759077 0.071647234 0.303 4285079062
0.084743224 0.071647234 0.303 4285079062
0.085727371 0.071647234 0.303 4284881681
0.086711518 0.071647234 0.303 4285013267
0.087695666 0.071647234 0.303 4284619281
0.088972479 0.071883701 0.30400002 4284225550
0.089959875 0.071883701 0.30400002 4282782217
0.090947263 0.071883701 0.30400002 4282125318
0.047532357 0.071433172 0.29800001 4279638801
0.048500262 0.071433172 0.29800001 4280491796
0.049468167 0.071433172 0.29800001 4282459160
0.050436068 0.071433172 0.29800001 4282721049
0.051231481 0.071193472 0.29700002 4282719250
0.052196138 0.071193472 0.29700002 4282981393
0.053160798 0.071193472 0.29700002 4283504141
0.053943206 0.070953757 0.296 4283700237
0.054904617 0.070953757 0.296 4284028173
0.055677291 0.070714049 0.29500002 4284356368
0.056635451 0.070714049 0.29500002 4284423701
0.05759361 0.070714049 0.29500002 4284029456
0.05835329 0.070474342 0.294 4284225298
0.059308197 0.070474342 0.294 4284093966
0.060263112 0.070474342 0.294 4283962380
0.061218027 0.070474342 0.294 4283896333
0.062172942 0.070474342 0.294 4284291345
0.064416178 0.071912594 0.30000001 4284686103
0.065390579 0.071912594 0.30000001 4284685333
0.066364981 0.071912594 0.30000001 4284487952
0.067339376 0.071912594 0.30000001 4284619281
0.068541497 0.072152302 0.30100003 4284750097
0.0697501 0.072392009 0.30200002 4284815892
0.071199417 0.072871432 0.30400002 4285079064
0.072186805 0.072871432 0.30400002 4284881431
0.073414907 0.073111132 0.30500001 4284881431
0.074649498 0.073350847 0.30600002 4285013269
0.07564339 0.073350847 0.30600002 4284881170
0.076637276 0.073350847 0.30600002 4284946193
0.077631161 0.073350847 0.30600002 4285011216
0.078111164 0.072871432 0.30400002 4284946193
0.078838356 0.072631717 0.303 4285011986
0.079822503 0.072631717 0.303 4285078549
0.08080665 0.072631717 0.303 4284946963
0.081790797 0.072631717 0.303 4285078549
0.082774937 0.072631717 0.303 4285276441
0.084035516 0.072871432 0.30400002 4285014041
0.085022911 0.072871432 0.30400002 4285276441
0.086010307 0.072871432 0.30400002 4284881683
0.086997695 0.072871432 0.30400002 4284290316
0.087985091 0.072871432 0.30400002 4283898386
0.088972479 0.072871432 0.30400002 4282979083
0.047532357 0.072401412 0.29800001 4279441938
0.048500262 0.072401412 0.29800001 4279835410
0.049468167 0.072401412 0.29800001 4281999894
0.050436068 0.072401412 0.29800001 4282525723
0.051403977 0.072401412 0.29800001 4282721049
0.052196138 0.072158456 0.29700002 4282522643
0.053160798 0.072158456 0.29700002 4282782987
0.053943206 0.071915492 0.296 4283307278
0.054904617 0.071915492 0.296 4283831823
0.055866025 0.071915492 0.296 4283766284
0.056635451 0.071672536 0.29500002 4283964433
0.05759361 0.071672536 0.29500002 4283964433
0.05835329 0.071429573 0.294 4283897357
0.059308197 0.071429573 0.294 4284225552
0.060263112 0.071429573 0.294 4283897616
0.061218027 0.071429573 0.294 4283372557
0.062172942 0.071429573 0.294 4282717971
0.064416178 0.072887324 0.30000001 4283112213
0.065390579 0.072887324 0.30000001 4284358421
0.066364981 0.072887324 0.30000001 4284621080
0.067339376 0.072887324 0.30000001 4284619538
0.068541497 0.073130287 0.30100003 4284881683
0.0697501 0.073373243 0.30200002 4284815377
0.071199417 0.073859155 0.30400002 4284946963
0.072186805 0.073859155 0.30400002 4284815377
0.073414907 0.074102111 0.30500001 4284815377
0.074649498 0.074345075 0.30600002 4284815377
0.07564339 0.074345075 0.30600002 4285011984
0.076637276 0.074345075 0.30600002 4285077777
0.077631161 0.074345075 0.30600002 4285209363
0.078625053 0.074345075 0.30600002 4285340949
0.078838356 0.073616199 0.303 4285011984
0.079822503 0.073616199 0.303 4285209363
0.08080665 0.073616199 0.303 4284946961
0.081790797 0.073616199 0.303 4284158989
0.082774937 0.073616199 0.303 4290086010
0.084035516 0.073859155 0.30400002 4290742666
0.085022911 0.073859155 0.30400002 4284291093
0.086010307 0.073859155 0.30400002 4284029456
0.086997695 0.073859155 0.30400002 4282979081
0.087985091 0.073859155 0.30400002 4282389002
0.047691863 0.073615849 0.29900002 4279574037
0.048663016 0.073615849 0.29900002 4279441938
0.049468167 0.073369637 0.29800001 4280489999
0.050436068 0.073369637 0.29800001 4282987819
0.051403977 0.073369637 0.29800001 4282460443
0.052371882 0.073369637 0.29800001 4282327061
0.053160798 0.073123433 0.29700002 4282653198
0.054125451 0.073123433 0.29700002 4282980879
0.054904617 0.072877221 0.296 4283111182
0.055866025 0.072877221 0.296 4283308048
0.056635451 0.072631024 0.29500002 4283702034
0.05759361 0.072631024 0.29500002 4283964692
0.058551773 0.072631024 0.29500002 4283898386
0.059308197 0.072384812 0.294 4283964179
0.060263112 0.072384812 0.294 4283572503
0.061218027 0.072384812 0.294 4285023290
0.062172942 0.072384812 0.294 4285824622
0.066364981 0.073862053 0.30000001 4283441176
0.067339376 0.073862053 0.30000001 4284620826
0.068541497 0.074108265 0.30100003 4284883228
0.0697501 0.07435447 0.30200002 4285079062
0.071199417 0.074846886 0.30400002 4284815890
0.072186805 0.074846886 0.30400002 4284881168
0.073414907 0.075093083 0.30500001 4284946961
0.074649498 0.075339295 0.30600002 4285077777
0.07564339 0.075339295 0.30600002 4285077777
0.075134575 0.073862053 0.30000001 4285077777
0.076108977 0.073862053 0.30000001 4285340179
0.077083379 0.073862053 0.30000001 4285077777
0.078578167 0.07435447 0.30200002 4285275156
0.079559065 0.07435447 0.30200002 4285275156
0.08080665 0.074600674 0.303 4285538328
0.081790797 0.074600674 0.303 4284946963
0.082774937 0.074600674 0.303 4285078810
0.084035516 0.074846886 0.30400002 4284160536
0.085022911 0.074846886 0.30400002 4283701268
0.086010307 0.074846886 0.30400002 4281995014
0.086997695 0.074846886 0.30400002 4281929736
0.047691863 0.07458733 0.29900002 4279639830
0.048663016 0.07458733 0.29900002 4279640084
0.04963417 0.07458733 0.29900002 4279967766
0.050436068 0.07433787 0.29800001 4280032530
0.051403977 0.07433787 0.29800001 4282000924
0.052371882 0.07433787 0.29800001 4282460445
0.053339787 0.07433787 0.29800001 4282194707
0.054125451 0.074088417 0.29700002 4282193678
0.055090107 0.074088417 0.29700002 4282652946
0.055866025 0.073838957 0.296 4282717969
0.056827433 0.073838957 0.296 4282980366
0.057788841 0.073838957 0.296 4283177745
0.058551773 0.073589511 0.29500002 4283637526
0.059308197 0.073340051 0.294 4283770395
0.060263112 0.073340051 0.294 4283247393
0.061218027 0.073340051 0.294 4286869606
0.062172942 0.073340051 0.294 4285234282
0.068541497 0.075086243 0.30100003 4282718739
0.0697501 0.075335696 0.30200002 4284227353
0.071199417 0.07583461 0.30400002 4284620826
0.072186805 0.07583461 0.30400002 4285014037
0.073414907 0.076084062 0.30500001 4284948244
0.074649498 0.076333523 0.30600002 4284881681
0.074160181 0.074836783 0.30000001 4285013267
0.075134575 0.074836783 0.30000001 4285078547
0.076108977 0.074836783 0.30000001 4285011984
0.077083379 0.074836783 0.30000001 4284946191
0.078317977 0.075086243 0.30100003 4284685329
0.079559065 0.075335696 0.30200002 4285735707
0.080539964 0.075335696 0.30200002 4285142800
0.081790797 0.075585149 0.303 4285210133
0.082774937 0.075585149 0.303 4284552716
0.084035516 0.07583461 0.30400002 4283964692
0.085022911 0.07583461 0.30400002 4282192393
0.086010307 0.07583461 0.30400002 4281930506
0.047691863 0.075558811 0.29900002 4279178766
0.048663016 0.075558811 0.29900002 4279244559
0.04963417 0.075558811 0.29900002 4279244559
0.050605319 0.075558811 0.29900002 4279309836
0.051403977 0.075306103 0.29800001 4279965967
0.052371882 0.075306103 0.29800001 4280424720
0.053339787 0.075306103 0.29800001 4281474066
0.054307688 0.075306103 0.29800001 4281802515
0.055090107 0.075053401 0.29700002 4281866512
0.056054767 0.075053401 0.29700002 4281997328
0.05701942 0.075053401 0.29700002 4282521875
0.057788841 0.074800692 0.296 4282324496
0.058750253 0.074800692 0.296 4282653461
0.059509929 0.074547991 0.29500002 4284365362
0.060468093 0.074547991 0.29500002 4282127633
0.061426256 0.074547991 0.29500002 4281733390
0.062384415 0.074547991 0.29500002 4282066465
0.064416178 0.075811513 0.30000001 4285162333
0.071199417 0.076822333 0.30400002 4284109382
0.072186805 0.076822333 0.30400002 4283444258
0.073185779 0.075811513 0.30000001 4283897870
0.074160181 0.075811513 0.30000001 4283962380
0.075134575 0.075811513 0.30000001 4284356368
0.076108977 0.075811513 0.30000001 4284619283
0.077083379 0.075811513 0.30000001 4284881683
0.078317977 0.076064222 0.30100003 4288633683
0.079295628 0.076064222 0.30100003 4288767329
0.080539964 0.076316923 0.30200002 4285144342
0.081520863 0.076316923 0.30200002 4284880398
0.082774937 0.076569624 0.303 4284815888
0.083759077 0.076569624 0.303 4284030226
0.047691863 0.076530293 0.29900002 4279310865
0.048663016 0.076530293 0.29900002 4279244559
0.04963417 0.076530293 0.29900002 4279441938
0.050605319 0.076530293 0.29900002 4279178766
0.051576477 0.076530293 0.29900002 4279506961
0.052371882 0.076274335 0.29800001 4279770387
0.053339787 0.076274335 0.29800001 4280163346
0.054307688 0.076274335 0.29800001 4280097040
0.055275593 0.076274335 0.29800001 4280489999
0.056054767 0.076018386 0.29700002 4282002468
0.05701942 0.076018386 0.29700002 4284108616
0.057984076 0.076018386 0.29700002 4285425505
0.058750253 0.075762428 0.296 4283517506
0.059711657 0.075762428 0.296 4282002470
0.060673065 0.075762428 0.296 4281538578
0.061634477 0.075762428 0.296 4282326811
0.062595889 0.075762428 0.296 4282194455
0.064416178 0.07678625 0.30000001 4281931283
0.065390579 0.07678625 0.30000001 4280683015
0.066364981 0.07678625 0.30000001 4282197537
0.067339376 0.07678625 0.30000001 4284243284
0.074160181 0.07678625 0.30000001 4282978829
0.075134575 0.07678625 0.30000001 4283766802
0.076108977 0.07678625 0.30000001 4284291091
0.077083379 0.07678625 0.30000001 4284881170
0.078317977 0.077042207 0.30100003 4284683791
0.079295628 0.077042207 0.30100003 4289092960
0.080273278 0.077042207 0.30100003 4284946713
0.081520863 0.077298157 0.30200002 4285078549
0.082774937 0.077554107 0.303 4284618511
0.083759077 0.077554107 0.303 4284094995
0.047691863 0.077501781 0.29900002 4279376660
0.048663016 0.077501781 0.29900002 4279310867
0.04963417 0.077501781 0.29900002 4279244561
0.050605319 0.077501781 0.29900002 4279178766
0.051576477 0.077501781 0.29900002 4279178766
0.05254763 0.077501781 0.29900002 4279507731
0.053339787 0.077242576 0.29800001 4279573524
0.054307688 0.077242576 0.29800001 4279572754
0.055275593 0.077242576 0.29800001 4279835156
0.056243502 0.077242576 0.29800001 4280361500
0.057211403 0.077242576 0.29800001 4282271291
0.057984076 0.07698337 0.29700002 4284640352
0.058948737 0.07698337 0.29700002 4285100649
0.059913389 0.07698337 0.29700002 4285101419
0.060878046 0.07698337 0.29700002 4285496944
0.061842706 0.07698337 0.29700002 4285956982
0.062807359 0.07698337 0.29700002 4286217331
0.064416178 0.07776098 0.30000001 4283451711
0.065390579 0.07776098 0.30000001 4281999127
0.066364981 0.07776098 0.30000001 4281866258
0.067339376 0.07776098 0.30000001 4281997076
0.068541497 0.078020185 0.30100003 4281800213
0.0697501 0.078279383 0.30200002 4280814603
0.071199417 0.078797795 0.30400002 4280420358
0.072186805 0.078797795 0.30400002 4281080857
0.072452091 0.078020185 0.30100003 4281474845
0.073429734 0.078020185 0.30100003 4282457111
0.074160181 0.07776098 0.30000001 4282651662
0.075134575 0.07776098 0.30000001 4283766800
0.076108977 0.07776098 0.30000001 4284094736
0.077083379 0.07776098 0.30000001 4284421902
0.078317977 0.078020185 0.30100003 4284750097
0.079295628 0.078020185 0.30100003 4285078549
0.080273278 0.078020185 0.30100003 4285210137
0.081520863 0.078279383 0.30200002 4285013271
0.082501754 0.078279383 0.30200002 4284553490
0.083759077 0.078538589 0.303 4284094995
0.084743224 0.078538589 0.303 4285679937
0.048663016 0.078473255 0.29900002 4279441940
0.04963417 0.078473255 0.29900002 4279244561
0.050605319 0.078473255 0.29900002 4279178768
0.051576477 0.078473255 0.29900002 4279441938
0.05254763 0.078473255 0.29900002 4279441938
0.053518783 0.078473255 0.29900002 4279573524
0.054307688 0.078210801 0.29800001 4279376145
0.055275593 0.078210801 0.29800001 4279573524
0.056243502 0.078210801 0.29800001 4280626214
0.057211403 0.078210801 0.29800001 4282930250
0.058179308 0.078210801 0.29800001 4284575075
0.059147213 0.078210801 0.29800001 4285233520
0.060115114 0.078210801 0.29800001 4285037425
0.061083019 0.078210801 0.29800001 4285234802
0.062050927 0.078210801 0.29800001 4285234802
0.063018829 0.078210801 0.29800001 4285497204
0.064416178 0.078735702 0.30000001 4285562997
0.067339376 0.078735702 0.30000001 4282263584
0.068541497 0.078998163 0.30100003 4282194453
0.0697501 0.07926061 0.30200002 4281996560
0.071199417 0.079785518 0.30400002 4281733390
0.07147444 0.078998163 0.30100003 4281865490
0.072452091 0.078998163 0.30100003 4282326041
0.073429734 0.078998163 0.30100003 4282456852
0.074407384 0.078998163 0.30100003 4282652946
0.075134575 0.078735702 0.30000001 4283373071
0.076108977 0.078735702 0.30000001 4283701007
0.077083379 0.078735702 0.30000001 4284094734
0.078317977 0.078998163 0.30100003 4284225550
0.079295628 0.078998163 0.30100003 4284290316
0.080273278 0.078998163 0.30100003 4284487695
0.081250928 0.078998163 0.30100003 4284882453
0.082501754 0.07926061 0.30200002 4284356368
0.083482653 0.07926061 0.30200002 4283701522
0.07147444 0.079976141 0.30100003 4282588697
0.072452091 0.079976141 0.30100003 4282917916
0.073429734 0.079976141 0.30100003 4282523158
0.074407384 0.079976141 0.30100003 4282391057
0.075385034 0.079976141 0.30100003 4282980366
0.076362684 0.079976141 0.30100003 4283439634
0.077340335 0.079976141 0.30100003 4284030226
0.078317977 0.079976141 0.30100003 4283898640
0.079295628 0.079976141 0.30100003 4283897357
0.080273278 0.079976141 0.30100003 4284225298
0.081250928 0.079976141 0.30100003 4284160275
0.082501754 0.080241837 0.30200002 4283897616
0.083482653 0.080241837 0.30200002 4282061324
0.072452091 0.080954127 0.30100003 4282195477
0.073429734 0.080954127 0.30100003 4282917916
0.074407384 0.080954127 0.30100003 4282391570
0.075385034 0.080954127 0.30100003 4282849807
0.076362684 0.080954127 0.30100003 4283111952
0.077340335 0.080954127 0.30100003 4283439634
0.078317977 0.080954127 0.30100003 4283570448
0.079295628 0.080954127 0.30100003 4283570450
0.080273278 0.080954127 0.30100003 4283833622
0.081250928 0.080954127 0.30100003 4283767829
0.082501754 0.081223071 0.30200002 4283834392
0.083482653 0.081223071 0.30200002 4284371268
0.074407384 0.081932105 0.30100003 4282129684
0.075385034 0.081932105 0.30100003 4282522643
0.076362684 0.081932105 0.30100003 4282587666
0.077340335 0.081932105 0.30100003 4282915346
0.078317977 0.081932105 0.30100003 4282980625
0.079295628 0.081932105 0.30100003 4282980625
0.080273278 0.081932105 0.30100003 4283309590
0.081250928 0.081932105 0.30100003 4283442975
0.077340335 0.082910091 0.30100003 4281931535
0.078317977 0.082910091 0.30100003 4282588951
0.079295628 0.082910091 0.30100003 4282786330
0.071530372 0.056419395 0.29729688 4294967295
0.071530372 0.056419395 0.29729688 4294901760
0.071530372 0.055920083 0.29727069 4294901760
0.071530372 0.055420768 0.29724449 4294901760
0.071530372 0.054921456 0.29721826 4294901760
0.071530372 0.054422144 0.29719207 4294901760
0.071530372 0.053922832 0.29716587 4294901760
0.071530372 0.053423516 0.29713967 4294901760
0.071530372 0.052924205 0.29711348 4294901760
0.071530372 0.052424893 0.29708725 4294901760
0.071530372 0.051925577 0.29706106 4294901760
0.071530372 0.051426265 0.29703486 4294901760
0.071530372 0.050926954 0.29700866 4294901760
0.071530372 0.050427638 0.29698247 4294901760
0.071530372 0.049928326 0.29695624 4294901760
0.071530372 0.049429014 0.29693004 4294901760
0.071530372 0.048929699 0.29690385 4294901760
0.071530372 0.048430387 0.29687765 4294901760
0.071530372 0.047931075 0.29685146 4294901760
0.071530372 0.04743176 0.29682523 4294901760
0.071530372 0.046932448 0.29679903 4294901760
0.071530372 0.046433136 0.29677284 4294901760
0.071530372 0.045933824 0.29674664 4294901760
0.071530372 0.045434512 0.29672045 4294901760
0.071530372 0.044935197 0.29669422 4294901760
0.071530372 0.044435885 0.29666802 4294901760
0.071530372 0.043936573 0.29664183 4294901760
0.071530372 0.043437257 0.29661563 4294901760
0.071530372 0.042937946 0.29658943 4294901760
0.071530372 0.042438634 0.29656321 4294901760
0.071530372 0.041939318 0.29653701 4294901760
0.071530372 0.041440006 0.29651082 4294901760
0.071530372 0.040940695 0.29648462 4294901760
0.071530372 0.040441379 0.29645842 4294901760
0.071530372 0.039942067 0.2964322 4294901760
0.071530372 0.039442755 0.296406 4294901760
0.071530372 0.03894344 0.2963798 4294901760
0.071530372 0.038444128 0.29635361 4294901760
0.071530372 0.037944816 0.29632741 4294901760
0.071530372 0.0374455 0.29630119 4294901760
0.071530372 0.036946192 0.29627499 4294901760
0.071530372 0.036446877 0.29624879 4294901760
0.071530372 0.035947561 0.2962226 4294901760
0.071530372 0.035448253 0.2961964 4294901760
0.071530372 0.034948938 0.29617018 4294901760
0.071530372 0.034449626 0.29614398 4294901760
0.071530372 0.033950314 0.29611778 4294901760
0.071530372 0.033450998 0.29609159 4294901760
0.071530372 0.032951687 0.29606539 4294901760
0.071530372 0.032452375 0.29603916 4294901760
0.071530372 0.031953059 0.29601297 4294901760
0.071530372 0.031453747 0.29598677 4294901760
0.071530372 0.030954435 0.29596058 4294901760
0.071530372 0.030455122 0.29593438 4294901760
0.071530372 0.02995581 0.29590815 4294901760
0.071530372 0.029456494 0.29588196 4294901760
0.071530372 0.028957183 0.29585576 4294901760
0.071530372 0.028457869 0.29582956 4294901760
0.071530372 0.027958557 0.29580337 4294901760
0.071530372 0.027459245 0.29577714 4294901760
0.071530372 0.026959931 0.29575095 4294901760
0.071530372 0.026460616 0.29572475 4294901760
0.071530372 0.025961304 0.29569855 4294901760
0.071530372 0.025461992 0.29567236 4294901760
0.071530372 0.024962679 0.29564613 4294901760
0.071530372 0.024463367 0.29561993 4294901760
0.071530372 0.023964055 0.29559374 4294901760
0.071530372 0.023464739 0.29556754 4294901760
0.071530372 0.022965427 0.29554135 4294901760
0.071530372 0.022466116 0.29551512 4294901760
0.071530372 0.0219668 0.29548892 4294901760
0.071530372 0.021467488 0.29546273 4294901760
0.071530372 0.020968176 0.29543653 4294901760
0.071530372 0.020468861 0.29541034 4294901760
0.071530372 0.019969549 0.29538411 4294901760
0.071530372 0.019470237 0.29535791 4294901760
0.071530372 0.018970922 0.29533172 4294901760
0.071530372 0.01847161 0.29530552 4294901760
0.071530372 0.017972298 0.29527932 4294901760
0.071530372 0.017472986 0.2952531 4294901760
0.071530372 0.016973671 0.2952269 4294901760
0.071530372 0.016474359 0.29520071 4294901760
0.071530372 0.015975047 0.29517451 4294901760
0.071530372 0.015475731 0.29514831 4294901760
0.071530372 0.01497642 0.29512209 4294901760
0.071530372 0.014477108 0.29509589 4294901760
0.071530372 0.013977792 0.29506969 4294901760
0.071530372 0.01347848 0.2950435 4294901760
0.071530372 0.012979168 0.2950173 4294901760
0.071530372 0.012479857 0.29499108 4294901760
0.071530372 0.011980541 0.29496488 4294901760
0.071530372 0.011481229 0.29493868 4294901760
0.071530372 0.010981914 0.29491249 4294901760
0.071530372 0.010482602 0.29488629 4294901760
0.071530372 0.00998329 0.29486006 4294901760
0.071530372 0.0094839782 0.29483387 4294901760
0.071530372 0.0089846663 0.29480767 4294901760
0.071530372 0.0084853508 0.29478148 4294901760
0.071530372 0.0079860389 0.29475528 4294901760
0.071530372 0.0074867234 0.29472905 4294901760
0.071530372 0.0069874115 0.29470286 4294901760
0.071530372 0.0064880997 0.29467666 4294901760
0.071530372 0.056419395 0.29729688 4278255360
0.072026767 0.056416254 0.29735669 4278255360
0.072523169 0.056413118 0.29741654 4278255360
0.073019564 0.056409977 0.29747635 4278255360
0.073515967 0.056406837 0.29753616 4278255360
0.074012361 0.0564037 0.29759598 4278255360
0.074508764 0.05640056 0.29765582 4278255360
0.075005159 0.056397419 0.29771563 4278255360
0.075501561 0.056394279 0.29777545 4278255360
0.075997956 0.056391142 0.29783529 4278255360
0.076494358 0.056388002 0.2978951 4278255360
0.076990753 0.056384861 0.29795492 4278255360
0.077487156 0.056381725 0.29801476 4278255360
0.077983551 0.056378584 0.29807457 4278255360
0.078479953 0.056375444 0.29813439 4278255360
0.078976348 0.056372307 0.29819423 4278255360
0.07947275 0.056369167 0.29825404 4278255360
0.079969145 0.056366026 0.29831386 4278255360
0.080465548 0.05636289 0.29837367 4278255360
0.080961943 0.056359749 0.29843351 4278255360
0.081458345 0.056356609 0.29849333 4278255360
0.08195474 0.056353472 0.29855314 4278255360
0.082451135 0.056350332 0.29861298 4278255360
0.082947537 0.056347191 0.2986728 4278255360
0.08344394 0.056344051 0.29873261 4278255360
0.083940335 0.056340914 0.29879242 4278255360
0.08443673 0.056337774 0.29885226 4278255360
0.084933132 0.056334633 0.29891208 4278255360
0.085429534 0.056331497 0.29897189 4278255360
0.085925929 0.056328356 0.29903173 4278255360
0.086422324 0.056325216 0.29909155 4278255360
0.086918727 0.056322079 0.29915136 4278255360
0.087415121 0.056318939 0.2992112 4278255360
0.087911524 0.056315798 0.29927102 4278255360
0.088407919 0.056312662 0.29933083 4278255360
0.088904321 0.056309521 0.29939067 4278255360
0.089400724 0.056306381 0.29945049 4278255360
0.089897119 0.05630324 0.2995103 4278255360
0.090393513 0.056300104 0.29957011 4278255360
0.090889916 0.056296963 0.29962996 4278255360
0.091386311 0.056293823 0.29968977 4278255360
0.091882713 0.056290686 0.29974958 4278255360
0.092379108 0.056287546 0.29980943 4278255360
0.09287551 0.056284405 0.29986924 4278255360
0.093371905 0.056281269 0.29992905 4278255360
0.0938683 0.056278128 0.29998887 4278255360
0.094364703 0.056274988 0.30004871 4278255360
0.094861105 0.056271851 0.30010852 4278255360
0.0953575 0.056268711 0.30016834 4278255360
0.095853895 0.05626557 0.30022818 4278255360
0.096350297 0.056262434 0.30028799 4278255360
0.0968467 0.056259293 0.30034781 4278255360
0.097343095 0.056256153 0.30040765 4278255360
0.09783949 0.056253012 0.30046746 4278255360
0.098335892 0.056249876 0.30052727 4278255360
0.098832294 0.056246735 0.30058712 4278255360
0.099328689 0.056243595 0.30064693 4278255360
0.099825084 0.056240458 0.30070674 4278255360
0.10032149 0.056237318 0.30076656 4278255360
0.10081788 0.056234177 0.3008264 4278255360
0.10131428 0.056231041 0.30088621 4278255360
0.10181068 0.0562279 0.30094603 4278255360
0.10230708 0.05622476 0.30100587 4278255360
0.10280348 0.056221623 0.30106568 4278255360
0.10329987 0.056218483 0.3011255 4278255360
0.10379627 0.056215342 0.30118531 4278255360
0.10429268 0.056212202 0.30124515 4278255360
0.10478908 0.056209065 0.30130497 4278255360
0.10528547 0.056205925 0.30136478 4278255360
0.10578187 0.056202784 0.30142462 4278255360
0.10627827 0.056199647 0.30148444 4278255360
0.10677467 0.056196507 0.30154425 4278255360
0.10727107 0.056193367 0.30160409 4278255360
0.10776746 0.05619023 0.30166391 4278255360
0.10826387 0.05618709 0.30172372 4278255360
0.10876026 0.056183949 0.30178356 4278255360
0.10925665 0.056180812 0.30184337 4278255360
0.10975306 0.056177672 0.30190319 4278255360
0.11024945 0.056174532 0.301963 4278255360
0.11074585 0.056171391 0.30202284 4278255360
0.11124225 0.056168254 0.30208266 4278255360
0.11173865 0.056165114 0.30214247 4278255360
0.11223505 0.056161974 0.30220231 4278255360
0.11273144 0.056158837 0.30226213 4278255360
0.11322784 0.056155697 0.30232194 4278255360
0.11372425 0.056152556 0.30238175 4278255360
0.11422065 0.056149419 0.3024416 4278255360
0.11471704 0.056146279 0.30250141 4278255360
0.11521344 0.056143139 0.30256122 4278255360
0.11570984 0.056140002 0.30262107 4278255360
0.11620624 0.056136861 0.30268088 4278255360
0.11670264 0.056133721 0.30274069 4278255360
0.11719903 0.056130584 0.30280054 4278255360
0.11769544 0.056127444 0.30286035 4278255360
0.11819183 0.056124303 0.30292016 4278255360
0.11868823 0.056121163 0.30298001 4278255360
0.11918463 0.056118026 0.30303982 4278255360
0.11968103 0.056114886 0.30309963 4278255360
0.12017743 0.056111746 0.30315945 4278255360
0.12067382 0.056108609 0.30321929 4278255360
0.12117022 0.056105468 0.3032791 4278255360
0.071530372 0.056419395 0.29729688 4278190335
0.071470469 0.056393381 0.29779258 4278190335
0.071410567 0.056367368 0.29828832 4278190335
0.071350656 0.056341354 0.29878402 4278190335
0.071290754 0.05631534 0.29927975 4278190335
0.071230851 0.056289326 0.29977545 4278190335
0.071170948 0.056263313 0.30027118 4278190335
0.071111038 0.056237299 0.30076689 4278190335
0.071051136 0.056211285 0.30126262 4278190335
0.070991233 0.056185272 0.30175832 4278190335
0.07093133 0.056159258 0.30225405 4278190335
0.07087142 0.056133248 0.30274975 4278190335
0.070811518 0.056107234 0.30324548 4278190335
0.070751615 0.056081221 0.30374119 4278190335
0.070691712 0.056055207 0.30423692 4278190335
0.07063181 0.056029193 0.30473262 4278190335
0.070571899 0.056003179 0.30522835 4278190335
0.070511997 0.055977166 0.30572405 4278190335
0.070452094 0.055951152 0.30621979 4278190335
0.070392191 0.055925138 0.30671549 4278190335
0.070332281 0.055899125 0.30721122 4278190335
0.070272379 0.055873111 0.30770692 4278190335
0.070212476 0.055847097 0.30820265 4278190335
0.070152573 0.055821083 0.30869836 4278190335
0.070092663 0.05579507 0.30919409 4278190335
0.070032761 0.055769056 0.30968979 4278190335
0.069972858 0.055743042 0.31018549 4278190335
0.069912955 0.055717029 0.31068122 4278190335
0.069853052 0.055691015 0.31117693 4278190335
0.069793142 0.055665001 0.31167266 4278190335
0.06973324 0.055638988 0.31216836 4278190335
0.069673337 0.055612978 0.31266409 4278190335
0.069613434 0.055586964 0.31315979 4278190335
0.069553524 0.05556095 0.31365553 4278190335
0.069493622 0.055534936 0.31415123 4278190335
0.069433719 0.055508923 0.31464696 4278190335
