# .PCD v0.7 - Point Cloud Data file format
VERSION 0.7
FIELDS x y z rgb
SIZE 4 4 4 4
TYPE F F F U
COUNT 1 1 1 1
WIDTH 1042
HEIGHT 1
VIEWPOINT 0 0 0 1 0 0 0
POINTS 1042
DATA ascii
0.061767694 0.058183957 0.333 4280494880
0.062849283 0.058183957 0.333 4282140988
0.059604526 0.059265908 0.333 4280693288
0.060686108 0.059265908 0.333 4280759081
0.061767694 0.059265908 0.333 4281219886
0.062849283 0.059265908 0.333 4281549876
0.063738875 0.059087936 0.33200002 4280567594
0.06481722 0.059087936 0.33200002 4280042533
0.05852294 0.060347855 0.333 4282207294
0.059604526 0.060347855 0.333 4281088046
0.060686108 0.060347855 0.333 4280890667
0.061767694 0.060347855 0.333 4281023534
0.062660545 0.060166635 0.33200002 4280960044
0.063738875 0.060166635 0.33200002 4279845920
0.06481722 0.060166635 0.33200002 4279780897
0.05852294 0.06142981 0.333 4281745458
0.059604526 0.06142981 0.333 4281153839
0.060686108 0.06142981 0.333 4280825387
0.061582208 0.061245337 0.33200002 4280367655
0.062660545 0.061245337 0.33200002 4280238118
0.063738875 0.061245337 0.33200002 4279320859
0.06481722 0.061245337 0.33200002 4279715617
0.05852294 0.062511757 0.333 4282075193
0.059604526 0.062511757 0.333 4281220399
0.06050387 0.06232404 0.33200002 4280891946
0.061582208 0.06232404 0.33200002 4280370217
0.062660545 0.06232404 0.33200002 4279584033
0.063738875 0.06232404 0.33200002 4278993947
0.06481722 0.06232404 0.33200002 4279519521
0.05852294 0.063593708 0.333 4282074425
0.059425537 0.063402742 0.33200002 4281220399
0.06050387 0.063402742 0.33200002 4280892714
0.061582208 0.063402742 0.33200002 4279715106
0.062660545 0.063402742 0.33200002 4278928152
0.063738875 0.063402742 0.33200002 4278928152
0.06481722 0.063402742 0.33200002 4279453728
0.058347199 0.064481445 0.33200002 4282140988
0.059425537 0.064481445 0.33200002 4280695337
0.06050387 0.064481445 0.33200002 4280763178
0.061582208 0.064481445 0.33200002 4279124248
0.062660545 0.064481445 0.33200002 4278993945
0.063738875 0.064481445 0.33200002 4279125531
0.06481722 0.064481445 0.33200002 4279453728
0.058347199 0.065560147 0.33200002 4280234018
0.059425537 0.065560147 0.33200002 4280630825
0.06050387 0.065560147 0.33200002 4280567594
0.061396722 0.065362677 0.33100003 4279255834
0.062471811 0.065362677 0.33100003 4278797080
0.058347199 0.066638842 0.33200002 4280891946
0.059246548 0.066438131 0.33100003 4281224243
0.060321633 0.066438131 0.33100003 4280436778
0.061396722 0.066438131 0.33100003 4279124761
0.062471811 0.066438131 0.33100003 4278862873
0.059246548 0.067513585 0.33100003 4281422392
0.060139388 0.067309611 0.33000001 4279976740
0.061211228 0.067309611 0.33000001 4279257117
0.062283073 0.067309611 0.33000001 4278928666
0.060139388 0.068381809 0.33000001 4279912231
0.061211228 0.068381809 0.33000001 4279126049
0.062094338 0.068174601 0.32900003 4279126047
0.063162923 0.068174601 0.32900003 4279126047
0.057819966 0.06924355 0.32900003 4281422390
0.058888558 0.06924355 0.32900003 4279910947
0.060139388 0.069454014 0.33000001 4279978024
0.061025742 0.06924355 0.32900003 4279257119
0.062094338 0.06924355 0.32900003 4279389219
0.063162923 0.06924355 0.32900003 4279587111
0.064036287 0.069033086 0.32800001 4279126560
0.057995707 0.070526227 0.33000001 4280763690
0.059067551 0.070526227 0.33000001 4280964149
0.060139388 0.070526227 0.33000001 4281030712
0.061025742 0.070312507 0.32900003 4279913768
0.062094338 0.070312507 0.32900003 4279717670
0.063162923 0.070312507 0.32900003 4282415699
0.064036287 0.070098795 0.32800001 4279980074
0.065101631 0.070098795 0.32800001 4279452447
0.066166975 0.070098795 0.32800001 4279583779
0.057995707 0.071598426 0.33000001 4280895276
0.059067551 0.071598426 0.33000001 4281423673
0.060139388 0.071598426 0.33000001 4281621052
0.061025742 0.071381465 0.32900003 4281096759
0.062094338 0.071381465 0.32900003 4279848488
0.063162923 0.071381465 0.32900003 4278731289
0.064036287 0.071164496 0.32800001 4284718200
0.065101631 0.071164496 0.32800001 4279716902
0.066166975 0.071164496 0.32800001 4279387935
0.067232318 0.071164496 0.32800001 4279321631
0.068297662 0.071164496 0.32800001 4279649313
0.069363013 0.071164496 0.32800001 4280302879
0.057995707 0.072670631 0.33000001 4281817148
0.059067551 0.072670631 0.33000001 4281883454
0.060139388 0.072670631 0.33000001 4282015040
0.061211228 0.072670631 0.33000001 4281424954
0.062094338 0.072450422 0.32900003 4280702512
0.063162923 0.072450422 0.32900003 4279323939
0.064231522 0.072450422 0.32900003 4279587113
0.065101631 0.072230205 0.32800001 4282019655
0.066166975 0.072230205 0.32800001 4279586082
0.067232318 0.072230205 0.32800001 4279059738
0.068297662 0.072230205 0.32800001 4279256349
0.069363013 0.072230205 0.32800001 4279781410
0.070428349 0.072230205 0.32800001 4279780897
0.058171455 0.073966302 0.33100003 4281817148
0.059246548 0.073966302 0.33100003 4282081087
0.060139388 0.073742829 0.33000001 4282081857
0.061211228 0.073742829 0.33000001 4281687612
0.062283073 0.073742829 0.33000001 4281490747
0.063162923 0.073519371 0.32900003 4280505651
0.064231522 0.073519371 0.32900003 4280111406
0.065300114 0.073519371 0.32900003 4279454500
0.066166975 0.073295906 0.32800001 4279849254
0.067232318 0.073295906 0.32800001 4279389217
0.068297662 0.073295906 0.32800001 4279191838
0.069363013 0.073295906 0.32800001 4279257117
0.070428349 0.073295906 0.32800001 4279454750
0.0714937 0.073295906 0.32800001 4279519006
0.072559044 0.073295906 0.32800001 4279321627
0.073624387 0.073295906 0.32800001 4279845920
0.058171455 0.075041756 0.33100003 4282342722
0.059246548 0.075041756 0.33100003 4281883708
0.060321633 0.075041756 0.33100003 4282081857
0.061211228 0.074815035 0.33000001 4281950271
0.062283073 0.074815035 0.33000001 4281884991
0.063162923 0.074588329 0.32900003 4281556286
0.064231522 0.074588329 0.32900003 4281162298
0.065300114 0.074588329 0.32900003 4280900922
0.066368707 0.074588329 0.32900003 4278862363
0.067232318 0.074361615 0.32800001 4279191840
0.068297662 0.074361615 0.32800001 4279257631
0.069363013 0.074361615 0.32800001 4279191838
0.070428349 0.074361615 0.32800001 4279191838
0.0714937 0.074361615 0.32800001 4278928666
0.072559044 0.074361615 0.32800001 4278928666
0.073624387 0.074361615 0.32800001 4279125531
0.074689731 0.074361615 0.32800001 4279387933
0.075755075 0.074361615 0.32800001 4279715619
0.076820418 0.074361615 0.32800001 4279648289
0.058171455 0.076117203 0.33100003 4282669892
0.059246548 0.076117203 0.33100003 4282146626
0.060321633 0.076117203 0.33100003 4282212419
0.061396722 0.076117203 0.33100003 4282015810
0.062283073 0.07588724 0.33000001 4281950271
0.063354909 0.07588724 0.33000001 4281621819
0.064231522 0.075657278 0.32900003 4281490233
0.065300114 0.075657278 0.32900003 4281162552
0.066368707 0.075657278 0.32900003 4281031479
0.067437299 0.075657278 0.32900003 4280374832
0.068505891 0.075657278 0.32900003 4279519521
0.069363013 0.075427316 0.32800001 4279322910
0.070428349 0.075427316 0.32800001 4279323424
0.0714937 0.075427316 0.32800001 4278994459
0.072559044 0.075427316 0.32800001 4279257631
0.073624387 0.075427316 0.32800001 4278994459
0.074689731 0.075427316 0.32800001 4279059740
0.075755075 0.075427316 0.32800001 4278928154
0.076820418 0.075427316 0.32800001 4279322914
0.077885762 0.075427316 0.32800001 4279453730
0.060321633 0.077192657 0.33100003 4282212421
0.061396722 0.077192657 0.33100003 4282081605
0.062283073 0.076959446 0.33000001 4281884224
0.063354909 0.076959446 0.33000001 4281687099
0.06442675 0.076959446 0.33000001 4281555513
0.065300114 0.076726235 0.32900003 4281424954
0.066368707 0.076726235 0.32900003 4281490747
0.067437299 0.076726235 0.32900003 4280964403
0.068505891 0.076726235 0.32900003 4280833587
0.069574483 0.076726235 0.32900003 4280176170
0.070428349 0.076493025 0.32800001 4279913766
0.0714937 0.076493025 0.32800001 4279124763
0.072559044 0.076493025 0.32800001 4279257117
0.073624387 0.076493025 0.32800001 4279257631
0.074689731 0.076493025 0.32800001 4279323424
0.075755075 0.076493025 0.32800001 4279388957
0.076820418 0.076493025 0.32800001 4278994199
0.077885762 0.076493025 0.32800001 4278928152
0.078951113 0.076493025 0.32800001 4279387933
0.080016449 0.076493025 0.32800001 4279584031
0.0810818 0.076493025 0.32800001 4279649826
0.082147136 0.076493025 0.32800001 4280108326
0.061396722 0.078268111 0.33100003 4282015810
0.062471811 0.078268111 0.33100003 4281687099
0.063354909 0.078031644 0.33000001 4281752892
0.06442675 0.078031644 0.33000001 4281752892
0.06549859 0.078031644 0.33000001 4281555513
0.066368707 0.077795193 0.32900003 4281358647
0.067437299 0.077795193 0.32900003 4281621819
0.068505891 0.077795193 0.32900003 4281292854
0.069574483 0.077795193 0.32900003 4280569645
0.070643075 0.077795193 0.32900003 4280767794
0.0714937 0.077558726 0.32800001 4280505133
0.072559044 0.077558726 0.32800001 4280570924
0.073624387 0.077558726 0.32800001 4279586084
0.074689731 0.077558726 0.32800001 4279389219
0.075755075 0.077558726 0.32800001 4279126299
0.076820418 0.077558726 0.32800001 4279257885
0.077885762 0.077558726 0.32800001 4279192092
0.078951113 0.077558726 0.32800001 4279126045
0.080016449 0.077558726 0.32800001 4278993945
0.0810818 0.077558726 0.32800001 4279125531
0.082147136 0.077558726 0.32800001 4279256347
0.083212487 0.077558726 0.32800001 4279649822
0.084277831 0.077558726 0.32800001 4279845920
0.062471811 0.079343565 0.33100003 4282342724
0.063354909 0.07910385 0.33000001 4281817915
0.06442675 0.07910385 0.33000001 4281620536
0.06549859 0.07910385 0.33000001 4281555259
0.066570431 0.07910385 0.33000001 4281752892
0.067437299 0.07886415 0.32900003 4281424440
0.068505891 0.07886415 0.32900003 4281227575
0.069574483 0.07886415 0.32900003 4281227575
0.070643075 0.07886415 0.32900003 4281227573
0.071711667 0.07886415 0.32900003 4281030194
0.072559044 0.078624435 0.32800001 4280898608
0.073624387 0.078624435 0.32800001 4280505135
0.074689731 0.078624435 0.32800001 4280570928
0.075755075 0.078624435 0.32800001 4280045352
0.076820418 0.078624435 0.32800001 4279651107
0.077885762 0.078624435 0.32800001 4279126045
0.078951113 0.078624435 0.32800001 4279323424
0.080016449 0.078624435 0.32800001 4279323424
0.0810818 0.078624435 0.32800001 4279126045
0.082147136 0.078624435 0.32800001 4279126045
0.083212487 0.078624435 0.32800001 4279453726
0.084277831 0.078624435 0.32800001 4279255834
0.085343175 0.078624435 0.32800001 4279715615
0.086408526 0.078624435 0.32800001 4279846172
0.087473869 0.078624435 0.32800001 4279911451
0.063354909 0.080176055 0.33000001 4283525199
0.06442675 0.080176055 0.33000001 4282539074
0.06549859 0.080176055 0.33000001 4281948734
0.066570431 0.080176055 0.33000001 4281817915
0.067437299 0.079933099 0.32900003 4281490231
0.068505891 0.079933099 0.32900003 4281161780
0.069574483 0.079933099 0.32900003 4281293366
0.070643075 0.079933099 0.32900003 4281161780
0.071711667 0.079933099 0.32900003 4281030194
0.072780266 0.079933099 0.32900003 4281161780
0.073848851 0.079933099 0.32900003 4280305194
0.074689731 0.079690143 0.32800001 4279778848
0.075755075 0.079690143 0.32800001 4280636206
0.076820418 0.079690143 0.32800001 4280438827
0.077885762 0.079690143 0.32800001 4280309037
0.078710407 0.079447187 0.32700002 4279585312
0.079772502 0.079447187 0.32700002 4279388703
0.080834597 0.079447187 0.32700002 4279388703
0.081896693 0.079447187 0.32700002 4279257117
0.082958788 0.079447187 0.32700002 4279519519
0.08402089 0.079447187 0.32700002 4279519519
0.085082985 0.079447187 0.32700002 4279387933
0.086145088 0.079447187 0.32700002 4279256347
0.087207183 0.079447187 0.32700002 4279453213
0.088269278 0.079447187 0.32700002 4279912481
0.089331366 0.079447187 0.32700002 4279911713
0.090393469 0.079447187 0.32700002 4279842842
0.066570431 0.081248261 0.33000001 4282604097
0.067642272 0.081248261 0.33000001 4282079802
0.068505891 0.081002057 0.32900003 4281686327
0.069574483 0.081002057 0.32900003 4281621304
0.070643075 0.081002057 0.32900003 4281424438
0.071711667 0.081002057 0.32900003 4281358645
0.072780266 0.081002057 0.32900003 4281029680
0.073848851 0.081002057 0.32900003 4279776029
0.074689731 0.080755845 0.32800001 4280630825
0.075755075 0.080755845 0.32800001 4280698919
0.076820418 0.080755845 0.32800001 4281160753
0.077885762 0.080755845 0.32800001 4280701999
0.078710407 0.08050964 0.32700002 4280701999
0.079772502 0.08050964 0.32700002 4280505131
0.080834597 0.08050964 0.32700002 4279650592
0.081896693 0.08050964 0.32700002 4279190554
0.082705088 0.080263428 0.32600001 4279453980
0.083763942 0.080263428 0.32600001 4279257371
0.084822789 0.080263428 0.32600001 4279323164
0.085881643 0.080263428 0.32600001 4279125531
0.08694049 0.080263428 0.32600001 4278993945
0.087999336 0.080263428 0.32600001 4279256347
0.089058183 0.080263428 0.32600001 4279256347
0.09011703 0.080263428 0.32600001 4279649824
0.091175877 0.080263428 0.32600001 4279715104
0.092234731 0.080263428 0.32600001 4279910947
0.068714112 0.082320467 0.33000001 4282670408
0.069574483 0.082071014 0.32900003 4282211906
0.070643075 0.082071014 0.32900003 4281620282
0.071711667 0.082071014 0.32900003 4281488950
0.072780266 0.082071014 0.32900003 4280105500
0.073848851 0.082071014 0.32900003 4280498471
0.074917451 0.082071014 0.32900003 4281947714
0.075755075 0.081821553 0.32800001 4281356597
0.076820418 0.081821553 0.32800001 4281225011
0.077648312 0.081572101 0.32700002 4281226548
0.078710407 0.081572101 0.32700002 4281752890
0.079528548 0.08132264 0.32600001 4280569643
0.080587395 0.08132264 0.32600001 4280636206
0.081646241 0.08132264 0.32600001 4280307752
0.082705088 0.08132264 0.32600001 4280111143
0.083507001 0.081073187 0.32500002 4279322910
0.0845626 0.081073187 0.32500002 4279520289
0.085618205 0.081073187 0.32500002 4279257119
0.086673804 0.081073187 0.32500002 4279257119
0.087729409 0.081073187 0.32500002 4279322910
0.088785 0.081073187 0.32500002 4279125531
0.09011703 0.08132264 0.32600001 4279059738
0.091175877 0.08132264 0.32600001 4279124761
0.092234731 0.08132264 0.32600001 4279321627
0.093293577 0.08132264 0.32600001 4279584031
0.094063006 0.081073187 0.32500002 4280042785
0.070643075 0.083139963 0.32900003 4284709223
0.071711667 0.083139963 0.32900003 4282735431
0.072780266 0.083139963 0.32900003 4282077242
0.073848851 0.083139963 0.32900003 4281552694
0.074917451 0.083139963 0.32900003 4281553724
0.075755075 0.082887255 0.32800001 4281554491
0.076820418 0.082887255 0.32800001 4280961071
0.077648312 0.082634553 0.32700002 4280170274
0.078710407 0.082634553 0.32700002 4279906332
0.079528548 0.082381845 0.32600001 4279710236
0.080340199 0.082129143 0.32500002 4280961587
0.081395797 0.082129143 0.32500002 4280700715
0.082451396 0.082129143 0.32500002 4280701999
0.083250053 0.081876434 0.324 4280440110
0.084302403 0.081876434 0.324 4279650594
0.08535476 0.081876434 0.324 4279585316
0.08640711 0.081876434 0.324 4279453728
0.087459467 0.081876434 0.324 4279585312
0.08851181 0.081876434 0.324 4279585566
0.089840598 0.082129143 0.32500002 4279453980
0.090896204 0.082129143 0.32500002 4279519773
0.091951802 0.082129143 0.32500002 4279256601
0.093007408 0.082129143 0.32500002 4279256601
0.094063006 0.082129143 0.32500002 4279256088
0.094825923 0.081876434 0.324 4279452697
0.095582359 0.081623733 0.32300001 4279846172
0.096631467 0.081623733 0.32300001 4280042783
0.097680576 0.081623733 0.32300001 4280238116
0.073848851 0.084208921 0.32900003 4282801478
0.074917451 0.084208921 0.32900003 4282012730
0.075755075 0.083952963 0.32800001 4281486901
0.076820418 0.083952963 0.32800001 4280301860
0.077648312 0.083697014 0.32700002 4280562981
0.078469701 0.083441056 0.32600001 4281944632
0.079528548 0.083441056 0.32600001 4280036635
0.080340199 0.083185099 0.32500002 4280168221
0.081395797 0.083185099 0.32500002 4279445268
0.082197696 0.082929142 0.324 4280170787
0.083250053 0.082929142 0.324 4280570415
0.084042214 0.082673192 0.32300001 4280242731
0.085091323 0.082673192 0.32300001 4280440623
0.086140424 0.082673192 0.32300001 4280177449
0.087189533 0.082673192 0.32300001 4279848738
0.088238627 0.082673192 0.32300001 4279125015
0.089564167 0.082929142 0.324 4279388185
0.090616517 0.082929142 0.324 4279650844
0.091668874 0.082929142 0.324 4279519771
0.092721224 0.082929142 0.324 4279388185
0.093773581 0.082929142 0.324 4279256601
0.094533257 0.082673192 0.32300001 4279125015
0.095582359 0.082673192 0.32300001 4279124248
0.096631467 0.082673192 0.32300001 4279255834
0.097378157 0.082417242 0.32200003 4279452443
0.098424017 0.082417242 0.32200003 4279715104
0.099160962 0.082161285 0.32100001 4280107813
0.075755075 0.085018672 0.32800001 4284378973
0.076820418 0.085018672 0.32800001 4282472000
0.077648312 0.084759474 0.32700002 4282603332
0.078469701 0.084500261 0.32600001 4280563749
0.079284593 0.084241062 0.32500002 4280168223
0.080340199 0.084241062 0.32500002 4280628774
0.081145339 0.083981857 0.324 4280497186
0.082197696 0.083981857 0.324 4280628772
0.082993105 0.083722658 0.32300001 4279642647
0.084042214 0.083722658 0.32300001 4279577369
0.085091323 0.083722658 0.32300001 4280502571
0.085873738 0.083463453 0.32200003 4280898094
0.086919598 0.083463453 0.32200003 4280767272
0.087965451 0.083463453 0.32200003 4280439077
0.089287736 0.083722658 0.32300001 4280176418
0.090336844 0.083722658 0.32300001 4279453465
0.091385946 0.083722658 0.32300001 4279519773
0.092435054 0.083722658 0.32300001 4279388187
0.093484156 0.083722658 0.32300001 4279125785
0.094533257 0.083722658 0.32300001 4279059992
0.095286444 0.083463453 0.32200003 4278994199
0.096332304 0.083463453 0.32200003 4279125785
0.097378157 0.083463453 0.32200003 4279321881
0.09811835 0.083204247 0.32100001 4279386650
0.099160962 0.083204247 0.32100001 4279386139
0.099891409 0.082945049 0.32000002 4279845920
0.10093077 0.082945049 0.32000002 4280173090
0.10197013 0.082945049 0.32000002 4280501288
0.078469701 0.085559465 0.32600001 4282538306
0.079284593 0.085297011 0.32500002 4281682997
0.080340199 0.085297011 0.32500002 4280630055
0.081145339 0.085034557 0.324 4279971614
0.082197696 0.085034557 0.324 4280365602
0.082993105 0.08477211 0.32300001 4280233502
0.084042214 0.08477211 0.32300001 4281155888
0.084827885 0.084509656 0.32200003 4279840541
0.085873738 0.084509656 0.32200003 4280037659
0.086919598 0.084509656 0.32200003 4280498971
0.087965451 0.084509656 0.32200003 4281291308
0.089011304 0.084509656 0.32200003 4280503588
0.090057164 0.084509656 0.32200003 4280570411
0.091385946 0.08477211 0.32300001 4280176936
0.092435054 0.08477211 0.32300001 4279914277
0.093194738 0.084509656 0.32200003 4279256599
0.094240583 0.084509656 0.32200003 4279388955
0.095286444 0.084509656 0.32200003 4279257371
0.096033126 0.084247202 0.32100001 4279323164
0.097075738 0.084247202 0.32100001 4279256601
0.09811835 0.084247202 0.32100001 4279190808
0.098852053 0.083984755 0.32000002 4279058970
0.099891409 0.083984755 0.32000002 4279255836
0.10093077 0.083984755 0.32000002 4279386650
0.10165147 0.083722293 0.31900001 4279517723
0.10268757 0.083722293 0.31900001 4279910947
0.10372369 0.083722293 0.31900001 4279976229
0.1047598 0.083722293 0.31900001 4280960819
0.10579592 0.083722293 0.31900001 4281289786
0.080092989 0.086087264 0.324 4283590227
0.081145339 0.086087264 0.324 4281353778
0.082197696 0.086087264 0.324 4281090606
0.082993105 0.085821569 0.32300001 4279774235
0.084042214 0.085821569 0.32300001 4279840028
0.084827885 0.085555874 0.32200003 4279970844
0.085873738 0.085555874 0.32200003 4280233502
0.086919598 0.085555874 0.32200003 4280561952
0.087965451 0.085555874 0.32200003 4280167194
0.089011304 0.085555874 0.32200003 4279971864
0.090057164 0.085555874 0.32200003 4280434979
0.091385946 0.085821569 0.32300001 4280701229
0.092435054 0.085821569 0.32300001 4280569643
0.093194738 0.085555874 0.32200003 4280636456
0.094240583 0.085555874 0.32200003 4280242211
0.094990522 0.085290164 0.32100001 4279453980
0.096033126 0.085290164 0.32100001 4279125785
0.097075738 0.085290164 0.32100001 4279388703
0.09781269 0.085024469 0.32000002 4279125531
0.098852053 0.085024469 0.32000002 4279256349
0.099891409 0.085024469 0.32000002 4279190556
0.10061535 0.084758759 0.31900001 4279321627
0.10165147 0.084758759 0.31900001 4279190041
0.10268757 0.084758759 0.31900001 4279452447
0.10372369 0.084758759 0.31900001 4279584033
0.1047598 0.084758759 0.31900001 4279648543
0.10579592 0.084758759 0.31900001 4279911201
0.10683203 0.084758759 0.31900001 4280500266
0.10786814 0.084758759 0.31900001 4281486136
0.10890425 0.084758759 0.31900001 4281615936
0.081145339 0.087139979 0.324 4286022771
0.082197696 0.087139979 0.324 4285100899
0.082993105 0.086871035 0.32300001 4280761893
0.084042214 0.086871035 0.32300001 4281156651
0.084827885 0.086602084 0.32200003 4281023782
0.085873738 0.086602084 0.32200003 4280365854
0.086919598 0.086602084 0.32200003 4280694051
0.087965451 0.086602084 0.32200003 4280497186
0.089011304 0.086602084 0.32200003 4280365086
0.090057164 0.086602084 0.32200003 4279970842
0.091385946 0.086871035 0.32300001 4279514141
0.092435054 0.086871035 0.32300001 4280173608
0.093484156 0.086871035 0.32300001 4280701231
0.094533257 0.086871035 0.32300001 4280767792
0.094990522 0.086333133 0.32100001 4280636204
0.096033126 0.086333133 0.32100001 4280505131
0.096773326 0.086064182 0.32000002 4279716639
0.09781269 0.086064182 0.32000002 4279387933
0.098852053 0.086064182 0.32000002 4279453726
0.099579245 0.085795231 0.31900001 4279585312
0.10061535 0.085795231 0.31900001 4279256347
0.10165147 0.085795231 0.31900001 4279124761
0.10268757 0.085795231 0.31900001 4279190554
0.10372369 0.085795231 0.31900001 4279190554
0.1047598 0.085795231 0.31900001 4279255066
0.10579592 0.085795231 0.31900001 4279452445
0.10683203 0.085795231 0.31900001 4279780127
0.10786814 0.085795231 0.31900001 4280042274
0.10890425 0.085795231 0.31900001 4280566051
0.10994036 0.085795231 0.31900001 4281157936
0.095733963 0.087103896 0.32000002 4280767022
0.096773326 0.087103896 0.32000002 4280636204
0.09781269 0.087103896 0.32000002 4280373545
0.09854313 0.086831696 0.31900001 4280110373
0.099579245 0.086831696 0.31900001 4280044580
0.10061535 0.086831696 0.31900001 4279585312
0.10165147 0.086831696 0.31900001 4279716898
0.10268757 0.086831696 0.31900001 4279519519
0.10372369 0.086831696 0.31900001 4279519006
0.1047598 0.086831696 0.31900001 4279321629
0.10579592 0.086831696 0.31900001 4279058457
0.10683203 0.086831696 0.31900001 4279255066
0.10786814 0.086831696 0.31900001 4279582748
0.10890425 0.086831696 0.31900001 4279713307
0.10994036 0.086831696 0.31900001 4279975709
0.096773326 0.088143609 0.32000002 4279121172
0.097507015 0.087868161 0.31900001 4279911713
0.09854313 0.087868161 0.31900001 4280438055
0.099579245 0.087868161 0.31900001 4280701227
0.10061535 0.087868161 0.31900001 4280505131
0.10165147 0.087868161 0.31900001 4279847201
0.10268757 0.087868161 0.31900001 4279584799
0.10372369 0.087868161 0.31900001 4279848484
0.1047598 0.087868161 0.31900001 4279519519
0.10579592 0.087868161 0.31900001 4279519006
0.10683203 0.087868161 0.31900001 4279321627
0.10786814 0.087868161 0.31900001 4279255834
0.10890425 0.087868161 0.31900001 4279320857
0.10994036 0.087868161 0.31900001 4279188758
0.09854313 0.088904612 0.31900001 4279713309
0.099579245 0.088904612 0.31900001 4280305444
0.10061535 0.088904612 0.31900001 4280701997
0.10165147 0.088904612 0.31900001 4280438825
0.10268757 0.088904612 0.31900001 4280505133
0.10372369 0.088904612 0.31900001 4280045352
0.1047598 0.088904612 0.31900001 4279585316
0.10579592 0.088904612 0.31900001 4279716902
0.10683203 0.088904612 0.31900001 4279585316
0.10786814 0.088904612 0.31900001 4279190556
0.10890425 0.088904612 0.31900001 4279190554
0.10994036 0.088904612 0.31900001 4279124761
0.11233994 0.088347219 0.317 4279386137
0.11336955 0.088347219 0.317 4279780127
0.11403829 0.088068523 0.31600001 4279843612
0.11506466 0.088068523 0.31600001 4280696100
0.11609103 0.088068523 0.31600001 4282600758
0.10683203 0.089941084 0.31900001 4279649824
0.10753 0.08965914 0.31800002 4279715617
0.10856286 0.08965914 0.31800002 4279847203
0.10994036 0.089941084 0.31900001 4279715617
0.11233994 0.089377187 0.317 4279189271
0.11336955 0.089377187 0.317 4279254551
0.11439916 0.089377187 0.317 4279451162
0.11506466 0.089095242 0.31600001 4279911199
0.11609103 0.089095242 0.31600001 4280040989
0.1171174 0.089095242 0.31600001 4280565534
0.11269433 0.090692356 0.31800002 4279386904
0.11336955 0.090407155 0.317 4279321111
0.11439916 0.090407155 0.317 4279188758
0.11542878 0.090407155 0.317 4279188758
0.1164584 0.090407155 0.317 4279582232
0.1171174 0.090121962 0.31600001 4279779098
0.11814377 0.090121962 0.31600001 4280171803
0.11132438 0.092302464 0.32000002 4280109862
0.11236374 0.092302464 0.32000002 4279649309
0.11304871 0.092014015 0.31900001 4279715102
0.11372718 0.091725573 0.31800002 4279846688
0.11476005 0.091725573 0.31800002 4279386139
0.11579292 0.091725573 0.31800002 4279451930
0.11682578 0.091725573 0.31800002 4279188758
0.11822927 0.092014015 0.31900001 4279648539
0.11926538 0.092014015 0.31900001 4279844891
0.10645922 0.09363386 0.32100001 4280435749
0.10750182 0.09363386 0.32100001 4280566565
0.10958704 0.09363386 0.32100001 4280633128
0.11062965 0.09363386 0.32100001 4281094190
0.11132438 0.09334217 0.32000002 4280897579
0.11236374 0.09334217 0.32000002 4280897579
0.11304871 0.093050465 0.31900001 4280569129
0.11408481 0.093050465 0.31900001 4280503336
0.11512093 0.093050465 0.31900001 4279977506
0.11579292 0.092758775 0.31800002 4280043299
0.11682578 0.092758775 0.31800002 4279780127
0.11822927 0.093050465 0.31900001 4279845920
0.11926538 0.093050465 0.31900001 4279385621
0.1203015 0.093050465 0.31900001 4279516693
0.10645922 0.094676822 0.32100001 4280238118
0.10750182 0.094676822 0.32100001 4279974946
0.10854443 0.094676822 0.32100001 4280172325
0.10958704 0.094676822 0.32100001 4280632106
0.11062965 0.094676822 0.32100001 4280896300
0.11132438 0.094381884 0.32000002 4280830507
0.11236374 0.094381884 0.32000002 4280764714
0.1134031 0.094381884 0.32000002 4281159470
0.11408481 0.094086938 0.31900001 4280700202
0.11512093 0.094086938 0.31900001 4280503850
0.11615704 0.094086938 0.31900001 4280306471
0.11719315 0.094086938 0.31900001 4280109094
0.11822927 0.094086938 0.31900001 4279977508
0.11926538 0.094086938 0.31900001 4279715102
0.1203015 0.094086938 0.31900001 4279386391
0.10612758 0.095421597 0.32000002 4281091893
0.10750182 0.095719784 0.32100001 4280236582
0.10854443 0.095719784 0.32100001 4280433961
0.10958704 0.095719784 0.32100001 4280303911
0.11062965 0.095719784 0.32100001 4280501288
0.11132438 0.095421597 0.32000002 4280303909
0.11236374 0.095421597 0.32000002 4281093425
0.1134031 0.095421597 0.32000002 4281355565
0.11444245 0.095421597 0.32000002 4281157673
0.11548182 0.095421597 0.32000002 4280501540
0.11615704 0.095123403 0.31900001 4281094962
0.11719315 0.095123403 0.31900001 4281094708
0.11822927 0.095123403 0.31900001 4280371498
0.11926538 0.095123403 0.31900001 4280109092
0.12067863 0.095421597 0.32000002 4280110114
0.10612758 0.096461311 0.32000002 4281418557
0.10716692 0.096461311 0.32000002 4281090358
0.10854443 0.096762747 0.32100001 4280827184
0.10958704 0.096762747 0.32100001 4280499754
0.11062965 0.096762747 0.32100001 4279973922
0.11167226 0.096762747 0.32100001 4280434725
0.11236374 0.096461311 0.32000002 4280763690
0.1134031 0.096461311 0.32000002 4280959526
0.11444245 0.096461311 0.32000002 4281880628
0.11548182 0.096461311 0.32000002 4281552433
0.11652118 0.096461311 0.32000002 4281092395
0.11756054 0.096461311 0.32000002 4281158188
0.1185999 0.096461311 0.32000002 4281290288
0.11963926 0.096461311 0.32000002 4281159983
0.12067863 0.096461311 0.32000002 4281094188
0.10612758 0.097501017 0.32000002 4281877826
0.10716692 0.097501017 0.32000002 4281680449
0.10820629 0.097501017 0.32000002 4281680447
0.10958704 0.097805701 0.32100001 4281418810
0.11062965 0.097805701 0.32100001 4280827956
0.11167226 0.097805701 0.32100001 4280762924
0.11271487 0.097805701 0.32100001 4280697385
0.1134031 0.097501017 0.32000002 4281288237
0.11444245 0.097501017 0.32000002 4281419823
0.11548182 0.097501017 0.32000002 4281551663
0.11652118 0.097501017 0.32000002 4281354284
0.11756054 0.097501017 0.32000002 4281552431
0.1185999 0.097501017 0.32000002 4281684017
0.11963926 0.097501017 0.32000002 4281420847
0.12067863 0.097501017 0.32000002 4281355567
0.10820629 0.098540731 0.32000002 4281746242
0.10958704 0.098848671 0.32100001 4281417789
0.11062965 0.098848671 0.32100001 4281286201
0.11167226 0.098848671 0.32100001 4281353017
0.11271487 0.098848671 0.32100001 4282340164
0.11375748 0.098848671 0.32100001 4282208828
0.11480008 0.098848671 0.32100001 4282339644
0.11584269 0.098848671 0.32100001 4281748275
0.1168853 0.098848671 0.32100001 4281682482
0.11792791 0.098848671 0.32100001 4281814835
0.11897052 0.098848671 0.32100001 4281947189
0.12001313 0.098848671 0.32100001 4281816118
0.12105574 0.098848671 0.32100001 4281552692
0.085692957 0.081515118 0.32496139 4294967295
0.085692957 0.081515118 0.32496139 4294901760
0.085850351 0.08107236 0.32479054 4294901760
0.086007752 0.080629595 0.32461971 4294901760
0.086165145 0.080186836 0.32444885 4294901760
0.086322539 0.079744071 0.324278 4294901760
0.08647994 0.079301313 0.32410714 4294901760
0.086637333 0.078858554 0.32393631 4294901760
0.086794727 0.078415789 0.32376546 4294901760
0.08695212 0.077973031 0.3235946 4294901760
0.087109521 0.077530265 0.32342377 4294901760
0.087266915 0.077087507 0.32325292 4294901760
0.087424308 0.076644748 0.32308206 4294901760
0.087581709 0.076201983 0.3229112 4294901760
0.087739103 0.075759225 0.32274038 4294901760
0.087896496 0.075316459 0.32256952 4294901760
0.088053897 0.074873701 0.32239866 4294901760
0.088211291 0.074430935 0.32222784 4294901760
0.088368684 0.073988177 0.32205698 4294901760
0.088526085 0.073545419 0.32188612 4294901760
0.088683479 0.073102653 0.3217153 4294901760
0.088840872 0.072659895 0.32154444 4294901760
0.088998273 0.072217129 0.32137358 4294901760
0.089155667 0.071774371 0.32120273 4294901760
0.08931306 0.071331605 0.3210319 4294901760
0.089470454 0.070888847 0.32086104 4294901760
0.089627855 0.070446089 0.32069018 4294901760
0.089785248 0.070003323 0.32051936 4294901760
0.089942642 0.069560565 0.3203485 4294901760
0.090100043 0.069117799 0.32017764 4294901760
0.090257436 0.068675041 0.32000679 4294901760
0.09041483 0.068232283 0.31983596 4294901760
0.090572231 0.067789517 0.3196651 4294901760
0.090729624 0.067346759 0.31949425 4294901760
0.090887018 0.066903993 0.31932342 4294901760
0.091044419 0.066461235 0.31915256 4294901760
0.091201812 0.066018477 0.31898171 4294901760
0.091359206 0.065575711 0.31881085 4294901760
0.091516599 0.065132953 0.31864002 4294901760
0.091674 0.064690188 0.31846917 4294901760
0.091831394 0.064247429 0.31829831 4294901760
0.091988787 0.063804671 0.31812748 4294901760
0.092146188 0.063361906 0.31795663 4294901760
0.092303582 0.062919147 0.31778577 4294901760
0.092460975 0.062476382 0.31761491 4294901760
0.092618376 0.062033623 0.31744409 4294901760
0.09277577 0.061590862 0.31727323 4294901760
0.092933163 0.0611481 0.31710237 4294901760
0.093090564 0.060705341 0.31693155 4294901760
0.093247958 0.060262579 0.31676069 4294901760
0.093405351 0.059819818 0.31658983 4294901760
0.093562752 0.059377056 0.31641901 4294901760
0.093720146 0.058934294 0.31624815 4294901760
0.093877539 0.058491535 0.31607729 4294901760
0.094034933 0.058048774 0.31590644 4294901760
0.094192334 0.057606012 0.31573561 4294901760
0.094349727 0.05716325 0.31556475 4294901760
0.094507121 0.056720488 0.31539389 4294901760
0.094664522 0.05627773 0.31522307 4294901760
0.094821915 0.055834964 0.31505221 4294901760
0.094979309 0.055392206 0.31488135 4294901760
0.09513671 0.05494944 0.3147105 4294901760
0.095294103 0.054506682 0.31453967 4294901760
0.095451497 0.05406392 0.31436881 4294901760
0.09560889 0.053621158 0.31419796 4294901760
0.095766291 0.0531784 0.31402713 4294901760
0.095923685 0.052735638 0.31385627 4294901760
0.096081078 0.052292876 0.31368542 4294901760
0.096238479 0.051850114 0.31351456 4294901760
0.096395873 0.051407352 0.31334373 4294901760
0.096553266 0.050964594 0.31317288 4294901760
0.096710667 0.050521828 0.31300202 4294901760
0.096868061 0.05007907 0.31283119 4294901760
0.097025454 0.049636308 0.31266034 4294901760
0.097182855 0.049193546 0.31248948 4294901760
0.097340249 0.048750784 0.31231862 4294901760
0.097497642 0.048308022 0.3121478 4294901760
0.097655043 0.047865264 0.31197694 4294901760
0.097812437 0.047422502 0.31180608 4294901760
0.09796983 0.04697974 0.31163526 4294901760
0.098127231 0.046536978 0.3114644 4294901760
0.098284625 0.046094216 0.31129354 4294901760
0.098442018 0.045651458 0.31112272 4294901760
0.098599412 0.045208696 0.31095186 4294901760
0.098756813 0.044765934 0.310781 4294901760
0.098914206 0.044323172 0.31061015 4294901760
0.0990716 0.04388041 0.31043932 4294901760
0.099229001 0.043437649 0.31026846 4294901760
0.099386394 0.04299489 0.3100976 4294901760
0.099543788 0.042552128 0.30992678 4294901760
0.099701181 0.042109367 0.30975592 4294901760
0.099858582 0.041666605 0.30958506 4294901760
0.10001598 0.041223843 0.30941421 4294901760
0.10017337 0.040781081 0.30924338 4294901760
0.10033077 0.040338323 0.30907252 4294901760
0.10048816 0.039895561 0.30890167 4294901760
0.10064556 0.039452799 0.30873084 4294901760
0.10080296 0.03901004 0.30855998 4294901760
0.10096035 0.038567275 0.30838913 4294901760
0.10111775 0.038124513 0.30821827 4294901760
0.10127515 0.037681755 0.30804744 4294901760
0.10143254 0.037238993 0.30787659 4294901760
0.085692957 0.081515118 0.32496139 4278255360
0.086139858 0.081713967 0.32485777 4278255360
0.086586758 0.081912823 0.32475415 4278255360
0.087033667 0.082111672 0.32465056 4278255360
0.087480567 0.08231052 0.32454693 4278255360
0.087927468 0.082509369 0.32444331 4278255360
0.088374369 0.082708225 0.32433969 4278255360
0.088821277 0.082907073 0.32423607 4278255360
0.089268178 0.083105922 0.32413244 4278255360
0.089715078 0.083304778 0.32402885 4278255360
0.090161979 0.083503626 0.32392523 4278255360
0.090608887 0.083702475 0.3238216 4278255360
0.091055788 0.083901331 0.32371798 4278255360
0.091502689 0.084100179 0.32361436 4278255360
0.09194959 0.084299028 0.32351077 4278255360
0.092396498 0.084497884 0.32340714 4278255360
0.092843398 0.084696732 0.32330352 4278255360
0.093290299 0.084895581 0.3231999 4278255360
0.0937372 0.08509443 0.32309628 4278255360
0.094184101 0.085293286 0.32299265 4278255360
0.094631009 0.085492134 0.32288906 4278255360
0.09507791 0.085690983 0.32278544 4278255360
0.09552481 0.085889839 0.32268181 4278255360
0.095971718 0.086088687 0.32257819 4278255360
0.096418619 0.086287536 0.32247457 4278255360
0.09686552 0.086486384 0.32237095 4278255360
0.097312421 0.08668524 0.32226735 4278255360
0.097759321 0.086884089 0.32216373 4278255360
0.09820623 0.087082937 0.32206011 4278255360
0.09865313 0.087281793 0.32195649 4278255360
0.099100031 0.087480642 0.32185286 4278255360
0.099546939 0.08767949 0.32174927 4278255360
0.09999384 0.087878346 0.32164565 4278255360
0.10044074 0.088077195 0.32154202 4278255360
0.10088764 0.088276044 0.3214384 4278255360
0.10133454 0.0884749 0.32133478 4278255360
0.10178145 0.088673748 0.32123116 4278255360
0.10222835 0.088872597 0.32112756 4278255360
0.10267525 0.089071445 0.32102394 4278255360
0.10312215 0.089270301 0.32092032 4278255360
0.10356906 0.08946915 0.3208167 4278255360
0.10401596 0.089667998 0.32071307 4278255360
0.10446286 0.089866854 0.32060948 4278255360
0.10490976 0.090065703 0.32050586 4278255360
0.10535666 0.090264551 0.32040223 4278255360
0.10580357 0.0904634 0.32029861 4278255360
0.10625047 0.090662256 0.32019499 4278255360
0.10669737 0.090861104 0.32009137 4278255360
0.10714428 0.091059953 0.31998777 4278255360
0.10759118 0.091258809 0.31988415 4278255360
0.10803808 0.091457658 0.31978053 4278255360
0.10848498 0.091656506 0.31967691 4278255360
0.10893188 0.091855362 0.31957328 4278255360
0.10937878 0.092054211 0.31946969 4278255360
0.10982569 0.092253059 0.31936607 4278255360
0.11027259 0.092451915 0.31926244 4278255360
0.1107195 0.092650764 0.31915882 4278255360
0.1111664 0.092849612 0.3190552 4278255360
0.1116133 0.093048461 0.31895158 4278255360
0.1120602 0.093247317 0.31884798 4278255360
0.1125071 0.093446165 0.31874436 4278255360
0.11295401 0.093645014 0.31864074 4278255360
0.11340091 0.09384387 0.31853712 4278255360
0.11384781 0.094042718 0.31843349 4278255360
0.11429472 0.094241567 0.3183299 4278255360
0.11474162 0.094440416 0.31822628 4278255360
0.11518852 0.094639271 0.31812266 4278255360
0.11563542 0.09483812 0.31801903 4278255360
0.11608233 0.095036969 0.31791541 4278255360
0.11652923 0.095235825 0.31781179 4278255360
0.11697613 0.095434673 0.31770819 4278255360
0.11742304 0.095633522 0.31760457 4278255360
0.11786994 0.095832378 0.31750095 4278255360
0.11831684 0.096031226 0.31739733 4278255360
0.11876374 0.096230075 0.3172937 4278255360
0.11921065 0.096428931 0.31719011 4278255360
0.11965755 0.096627779 0.31708649 4278255360
0.12010445 0.096826628 0.31698287 4278255360
0.12055135 0.097025476 0.31687924 4278255360
0.12099826 0.097224332 0.31677562 4278255360
0.12144516 0.097423181 0.316672 4278255360
0.12189206 0.097622029 0.3165684 4278255360
0.12233897 0.097820878 0.31646478 4278255360
0.12278587 0.098019734 0.31636116 4278255360
0.12323277 0.098218583 0.31625754 4278255360
0.12367967 0.098417431 0.31615391 4278255360
0.12412657 0.098616287 0.31605029 4278255360
0.12457348 0.098815136 0.3159467 4278255360
0.12502038 0.099013984 0.31584308 4278255360
0.12546729 0.09921284 0.31573945 4278255360
0.12591419 0.099411689 0.31563583 4278255360
0.12636109 0.099610537 0.31553221 4278255360
0.12680799 0.099809393 0.31542861 4278255360
0.12725489 0.10000824 0.31532499 4278255360
0.12770179 0.10020709 0.31522137 4278255360
0.12814869 0.10040595 0.31511775 4278255360
0.12859559 0.10060479 0.31501412 4278255360
0.12904251 0.10080364 0.3149105 4278255360
0.12948941 0.1010025 0.31480691 4278255360
0.12993631 0.10120135 0.31470329 4278255360
0.13038321 0.1014002 0.31459966 4278255360
0.085692957 0.081515118 0.32496139 4278190335
0.085834295 0.081387021 0.32542357 4278190335
0.085975632 0.081258915 0.32588577 4278190335
0.086116962 0.081130818 0.32634795 4278190335
0.0862583 0.08100272 0.32681012 4278190335
0.086399637 0.080874622 0.32727233 4278190335
0.086540967 0.080746517 0.3277345 4278190335
0.086682305 0.080618419 0.32819667 4278190335
0.086823642 0.080490321 0.32865888 4278190335
0.08696498 0.080362223 0.32912105 4278190335
0.087106317 0.080234118 0.32958323 4278190335
0.087247647 0.08010602 0.33004543 4278190335
0.087388985 0.079977922 0.33050761 4278190335
0.087530322 0.079849824 0.33096978 4278190335
0.087671652 0.079721719 0.33143198 4278190335
0.08781299 0.079593621 0.33189416 4278190335
0.087954327 0.079465523 0.33235633 4278190335
0.088095665 0.079337418 0.33281854 4278190335
0.088237002 0.07920932 0.33328071 4278190335
0.088378333 0.079081222 0.33374289 4278190335
0.08851967 0.078953125 0.33420509 4278190335
0.088661008 0.078825019 0.33466727 4278190335
0.088802338 0.078696921 0.33512944 4278190335
0.088943675 0.078568824 0.33559164 4278190335
0.089085013 0.078440726 0.33605382 4278190335
0.08922635 0.078312621 0.33651602 4278190335
0.08936768 0.078184523 0.3369782 4278190335
0.089509018 0.078056425 0.33744037 4278190335
0.089650355 0.07792832 0.33790258 4278190335
0.089791693 0.077800222 0.33836475 4278190335
0.089933023 0.077672124 0.33882692 4278190335
0.09007436 0.077544026 0.33928913 4278190335
0.090215698 0.077415921 0.3397513 4278190335
0.090357035 0.077287823 0.34021348 4278190335
0.090498373 0.077159725 0.34067568 4278190335
0.090639703 0.077031627 0.34113786 4278190335
0.09078104 0.076903522 0.34160003 4278190335
0.090922378 0.076775424 0.34206223 4278190335
0.091063708 0.076647326 0.34252441 4278190335
0.091205046 0.076519221 0.34298658 4278190335
0.091346383 0.076391123 0.34344879 4278190335
0.091487721 0.076263025 0.34391096 4278190335
0.091629058 0.076134928 0.34437314 4278190335
0.091770388 0.076006822 0.34483534 4278190335
0.091911726 0.075878724 0.34529752 4278190335
0.092053063 0.075750627 0.34575969 4278190335
0.092194393 0.075622529 0.34622189 4278190335
0.092335731 0.075494424 0.34668407 4278190335
0.092477068 0.075366326 0.34714624 4278190335
0.092618406 0.075238228 0.34760845 4278190335
0.092759743 0.075110123 0.34807062 4278190335
0.092901073 0.074982025 0.3485328 4278190335
0.093042411 0.074853927 0.348995 4278190335
0.093183748 0.074725829 0.34945717 4278190335
0.093325086 0.074597724 0.34991935 4278190335
0.093466416 0.074469626 0.35038155 4278190335
0.093607754 0.074341528 0.35084373 4278190335
0.093749091 0.07421343 0.3513059 4278190335
0.093890429 0.074085325 0.35176811 4278190335
0.094031759 0.073957227 0.35223028 4278190335
0.094173096 0.073829129 0.35269246 4278190335
0.094314434 0.073701024 0.35315466 4278190335
0.094455764 0.073572926 0.35361683 4278190335
0.094597101 0.073444828 0.35407901 4278190335
0.094738439 0.073316731 0.35454121 4278190335
0.094879776 0.073188633 0.35500339 4278190335
0.095021114 0.073060527 0.35546559 4278190335
0.095162444 0.07293243 0.35592777 4278190335
0.095303781 0.072804332 0.35638994 4278190335
0.095445119 0.072676226 0.35685211 4278190335
0.095586449 0.072548129 0.35731432 4278190335
0.095727786 0.072420031 0.35777649 4278190335
0.095869124 0.072291926 0.3582387 4278190335
0.096010461 0.072163828 0.35870087 4278190335
0.096151799 0.07203573 0.35916305 4278190335
0.096293129 0.071907632 0.35962522 4278190335
0.096434467 0.071779534 0.36008742 4278190335
0.096575804 0.071651429 0.3605496 4278190335
0.096717134 0.071523331 0.3610118 4278190335
0.096858472 0.071395233 0.36147398 4278190335
0.096999809 0.071267128 0.36193615 4278190335
0.097141147 0.07113903 0.36239833 4278190335
0.097282484 0.071010932 0.36286053 4278190335
0.097423814 0.070882834 0.36332271 4278190335
0.097565152 0.070754729 0.36378491 4278190335
0.097706489 0.070626631 0.36424708 4278190335
0.097847819 0.070498534 0.36470926 4278190335
0.097989157 0.070370436 0.36517146 4278190335
0.098130494 0.07024233 0.36563364 4278190335
0.098271832 0.070114233 0.36609581 4278190335
0.098413169 0.069986135 0.36655802 4278190335
0.098554499 0.069858029 0.36702019 4278190335
0.098695837 0.069729932 0.36748236 4278190335
0.098837174 0.069601834 0.36794457 4278190335
0.098978505 0.069473736 0.36840674 4278190335
0.099119842 0.069345631 0.36886892 4278190335
0.09926118 0.069217533 0.36933112 4278190335
0.099402517 0.069089435 0.3697933 4278190335
0.099543855 0.068961337 0.37025547 4278190335
0.099685185 0.068833232 0.37071767 4278190335
0.099826522 0.068705134 0.37117985 4278190335
0.085692957 0.081515118 0.32496139 4294967295
0.084844939 0.08228372 0.32218829 4294967295
0.083996929 0.083052315 0.31941518 4294967295
0.083148912 0.083820917 0.31664208 4294967295
0.082300901 0.084589519 0.31386897 4294967295
0.081452884 0.085358113 0.31109586 4294967295
0.080604874 0.086126715 0.30832276 4294967295
0.079756856 0.086895317 0.30554962 4294967295
0.078908846 0.087663911 0.30277652 4294967295
0.078060828 0.088432513 0.30000341 4294967295
0.077212818 0.089201108 0.2972303 4294967295
0.0763648 0.08996971 0.2944572 4294967295
0.07551679 0.090738311 0.29168409 4294967295
0.074668773 0.091506906 0.28891098 4294967295
0.073820762 0.092275508 0.28613788 4294967295
0.072972745 0.09304411 0.28336477 4294967295
0.072124735 0.093812704 0.28059167 4294967295
0.071276717 0.094581306 0.27781856 4294967295
0.070428699 0.095349908 0.27504545 4294967295
0.069580689 0.096118502 0.27227235 4294967295
0.068732671 0.096887104 0.26949924 4294967295
0.067884661 0.097655699 0.26672614 4294967295
0.067036644 0.098424301 0.26395303 4294967295
0.066188633 0.099192902 0.26117989 4294967295
0.065340616 0.099961497 0.25840679 4294967295
0.064492606 0.1007301 0.25563368 4294967295
0.063644588 0.10149869 0.25286058 4294967295
0.062796578 0.1022673 0.25008747 4294967295
0.06194856 0.1030359 0.24731436 4294967295
0.06110055 0.1038045 0.24454126 4294967295
0.060252532 0.10457309 0.24176815 4294967295
0.059404518 0.1053417 0.23899505 4294967295
0.058556505 0.10611029 0.23622194 4294967295
0.057708487 0.10687889 0.23344882 4294967295
0.056860477 0.10764749 0.23067571 4294967295
0.056012463 0.10841609 0.22790261 4294967295
0.055164449 0.10918469 0.22512949 4294967295
0.054316435 0.10995329 0.22235638 4294967295
0.053468421 0.11072189 0.21958329 4294967295
0.052620407 0.11149049 0.21681018 4294967295
0.05177239 0.11225909 0.21403706 4294967295
0.050924379 0.11302768 0.21126395 4294967295
0.050076365 0.11379628 0.20849085 4294967295
0.049228348 0.11456488 0.20571774 4294967295
0.048380334 0.11533348 0.20294464 4294967295
0.047532324 0.11610208 0.20017153 4294967295
0.046684306 0.11687069 0.19739841 4294967295
0.045836292 0.11763928 0.1946253 4294967295
0.044988278 0.11840788 0.1918522 4294967295
0.044140264 0.11917648 0.18907909 4294967295
0.04329225 0.11994508 0.18630598 4294967295
0.042444237 0.12071368 0.18353288 4294967295
0.041596223 0.12148228 0.18075977 4294967295
0.040748209 0.12225087 0.17798667 4294967295
0.039900191 0.12301948 0.17521355 4294967295
0.039052177 0.12378807 0.17244044 4294967295
0.038204167 0.12455668 0.16966733 4294967295
0.037356153 0.12532528 0.16689423 4294967295
0.036508139 0.12609386 0.16412112 4294967295
0.035660125 0.12686247 0.16134802 4294967295
0.034812108 0.12763107 0.15857489 4294967295
0.033964094 0.12839967 0.15580179 4294967295
0.03311608 0.12916827 0.15302868 4294967295
0.032268066 0.12993687 0.15025558 4294967295
0.031420052 0.13070548 0.14748247 4294967295
0.030572042 0.13147406 0.14470936 4294967295
0.029724021 0.13224266 0.14193624 4294967295
0.02887601 0.13301127 0.13916314 4294967295
0.028027996 0.13377987 0.13639003 4294967295
0.027179983 0.13454846 0.13361692 4294967295
0.026331969 0.13531706 0.13084382 4294967295
0.025483955 0.13608566 0.12807071 4294967295
0.024635937 0.13685426 0.12529759 4294967295
0.023787923 0.13762286 0.12252448 4294967295
0.022939913 0.13839146 0.11975138 4294967295
0.022091895 0.13916007 0.11697829 4294967295
0.021243885 0.13992865 0.11420518 4294967295
0.020395868 0.14069726 0.11143208 4294967295
0.019547857 0.14146586 0.10865897 4294967295
0.01869984 0.14223446 0.10588585 4294967295
0.017851822 0.14300306 0.10311274 4294967295
0.017003812 0.14377165 0.10033964 4294967295
0.016155802 0.14454025 0.09756653 4294967295
0.015307784 0.14530885 0.094793424 4294967295
0.014459774 0.14607745 0.092020318 4294967295
0.013611756 0.14684606 0.089247197 4294967295
0.012763739 0.14761466 0.086474091 4294967295
0.011915728 0.14838326 0.083700985 4294967295
0.011067711 0.14915185 0.080927879 4294967295
0.010219701 0.14992045 0.078154773 4294967295
0.0093716905 0.15068904 0.075381666 4294967295
0.0085236654 0.15145765 0.072608531 4294967295
0.0076756552 0.15222624 0.069835424 4294967295
0.006827645 0.15299484 0.067062318 4294967295
0.0059796274 0.15376344 0.064289212 4294967295
0.0051316172 0.15453205 0.061516106 4294967295
0.0042835996 0.15530065 0.058743 4294967295
0.0034355819 0.15606925 0.055969894 4294967295
0.0025875717 0.15683785 0.053196788 4294967295
0.0017395541 0.15760644 0.050423682 4294967295
0.00089154392 0.15837504 0.047650576 4294967295
