# .PCD v0.7 - Point Cloud Data file format
VERSION 0.7
FIELDS x y z rgb
SIZE 4 4 4 4
TYPE F F F U
COUNT 1 1 1 1
WIDTH 1033
HEIGHT 1
VIEWPOINT 0 0 0 1 0 0 0
POINTS 1033
DATA ascii
0.015923759 0.035892148 0.48500001 4287206781
0.017462958 0.035818145 0.48400003 4288712575
0.018995663 0.035744138 0.48300001 4284033567
0.020564448 0.035744138 0.48300001 4284883478
0.022087408 0.035670135 0.48200002 4285014294
0.023652947 0.035670135 0.48200002 4284161038
0.025166161 0.035596132 0.48100004 4283766282
0.026728451 0.035596132 0.48100004 4283373323
0.028290741 0.035596132 0.48100004 4283045387
0.029915093 0.035670135 0.48200002 4282653198
0.031480629 0.035670135 0.48200002 4283507221
-0.0046112416 0.037931483 0.49100003 4286157700
-0.0030164726 0.037931483 0.49100003 4286092161
-0.0014217037 0.037931483 0.49100003 4284830536
0.00017306513 0.037931483 0.49100003 4285149482
0.0017642335 0.037854228 0.49000001 4285608488
0.0033557541 0.037854228 0.49000001 4285147937
0.0049472749 0.037854228 0.49000001 4284882708
0.0065387962 0.037854228 0.49000001 4284422929
0.0081303166 0.037854228 0.49000001 4287521110
0.009701997 0.037776977 0.48900002 4287001444
0.011290271 0.037776977 0.48900002 4284299565
0.012852207 0.037699725 0.48800004 4284231206
0.014407647 0.03762247 0.48700002 4284427558
0.015956592 0.037545215 0.48600003 4284559144
0.017499039 0.037467964 0.48500001 4285215273
0.019034991 0.037390709 0.48400003 4284491290
0.020564448 0.037313454 0.48300001 4283701261
0.022087408 0.037236203 0.48200002 4284162325
0.023652947 0.037236203 0.48200002 4283637265
0.025218481 0.037236203 0.48200002 4283242507
0.02678402 0.037236203 0.48200002 4282782985
0.028349556 0.037236203 0.48200002 4282388742
0.029915093 0.037236203 0.48200002 4281666816
0.031480629 0.037236203 0.48200002 4283836186
0.033114728 0.037313454 0.48300001 4284163607
-0.0046112416 0.039526794 0.49100003 4286289286
-0.0030164726 0.039526794 0.49100003 4286091907
-0.0014217037 0.039526794 0.49100003 4283513133
0.00017271264 0.039446291 0.49000001 4285017382
0.0017642335 0.039446291 0.49000001 4285213217
0.0033557541 0.039446291 0.49000001 4284423701
0.0049472749 0.039446291 0.49000001 4284095249
0.0065387962 0.039446291 0.49000001 4286726969
0.0081303166 0.039446291 0.49000001 4284951328
0.009701997 0.039365787 0.48900002 4284163609
0.011290271 0.039365787 0.48900002 4283309842
0.012852207 0.039285287 0.48800004 4283046418
0.014407647 0.039204784 0.48700002 4283115295
0.015956592 0.03912428 0.48600003 4283313188
0.017499039 0.039043777 0.48500001 4283115809
0.019034991 0.038963273 0.48400003 4282983196
0.020564448 0.03888277 0.48300001 4283045905
0.022133233 0.03888277 0.48300001 4283046672
0.023652947 0.03880227 0.48200002 4283441430
0.025218481 0.03880227 0.48200002 4282980366
0.02678402 0.03880227 0.48200002 4281929221
0.028349556 0.03880227 0.48200002 4285157693
0.029915093 0.03880227 0.48200002 4284240436
0.031545941 0.03888277 0.48300001 4284501298
0.033114728 0.03888277 0.48300001 4284097814
0.034683511 0.03888277 0.48300001 4284295193
-0.0046112416 0.041122101 0.49100003 4286157954
-0.0030164726 0.041122101 0.49100003 4286157441
-0.0014217037 0.041122101 0.49100003 4285027404
0.00017306513 0.041122101 0.49100003 4284164388
0.0017642335 0.041038349 0.49000001 4284425245
0.0033557541 0.041038349 0.49000001 4284030485
0.0049472749 0.041038349 0.49000001 4283439632
0.0065387962 0.041038349 0.49000001 4283702804
0.0081303166 0.041038349 0.49000001 4283243538
0.0097218379 0.041038349 0.49000001 4283309590
0.011290271 0.040954597 0.48900002 4282064152
0.012852207 0.040870849 0.48800004 4283844674
0.014437232 0.040870849 0.48800004 4285759603
0.015989425 0.040787093 0.48700002 4286746496
0.01753512 0.040703345 0.48600003 4287272070
0.019074319 0.040619589 0.48500001 4283846723
0.020607024 0.040535841 0.48400003 4282062094
0.022133233 0.040452085 0.48300001 4282587666
0.023702018 0.040452085 0.48300001 4283047956
0.025270801 0.040452085 0.48300001 4284164638
0.026839586 0.040452085 0.48300001 4283243020
0.028408373 0.040452085 0.48300001 4284959796
0.029977158 0.040452085 0.48300001 4283912755
0.031545941 0.040452085 0.48300001 4284373306
0.033114728 0.040452085 0.48300001 4284301866
0.034683511 0.040452085 0.48300001 4283835927
0.036252294 0.040452085 0.48300001 4284100126
-0.0046112416 0.042717412 0.49100003 4286157700
-0.0030164726 0.042717412 0.49100003 4286157441
-0.0014217037 0.042717412 0.49100003 4283776051
0.00017306513 0.042717412 0.49100003 4284100392
0.0017678339 0.042717412 0.49100003 4283572762
0.0033626028 0.042717412 0.49100003 4283309844
0.0049573714 0.042717412 0.49100003 4282718737
0.0065387962 0.042630408 0.49000001 4282652944
0.0081303166 0.042630408 0.49000001 4282193941
0.0097218379 0.042630408 0.49000001 4284764493
0.011313358 0.042630408 0.49000001 4287208846
0.012878543 0.042543408 0.48900002 4286090878
0.014437232 0.042456411 0.48800004 4286091394
0.015989425 0.042369407 0.48700002 4286090878
0.01753512 0.042282406 0.48600003 4287273351
0.019074319 0.042195406 0.48500001 4280096520
0.020607024 0.042108405 0.48400003 4281997328
0.022133233 0.042021401 0.48300001 4282194191
0.023702018 0.042021401 0.48300001 4282193676
0.025270801 0.042021401 0.48300001 4282850577
0.026839586 0.042021401 0.48300001 4284622874
0.028408373 0.042021401 0.48300001 4283768849
0.029977158 0.042021401 0.48300001 4284042024
0.031545941 0.042021401 0.48300001 4283583780
0.033114728 0.042021401 0.48300001 4284570421
0.034683511 0.042021401 0.48300001 4284632366
0.036252294 0.042021401 0.48300001 4284491802
0.037821081 0.042021401 0.48300001 4284559648
-0.0046112416 0.044312723 0.49100003 4286157700
-0.0030164726 0.044312723 0.49100003 4286880394
-0.0014217037 0.044312723 0.49100003 4283642923
0.00017306513 0.044312723 0.49100003 4284693042
0.0017678339 0.044312723 0.49100003 4283639071
0.0033626028 0.044312723 0.49100003 4283178518
0.0049573714 0.044312723 0.49100003 4282259471
0.0065521407 0.044312723 0.49100003 4281996560
0.0081469091 0.044312723 0.49100003 4286348917
0.0097218379 0.04422247 0.49000001 4286287744
0.011313358 0.04422247 0.49000001 4286090878
0.012878543 0.044132221 0.48900002 4286419843
0.014437232 0.044041973 0.48800004 4286090878
0.015989425 0.043951724 0.48700002 4286090878
0.01753512 0.043861475 0.48600003 4282337080
0.019074319 0.043771222 0.48500001 4281540373
0.020607024 0.043680973 0.48400003 4282916116
0.022179058 0.043680973 0.48400003 4282784014
0.023702018 0.043590721 0.48300001 4282455819
0.025270801 0.043590721 0.48300001 4282587405
0.026839586 0.043590721 0.48300001 4283046670
0.028408373 0.043590721 0.48300001 4284426009
0.029977158 0.043590721 0.48300001 4283640077
0.031545941 0.043590721 0.48300001 4286344518
0.033114728 0.043590721 0.48300001 4283122975
0.034611702 0.043500472 0.48200002 4282661656
0.03617724 0.043500472 0.48200002 4283901718
0.037742779 0.043500472 0.48200002 4284557079
-0.0046112416 0.045908034 0.49100003 4286223493
-0.0030164726 0.045908034 0.49100003 4287339660
-0.0014217037 0.045908034 0.49100003 4282851608
0.00017306513 0.045908034 0.49100003 4287720805
0.0017678339 0.045908034 0.49100003 4282915346
0.0033626028 0.045908034 0.49100003 4282389772
0.0049573714 0.045908034 0.49100003 4281668879
0.0065521407 0.045908034 0.49100003 4286740850
0.0081469091 0.045908034 0.49100003 4285894015
0.0097416788 0.045908034 0.49100003 4285959808
0.011313358 0.045814533 0.49000001 4286222464
0.012878543 0.045721035 0.48900002 4286025085
0.014437232 0.045627534 0.48800004 4286025085
0.015989425 0.045534037 0.48700002 4286551429
0.01753512 0.045440536 0.48600003 4281807656
0.019074319 0.045347035 0.48500001 4282329375
0.020649601 0.045347035 0.48500001 4283048215
0.022179058 0.045253538 0.48400003 4283178770
0.023702018 0.045160037 0.48300001 4282980877
0.025270801 0.045160037 0.48300001 4282718219
0.026839586 0.045160037 0.48300001 4284564786
0.028408373 0.045160037 0.48300001 4282326795
0.029915093 0.045066539 0.48200002 4284425234
0.031480629 0.045066539 0.48200002 4284296980
0.033046167 0.045066539 0.48200002 4285031736
0.034611702 0.045066539 0.48200002 4285032251
0.036102183 0.044973042 0.48100004 4284037411
0.037664473 0.044973042 0.48100004 4284293909
-0.0046206331 0.047600087 0.49200001 4286157441
-0.0030164726 0.047503341 0.49100003 4284638295
-0.0014217037 0.047503341 0.49100003 4284100903
0.00017306513 0.047503341 0.49100003 4284364329
0.0017678339 0.047503341 0.49100003 4282718737
0.0033626028 0.047503341 0.49100003 4282259471
0.0049674679 0.047600087 0.49200001 4282859315
0.0065521407 0.047503341 0.49100003 4286418558
0.0081469091 0.047503341 0.49100003 4285828476
0.0097416788 0.047503341 0.49100003 4285894269
0.011313358 0.047406591 0.49000001 4285894269
0.012878543 0.047309846 0.48900002 4286289027
0.014437232 0.047213096 0.48800004 4281219632
0.015989425 0.047116347 0.48700002 4279046929
0.01753512 0.047019601 0.48600003 4279505936
0.019074319 0.046922851 0.48500001 4282006068
0.020649601 0.046922851 0.48500001 4279700999
0.022179058 0.046826106 0.48400003 4281146130
0.023751091 0.046826106 0.48400003 4282654481
0.025270801 0.046729356 0.48300001 4282653711
0.026839586 0.046729356 0.48300001 4283384362
0.028349556 0.046632607 0.48200002 4281675027
0.029915093 0.046632607 0.48200002 4283834903
0.031415317 0.046535861 0.48100004 4283833874
0.032977607 0.046535861 0.48100004 4283251483
0.034539897 0.046535861 0.48100004 4282990108
0.036027126 0.046439111 0.48000002 4285351726
0.037586167 0.046439111 0.48000002 4285281316
0.039063655 0.046342365 0.47900003 4286200875
-0.0046206331 0.049198646 0.49200001 4286485123
-0.003022616 0.049198646 0.49200001 4282398250
-0.0014245992 0.049198646 0.49200001 4284364077
0.00017341759 0.049198646 0.49200001 4283506969
0.0017714344 0.049198646 0.49200001 4282324492
0.003369451 0.049198646 0.49200001 4281602316
0.0049674679 0.049198646 0.49200001 4287404426
0.0065654851 0.049198646 0.49200001 4286090876
0.0081469091 0.049098648 0.49100003 4285959808
0.0097416788 0.049098648 0.49100003 4285959808
0.011313358 0.04899865 0.49000001 4286550916
0.012878543 0.048898656 0.48900002 4279311635
0.014437232 0.048798658 0.48800004 4279309331
0.015989425 0.04869866 0.48700002 4279506710
0.01753512 0.048598666 0.48600003 4279507482
0.019074319 0.048498664 0.48500001 4280758830
0.020649601 0.048498664 0.48500001 4281285425
0.022179058 0.04839867 0.48400003 4281810486
0.023702018 0.048298672 0.48300001 4280357643
0.025270801 0.048298672 0.48300001 4281671699
0.02678402 0.048198674 0.48200002 4281017097
0.028349556 0.048198674 0.48200002 4281083404
0.029853029 0.04809868 0.48100004 4282523922
0.031415317 0.04809868 0.48100004 4283834903
0.032909047 0.047998678 0.48000002 4284360216
0.034468085 0.047998678 0.48000002 4285019681
0.035952069 0.047898684 0.47900003 4285410076
0.037507866 0.047898684 0.47900003 4285079314
0.038982101 0.047798686 0.47800002 4285605658
-0.0046206331 0.050797205 0.49200001 4287862149
-0.003022616 0.050797205 0.49200001 4283181600
-0.0014245992 0.050797205 0.49200001 4284495148
0.00017341759 0.050797205 0.49200001 4283112211
0.0017714344 0.050797205 0.49200001 4282127885
0.003369451 0.050797205 0.49200001 4281472783
0.0049674679 0.050797205 0.49200001 4286025085
0.0065521407 0.050693959 0.49100003 4286354050
0.0081469091 0.050693959 0.49100003 4286091394
0.0097218379 0.050590709 0.49000001 4286617740
0.011290271 0.050487466 0.48900002 4279771935
0.012878543 0.050487466 0.48900002 4279506963
0.014437232 0.05038422 0.48800004 4279506963
0.015989425 0.050280973 0.48700002 4278981136
0.01753512 0.050177727 0.48600003 4280429865
0.019074319 0.05007448 0.48500001 4280496171
0.020649601 0.05007448 0.48500001 4278851346
0.022179058 0.049971234 0.48400003 4279639579
0.023702018 0.049867988 0.48300001 4279703822
0.025270801 0.049867988 0.48300001 4279571977
0.02678402 0.049764741 0.48200002 4280623118
0.028290741 0.049661495 0.48100004 4280491532
0.029853029 0.049661495 0.48100004 4281344529
0.031350002 0.049558248 0.48000002 4283443227
0.032840487 0.049455002 0.47900003 4286594866
0.03439628 0.049455002 0.47900003 4285540892
0.035877012 0.049351756 0.47800002 4289094484
0.03742956 0.049351756 0.47800002 4285540381
0.038982101 0.049351756 0.47800002 4285406742
-0.0062312898 0.05250226 0.49300003 4286355333
-0.0046206331 0.052395761 0.49200001 4284367157
-0.003022616 0.052395761 0.49200001 4282915600
-0.0014245992 0.052395761 0.49200001 4283705116
0.00017341759 0.052395761 0.49200001 4282914832
0.0017714344 0.052395761 0.49200001 4282062607
0.003369451 0.052395761 0.49200001 4286278500
0.0049674679 0.052395761 0.49200001 4286223234
0.0065521407 0.052289266 0.49100003 4286091394
0.0081469091 0.052289266 0.49100003 4286157187
0.0097218379 0.052182771 0.49000001 4284905839
0.011290271 0.052076276 0.48900002 4280429348
0.012852207 0.051969782 0.48800004 4279244561
0.014407647 0.051863287 0.48700002 4280692520
0.015956592 0.051756792 0.48600003 4284378211
0.01753512 0.051756792 0.48600003 4289710259
0.019074319 0.051650293 0.48500001 4283459926
0.020607024 0.051543798 0.48400003 4288723368
0.022179058 0.051543798 0.48400003 4280760878
0.023702018 0.051437303 0.48300001 4281284655
0.025218481 0.051330809 0.48200002 4280758563
0.02678402 0.051330809 0.48200002 4279966989
0.028290741 0.051224314 0.48100004 4279966217
0.029790964 0.051117815 0.48000002 4280161800
0.031284694 0.051011324 0.47900003 4282327574
0.032771926 0.050904825 0.47800002 4284883478
0.034324467 0.050904825 0.47800002 4285474072
0.035801958 0.05079833 0.47700003 4285736731
0.037351254 0.05079833 0.47700003 4285209363
0.03890055 0.05079833 0.47700003 4285078547
0.040365048 0.050691836 0.47600001 4284422157
-0.0078325542 0.054104067 0.49300003 4286223493
-0.0062312898 0.054104067 0.49300003 4286748293
-0.004630025 0.054104067 0.49300003 4284561195
-0.003022616 0.05399432 0.49200001 4284033567
-0.0014245992 0.05399432 0.49200001 4283441690
0.00017341759 0.05399432 0.49200001 4282717969
0.0017714344 0.05399432 0.49200001 4281865488
0.003369451 0.05399432 0.49200001 4287859329
0.0049573714 0.053884577 0.49100003 4286090878
0.0065521407 0.053884577 0.49100003 4286814601
0.0081303166 0.05377483 0.49000001 4286876799
0.009701997 0.053665087 0.48900002 4280296731
0.011267182 0.053555343 0.48800004 4280363807
0.012852207 0.053555343 0.48800004 4280034842
0.014407647 0.053445596 0.48700002 4282075195
0.015956592 0.053335853 0.48600003 4281153321
0.017499039 0.05322611 0.48500001 4282139185
0.019074319 0.05322611 0.48500001 4283259465
0.020607024 0.053116366 0.48400003 4284511844
0.022133233 0.053006619 0.48300001 4287932567
0.023702018 0.053006619 0.48300001 4278851086
0.025218481 0.052896876 0.48200002 4281876792
0.026728451 0.052787133 0.48100004 4279244041
0.028290741 0.052787133 0.48100004 4279638027
0.029790964 0.052677386 0.48000002 4279899143
0.031284694 0.052567642 0.47900003 4280489481
0.032771926 0.052457895 0.47800002 4284621589
0.034252662 0.052348152 0.47700003 4284882962
0.035801958 0.052348152 0.47700003 4284882705
0.037272949 0.052238405 0.47600001 4284685326
0.038818996 0.052238405 0.47600001 4283962378
0.040280249 0.052128665 0.47500002 4283765769
-0.012687612 0.055931862 0.49500003 4286486665
-0.011057468 0.055818867 0.49400002 4286552458
-0.0094529549 0.055818867 0.49400002 4286355079
-0.0078325542 0.055705871 0.49300003 4286485121
-0.0062312898 0.055705871 0.49300003 4285161554
-0.004630025 0.055705871 0.49300003 4285147937
-0.003022616 0.055592876 0.49200001 4285674281
-0.0014245992 0.055592876 0.49200001 4284360736
0.00017341759 0.055592876 0.49200001 4282585867
0.0017714344 0.055592876 0.49200001 4282062605
0.0033626028 0.055479884 0.49100003 4283116325
0.0049573714 0.055479884 0.49100003 4285025607
0.0065387962 0.055366889 0.49000001 4283575081
0.0081303166 0.055366889 0.49000001 4284101423
0.009701997 0.055253897 0.48900002 4280224776
0.011267182 0.055140905 0.48800004 4282469699
0.01282587 0.05502791 0.48700002 4282535746
0.014378063 0.054914918 0.48600003 4280101137
0.015956592 0.054914918 0.48600003 4285493068
0.017499039 0.054801922 0.48500001 4283189030
0.019034991 0.054688931 0.48400003 4280888343
0.020607024 0.054688931 0.48400003 4283588945
0.022133233 0.054575935 0.48300001 4280759846
0.023702018 0.054575935 0.48300001 4279640600
0.025218481 0.054462943 0.48200002 4281614903
0.026728451 0.054349951 0.48100004 4279113227
0.028231923 0.054236956 0.48000002 4279571979
0.029728901 0.05412396 0.47900003 4279833350
0.031219378 0.054010965 0.47800002 4280094725
0.032703366 0.053897973 0.47700003 4283308813
0.034252662 0.053897973 0.47700003 4284555796
0.035726897 0.053784978 0.47600001 4284686869
0.037272949 0.053784978 0.47600001 4284029454
0.038737446 0.053671986 0.47500002 4283241737
0.040280249 0.053671986 0.47500002 4282716424
0.041735001 0.053558994 0.47400004 4282258701
-0.012687612 0.057540167 0.49500003 4286486665
-0.011057468 0.057423919 0.49400002 4286618251
-0.0094529549 0.057423919 0.49400002 4286355079
-0.0078325542 0.057307679 0.49300003 4285819486
-0.0062312898 0.057307679 0.49300003 4284953132
-0.0046206331 0.057191435 0.49200001 4287910991
-0.003022616 0.057191435 0.49200001 4287977806
-0.0014245992 0.057191435 0.49200001 4284030487
0.00017341759 0.057191435 0.49200001 4283110928
0.0017678339 0.057075195 0.49100003 4282323979
0.0033626028 0.057075195 0.49100003 4283507485
0.0049573714 0.057075195 0.49100003 4284294173
0.0065387962 0.056958951 0.49000001 4284491038
0.0081137242 0.056842707 0.48900002 4284294943
0.0096821571 0.056726467 0.48800004 4280682499
0.011244093 0.056610223 0.48700002 4281679667
0.01282587 0.056610223 0.48700002 4282535744
0.014378063 0.056493983 0.48600003 4281085975
0.015923759 0.056377735 0.48500001 4282006043
0.017499039 0.056377735 0.48500001 4281807379
0.019034991 0.056261495 0.48400003 4281282066
0.020607024 0.056261495 0.48400003 4282667330
0.022133233 0.056145251 0.48300001 4279376912
0.023702018 0.056145251 0.48300001 4280627495
0.025218481 0.056029011 0.48200002 4280298532
0.026728451 0.055912767 0.48100004 4279244813
0.028231923 0.055796523 0.48000002 4279440650
0.029728901 0.055680282 0.47900003 4279702280
0.031219378 0.055564038 0.47800002 4279832583
0.032703366 0.055447794 0.47700003 4283178256
0.03418085 0.055331551 0.47600001 4283242507
0.035726897 0.055331551 0.47600001 4283243020
0.037194647 0.05521531 0.47500002 4283046411
0.038737446 0.05521531 0.47500002 4282520842
0.040280249 0.05521531 0.47500002 4282455565
-0.01266198 0.059028976 0.49400002 4286552458
-0.011057468 0.059028976 0.49400002 4286486665
-0.009433819 0.058909487 0.49300003 4286946187
-0.0078325542 0.058909487 0.49300003 4284036395
-0.0062186499 0.058789995 0.49200001 4285411625
-0.0046206331 0.058789995 0.49200001 4290016883
-0.003022616 0.058789995 0.49200001 4284621339
-0.0014245992 0.058789995 0.49200001 4284818718
0.00017306513 0.058670502 0.49100003 4283242253
0.0017678339 0.058670502 0.49100003 4282717453
0.0033626028 0.058670502 0.49100003 4283834905
0.0049472749 0.05855101 0.49000001 4284555800
0.0065387962 0.05855101 0.49000001 4284490007
0.0081137242 0.058431517 0.48900002 4284096278
0.0096821571 0.058312029 0.48800004 4281273605
0.011244093 0.058192536 0.48700002 4281876531
0.012799534 0.058073044 0.48600003 4281614640
0.014348478 0.057953551 0.48500001 4281087515
0.015923759 0.057953551 0.48500001 4281677337
0.017462958 0.057834059 0.48400003 4281413654
0.019034991 0.057834059 0.48400003 4280624651
0.020564448 0.057714567 0.48300001 4281745456
0.022133233 0.057714567 0.48300001 4280100633
0.023652947 0.057595074 0.48200002 4279837463
0.025218481 0.057595074 0.48200002 4281745206
0.026728451 0.057475585 0.48100004 4280428315
0.028231923 0.057356093 0.48000002 4279506443
0.029728901 0.057236601 0.47900003 4279637000
0.031219378 0.057117108 0.47800002 4280095755
0.032703366 0.056997616 0.47700003 4283244565
0.03418085 0.056878123 0.47600001 4283111950
0.035726897 0.056878123 0.47600001 4282718221
0.037194647 0.056758635 0.47500002 4282455819
0.038737446 0.056758635 0.47500002 4282258953
0.040280249 0.056758635 0.47500002 4282523154
-0.01266198 0.060634032 0.49400002 4286552458
-0.011035085 0.060511295 0.49300003 4286420359
-0.009433819 0.060511295 0.49300003 4287340432
-0.0078166658 0.06038855 0.49200001 4283968806
-0.0062186499 0.06038855 0.49200001 4285740590
-0.0046206331 0.06038855 0.49200001 4285081377
-0.0030164726 0.060265813 0.49100003 4285278240
-0.0014217037 0.060265813 0.49100003 4284096019
0.00017306513 0.060265813 0.49100003 4283570448
0.0017678339 0.060265813 0.49100003 4283242768
0.0033557541 0.060143068 0.49000001 4283505938
0.0049472749 0.060143068 0.49000001 4284292374
0.0065254518 0.060020328 0.48900002 4284292374
0.0081137242 0.060020328 0.48900002 4284031001
0.0096821571 0.05989759 0.48800004 4281733640
0.011244093 0.059774846 0.48700002 4279769617
0.012799534 0.059652109 0.48600003 4280363807
0.014348478 0.059529364 0.48500001 4281812525
0.015923759 0.059529364 0.48500001 4281086747
0.017462958 0.059406627 0.48400003 4281479706
0.019034991 0.059406627 0.48400003 4281678884
0.020564448 0.059283882 0.48300001 4282667328
0.022133233 0.059283882 0.48300001 4280495391
0.023652947 0.059161142 0.48200002 4279047180
0.025218481 0.059161142 0.48200002 4280823845
0.026728451 0.059038404 0.48100004 4279243273
0.028231923 0.05891566 0.48000002 4279638029
0.029728901 0.058792923 0.47900003 4279702793
0.031219378 0.058670178 0.47800002 4281016597
0.032703366 0.058547437 0.47700003 4283967774
0.03418085 0.058424696 0.47600001 4282915086
0.035726897 0.058424696 0.47600001 4282195988
0.037194647 0.058301955 0.47500002 4281670414
0.038737446 0.058301955 0.47500002 4281800717
0.040280249 0.058301955 0.47500002 4282063119
-0.011035085 0.062113106 0.49300003 4286618251
-0.0094146831 0.061987113 0.49200001 4287209105
-0.0078166658 0.061987113 0.49200001 4283445803
-0.0062186499 0.061987113 0.49200001 4284691243
-0.0046112416 0.061861124 0.49100003 4284359966
-0.0030164726 0.061861124 0.49100003 4284031001
-0.0014217037 0.061861124 0.49100003 4283965206
0.00017306513 0.061861124 0.49100003 4283833620
0.0017678339 0.061861124 0.49100003 4283571218
0.0033557541 0.061735131 0.49000001 4283439632
0.0049472749 0.061735131 0.49000001 4283965208
0.0065254518 0.061609145 0.48900002 4284359966
0.0080971317 0.061483156 0.48800004 4283902243
0.0096623162 0.061357163 0.48700002 4282919461
0.011221006 0.061231174 0.48600003 4279440143
0.012799534 0.061231174 0.48600003 4279506710
0.014348478 0.061105181 0.48500001 4280232221
0.015890928 0.060979195 0.48400003 4281877296
0.017462958 0.060979195 0.48400003 4282074675
0.019034991 0.060979195 0.48400003 4281679917
0.020564448 0.060853202 0.48300001 4281679663
0.022133233 0.060853202 0.48300001 4280561186
0.023652947 0.060727213 0.48200002 4282272574
0.025218481 0.060727213 0.48200002 4281088298
0.026728451 0.060601223 0.48100004 4279769358
0.028231923 0.060475234 0.48000002 4280097040
0.029728901 0.060349245 0.47900003 4280162061
0.031219378 0.060223252 0.47800002 4281410070
0.032703366 0.060097262 0.47700003 4283506708
0.03418085 0.059971273 0.47600001 4282390026
0.035726897 0.059971273 0.47600001 4281147665
0.037194647 0.059845284 0.47500002 4280490505
0.038737446 0.059845284 0.47500002 4280883210
0.040280249 0.059845284 0.47500002 4281473035
-0.0110127 0.063585669 0.49200001 4286420359
-0.0094146831 0.063585669 0.49200001 4286354566
-0.0078166658 0.063585669 0.49200001 4285097821
-0.0062060105 0.063456431 0.49100003 4283445292
-0.0046112416 0.063456431 0.49100003 4284034599
-0.0030164726 0.063456431 0.49100003 4283639071
-0.0014217037 0.063456431 0.49100003 4283901468
0.00017306513 0.063456431 0.49100003 4284359964
0.0017642335 0.063327186 0.49000001 4284030485
0.0033557541 0.063327186 0.49000001 4283702034
0.0049472749 0.063327186 0.49000001 4286935401
0.0065254518 0.063197948 0.48900002 4287204226
0.0080971317 0.06306871 0.48800004 4287008900
0.0096623162 0.062939472 0.48700002 4287404428
0.011221006 0.062810235 0.48600003 4283522389
0.012773197 0.06268099 0.48500001 4279573277
0.014348478 0.06268099 0.48500001 4279375126
0.015890928 0.062551752 0.48400003 4279046159
0.017462958 0.062551752 0.48400003 4279704340
0.018995663 0.062422514 0.48300001 4279177996
0.020564448 0.062422514 0.48300001 4278323457
0.022133233 0.062422514 0.48300001 4279574039
0.023652947 0.062293276 0.48200002 4281022253
0.025166161 0.062164038 0.48100004 4279244041
0.026728451 0.062164038 0.48100004 4281078540
0.028231923 0.062034797 0.48000002 4281867541
0.029728901 0.061905559 0.47900003 4280949519
0.031219378 0.061776318 0.47800002 4282132248
0.032703366 0.06164708 0.47700003 4283177745
0.03418085 0.061517838 0.47600001 4282128396
0.035726897 0.061517838 0.47600001 4280359946
0.037194647 0.061388604 0.47500002 4280952083
0.038737446 0.061388604 0.47500002 4281277455
0.040280249 0.061388604 0.47500002 4281867025
-0.0094146831 0.065184228 0.49200001 4286420359
-0.0078007788 0.065051742 0.49100003 4286551175
-0.0062060105 0.065051742 0.49100003 4283850836
-0.0046112416 0.065051742 0.49100003 4282787621
-0.0030164726 0.065051742 0.49100003 4283378729
-0.0014217037 0.065051742 0.49100003 4283508768
0.00017306513 0.065051742 0.49100003 4284296226
0.0017642335 0.064919248 0.49000001 4284358937
0.0033557541 0.064919248 0.49000001 4284292374
0.0049371785 0.064786762 0.48900002 4286671713
0.0065254518 0.064786762 0.48900002 4286483324
0.0080971317 0.064654276 0.48800004 4286419330
0.0096623162 0.06452179 0.48700002 4286353537
0.011221006 0.064389303 0.48600003 4286287490
0.012773197 0.06425681 0.48500001 4282405705
0.014348478 0.06425681 0.48500001 4279441691
0.015890928 0.064124323 0.48400003 4279704091
0.017462958 0.064124323 0.48400003 4281021485
0.018995663 0.063991837 0.48300001 4279047695
0.020564448 0.063991837 0.48300001 4283127629
0.022133233 0.063991837 0.48300001 4279968797
0.023652947 0.063859344 0.48200002 4279636750
0.025166161 0.063726857 0.48100004 4282130461
0.026672881 0.063594371 0.48000002 4287320903
0.028173108 0.063461885 0.47900003 4284756257
0.029666835 0.063329391 0.47800002 4282918164
0.031154066 0.063196905 0.47700003 4283509018
0.032703366 0.063196905 0.47700003 4282586121
0.03418085 0.063064419 0.47600001 4281800715
0.035726897 0.063064419 0.47600001 4281018644
0.037194647 0.062931933 0.47500002 4280952851
0.038737446 0.062931933 0.47500002 4282326289
0.040280249 0.062931933 0.47500002 4282261266
-0.0078007788 0.066647045 0.49100003 4286354566
-0.0062060105 0.066647045 0.49100003 4286354566
-0.0046206331 0.06678278 0.49200001 4287337865
-0.0030164726 0.066647045 0.49100003 4283713858
-0.0014217037 0.066647045 0.49100003 4282920231
0.00017306513 0.066647045 0.49100003 4285286976
0.0017642335 0.066511311 0.49000001 4284490523
0.0033557541 0.066511311 0.49000001 4284555546
0.0049371785 0.066375569 0.48900002 4283506456
0.0065121073 0.066239834 0.48800004 4288450434
0.0080805393 0.066104099 0.48700002 4286287742
0.0096623162 0.066104099 0.48700002 4286353535
0.011221006 0.065968364 0.48600003 4286156158
0.012773197 0.065832622 0.48500001 4286025085
0.014318894 0.065696888 0.48400003 4286419076
0.015890928 0.065696888 0.48400003 4280562217
0.017462958 0.065696888 0.48400003 4279179800
0.018995663 0.065561146 0.48300001 4279311386
0.020564448 0.065561146 0.48300001 4279046929
0.022087408 0.065425411 0.48200002 4280163096
0.023652947 0.065425411 0.48200002 4283310878
0.025166161 0.065289676 0.48100004 4284623136
0.026672881 0.065153934 0.48000002 4285079830
0.028173108 0.065018199 0.47900003 4285606428
0.029666835 0.064882457 0.47800002 4285280543
0.031154066 0.064746723 0.47700003 4284557079
0.032634802 0.064610988 0.47600001 4282653963
0.03418085 0.064610988 0.47600001 4281804049
0.035726897 0.064610988 0.47600001 4281149458
0.037194647 0.064475246 0.47500002 4281280531
0.038737446 0.064475246 0.47500002 4282457361
0.040280249 0.064475246 0.47500002 4282459158
-0.0062060105 0.068242356 0.49100003 4286354566
-0.0046206331 0.068381347 0.49200001 4286354566
-0.003022616 0.068381347 0.49200001 4286484353
-0.0014245992 0.068381347 0.49200001 4282724135
0.00017306513 0.068242356 0.49100003 4283511596
0.0017642335 0.068103373 0.49000001 4284689183
0.0033557541 0.068103373 0.49000001 4284884252
0.0049371785 0.067964382 0.48900002 4284621080
0.0065121073 0.067825399 0.48800004 4283834392
0.0080805393 0.067686416 0.48700002 4287010433
0.0096424762 0.067547426 0.48600003 4286222460
0.011197916 0.067408442 0.48500001 4286222462
0.012773197 0.067408442 0.48500001 4286090878
0.014318894 0.067269452 0.48400003 4286025083
0.015890928 0.067269452 0.48400003 4286025083
0.017426878 0.067130469 0.48300001 4286288255
0.018995663 0.067130469 0.48300001 4286419843
0.020521872 0.066991478 0.48200002 4286945422
0.022087408 0.066991478 0.48200002 4281347622
0.023603875 0.066852495 0.48100004 4284557861
0.025166161 0.066852495 0.48100004 4284621339
0.026672881 0.066713504 0.48000002 4285342486
0.028173108 0.066574521 0.47900003 4285736731
0.029666835 0.066435531 0.47800002 4285343256
0.031154066 0.066296548 0.47700003 4284227085
0.032634802 0.066157557 0.47600001 4282131728
0.03418085 0.066157557 0.47600001 4281280271
0.035651844 0.066018574 0.47500002 4281083919
0.037194647 0.066018574 0.47500002 4281869328
0.038737446 0.066018574 0.47500002 4282523408
0.040280249 0.066018574 0.47500002 4282460695
-0.004630025 0.070122145 0.49300003 4286551945
-0.0030287597 0.070122145 0.49300003 4286222980
-0.0014245992 0.069979906 0.49200001 4286152308
0.00017306513 0.069837674 0.49100003 4282132260
0.0017642335 0.069695435 0.49000001 4284429609
0.0033557541 0.069695435 0.49000001 4284820255
0.0049371785 0.069553204 0.48900002 4285212445
0.0065121073 0.069410965 0.48800004 4285146652
0.0080805393 0.069268726 0.48700002 4284693810
0.0096424762 0.069126494 0.48600003 4287795838
0.011197916 0.068984255 0.48500001 4286090874
0.01274686 0.068842024 0.48400003 4286025083
0.014318894 0.068842024 0.48400003 4286090876
0.015858093 0.068699785 0.48300001 4286090876
0.017426878 0.068699785 0.48300001 4286288255
0.018956335 0.068557553 0.48200002 4286090876
0.020521872 0.068557553 0.48200002 4286222464
0.022087408 0.068557553 0.48200002 4286944902
0.023603875 0.068415321 0.48100004 4282850325
0.02511384 0.068273082 0.48000002 4284819488
0.026617315 0.068130843 0.47900003 4285670938
0.028173108 0.068130843 0.47900003 4285605145
0.029666835 0.067988604 0.47800002 4285014037
0.031154066 0.067846373 0.47700003 4283504395
0.032634802 0.067704134 0.47600001 4281869840
0.03418085 0.067704134 0.47600001 4281346064
0.035651844 0.067561902 0.47500002 4281804562
0.037194647 0.067561902 0.47500002 4282588688
0.038737446 0.067561902 0.47500002 4282260750
0.040280249 0.067561902 0.47500002 4281606416
-0.0062692082 0.0721604 0.49600002 4286551945
-0.004639416 0.071869433 0.49400002 4286551945
-0.0030349032 0.071869433 0.49400002 4286420359
-0.0014274948 0.071723945 0.49300003 4286550662
0.00017341759 0.071578458 0.49200001 4283915346
0.0017642335 0.07128749 0.49000001 4283903526
0.0033489058 0.07114201 0.48900002 4284165667
0.004927082 0.070996523 0.48800004 4285213728
0.0064987629 0.070851035 0.48700002 4285409824
0.0080639469 0.070705555 0.48600003 4285606433
0.0096226353 0.070560068 0.48500001 4284951074
0.011174828 0.070414588 0.48400003 4287927170
0.01274686 0.070414588 0.48400003 4286418296
0.014289309 0.0702691 0.48300001 4285958777
0.015858093 0.0702691 0.48300001 4286090363
0.017390797 0.070123613 0.48200002 4286287744
0.018956335 0.070123613 0.48200002 4286287744
0.020521872 0.070123613 0.48200002 4286025085
0.022041585 0.069978133 0.48100004 4286090363
0.023603875 0.069978133 0.48100004 4287132514
0.02511384 0.069832645 0.48000002 4285083427
0.026617315 0.069687165 0.47900003 4285669914
0.028114289 0.069541678 0.47800002 4285472789
0.029666835 0.069541678 0.47800002 4285672994
0.031154066 0.06939619 0.47700003 4284752664
0.032634802 0.069250703 0.47600001 4283638548
0.03418085 0.069250703 0.47600001 4282851342
0.035726897 0.069250703 0.47600001 4282720272
0.037194647 0.069105223 0.47500002 4283046670
0.038737446 0.069105223 0.47500002 4282523668
0.040280249 0.069105223 0.47500002 4281344527
-0.0095294965 0.074069425 0.49800003 4286617738
-0.0079119913 0.074069425 0.49800003 4286617738
-0.0062818476 0.07392069 0.49700001 4286551945
-0.0046581994 0.073771961 0.49600002 4286420359
-0.0030410469 0.073623225 0.49500003 4286420359
-0.0014303903 0.073474489 0.49400002 4286354566
0.00017341759 0.073177025 0.49200001 4287143312
0.0017642335 0.072879553 0.49000001 4283512881
0.0033489058 0.072730824 0.48900002 4284101675
0.004927082 0.072582088 0.48800004 4285678390
0.0064987629 0.072433352 0.48700002 4285411107
0.0080639469 0.072284624 0.48600003 4285409054
0.0096226353 0.072135888 0.48500001 4285606176
0.011174828 0.071987152 0.48400003 4285015068
0.012720523 0.071838416 0.48300001 4285545010
0.014289309 0.071838416 0.48300001 4286871656
0.015825262 0.071689688 0.48200002 4287598205
0.017390797 0.071689688 0.48200002 4287204222
0.018956335 0.071689688 0.48200002 4287270015
0.020479295 0.071540952 0.48100004 4287599234
0.022041585 0.071540952 0.48100004 4286610281
0.023554802 0.071392216 0.48000002 4286401852
0.02511384 0.071392216 0.48000002 4285540638
0.026617315 0.071243487 0.47900003 4285932570
0.028114289 0.071094751 0.47800002 4285341203
0.02960477 0.070946015 0.47700003 4290740340
0.031154066 0.070946015 0.47700003 4285079062
0.032634802 0.070797279 0.47600001 4284619538
0.03418085 0.070797279 0.47600001 4284030224
0.035726897 0.070797279 0.47600001 4283177743
0.037272949 0.070797279 0.47600001 4283046157
0.038737446 0.070648551 0.47500002 4282789147
-0.0079278788 0.075839452 0.49900001 4286617738
-0.006294487 0.075687476 0.49800003 4286420359
-0.0046675908 0.075535491 0.49700001 4286420359
-0.0030471904 0.075383507 0.49600002 4286288773
-0.0014332859 0.07523153 0.49500003 4286420359
0.00017377008 0.074927561 0.49300003 4286354566
0.0017642335 0.074471608 0.49000001 4287665293
0.0033489058 0.074319631 0.48900002 4283183916
0.004927082 0.074167646 0.48800004 4285349427
0.0064987629 0.074015662 0.48700002 4284820515
0.0080639469 0.073863678 0.48600003 4288961869
0.0096226353 0.073711693 0.48500001 4286067234
0.011174828 0.073559716 0.48400003 4284753177
0.012720523 0.073407732 0.48300001 4288570968
0.014289309 0.073407732 0.48300001 4285410855
0.015825262 0.073255748 0.48200002 4286002479
0.017390797 0.073255748 0.48200002 4285609258
0.018956335 0.073255748 0.48200002 4285872943
0.020479295 0.073103771 0.48100004 4286201654
0.022041585 0.073103771 0.48100004 4285871660
0.023554802 0.072951779 0.48000002 4285671967
0.02506152 0.072799802 0.47900003 4285802270
0.026617315 0.072799802 0.47900003 4285801754
0.028114289 0.072647817 0.47800002 4285669144
0.02960477 0.072495833 0.47700003 4286460202
0.031154066 0.072495833 0.47700003 4285275928
0.032634802 0.072343849 0.47600001 4284158987
0.03418085 0.072343849 0.47600001 4283766284
0.035726897 0.072343849 0.47600001 4282980364
0.037272949 0.072343849 0.47600001 4282718221
-0.0063071265 0.077460758 0.49900001 4286420361
-0.0046863738 0.077460758 0.49900001 4286354568
-0.0030594773 0.077305533 0.49800003 4286551947
-0.0014390768 0.0771503 0.49700001 4286551947
0.00017377008 0.076529369 0.49300003 4286420359
0.0017642335 0.07606367 0.49000001 4286748554
0.0033420573 0.075753212 0.48800004 4285033055
0.0049169855 0.075597979 0.48700002 4286598209
0.0064854184 0.075442746 0.48600003 4285542695
0.0080473544 0.075287513 0.48500001 4286132772
0.0096027954 0.075132281 0.48400003 4285802522
0.011174828 0.075132281 0.48400003 4285869346
0.012720523 0.074977048 0.48300001 4285607973
0.014289309 0.074977048 0.48300001 4285869348
0.015825262 0.074821822 0.48200002 4286066727
0.017390797 0.074821822 0.48200002 4286395692
0.018956335 0.074821822 0.48200002 4286001193
0.020479295 0.074666589 0.48100004 4285804584
0.022041585 0.074666589 0.48100004 4285278756
0.023554802 0.074511357 0.48000002 4283573016
0.02506152 0.074356124 0.47900003 4284359452
0.026617315 0.074356124 0.47900003 4285276441
0.028114289 0.074200891 0.47800002 4285210133
0.02960477 0.074045658 0.47700003 4284881681
0.031154066 0.074045658 0.47700003 4284553486
0.032634802 0.073890425 0.47600001 4283634444
0.03418085 0.073890425 0.47600001 4283044106
0.035726897 0.073890425 0.47600001 4282587405
0.037272949 0.073890425 0.47600001 4282391568
0.038818996 0.073890425 0.47600001 4281739296
-0.0030656208 0.079082057 0.49900001 4286617740
-0.0014419724 0.078923583 0.49800003 4286551947
0.00017553245 0.078923583 0.49800003 4286222982
0.0017642335 0.077655733 0.49000001 4286420359
0.0033352089 0.077180289 0.48700002 4286748295
0.0049068891 0.077021807 0.48600003 4284758320
0.0064854184 0.077021807 0.48600003 4286859838
0.0080473544 0.076863326 0.48500001 4285803555
0.0096027954 0.076704845 0.48400003 4285473818
0.011174828 0.076704845 0.48400003 4285079830
0.012720523 0.076546364 0.48300001 4284685331
0.014289309 0.076546364 0.48300001 4283176208
0.015858093 0.076546364 0.48300001 4284037681
0.017390797 0.076387882 0.48200002 4283514165
0.018956335 0.076387882 0.48200002 4284764745
0.020479295 0.076229401 0.48100004 4286808437
0.022041585 0.076229401 0.48100004 4287337861
0.023554802 0.07607092 0.48000002 4286614910
0.02506152 0.075912438 0.47900003 4284832851
0.026617315 0.075912438 0.47900003 4284358167
0.028114289 0.075753957 0.47800002 4284423701
0.02960477 0.075595476 0.47700003 4284226322
0.031154066 0.075595476 0.47700003 4283503882
0.032703366 0.075595476 0.47700003 4282913803
0.03418085 0.075436994 0.47600001 4282454283
0.035726897 0.075436994 0.47600001 4282325779
0.037272949 0.075436994 0.47600001 4282327322
0.0033283604 0.078600876 0.48600003 4286815117
0.0049068891 0.078600876 0.48600003 4284827710
0.006472074 0.078439139 0.48500001 4284821033
0.0080473544 0.078439139 0.48500001 4285936686
0.0096027954 0.078277417 0.48400003 4284488470
0.011174828 0.078277417 0.48400003 4284357654
0.012720523 0.078115679 0.48300001 4283898386
0.014289309 0.078115679 0.48300001 4282589983
0.015858093 0.078115679 0.48300001 4287203967
0.017426878 0.078115679 0.48300001 4286221179
0.018956335 0.07795395 0.48200002 4286089591
0.020521872 0.07795395 0.48200002 4285958775
0.022041585 0.077792227 0.48100004 4285959290
0.023554802 0.07763049 0.48000002 4286944900
0.02506152 0.07746876 0.47900003 4287006070
0.026617315 0.07746876 0.47900003 4283574561
0.028114289 0.077307031 0.47800002 4283638555
0.029666835 0.077307031 0.47800002 4283505940
0.031154066 0.077145301 0.47700003 4283046159
0.032703366 0.077145301 0.47700003 4282586381
0.034252662 0.077145301 0.47700003 4282587666
0.035726897 0.076983571 0.47600001 4282195477
0.037272949 0.076983571 0.47600001 4282592031
0.0033283604 0.080179937 0.48600003 4286354566
0.0048967926 0.080014952 0.48500001 4284768343
0.006472074 0.080014952 0.48500001 4283904557
0.008030762 0.079849973 0.48400003 4284558628
0.0096027954 0.079849973 0.48400003 4283834905
0.011174828 0.079849973 0.48400003 4283768599
0.012720523 0.079684995 0.48300001 4283177491
0.014289309 0.079684995 0.48300001 4282589729
0.015858093 0.079684995 0.48300001 4281473046
0.017426878 0.079684995 0.48300001 4281936164
0.018995663 0.079684995 0.48300001 4282265127
0.020521872 0.079520017 0.48200002 4282001957
0.022041585 0.079355039 0.48100004 4281541408
0.023603875 0.079355039 0.48100004 4281604117
0.02511384 0.07919006 0.48000002 4282129178
0.026617315 0.079025082 0.47900003 4282786844
0.028114289 0.078860097 0.47800002 4283839530
0.029666835 0.078860097 0.47800002 4282983194
0.031154066 0.078695118 0.47700003 4282521873
0.032703366 0.078695118 0.47700003 4282456850
0.034252662 0.078695118 0.47700003 4282523670
0.035801958 0.078695118 0.47700003 4282263836
0.0033215119 0.081590772 0.48500001 4286222980
0.0048967926 0.081590772 0.48500001 4287142029
0.006472074 0.081590772 0.48500001 4282730043
0.008030762 0.081422545 0.48400003 4283970602
0.0096027954 0.081422545 0.48400003 4283575331
0.011174828 0.081422545 0.48400003 4283245598
0.01274686 0.081422545 0.48400003 4283048989
0.014289309 0.081254311 0.48300001 4283116073
0.015858093 0.081254311 0.48300001 4282788391
0.017426878 0.081254311 0.48300001 4282393633
0.018995663 0.081254311 0.48300001 4282723883
0.020521872 0.081086084 0.48200002 4283780426
0.022087408 0.081086084 0.48200002 4285559144
0.023603875 0.080917858 0.48100004 4286941824
0.02511384 0.080749631 0.48000002 4282860861
0.026617315 0.080581404 0.47900003 4282793783
0.028114289 0.08041317 0.47800002 4281938472
0.029666835 0.08041317 0.47800002 4281543201
0.031154066 0.080244943 0.47700003 4281147159
0.032703366 0.080244943 0.47700003 4281145363
0.034252662 0.080244943 0.47700003 4280355847
0.0033215119 0.083166584 0.48500001 4286288773
0.0048866961 0.082995109 0.48400003 4286485382
0.0064587295 0.082995109 0.48400003 4286880140
0.008030762 0.082995109 0.48400003 4285230436
0.0096027954 0.082995109 0.48400003 4282792756
0.011174828 0.082995109 0.48400003 4282988850
0.01274686 0.082995109 0.48400003 4282593322
0.014318894 0.082995109 0.48400003 4282068263
0.015890928 0.082995109 0.48400003 4285491814
0.017426878 0.082823627 0.48300001 4287010183
0.018995663 0.082823627 0.48300001 4286812804
0.020564448 0.082823627 0.48300001 4286419076
0.022087408 0.082652152 0.48200002 4286288003
0.023603875 0.082480676 0.48100004 4286222982
0.0033215119 0.084742397 0.48500001 4286420359
0.0048866961 0.084567674 0.48400003 4286288775
0.0064587295 0.084567674 0.48400003 4286288775
0.008030762 0.084567674 0.48400003 4286354568
0.0096027954 0.084567674 0.48400003 4286485382
0.011174828 0.084567674 0.48400003 4286879111
0.01274686 0.084567674 0.48400003 4286681732
0.014318894 0.084567674 0.48400003 4286419330
0.015890928 0.084567674 0.48400003 4286353537
0.017462958 0.084567674 0.48400003 4286156158
0.018995663 0.084392942 0.48300001 4286419330
0.020564448 0.084392942 0.48300001 4286354050
0.0048866961 0.086140245 0.48400003 4286420361
0.0064587295 0.086140245 0.48400003 4286420361
0.008030762 0.086140245 0.48400003 4286420361
0.0096027954 0.086140245 0.48400003 4286354568
0.011174828 0.086140245 0.48400003 4286222980
0.01274686 0.086140245 0.48400003 4286354820
0.014318894 0.086140245 0.48400003 4286289027
0.015890928 0.086140245 0.48400003 4286288257
0.017964959 0.057761122 0.48411241 4294967295
0.017964959 0.057761122 0.48411241 4294901760
0.017964959 0.057761122 0.48461241 4294901760
0.017964959 0.057761122 0.4851124 4294901760
0.017964959 0.057761122 0.48561242 4294901760
0.017964959 0.057761122 0.48611242 4294901760
0.017964959 0.057761122 0.48661241 4294901760
0.017964959 0.057761122 0.4871124 4294901760
0.017964959 0.057761122 0.4876124 4294901760
0.017964959 0.057761122 0.48811242 4294901760
0.017964959 0.057761122 0.48861241 4294901760
0.017964959 0.057761122 0.48911241 4294901760
0.017964959 0.057761122 0.4896124 4294901760
0.017964959 0.057761122 0.49011242 4294901760
0.017964959 0.057761122 0.49061242 4294901760
0.017964959 0.057761122 0.49111241 4294901760
0.017964959 0.057761122 0.4916124 4294901760
0.017964959 0.057761122 0.4921124 4294901760
0.017964959 0.057761122 0.49261242 4294901760
0.017964959 0.057761122 0.49311242 4294901760
0.017964959 0.057761122 0.49361241 4294901760
0.017964959 0.057761122 0.4941124 4294901760
0.017964959 0.057761122 0.4946124 4294901760
0.017964959 0.057761122 0.49511242 4294901760
0.017964959 0.057761122 0.49561241 4294901760
0.017964959 0.057761122 0.49611241 4294901760
0.017964959 0.057761122 0.4966124 4294901760
0.017964959 0.057761122 0.49711239 4294901760
0.017964959 0.057761122 0.49761242 4294901760
0.017964959 0.057761122 0.49811241 4294901760
0.017964959 0.057761122 0.4986124 4294901760
0.017964959 0.057761122 0.4991124 4294901760
0.017964959 0.057761122 0.49961239 4294901760
0.017964959 0.057761122 0.50011241 4294901760
0.017964959 0.057761122 0.50061238 4294901760
0.017964959 0.057761122 0.5011124 4294901760
0.017964959 0.057761122 0.50161242 4294901760
0.017964959 0.057761122 0.50211239 4294901760
0.017964959 0.057761122 0.50261241 4294901760
0.017964959 0.057761122 0.50311244 4294901760
0.017964959 0.057761122 0.5036124 4294901760
0.017964959 0.057761122 0.50411242 4294901760
0.017964959 0.057761122 0.50461239 4294901760
0.017964959 0.057761122 0.50511241 4294901760
0.017964959 0.057761122 0.50561243 4294901760
0.017964959 0.057761122 0.5061124 4294901760
0.017964959 0.057761122 0.50661242 4294901760
0.017964959 0.057761122 0.50711238 4294901760
0.017964959 0.057761122 0.50761241 4294901760
0.017964959 0.057761122 0.50811243 4294901760
0.017964959 0.057761122 0.50861239 4294901760
0.017964959 0.057761122 0.50911242 4294901760
0.017964959 0.057761122 0.50961238 4294901760
0.017964959 0.057761122 0.5101124 4294901760
0.017964959 0.057761122 0.51061243 4294901760
0.017964959 0.057761122 0.51111239 4294901760
0.017964959 0.057761122 0.51161242 4294901760
0.017964959 0.057761122 0.51211238 4294901760
0.017964959 0.057761122 0.5126124 4294901760
0.017964959 0.057761122 0.51311243 4294901760
0.017964959 0.057761122 0.51361239 4294901760
0.017964959 0.057761122 0.51411241 4294901760
0.017964959 0.057761122 0.51461238 4294901760
0.017964959 0.057761122 0.5151124 4294901760
0.017964959 0.057761122 0.51561242 4294901760
0.017964959 0.057761122 0.51611239 4294901760
0.017964959 0.057761122 0.51661241 4294901760
0.017964959 0.057761122 0.51711237 4294901760
0.017964959 0.057761122 0.5176124 4294901760
0.017964959 0.057761122 0.51811242 4294901760
0.017964959 0.057761122 0.51861238 4294901760
0.017964959 0.057761122 0.51911241 4294901760
0.017964959 0.057761122 0.51961237 4294901760
0.017964959 0.057761122 0.5201124 4294901760
0.017964959 0.057761122 0.52061242 4294901760
0.017964959 0.057761122 0.52111238 4294901760
0.017964959 0.057761122 0.52161241 4294901760
0.017964959 0.057761122 0.52211237 4294901760
0.017964959 0.057761122 0.52261239 4294901760
0.017964959 0.057761122 0.52311242 4294901760
0.017964959 0.057761122 0.52361238 4294901760
0.017964959 0.057761122 0.5241124 4294901760
0.017964959 0.057761122 0.52461243 4294901760
0.017964959 0.057761122 0.52511239 4294901760
0.017964959 0.057761122 0.52561241 4294901760
0.017964959 0.057761122 0.52611238 4294901760
0.017964959 0.057761122 0.5266124 4294901760
0.017964959 0.057761122 0.52711242 4294901760
0.017964959 0.057761122 0.52761239 4294901760
0.017964959 0.057761122 0.52811241 4294901760
0.017964959 0.057761122 0.52861238 4294901760
0.017964959 0.057761122 0.5291124 4294901760
0.017964959 0.057761122 0.52961242 4294901760
0.017964959 0.057761122 0.53011239 4294901760
0.017964959 0.057761122 0.53061241 4294901760
0.017964959 0.057761122 0.53111237 4294901760
0.017964959 0.057761122 0.5316124 4294901760
0.017964959 0.057761122 0.53211242 4294901760
0.017964959 0.057761122 0.53261238 4294901760
0.017964959 0.057761122 0.53311241 4294901760
0.017964959 0.057761122 0.53361237 4294901760
0.017964959 0.057761122 0.53411239 4294901760
0.017964959 0.057761122 0.48411241 4278255360
0.018161885 0.057800494 0.48457029 4278255360
0.01835881 0.057839867 0.48502821 4278255360
0.018555736 0.057879236 0.48548609 4278255360
0.018752661 0.057918608 0.485944 4278255360
0.018949587 0.057957981 0.48640189 4278255360
0.019146511 0.057997353 0.4868598 4278255360
0.019343438 0.058036722 0.48731768 4278255360
0.019540362 0.058076095 0.48777559 4278255360
0.019737288 0.058115467 0.48823348 4278255360
0.019934215 0.05815484 0.48869139 4278255360
0.020131139 0.058194209 0.48914927 4278255360
0.020328065 0.058233581 0.48960719 4278255360
0.02052499 0.058272954 0.49006507 4278255360
0.020721916 0.058312327 0.49052298 4278255360
0.020918842 0.058351699 0.49098086 4278255360
0.021115767 0.058391068 0.49143878 4278255360
0.021312691 0.058430441 0.49189666 4278255360
0.021509618 0.058469813 0.49235457 4278255360
0.021706544 0.058509186 0.49281245 4278255360
0.021903468 0.058548555 0.49327037 4278255360
0.022100395 0.058587927 0.49372825 4278255360
0.022297319 0.0586273 0.49418616 4278255360
