# .PCD v0.7 - Point Cloud Data file format
VERSION 0.7
FIELDS x y z rgb
SIZE 4 4 4 4
TYPE F F F U
COUNT 1 1 1 1
WIDTH 1031
HEIGHT 1
VIEWPOINT 0 0 0 1 0 0 0
POINTS 1031
DATA ascii
0.10147512 -0.021824267 0.39000002 4280504629
0.10274184 -0.021824267 0.39000002 4279915051
0.10400856 -0.021824267 0.39000002 4279455014
0.10500535 -0.021768307 0.38900003 4279323941
0.10626882 -0.021768307 0.38900003 4279258148
0.10725585 -0.021712348 0.38800001 4279192353
0.10851608 -0.021712348 0.38800001 4279193121
0.1097763 -0.021712348 0.38800001 4278930462
0.11160889 -0.021824267 0.39000002 4278864669
0.12066424 -0.022327904 0.39900002 4278864669
0.12226585 -0.022383863 0.40000001 4279062048
0.12418288 -0.022495782 0.40200001 4278996255
0.12548858 -0.022495782 0.40200001 4279258914
0.12710968 -0.022551743 0.40300003 4279652643
0.12841862 -0.022551743 0.40300003 4279388957
0.12972757 -0.022551743 0.40300003 4279981094
0.13136166 -0.022607703 0.40400001 4279981094
0.13267386 -0.022607703 0.40400001 4280636208
0.074628703 -0.019819168 0.37600002 4285697663
0.075648218 -0.019766459 0.37500003 4286092421
0.076866224 -0.019766459 0.37500003 4286026628
0.077875994 -0.019713746 0.37400001 4285895042
0.079302229 -0.019766459 0.37500003 4285895042
0.080734938 -0.019819168 0.37600002 4285960835
0.081956193 -0.019819168 0.37600002 4285895042
0.083398655 -0.019871878 0.377 4285895042
0.084847614 -0.01992459 0.37800002 4285697663
0.088919833 -0.020293564 0.38500002 4285763456
0.090170309 -0.020293564 0.38500002 4285961605
0.091658242 -0.020346273 0.38600001 4284580719
0.093152687 -0.020398986 0.38700002 4281883206
0.094653606 -0.020451695 0.38800001 4280700475
0.095913835 -0.020451695 0.38800001 4280307254
0.097424507 -0.020504406 0.38900003 4279520041
0.098687984 -0.020504406 0.38900003 4279717932
0.10020839 -0.020557117 0.39000002 4279389734
0.10147512 -0.020557117 0.39000002 4278995744
0.10300529 -0.020609828 0.39100003 4279061537
0.10427526 -0.020609828 0.39100003 4279061537
0.10527529 -0.020557117 0.39000002 4279127330
0.106542 -0.020557117 0.39000002 4279062048
0.10780872 -0.020557117 0.39000002 4278930462
0.10907544 -0.020557117 0.39000002 4279062048
0.11034217 -0.020557117 0.39000002 4278864923
0.11218124 -0.020662537 0.39200002 4278996507
0.11432273 -0.020820668 0.39500001 4278995994
0.11589836 -0.020873381 0.39600003 4279193373
0.11748049 -0.02092609 0.39700001 4279522340
0.11906912 -0.020978801 0.39800003 4279193121
0.12066424 -0.021031512 0.39900002 4279389219
0.12196019 -0.021031512 0.39900002 4279586598
0.12387397 -0.021136932 0.40100002 4279913766
0.12517643 -0.021136932 0.40100002 4278399759
0.12679426 -0.021189643 0.40200001 4279716900
0.12809996 -0.021189643 0.40200001 4279980072
0.12972757 -0.021242354 0.40300003 4279980070
0.13103652 -0.021242354 0.40300003 4280242729
0.13267386 -0.021295063 0.40400001 4281290806
0.058908723 -0.018646967 0.377 4285567362
0.060292721 -0.018696429 0.37800002 4285566849
0.061520468 -0.018696429 0.37800002 4285566849
0.062914215 -0.01874589 0.37900001 4285566849
0.0641452 -0.01874589 0.37900001 4285566849
0.065548696 -0.018795352 0.38000003 4285632642
0.066782936 -0.018795352 0.38000003 4285435263
0.068017177 -0.018795352 0.38000003 4285566849
0.070485659 -0.018795352 0.38000003 4285435263
0.0717199 -0.018795352 0.38000003 4285435261
0.072762154 -0.01874589 0.37900001 4285632894
0.073797919 -0.018696429 0.37800002 4285895296
0.074827179 -0.018646967 0.377 4285960835
0.075849943 -0.018597506 0.37600002 4285895042
0.076866224 -0.018548045 0.37500003 4285960835
0.078084223 -0.018548045 0.37500003 4285763458
0.079513699 -0.018597506 0.37600002 4285895044
0.080734938 -0.018597506 0.37600002 4285697663
0.08217416 -0.018646967 0.377 4285697917
0.083619878 -0.018696429 0.37800002 4286158468
0.085072078 -0.01874589 0.37900001 4285699970
0.086986214 -0.018894276 0.38200003 4282870869
0.088688865 -0.018993197 0.384 4279781160
0.090170309 -0.01904266 0.38500002 4280175918
0.091658242 -0.01909212 0.38600001 4280307504
0.092911974 -0.01909212 0.38600001 4279848236
0.09440966 -0.019141583 0.38700002 4279389482
0.095913835 -0.019191043 0.38800001 4279127078
0.097174056 -0.019191043 0.38800001 4278995744
0.098687984 -0.019240506 0.38900003 4279127330
0.10020839 -0.019289967 0.39000002 4278997027
0.10147512 -0.019289967 0.39000002 4279194406
0.10300529 -0.019339429 0.39100003 4279062820
0.10427526 -0.019339429 0.39100003 4278997027
0.10554523 -0.019339429 0.39100003 4278799648
0.10681519 -0.019339429 0.39100003 4278536476
0.10808516 -0.019339429 0.39100003 4278930462
0.1096348 -0.01938889 0.39200002 4279127328
0.11090802 -0.01938889 0.39200002 4279653156
0.11246742 -0.019438351 0.39300001 4279521568
0.11461216 -0.019586736 0.39600003 4279652641
0.11619103 -0.019636197 0.39700001 4279389471
0.11748049 -0.019636197 0.39700001 4279718184
0.11906912 -0.01968566 0.39800003 4279059740
0.12066424 -0.01973512 0.39900002 4278201612
0.12196019 -0.01973512 0.39900002 4279978024
0.12356506 -0.019784581 0.40000001 4280700463
0.12517643 -0.019834043 0.40100002 4279647775
0.12647887 -0.019834043 0.40100002 4279913768
0.12809996 -0.019883504 0.40200001 4279979559
0.12940566 -0.019883504 0.40200001 4280242731
0.13103652 -0.019932967 0.40300003 4280505133
0.058908723 -0.017422056 0.377 4285240192
0.060292721 -0.017468268 0.37800002 4285501569
0.061520468 -0.017468268 0.37800002 4285632642
0.062914215 -0.01751448 0.37900001 4285632642
0.0641452 -0.01751448 0.37900001 4285566849
0.0653762 -0.01751448 0.37900001 4285501056
0.066782936 -0.017560694 0.38000003 4285632642
0.068017177 -0.017560694 0.38000003 4285764228
0.069251418 -0.017560694 0.38000003 4285632642
0.070485659 -0.017560694 0.38000003 4285501056
0.0717199 -0.017560694 0.38000003 4285566849
0.072762154 -0.01751448 0.37900001 4285632640
0.073797919 -0.017468268 0.37800002 4285764226
0.074827179 -0.017422056 0.377 4285697665
0.076051667 -0.017422056 0.377 4285697665
0.077071197 -0.017375844 0.37600002 4285763458
0.078292444 -0.017375844 0.37600002 4285763456
0.079725169 -0.017422056 0.377 4286027398
0.080949657 -0.017422056 0.377 4285172089
0.082392126 -0.017468268 0.37800002 4282147146
0.083841085 -0.01751448 0.37900001 4280437553
0.085296549 -0.017560694 0.38000003 4280045100
0.086986214 -0.017653119 0.38200003 4279980844
0.088688865 -0.017745541 0.384 4279258146
0.0899361 -0.017745541 0.384 4278929951
0.091420792 -0.017791755 0.38500002 4279061537
0.092911974 -0.017837968 0.38600001 4279061537
0.09440966 -0.01788418 0.38700002 4279062822
0.095913835 -0.017930392 0.38800001 4278997029
0.097174056 -0.017930392 0.38800001 4279457578
0.098687984 -0.017976604 0.38900003 4279260197
0.10020839 -0.018022817 0.39000002 4279062818
0.10147512 -0.018022817 0.39000002 4278865439
0.10300529 -0.018069031 0.39100003 4278997025
0.10427526 -0.018069031 0.39100003 4278865439
0.10554523 -0.018069031 0.39100003 4279127328
0.10708836 -0.018115241 0.39200002 4279127328
0.10836159 -0.018115241 0.39200002 4279455010
0.10991448 -0.018161453 0.39300001 4279915561
0.11147388 -0.018207667 0.39400002 4279586336
0.11303977 -0.018253878 0.39500001 4279717150
0.11461216 -0.018300092 0.39600003 4278596621
0.11619103 -0.018346304 0.39700001 4278201353
0.11777641 -0.018392516 0.39800003 4280307243
0.11906912 -0.018392516 0.39800003 4280241450
0.12066424 -0.018438729 0.39900002 4280241450
0.12196019 -0.018438729 0.39900002 4280175657
0.12356506 -0.018484941 0.40000001 4279120918
0.12486426 -0.018484941 0.40000001 4280700463
0.12647887 -0.018531153 0.40100002 4279912996
0.12778132 -0.018531153 0.40100002 4280241961
0.12940566 -0.018577365 0.40200001 4280570415
0.13071136 -0.018577365 0.40200001 4282936914
0.05737821 -0.016111219 0.37500003 4279387685
0.058908723 -0.016197145 0.377 4279518506
0.060292721 -0.016240109 0.37800002 4285173374
0.061520468 -0.016240109 0.37800002 4285698948
0.062748216 -0.016240109 0.37800002 4285632642
0.0641452 -0.016283071 0.37900001 4285566849
0.0653762 -0.016283071 0.37900001 4285435263
0.066782936 -0.016326034 0.38000003 4285106298
0.068017177 -0.016326034 0.38000003 4285501056
0.069251418 -0.016326034 0.38000003 4285764228
0.070485659 -0.016326034 0.38000003 4285501056
0.071531162 -0.016283071 0.37900001 4285763456
0.072762154 -0.016283071 0.37900001 4285697663
0.073797919 -0.016240109 0.37800002 4285697663
0.075025663 -0.016240109 0.37800002 4285764226
0.076051667 -0.016197145 0.377 4285962118
0.07727617 -0.016197145 0.377 4283266402
0.078500666 -0.016197145 0.377 4280569143
0.079936638 -0.016240109 0.37800002 4279912492
0.081164382 -0.016240109 0.37800002 4280110895
0.082610093 -0.016283071 0.37900001 4280045867
0.084062308 -0.016326034 0.38000003 4279520293
0.085521005 -0.016368998 0.38100001 4279126562
0.086986214 -0.016411962 0.38200003 4278929951
0.088457912 -0.016454924 0.38300002 4278995742
0.0899361 -0.016497888 0.384 4279325220
0.091420792 -0.016540851 0.38500002 4278800160
0.092911974 -0.016583813 0.38600001 4279063332
0.09440966 -0.016626777 0.38700002 4279194918
0.095666632 -0.016626777 0.38700002 4278800160
0.097174056 -0.016669741 0.38800001 4278208023
0.098687984 -0.016712705 0.38900003 4278800414
0.10020839 -0.016755667 0.39000002 4279193888
0.10147512 -0.016755667 0.39000002 4279062302
0.10300529 -0.01679863 0.39100003 4279258914
0.10427526 -0.01679863 0.39100003 4279389984
0.10581516 -0.016841594 0.39200002 4279257885
0.10708836 -0.016841594 0.39200002 4279784229
0.10863802 -0.016884556 0.39300001 4279453728
0.11019417 -0.01692752 0.39400002 4278795798
0.11175681 -0.016970484 0.39500001 4279716387
0.11332595 -0.017013447 0.39600003 4280636719
0.11490158 -0.017056409 0.39700001 4279978274
0.1164837 -0.017099373 0.39800003 4279912481
0.11777641 -0.017099373 0.39800003 4280307754
0.11936828 -0.017142337 0.39900002 4279123482
0.12066424 -0.017142337 0.39900002 4280108580
0.12196019 -0.017142337 0.39900002 4280767022
0.12356506 -0.017185299 0.40000001 4280569645
0.12486426 -0.017185299 0.40000001 4280503850
0.12647887 -0.017228262 0.40100002 4280373547
0.12778132 -0.017228262 0.40100002 4280241963
0.12908377 -0.017228262 0.40100002 4282014788
0.057837237 -0.015011949 0.37800002 4279059488
0.060133215 -0.014972233 0.377 4279453224
0.061520468 -0.015011949 0.37800002 4283991149
0.062748216 -0.015011949 0.37800002 4285567362
0.063975953 -0.015011949 0.37800002 4285501569
0.0653762 -0.015051662 0.37900001 4285632642
0.066607192 -0.015051662 0.37900001 4285566849
0.067838185 -0.015051662 0.37900001 4285632642
0.069069177 -0.015051662 0.37900001 4285632642
0.070300169 -0.015051662 0.37900001 4285501054
0.071531162 -0.015051662 0.37900001 4285632640
0.072762154 -0.015051662 0.37900001 4285896579
0.073993146 -0.015051662 0.37900001 4282738515
0.075025663 -0.015011949 0.37800002 4280700725
0.076253399 -0.015011949 0.37800002 4279714854
0.077481151 -0.015011949 0.37800002 4279914545
0.078708895 -0.015011949 0.37800002 4279322922
0.079936638 -0.015011949 0.37800002 4279126310
0.081379101 -0.015051662 0.37900001 4279126308
0.082828067 -0.015091376 0.38000003 4278929181
0.084062308 -0.015091376 0.38000003 4279061537
0.085521005 -0.01513109 0.38100001 4279258916
0.086986214 -0.015170805 0.38200003 4279390502
0.088688865 -0.015250232 0.384 4279258914
0.0899361 -0.015250232 0.384 4279062048
0.091420792 -0.015289947 0.38500002 4278535704
0.092911974 -0.015329661 0.38600001 4278865439
0.09440966 -0.015369375 0.38700002 4279062818
0.095666632 -0.015369375 0.38700002 4279062818
0.097174056 -0.01540909 0.38800001 4279456293
0.098687984 -0.015448804 0.38900003 4279258914
0.10020839 -0.015488517 0.39000002 4279455010
0.10147512 -0.015488517 0.39000002 4279389217
0.10300529 -0.015528233 0.39100003 4279716902
0.10427526 -0.015528233 0.39100003 4279255838
0.10581516 -0.015567946 0.39200002 4278267660
0.10736155 -0.01560766 0.39300001 4279977508
0.10863802 -0.01560766 0.39300001 4280110377
0.11019417 -0.015647374 0.39400002 4279782182
0.11175681 -0.015687088 0.39500001 4279519010
0.11332595 -0.015726803 0.39600003 4279189275
0.11490158 -0.015766516 0.39700001 4279385371
0.1164837 -0.015806232 0.39800003 4279648543
0.11807233 -0.015845945 0.39900002 4279516957
0.11936828 -0.015845945 0.39900002 4279845922
0.12066424 -0.015845945 0.39900002 4280437545
0.12226585 -0.015885659 0.40000001 4278990099
0.12356506 -0.015885659 0.40000001 4281161780
0.12486426 -0.015885659 0.40000001 4280241448
0.12616345 -0.015885659 0.40000001 4280305194
0.12778132 -0.015925374 0.40100002 4285106546
0.057684224 -0.013747321 0.377 4278796570
0.058908723 -0.013747321 0.377 4278533912
0.060133215 -0.013747321 0.377 4278928670
0.062748216 -0.013783786 0.37800002 4281885519
0.063975953 -0.013783786 0.37800002 4285437573
0.065203704 -0.013783786 0.37800002 4285173887
0.066607192 -0.013820251 0.37900001 4285370753
0.067838185 -0.013820251 0.37900001 4285896325
0.069069177 -0.013820251 0.37900001 4285238649
0.070300169 -0.013820251 0.37900001 4282475593
0.071531162 -0.013820251 0.37900001 4281029430
0.072762154 -0.013820251 0.37900001 4279912746
0.073797919 -0.013783786 0.37800002 4279912746
0.075025663 -0.013783786 0.37800002 4279387683
0.076253399 -0.013783786 0.37800002 4279125795
0.077481151 -0.013783786 0.37800002 4278929699
0.078917116 -0.013820251 0.37900001 4278732320
0.080148108 -0.013820251 0.37900001 4278995492
0.081593826 -0.013856716 0.38000003 4279061539
0.082828067 -0.013856716 0.38000003 4279390500
0.084283523 -0.013893181 0.38100001 4279127841
0.085745476 -0.013929646 0.38200003 4279062050
0.087213926 -0.013966111 0.38300002 4278996257
0.088688865 -0.014002576 0.384 4279061537
0.090170309 -0.014039041 0.38500002 4279193121
0.091420792 -0.014039041 0.38500002 4279323937
0.092911974 -0.014075506 0.38600001 4279258144
0.09440966 -0.014111971 0.38700002 4279258144
0.095913835 -0.014148436 0.38800001 4279389730
0.097174056 -0.014148436 0.38800001 4280376112
0.098687984 -0.014184902 0.38900003 4280045352
0.10020839 -0.014221366 0.39000002 4278465552
0.10147512 -0.014221366 0.39000002 4278465039
0.10300529 -0.014257832 0.39100003 4280373036
0.10454194 -0.014294297 0.39200002 4280241450
0.10581516 -0.014294297 0.39200002 4279846692
0.10736155 -0.014330762 0.39300001 4279451934
0.10891445 -0.014367227 0.39400002 4278924568
0.11047384 -0.014403692 0.39500001 4278200331
0.11203974 -0.014440157 0.39600003 4278331917
0.11361212 -0.014476622 0.39700001 4280568877
0.11490158 -0.014476622 0.39700001 4280239653
0.1164837 -0.014513087 0.39800003 4280700463
0.11807233 -0.014549552 0.39900002 4278398224
0.11936828 -0.014549552 0.39900002 4279187226
0.12066424 -0.014549552 0.39900002 4280765745
0.12226585 -0.014586017 0.40000001 4281488696
0.12356506 -0.014586017 0.40000001 4282211908
0.12486426 -0.014586017 0.40000001 4285567101
0.056459725 -0.01252241 0.377 4279447055
0.057684224 -0.01252241 0.377 4278794517
0.058908723 -0.01252241 0.377 4278730007
0.060133215 -0.01252241 0.377 4278665498
0.061357714 -0.01252241 0.377 4278928416
0.06258221 -0.01252241 0.377 4279256869
0.063975953 -0.012555626 0.37800002 4279518506
0.065203704 -0.012555626 0.37800002 4279518506
0.066431448 -0.012555626 0.37800002 4279649324
0.067838185 -0.012588842 0.37900001 4279846186
0.069069177 -0.012588842 0.37900001 4280175405
0.070300169 -0.012588842 0.37900001 4279519010
0.071531162 -0.012588842 0.37900001 4279256351
0.072762154 -0.012588842 0.37900001 4279059742
0.073797919 -0.012555626 0.37800002 4278993947
0.075025663 -0.012555626 0.37800002 4278994461
0.076253399 -0.012555626 0.37800002 4279060767
0.077686124 -0.012588842 0.37900001 4279061537
0.078917116 -0.012588842 0.37900001 4279193123
0.080359586 -0.012622058 0.38000003 4279061537
0.081593826 -0.012622058 0.38000003 4278995744
0.083046034 -0.012655273 0.38100001 4278929949
0.084504746 -0.01268849 0.38200003 4279061535
0.08596994 -0.012721705 0.38300002 4279258144
0.087213926 -0.012721705 0.38300002 4279323937
0.088688865 -0.012754921 0.384 4279521318
0.090170309 -0.012788137 0.38500002 4279192353
0.091658242 -0.012821353 0.38600001 4279323426
0.093152687 -0.01285457 0.38700002 4279980842
0.09440966 -0.01285457 0.38700002 4279321631
0.095913835 -0.012887785 0.38800001 4279058459
0.097424507 -0.012921002 0.38900003 4279320094
0.098687984 -0.012921002 0.38900003 4280832563
0.10020839 -0.012954217 0.39000002 4280043049
0.10147512 -0.012954217 0.39000002 4279780647
0.10300529 -0.012987434 0.39100003 4279912231
0.10454194 -0.01302065 0.39200002 4279516189
0.10581516 -0.01302065 0.39200002 4279780645
0.10736155 -0.013053864 0.39300001 4279715106
0.10891445 -0.013087081 0.39400002 4280372782
0.11047384 -0.013120296 0.39500001 4280635954
0.11203974 -0.013153513 0.39600003 4280043049
0.11361212 -0.013186729 0.39700001 4278858775
0.11490158 -0.013186729 0.39700001 4279581984
0.1164837 -0.013219945 0.39800003 4281292602
0.11807233 -0.013253161 0.39900002 4281094456
0.11936828 -0.013253161 0.39900002 4281816896
0.12066424 -0.013253161 0.39900002 4285434481
0.12226585 -0.013286376 0.40000001 4286617988
0.057684224 -0.011297498 0.377 4278859027
0.058908723 -0.011297498 0.377 4278728211
0.060133215 -0.011297498 0.377 4278599191
0.061357714 -0.011297498 0.377 4278862877
0.06258221 -0.011297498 0.377 4278928416
0.063806705 -0.011297498 0.377 4278862623
0.065203704 -0.011327466 0.37800002 4279190304
0.066431448 -0.011327466 0.37800002 4278993695
0.067659192 -0.011327466 0.37800002 4278928416
0.068886936 -0.011327466 0.37800002 4278862877
0.070300169 -0.011357432 0.37900001 4278928668
0.071531162 -0.011357432 0.37900001 4278862873
0.072762154 -0.011357432 0.37900001 4278928920
0.073993146 -0.011357432 0.37900001 4279192092
0.075224139 -0.011357432 0.37900001 4279193375
0.076455131 -0.011357432 0.37900001 4278930203
0.077686124 -0.011357432 0.37900001 4278930203
0.079125345 -0.011387399 0.38000003 4279126558
0.080359586 -0.011387399 0.38000003 4279784488
0.081808545 -0.011417366 0.38100001 4279587109
0.083264008 -0.011447333 0.38200003 4279455010
0.084504746 -0.011447333 0.38200003 4279323424
0.08596994 -0.0114773 0.38300002 4279387933
0.087441631 -0.011507266 0.384 4279585312
0.088919833 -0.011537233 0.38500002 4280373547
0.090404518 -0.0115672 0.38600001 4278991383
0.091658242 -0.0115672 0.38600001 4278856726
0.093152687 -0.011597168 0.38700002 4278987029
0.094653606 -0.011627134 0.38800001 4280042535
0.095913835 -0.011627134 0.38800001 4280241196
0.097424507 -0.011657101 0.38900003 4279384090
0.098941676 -0.011687067 0.39000002 4278724107
0.10020839 -0.011687067 0.39000002 4279646240
0.10173532 -0.011717035 0.39100003 4280239914
0.10300529 -0.011717035 0.39100003 4279450912
0.10454194 -0.011747002 0.39200002 4280108842
0.10581516 -0.011747002 0.39200002 4280503600
0.10736155 -0.011776968 0.39300001 4279911463
0.10891445 -0.011806935 0.39400002 4278858775
0.11019417 -0.011806935 0.39400002 4280833335
0.11203974 -0.011866868 0.39600003 4280635702
0.11361212 -0.011896836 0.39700001 4280240944
0.11490158 -0.011896836 0.39700001 4280896561
0.1164837 -0.011926803 0.39800003 4284580717
0.11807233 -0.011956769 0.39900002 4286816398
0.11936828 -0.011956769 0.39900002 4286092161
0.12066424 -0.011956769 0.39900002 4286289027
0.12226585 -0.011986735 0.40000001 4286420613
0.056459725 -0.010072587 0.377 4279446803
0.057684224 -0.010072587 0.377 4278989845
0.058908723 -0.010072587 0.377 4278595601
0.060133215 -0.010072587 0.377 4278662931
0.061357714 -0.010072587 0.377 4278795800
0.06258221 -0.010072587 0.377 4278270740
0.063806705 -0.010072587 0.377 4280310836
0.065203704 -0.010099305 0.37800002 4280901944
0.066431448 -0.010099305 0.37800002 4278862875
0.067659192 -0.010099305 0.37800002 4278928668
0.068886936 -0.010099305 0.37800002 4278797082
0.070300169 -0.010126023 0.37900001 4278994461
0.071531162 -0.010126023 0.37900001 4279258146
0.072762154 -0.010126023 0.37900001 4278863386
0.073993146 -0.010126023 0.37900001 4279060765
0.075224139 -0.010126023 0.37900001 4278797593
0.076455131 -0.010126023 0.37900001 4279257631
0.077891104 -0.01015274 0.38000003 4279389217
0.079125345 -0.01015274 0.38000003 4279191838
0.080571055 -0.010179458 0.38100001 4279454496
0.081808545 -0.010179458 0.38100001 4279388703
0.083264008 -0.010206176 0.38200003 4279585316
0.084725954 -0.010232894 0.38300002 4279123482
0.086194396 -0.010259612 0.384 4278395912
0.08766935 -0.010286329 0.38500002 4278723595
0.088919833 -0.010286329 0.38500002 4278986000
0.090404518 -0.010313047 0.38600001 4278920207
0.091895707 -0.010339765 0.38700002 4280301860
0.093393385 -0.010366483 0.38800001 4279249172
0.094653606 -0.010366483 0.38800001 4280832563
0.096161038 -0.0103932 0.38900003 4279320094
0.097424507 -0.0103932 0.38900003 4279380758
0.098941676 -0.010419918 0.39000002 4279578137
0.10020839 -0.010419918 0.39000002 4280239401
0.10173532 -0.010446636 0.39100003 4280305194
0.10300529 -0.010446636 0.39100003 4279186713
0.10454194 -0.010473354 0.39200002 4279384092
0.10581516 -0.010473354 0.39200002 4280700979
0.10736155 -0.010500071 0.39300001 4280569393
0.10891445 -0.010526789 0.39400002 4280503600
0.11019417 -0.010526789 0.39400002 4280568625
0.11203974 -0.010580225 0.39600003 4283528547
0.11361212 -0.010606942 0.39700001 4285962118
0.11490158 -0.010606942 0.39700001 4285697663
0.1164837 -0.01063366 0.39800003 4286092421
0.11807233 -0.010660377 0.39900002 4286157700
0.11936828 -0.010660377 0.39900002 4286289286
0.12066424 -0.010660377 0.39900002 4286355079
0.12226585 -0.010687095 0.40000001 4286157700
0.056609489 -0.0088711446 0.37800002 4279447830
0.057684224 -0.0088476753 0.377 4279186713
0.058908723 -0.0088476753 0.377 4278923541
0.060133215 -0.0088476753 0.377 4278989845
0.061357714 -0.0088476753 0.377 4278991894
0.06258221 -0.0088476753 0.377 4278795798
0.063975953 -0.0088711446 0.37800002 4278796568
0.065203704 -0.0088711446 0.37800002 4278665496
0.066431448 -0.0088711446 0.37800002 4278468117
0.067659192 -0.0088711446 0.37800002 4278665496
0.069069177 -0.0088946121 0.37900001 4278468117
0.070300169 -0.0088946121 0.37900001 4278731289
0.071531162 -0.0088946121 0.37900001 4278862875
0.072762154 -0.0088946121 0.37900001 4279125533
0.073993146 -0.0088946121 0.37900001 4279257119
0.075224139 -0.0088946121 0.37900001 4279453726
0.076656863 -0.0089180814 0.38000003 4278795796
0.077891104 -0.0089180814 0.38000003 4279254553
0.079333566 -0.0089415498 0.38100001 4279517727
0.080571055 -0.0089415498 0.38100001 4279912485
0.082023263 -0.0089650191 0.38200003 4278199045
0.083481967 -0.0089884875 0.38300002 4278854414
0.084947169 -0.0090119559 0.384 4279708953
0.086194396 -0.0090119559 0.384 4279051025
0.08766935 -0.0090354243 0.38500002 4281091376
0.089150794 -0.0090588927 0.38600001 4280169504
0.090638727 -0.0090823621 0.38700002 4280170274
0.091895707 -0.0090823621 0.38700002 4279315219
0.093393385 -0.0091058305 0.38800001 4279512857
0.094653606 -0.0091058305 0.38800001 4280109094
0.096161038 -0.0091292998 0.38900003 4279910947
0.097424507 -0.0091292998 0.38900003 4280302887
0.098941676 -0.0091527672 0.39000002 4279579934
0.10020839 -0.0091527672 0.39000002 4279319324
0.10173532 -0.0091762366 0.39100003 4280898356
0.10300529 -0.0091762366 0.39100003 4280503598
0.10454194 -0.009199705 0.39200002 4280963635
0.10581516 -0.009199705 0.39200002 4280764975
0.10736155 -0.0092231734 0.39300001 4283001683
0.10891445 -0.0092466427 0.39400002 4285895294
0.055528257 -0.0076632029 0.37900001 4279446803
0.056609489 -0.0076429839 0.37800002 4279251221
0.057837237 -0.0076429839 0.37800002 4279252504
0.059064981 -0.0076429839 0.37800002 4278857746
0.060292721 -0.0076429839 0.37800002 4278726673
0.061520468 -0.0076429839 0.37800002 4278991129
0.062748216 -0.0076429839 0.37800002 4278927386
0.063975953 -0.0076429839 0.37800002 4278730007
0.065203704 -0.0076429839 0.37800002 4279190556
0.066607192 -0.0076632029 0.37900001 4279125533
0.067838185 -0.0076632029 0.37900001 4278993947
0.069069177 -0.0076632029 0.37900001 4279059740
0.070300169 -0.0076632029 0.37900001 4278993947
0.071531162 -0.0076632029 0.37900001 4279387935
0.072762154 -0.0076632029 0.37900001 4279190556
0.074188381 -0.0076834229 0.38000003 4279519006
0.075422622 -0.0076834229 0.38000003 4279517723
0.076656863 -0.0076834229 0.38000003 4280043297
0.078096077 -0.0077036424 0.38100001 4279451932
0.079333566 -0.0077036424 0.38100001 4279978278
0.080782533 -0.0077238623 0.38200003 4278591755
0.082023263 -0.0077238623 0.38200003 4279051025
0.083481967 -0.0077440813 0.38300002 4279774750
0.084947169 -0.0077643008 0.384 4280827436
0.086418867 -0.0077845207 0.38500002 4278919439
0.087897062 -0.0078047398 0.38600001 4279709723
0.089150794 -0.0078047398 0.38600001 4278986000
0.090638727 -0.0078249592 0.38700002 4278920207
0.092133157 -0.0078451792 0.38800001 4278920207
0.093393385 -0.0078451792 0.38800001 4280896048
0.094897561 -0.0078653991 0.38900003 4278791183
0.096161038 -0.0078653991 0.38900003 4280634157
0.097674951 -0.0078856181 0.39000002 4280634157
0.098941676 -0.0078856181 0.39000002 4280569131
0.10020839 -0.0078856181 0.39000002 4280241450
0.10173532 -0.0079058381 0.39100003 4279845668
0.10300529 -0.0079058381 0.39100003 4283461721
0.10454194 -0.0079260571 0.39200002 4286092673
0.10581516 -0.0079260571 0.39200002 4286420611
0.055528257 -0.0064317929 0.37900001 4279447830
0.056759246 -0.0064317929 0.37900001 4279317014
0.057990242 -0.0064317929 0.37900001 4279251734
0.059064981 -0.0064148228 0.37800002 4279055125
0.060292721 -0.0064148228 0.37800002 4279055638
0.061520468 -0.0064148228 0.37800002 4278991129
0.062914215 -0.0064317929 0.37900001 4279189275
0.0641452 -0.0064317929 0.37900001 4279782182
0.0653762 -0.0064317929 0.37900001 4279453730
0.066607192 -0.0064317929 0.37900001 4279124765
0.067838185 -0.0064317929 0.37900001 4279256351
0.069069177 -0.0064317929 0.37900001 4279256351
0.070485659 -0.0064487639 0.38000003 4279321629
0.0717199 -0.0064487639 0.38000003 4279321629
0.072954141 -0.0064487639 0.38000003 4279519008
0.074188381 -0.0064487639 0.38000003 4279650594
0.075422622 -0.0064487639 0.38000003 4279385369
0.076858588 -0.006465734 0.38100001 4278462988
0.078096077 -0.006465734 0.38100001 4279976994
0.079541795 -0.0064827045 0.38200003 4279187478
0.080782533 -0.0064827045 0.38200003 4279709725
0.082237981 -0.0064996746 0.38300002 4280038690
0.083699934 -0.0065166452 0.384 4280169508
0.084947169 -0.0065166452 0.384 4279379992
0.086418867 -0.0065336158 0.38500002 4279247123
0.087897062 -0.0065505859 0.38600001 4279444502
0.089381754 -0.0065675569 0.38700002 4279051025
0.090638727 -0.0065675569 0.38700002 4279644443
0.092133157 -0.006584527 0.38800001 4281094456
0.093393385 -0.006584527 0.38800001 4280832311
0.094897561 -0.0066014975 0.38900003 4280766772
0.096161038 -0.0066014975 0.38900003 4280503600
0.097674951 -0.0066184676 0.39000002 4280437293
0.098941676 -0.0066184676 0.39000002 4283067476
0.10020839 -0.0066184676 0.39000002 4286553224
0.055674773 -0.0052141049 0.38000003 4279382037
0.05690901 -0.0052141049 0.38000003 4279383320
0.057990242 -0.0052003837 0.37900001 4279252504
0.059221238 -0.0052003837 0.37900001 4278857746
0.060452227 -0.0052003837 0.37900001 4278990359
0.061683219 -0.0052003837 0.37900001 4279254555
0.062914215 -0.0052003837 0.37900001 4279123482
0.064314455 -0.0052141049 0.38000003 4279715619
0.065548696 -0.0052141049 0.38000003 4279255838
0.066782936 -0.0052141049 0.38000003 4279255838
0.068017177 -0.0052141049 0.38000003 4279255838
0.069251418 -0.0052141049 0.38000003 4279321629
0.070485659 -0.0052141049 0.38000003 4279321627
0.0717199 -0.0052141049 0.38000003 4279321627
0.07314612 -0.0052278261 0.38100001 4279255836
0.074383609 -0.0052278261 0.38100001 4279321629
0.075621098 -0.0052278261 0.38100001 4279713822
0.076858588 -0.0052278261 0.38100001 4279251734
0.078301057 -0.0052415477 0.38200003 4279976994
0.079541795 -0.0052415477 0.38200003 4278726162
0.080994003 -0.0052552689 0.38300002 4279248406
0.082237981 -0.0052552689 0.38300002 4279248406
0.083699934 -0.0052689901 0.384 4278984980
0.085168391 -0.0052827117 0.38500002 4279116820
0.086418867 -0.0052827117 0.38500002 4280500268
0.087897062 -0.0052964329 0.38600001 4281093173
0.089381754 -0.0053101545 0.38700002 4280503084
0.090638727 -0.0053101545 0.38700002 4280503598
0.092133157 -0.0053238757 0.38800001 4280108842
0.093393385 -0.0053238757 0.38800001 4280897590
0.055821285 -0.0039899182 0.38100001 4279251221
0.05690901 -0.0039794459 0.38000003 4279186711
0.058143254 -0.0039794459 0.38000003 4279055125
0.059377495 -0.0039794459 0.38000003 4278858259
0.060611732 -0.0039794459 0.38000003 4279319578
0.061845973 -0.0039794459 0.38000003 4279254555
0.063080214 -0.0039794459 0.38000003 4279517473
0.064314455 -0.0039794459 0.38000003 4279846438
0.065721191 -0.0039899182 0.38100001 4279320861
0.066958681 -0.0039899182 0.38100001 4279321631
0.06819617 -0.0039899182 0.38100001 4279321631
0.069433659 -0.0039899182 0.38100001 4279584801
0.070671149 -0.0039899182 0.38100001 4279781408
0.071908638 -0.0039899182 0.38100001 4279649822
0.07314612 -0.0039899182 0.38100001 4279519006
0.074383609 -0.0039899182 0.38100001 4279649824
0.075819589 -0.0040003904 0.38200003 4278790670
0.077060319 -0.0040003904 0.38200003 4279712287
0.078301057 -0.0040003904 0.38200003 4280305192
0.079750016 -0.0040108627 0.38300002 4278197767
0.080994003 -0.0040108627 0.38300002 4279578652
0.0824527 -0.0040213349 0.384 4280830001
0.083699934 -0.0040213349 0.384 4280371498
0.085168391 -0.0040318072 0.38500002 4280437291
0.086418867 -0.0040318072 0.38500002 4280240428
0.087897062 -0.0040422794 0.38600001 4280108588
0.089381754 -0.0040527517 0.38700002 4280963387
0.090638727 -0.0040527517 0.38700002 4284713075
0.054727063 -0.0027592336 0.38200003 4279382039
0.0559678 -0.0027592336 0.38200003 4279317527
0.05705877 -0.0027520105 0.38100001 4279186711
0.058296259 -0.0027520105 0.38100001 4278858259
0.059533749 -0.0027520105 0.38100001 4279253271
0.060771234 -0.0027520105 0.38100001 4279451164
0.062008724 -0.0027520105 0.38100001 4279056406
0.063246213 -0.0027520105 0.38100001 4279912485
0.064483702 -0.0027520105 0.38100001 4279715365
0.065721191 -0.0027520105 0.38100001 4279452193
0.066958681 -0.0027520105 0.38100001 4279649826
0.06837517 -0.0027592336 0.38200003 4279452445
0.069615901 -0.0027592336 0.38200003 4279584031
0.070856638 -0.0027592336 0.38200003 4279649824
0.072097376 -0.0027592336 0.38200003 4279584031
0.073338106 -0.0027592336 0.38200003 4279715617
0.074578844 -0.0027592336 0.38200003 4279649313
0.075819589 -0.0027592336 0.38200003 4278856465
0.077060319 -0.0027592336 0.38200003 4280305192
0.07850603 -0.0027664567 0.38300002 4279978024
0.079750016 -0.0027664567 0.38300002 4280175403
0.080994003 -0.0027664567 0.38300002 4280175403
0.0824527 -0.0027736798 0.384 4280503598
0.083917908 -0.0027809029 0.38500002 4280239401
0.056114309 -0.0015220506 0.38300002 4279514908
0.057208531 -0.0015180766 0.38200003 4279186713
0.058449272 -0.0015180766 0.38200003 4278858773
0.05969001 -0.0015180766 0.38200003 4279187992
0.06093074 -0.0015180766 0.38200003 4279385371
0.062171482 -0.0015180766 0.38200003 4279451164
0.063412219 -0.0015180766 0.38200003 4279847205
0.06465295 -0.0015180766 0.38200003 4279649826
0.065893687 -0.0015180766 0.38200003 4279452447
0.067134425 -0.0015180766 0.38200003 4279584033
0.06837517 -0.0015180766 0.38200003 4279649824
0.069615901 -0.0015180766 0.38200003 4279584031
0.070856638 -0.0015180766 0.38200003 4279715617
0.072097376 -0.0015180766 0.38200003 4279781410
0.073338106 -0.0015180766 0.38200003 4279780899
0.074578844 -0.0015180766 0.38200003 4279187738
0.075819589 -0.0015180766 0.38200003 4280042535
0.077262044 -0.0015220506 0.38300002 4280437291
0.07850603 -0.0015220506 0.38300002 4279911715
0.079750016 -0.0015220506 0.38300002 4280502832
0.05626082 -0.00027836935 0.384 4279251482
0.057358291 -0.00027764443 0.38300002 4279252506
0.058602277 -0.00027764443 0.38300002 4279187738
0.059846263 -0.00027764443 0.38300002 4279056152
0.061090246 -0.00027764443 0.38300002 4279254555
0.062334232 -0.00027764443 0.38300002 4279912485
0.063578218 -0.00027764443 0.38300002 4279847205
0.064822197 -0.00027764443 0.38300002 4279452447
0.066066183 -0.00027764443 0.38300002 4279649826
0.067310169 -0.00027764443 0.38300002 4279452447
0.068554156 -0.00027764443 0.38300002 4279649826
0.069798134 -0.00027764443 0.38300002 4279649826
0.07104212 -0.00027764443 0.38300002 4279912996
0.072286114 -0.00027764443 0.38300002 4279649824
0.073530093 -0.00027764443 0.38300002 4279846692
0.074774079 -0.00027764443 0.38300002 4280043049
0.056407336 0.00097181014 0.38500002 4281750337
0.057508048 0.0009692859 0.384 4279515678
0.058755282 0.0009692859 0.384 4279385119
0.060002517 0.0009692859 0.384 4279254303
0.061249748 0.0009692859 0.384 4279189021
0.062496983 0.0009692859 0.384 4279912744
0.063744217 0.0009692859 0.384 4279649572
0.064991444 0.0009692859 0.384 4279715619
0.066238679 0.0009692859 0.384 4279584033
0.067485914 0.0009692859 0.384 4279649826
0.068554156 0.00096676173 0.38300002 4280110377
0.069798134 0.00096676173 0.38300002 4279912485
0.07104212 0.00096676173 0.38300002 4279911461
0.058908295 0.0022227145 0.38500002 4279252254
0.060002517 0.002216941 0.384 4279779111
0.061249748 0.002216941 0.384 4279517221
0.062496983 0.002216941 0.384 4280175918
0.063744217 0.002216941 0.384 4279781160
0.064991444 0.002216941 0.384 4279912746
0.066238679 0.002216941 0.384 4279977256
0.067485914 0.002216941 0.384 4280239914
0.08742255 -0.012234546 0.38584504 4294967295
0.08742255 -0.012234546 0.38584504 4294901760
0.087364696 -0.012722994 0.38575518 4294901760
0.08730685 -0.013211442 0.38566536 4294901760
0.087248996 -0.013699889 0.3855755 4294901760
0.087191142 -0.014188337 0.38548565 4294901760
0.087133296 -0.014676785 0.38539582 4294901760
0.087075442 -0.015165232 0.38530597 4294901760
0.087017588 -0.015653681 0.38521612 4294901760
0.086959742 -0.016142128 0.38512629 4294901760
0.086901888 -0.016630575 0.38503644 4294901760
0.086844034 -0.017119024 0.38494658 4294901760
0.086786188 -0.017607471 0.38485676 4294901760
0.086728334 -0.018095918 0.38476691 4294901760
0.086670481 -0.018584367 0.38467705 4294901760
0.086612634 -0.019072814 0.3845872 4294901760
0.086554781 -0.019561263 0.38449737 4294901760
0.086496927 -0.02004971 0.38440752 4294901760
0.086439081 -0.020538159 0.38431767 4294901760
0.086381227 -0.021026606 0.38422784 4294901760
0.086323373 -0.021515053 0.38413799 4294901760
0.086265527 -0.022003502 0.38404813 4294901760
0.086207673 -0.022491949 0.38395831 4294901760
0.086149819 -0.022980396 0.38386846 4294901760
0.086091973 -0.023468845 0.3837786 4294901760
0.086034119 -0.023957292 0.38368878 4294901760
0.085976273 -0.024445739 0.38359892 4294901760
0.085918419 -0.024934188 0.38350907 4294901760
0.085860565 -0.025422636 0.38341925 4294901760
0.085802719 -0.025911082 0.38332939 4294901760
0.085744865 -0.02639953 0.38323954 4294901760
0.085687011 -0.026887979 0.38314971 4294901760
0.085629165 -0.027376426 0.38305986 4294901760
0.085571311 -0.027864873 0.38297001 4294901760
0.085513458 -0.028353322 0.38288018 4294901760
0.085455611 -0.028841769 0.38279033 4294901760
0.085397758 -0.029330216 0.38270047 4294901760
0.085339904 -0.029818665 0.38261065 4294901760
0.085282058 -0.030307112 0.38252079 4294901760
0.085224204 -0.030795559 0.38243094 4294901760
0.08516635 -0.031284004 0.38234109 4294901760
0.085108504 -0.031772457 0.38225126 4294901760
0.08505065 -0.032260902 0.38216141 4294901760
0.084992796 -0.032749351 0.38207155 4294901760
0.08493495 -0.0332378 0.38198173 4294901760
0.084877096 -0.033726245 0.38189188 4294901760
0.084819242 -0.034214694 0.38180202 4294901760
0.084761396 -0.034703143 0.3817122 4294901760
0.084703542 -0.035191588 0.38162234 4294901760
0.084645689 -0.035680037 0.38153249 4294901760
0.084587842 -0.036168486 0.38144267 4294901760
0.084529988 -0.036656931 0.38135281 4294901760
0.084472135 -0.03714538 0.38126296 4294901760
0.084414288 -0.037633829 0.38117313 4294901760
0.084356435 -0.038122274 0.38108328 4294901760
0.084298581 -0.038610727 0.38099343 4294901760
0.084240735 -0.039099172 0.3809036 4294901760
0.084182881 -0.039587617 0.38081375 4294901760
0.084125027 -0.040076066 0.38072389 4294901760
0.084067181 -0.040564515 0.38063407 4294901760
0.084009327 -0.04105296 0.38054422 4294901760
0.083951473 -0.041541412 0.38045436 4294901760
0.083893627 -0.042029858 0.38036454 4294901760
0.083835773 -0.042518307 0.38027468 4294901760
0.083777919 -0.043006755 0.38018483 4294901760
0.083720073 -0.043495201 0.38009498 4294901760
0.083662219 -0.043983649 0.38000515 4294901760
0.083604366 -0.044472098 0.3799153 4294901760
0.083546519 -0.044960544 0.37982544 4294901760
0.083488666 -0.045448992 0.37973562 4294901760
0.083430812 -0.045937441 0.37964576 4294901760
0.083372965 -0.046425886 0.37955591 4294901760
0.083315112 -0.046914335 0.37946609 4294901760
0.083257258 -0.047402784 0.37937623 4294901760
0.083199412 -0.047891233 0.37928638 4294901760
0.083141558 -0.048379678 0.37919655 4294901760
0.083083704 -0.048868127 0.3791067 4294901760
0.083025858 -0.049356572 0.37901685 4294901760
0.082968004 -0.049845021 0.37892702 4294901760
0.082910158 -0.050333466 0.37883717 4294901760
0.082852304 -0.050821919 0.37874731 4294901760
0.08279445 -0.051310364 0.37865749 4294901760
0.082736604 -0.051798813 0.37856764 4294901760
0.08267875 -0.052287258 0.37847778 4294901760
0.082620896 -0.052775707 0.37838796 4294901760
0.08256305 -0.053264156 0.3782981 4294901760
0.082505196 -0.053752605 0.37820825 4294901760
0.082447343 -0.054241054 0.37811843 4294901760
0.082389496 -0.054729499 0.37802857 4294901760
0.082331643 -0.055217948 0.37793872 4294901760
0.082273789 -0.055706393 0.37784886 4294901760
0.082215942 -0.056194842 0.37775904 4294901760
0.082158089 -0.056683291 0.37766919 4294901760
0.082100235 -0.05717174 0.37757933 4294901760
0.082042389 -0.057660185 0.37748951 4294901760
0.081984535 -0.058148634 0.37739965 4294901760
0.081926681 -0.058637079 0.3773098 4294901760
0.081868835 -0.059125528 0.37721997 4294901760
0.081810981 -0.059613977 0.37713012 4294901760
0.081753127 -0.060102426 0.37704027 4294901760
0.081695281 -0.060590871 0.37695044 4294901760
0.081637427 -0.06107932 0.37686059 4294901760
0.08742255 -0.012234546 0.38584504 4278255360
0.087888643 -0.012319178 0.38600501 4278255360
0.088354729 -0.01240381 0.38616502 4278255360
0.088820823 -0.012488442 0.386325 4278255360
0.089286909 -0.012573074 0.38648501 4278255360
0.089753002 -0.012657706 0.38664499 4278255360
0.090219095 -0.012742338 0.38680497 4278255360
0.090685181 -0.012826969 0.38696498 4278255360
0.091151275 -0.012911601 0.38712496 4278255360
0.091617361 -0.012996233 0.38728496 4278255360
0.092083454 -0.013080865 0.38744494 4278255360
0.092549548 -0.013165496 0.38760495 4278255360
0.093015634 -0.013250128 0.38776493 4278255360
0.093481727 -0.01333476 0.38792491 4278255360
0.093947813 -0.013419393 0.38808492 4278255360
0.094413906 -0.013504025 0.3882449 4278255360
0.09488 -0.013588656 0.38840491 4278255360
0.095346086 -0.013673288 0.38856488 4278255360
0.095812179 -0.01375792 0.38872486 4278255360
0.096278265 -0.013842551 0.38888487 4278255360
0.096744359 -0.013927183 0.38904485 4278255360
0.097210452 -0.014011815 0.38920486 4278255360
0.097676538 -0.014096447 0.38936484 4278255360
0.098142631 -0.014181079 0.38952482 4278255360
0.098608717 -0.01426571 0.38968483 4278255360
0.099074811 -0.014350343 0.38984481 4278255360
0.099540904 -0.014434975 0.39000481 4278255360
0.10000699 -0.014519606 0.39016479 4278255360
0.10047308 -0.014604238 0.39032477 4278255360
0.10093917 -0.01468887 0.39048478 4278255360
0.10140526 -0.014773502 0.39064476 4278255360
0.10187136 -0.014858134 0.39080477 4278255360
0.10233744 -0.014942765 0.39096475 4278255360
0.10280354 -0.015027397 0.39112476 4278255360
0.10326962 -0.015112029 0.39128473 4278255360
0.10373572 -0.015196661 0.39144471 4278255360
0.10420181 -0.015281294 0.39160472 4278255360
0.10466789 -0.015365925 0.3917647 4278255360
0.10513399 -0.015450557 0.39192471 4278255360
0.10560007 -0.015535189 0.39208469 4278255360
0.10606617 -0.01561982 0.39224467 4278255360
0.10653226 -0.015704453 0.39240468 4278255360
0.10699835 -0.015789084 0.39256465 4278255360
0.10746444 -0.015873715 0.39272466 4278255360
0.10793053 -0.015958348 0.39288464 4278255360
0.10839662 -0.016042979 0.39304462 4278255360
0.10886271 -0.016127612 0.39320463 4278255360
0.1093288 -0.016212244 0.39336461 4278255360
0.10979489 -0.016296875 0.39352462 4278255360
0.11026098 -0.016381508 0.3936846 4278255360
0.11072707 -0.016466139 0.3938446 4278255360
0.11119317 -0.01655077 0.39400458 4278255360
0.11165925 -0.016635403 0.39416456 4278255360
0.11212534 -0.016720034 0.39432457 4278255360
0.11259143 -0.016804665 0.39448455 4278255360
0.11305752 -0.016889298 0.39464456 4278255360
0.11352362 -0.016973929 0.39480454 4278255360
0.1139897 -0.017058562 0.39496452 4278255360
0.1144558 -0.017143194 0.39512452 4278255360
0.11492188 -0.017227825 0.3952845 4278255360
0.11538798 -0.017312458 0.39544451 4278255360
0.11585407 -0.017397089 0.39560449 4278255360
0.11632016 -0.017481722 0.39576447 4278255360
0.11678625 -0.017566353 0.39592448 4278255360
0.11725233 -0.017650984 0.39608446 4278255360
0.11771843 -0.017735615 0.39624447 4278255360
0.11818452 -0.017820248 0.39640445 4278255360
0.11865061 -0.017904881 0.39656442 4278255360
0.1191167 -0.017989513 0.39672443 4278255360
0.11958279 -0.018074144 0.39688441 4278255360
0.12004888 -0.018158775 0.39704442 4278255360
0.12051497 -0.018243408 0.3972044 4278255360
0.12098107 -0.018328041 0.39736441 4278255360
0.12144715 -0.018412672 0.39752439 4278255360
0.12191324 -0.018497303 0.39768437 4278255360
0.12237933 -0.018581934 0.39784437 4278255360
0.12284543 -0.018666567 0.39800435 4278255360
0.12331151 -0.018751198 0.39816436 4278255360
0.1237776 -0.018835831 0.39832434 4278255360
0.12424369 -0.018920463 0.39848432 4278255360
0.12470978 -0.019005094 0.39864433 4278255360
0.12517588 -0.019089727 0.39880431 4278255360
0.12564197 -0.019174358 0.39896432 4278255360
0.12610805 -0.019258991 0.39912429 4278255360
0.12657414 -0.019343622 0.39928427 4278255360
0.12704024 -0.019428253 0.39944428 4278255360
0.12750633 -0.019512886 0.39960426 4278255360
0.12797242 -0.019597517 0.39976427 4278255360
0.1284385 -0.01968215 0.39992425 4278255360
0.1289046 -0.019766781 0.40008423 4278255360
0.12937069 -0.019851413 0.40024424 4278255360
0.12983678 -0.019936046 0.40040421 4278255360
0.13030288 -0.020020677 0.40056422 4278255360
0.13076895 -0.02010531 0.4007242 4278255360
0.13123505 -0.020189941 0.40088421 4278255360
0.13170114 -0.020274572 0.40104419 4278255360
0.13216724 -0.020359203 0.40120417 4278255360
0.13263333 -0.020443836 0.40136418 4278255360
0.13309941 -0.020528469 0.40152416 4278255360
0.1335655 -0.0206131 0.40168417 4278255360
0.13403159 -0.020697732 0.40184414 4278255360
0.08742255 -0.012234546 0.38584504 4278190335
0.087218635 -0.012293661 0.38629773 4278190335
0.08701472 -0.012352777 0.3867504 4278190335
0.086810805 -0.012411891 0.3872031 4278190335
0.08660689 -0.012471007 0.38765576 4278190335
0.086402982 -0.012530122 0.38810846 4278190335
0.086199068 -0.012589238 0.38856116 4278190335
0.085995153 -0.012648352 0.38901383 4278190335
0.085791238 -0.012707468 0.38946652 4278190335
0.085587323 -0.012766583 0.38991922 4278190335
0.085383408 -0.012825698 0.39037189 4278190335
0.085179493 -0.012884813 0.39082459 4278190335
0.084975578 -0.012943928 0.39127725 4278190335
0.084771663 -0.013003044 0.39172995 4278190335
0.084567748 -0.013062159 0.39218265 4278190335
0.084363833 -0.013121274 0.39263532 4278190335
0.084159926 -0.013180389 0.39308801 4278190335
0.083956011 -0.013239505 0.39354068 4278190335
0.083752096 -0.01329862 0.39399338 4278190335
0.083548181 -0.013357734 0.39444607 4278190335
0.083344266 -0.01341685 0.39489874 4278190335
0.083140351 -0.013475965 0.39535144 4278190335
0.082936436 -0.01353508 0.39580411 4278190335
0.082732521 -0.013594195 0.3962568 4278190335
0.082528606 -0.01365331 0.3967095 4278190335
0.082324699 -0.013712426 0.39716217 4278190335
0.082120784 -0.01377154 0.39761487 4278190335
0.081916869 -0.013830656 0.39806753 4278190335
0.081712954 -0.013889771 0.39852023 4278190335
0.081509039 -0.013948887 0.39897293 4278190335
0.081305124 -0.014008001 0.3994256 4278190335
0.081101209 -0.014067117 0.39987829 4278190335
0.080897294 -0.014126232 0.40033096 4278190335
0.080693379 -0.014185348 0.40078366 4278190335
0.080489464 -0.014244462 0.40123636 4278190335
0.080285549 -0.014303577 0.40168902 4278190335
0.080081642 -0.014362693 0.40214172 4278190335
0.079877727 -0.014421808 0.40259442 4278190335
0.079673812 -0.014480923 0.40304708 4278190335
0.079469897 -0.014540038 0.40349978 4278190335
0.079265982 -0.014599154 0.40395245 4278190335
0.079062067 -0.014658269 0.40440515 4278190335
0.078858152 -0.014717383 0.40485784 4278190335
0.078654237 -0.014776499 0.40531051 4278190335
0.078450322 -0.014835614 0.40576321 4278190335
0.078246415 -0.014894729 0.40621588 4278190335
0.0780425 -0.014953844 0.40666857 4278190335
0.077838585 -0.01501296 0.40712127 4278190335
0.07763467 -0.015072075 0.40757394 4278190335
0.077430755 -0.01513119 0.40802664 4278190335
0.07722684 -0.015190305 0.40847933 4278190335
0.077022925 -0.01524942 0.408932 4278190335
0.07681901 -0.015308536 0.4093847 4278190335
0.076615095 -0.01536765 0.40983737 4278190335
0.07641118 -0.015426766 0.41029006 4278190335
0.076207265 -0.015485881 0.41074276 4278190335
0.076003358 -0.015544997 0.41119543 4278190335
0.075799443 -0.015604111 0.41164812 4278190335
0.075595528 -0.015663227 0.41210079 4278190335
0.075391613 -0.015722342 0.41255349 4278190335
0.075187698 -0.015781457 0.41300619 4278190335
0.074983783 -0.015840571 0.41345885 4278190335
0.074779868 -0.015899688 0.41391155 4278190335
0.074575953 -0.015958803 0.41436422 4278190335
0.074372038 -0.016017918 0.41481692 4278190335
0.074168131 -0.016077032 0.41526961 4278190335
0.073964208 -0.016136149 0.41572228 4278190335
0.073760301 -0.016195264 0.41617498 4278190335
0.073556386 -0.016254378 0.41662765 4278190335
0.073352471 -0.016313493 0.41708034 4278190335
0.073148556 -0.016372608 0.41753304 4278190335
0.072944641 -0.016431723 0.41798571 4278190335
0.072740726 -0.016490839 0.4184384 4278190335
0.072536811 -0.016549954 0.41889107 4278190335
0.072332896 -0.016609069 0.41934377 4278190335
0.072128981 -0.016668186 0.41979647 4278190335
0.071925074 -0.0167273 0.42024913 4278190335
0.071721159 -0.016786415 0.42070183 4278190335
0.071517244 -0.01684553 0.4211545 4278190335
0.071313329 -0.016904645 0.4216072 4278190335
0.071109414 -0.016963761 0.42205989 4278190335
0.070905499 -0.017022876 0.42251256 4278190335
0.070701584 -0.017081991 0.42296526 4278190335
0.070497669 -0.017141106 0.42341796 4278190335
0.070293754 -0.01720022 0.42387062 4278190335
0.070089847 -0.017259337 0.42432332 4278190335
0.069885924 -0.017318452 0.42477602 4278190335
0.069682017 -0.017377567 0.42522869 4278190335
0.069478102 -0.017436681 0.42568138 4278190335
0.069274187 -0.017495796 0.42613405 4278190335
0.069070272 -0.017554913 0.42658675 4278190335
0.068866357 -0.017614027 0.42703944 4278190335
0.068662442 -0.017673142 0.42749211 4278190335
0.068458527 -0.017732259 0.42794481 4278190335
0.06825462 -0.017791374 0.42839748 4278190335
0.068050697 -0.017850488 0.42885017 4278190335
0.06784679 -0.017909603 0.42930287 4278190335
0.067642868 -0.017968718 0.42975554 4278190335
0.06743896 -0.018027835 0.43020824 4278190335
0.067235045 -0.018086949 0.4306609 4278190335
0.06703113 -0.018146064 0.4311136 4278190335
0.08742255 -0.012234546 0.38584504 4294967295
0.088646032 -0.011879855 0.38312891 4294967295
0.089869522 -0.011525164 0.38041282 4294967295
0.091093004 -0.011170473 0.37769669 4294967295
0.092316493 -0.010815782 0.37498057 4294967295
0.093539976 -0.010461091 0.37226447 4294967295
0.094763458 -0.0101064 0.36954835 4294967295
0.095986947 -0.0097517092 0.36683223 4294967295
0.09721043 -0.0093970178 0.36411613 4294967295
0.098433919 -0.0090423264 0.36140001 4294967295
0.099657401 -0.0086876359 0.35868388 4294967295
0.10088088 -0.0083329445 0.35596776 4294967295
