# .PCD v0.7 - Point Cloud Data file format
VERSION 0.7
FIELDS x y z rgb
SIZE 4 4 4 4
TYPE F F F U
COUNT 1 1 1 1
WIDTH 1042
HEIGHT 1
VIEWPOINT 0 0 0 1 0 0 0
POINTS 1042
DATA ascii
0.039660864 0.033472657 0.35800001 4278731287
0.040823646 0.033472657 0.35800001 4278862873
0.041869152 0.03337916 0.35700002 4278731287
0.04302869 0.03337916 0.35700002 4278862873
0.044188224 0.03337916 0.35700002 4278731800
0.045347761 0.03337916 0.35700002 4278731800
0.046637569 0.033472657 0.35800001 4278731800
0.047800355 0.033472657 0.35800001 4278929179
0.048963137 0.033472657 0.35800001 4278863386
-0.0033903427 0.034926083 0.36100003 4278791185
-0.0022116704 0.034829333 0.36000001 4278923539
-0.0010394942 0.034732588 0.35900003 4278924820
0.00012618597 0.034635838 0.35800001 4278925588
0.0012889706 0.034635838 0.35800001 4278663697
0.0024449066 0.034539089 0.35700002 4278730003
0.0036044433 0.034539089 0.35700002 4278664210
0.0047639804 0.034539089 0.35700002 4278335245
0.0059069237 0.034442339 0.35600001 4278532624
0.0070632128 0.034442339 0.35600001 4278598417
0.008219501 0.034442339 0.35600001 4278730005
0.0093757901 0.034442339 0.35600001 4278598419
0.010532078 0.034442339 0.35600001 4278466833
0.011688367 0.034442339 0.35600001 4278532626
0.012880736 0.034539089 0.35700002 4278663699
0.014040273 0.034539089 0.35700002 4278597906
0.01519981 0.034539089 0.35700002 4278531345
0.016359346 0.034539089 0.35700002 4278198787
0.017518884 0.034539089 0.35700002 4278264841
0.018730739 0.034635838 0.35800001 4278858261
0.019893523 0.034635838 0.35800001 4278662931
0.021115126 0.034732588 0.35900003 4278531345
0.022281159 0.034732588 0.35900003 4278465552
0.023447191 0.034732588 0.35900003 4278662931
0.024613226 0.034732588 0.35900003 4278532115
0.025779257 0.034732588 0.35900003 4278334736
0.026945289 0.034732588 0.35900003 4278466835
0.028189626 0.034829333 0.36000001 4278532628
0.029358907 0.034829333 0.36000001 4278532628
0.030528188 0.034829333 0.36000001 4278466835
0.031697467 0.034829333 0.36000001 4278335249
0.032866746 0.034829333 0.36000001 4278532628
0.034036029 0.034829333 0.36000001 4278532628
0.035205308 0.034829333 0.36000001 4278532628
0.036374591 0.034829333 0.36000001 4278598421
0.037439585 0.034732588 0.35900003 4278730005
0.038605615 0.034732588 0.35900003 4278664212
0.03977165 0.034732588 0.35900003 4278532626
0.040823646 0.034635838 0.35800001 4278927382
0.041986432 0.034635838 0.35800001 4278730003
0.043149218 0.034635838 0.35800001 4278599187
0.044312 0.034635838 0.35800001 4278599187
0.045474783 0.034635838 0.35800001 4278862359
0.046637569 0.034635838 0.35800001 4278796566
0.04793388 0.034732588 0.35900003 4278797080
0.049099907 0.034732588 0.35900003 4278797080
0.050405957 0.034829333 0.36000001 4278797080
-0.0033903427 0.036099009 0.36100003 4278988051
-0.0022116704 0.035999011 0.36000001 4279185941
-0.0010394942 0.035899013 0.35900003 4278924820
0.00012618597 0.035799015 0.35800001 4278794002
0.0012889706 0.035799015 0.35800001 4278860308
0.0024449066 0.035699017 0.35700002 4278663699
0.0036044433 0.035699017 0.35700002 4278532626
0.0047639804 0.035699017 0.35700002 4278795796
0.0059069237 0.035599019 0.35600001 4278466831
0.0070632128 0.035599019 0.35600001 4278598417
0.008219501 0.035599019 0.35600001 4278532626
0.0093757901 0.035599019 0.35600001 4278598419
0.010532078 0.035599019 0.35600001 4278532626
0.0117212 0.035699017 0.35700002 4278598419
0.012880736 0.035699017 0.35700002 4278664212
0.014040273 0.035699017 0.35700002 4278532626
0.01519981 0.035699017 0.35700002 4278729492
0.016359346 0.035699017 0.35700002 4278198531
0.017567955 0.035799015 0.35800001 4279253019
0.018730739 0.035799015 0.35800001 4278858775
0.019893523 0.035799015 0.35800001 4278464015
0.021115126 0.035899013 0.35900003 4278196224
0.022281159 0.035899013 0.35900003 4278195970
0.023447191 0.035899013 0.35900003 4278195969
0.024681784 0.035999011 0.36000001 4278195968
0.025851065 0.035999011 0.36000001 4278196994
0.027020345 0.035999011 0.36000001 4278330121
0.028189626 0.035999011 0.36000001 4278396427
0.029358907 0.035999011 0.36000001 4278726675
0.03061299 0.036099009 0.36100003 4278595603
0.031785518 0.036099009 0.36100003 4278529810
0.032958046 0.036099009 0.36100003 4278924568
0.034130577 0.036099009 0.36100003 4278465298
0.035303105 0.036099009 0.36100003 4278662677
0.036475632 0.036099009 0.36100003 4278531091
0.037543871 0.035999011 0.36000001 4278531345
0.03871315 0.035999011 0.36000001 4278662929
0.039882433 0.035999011 0.36000001 4278662929
0.041051712 0.035999011 0.36000001 4278597906
0.042103715 0.035899013 0.35900003 4278597906
0.043269746 0.035899013 0.35900003 4278663697
0.044435777 0.035899013 0.35900003 4278598417
0.045728832 0.035999011 0.36000001 4278532626
0.046898115 0.035999011 0.36000001 4278532626
0.048067398 0.035999011 0.36000001 4278401810
0.049236674 0.035999011 0.36000001 4278533396
0.050545976 0.036099009 0.36100003 4278532626
0.05186177 0.036199003 0.36200002 4278664212
0.053037547 0.036199003 0.36200002 4278664982
0.054213319 0.036199003 0.36200002 4278468117
0.055389099 0.036199003 0.36200002 4278665496
-0.0033903427 0.037271935 0.36100003 4279053074
-0.0022116704 0.037168685 0.36000001 4279251988
-0.0010394942 0.037065443 0.35900003 4278924820
0.00012618597 0.036962193 0.35800001 4278794002
0.0012889706 0.036962193 0.35800001 4278794515
0.0024449066 0.03685895 0.35700002 4278663699
0.0036044433 0.03685895 0.35700002 4278597906
0.0047506355 0.0367557 0.35600001 4278532113
0.0059069237 0.0367557 0.35600001 4278532626
0.0070632128 0.0367557 0.35600001 4278532626
0.008219501 0.0367557 0.35600001 4278532626
0.0093757901 0.0367557 0.35600001 4278664212
0.010561664 0.03685895 0.35700002 4278466833
0.0117212 0.03685895 0.35700002 4278532628
0.012880736 0.03685895 0.35700002 4278466835
0.014040273 0.03685895 0.35700002 4278532628
0.01519981 0.03685895 0.35700002 4278792466
0.016405171 0.036962193 0.35800001 4278196484
0.017567955 0.036962193 0.35800001 4278198535
0.018730739 0.036962193 0.35800001 4278858773
0.019949093 0.037065443 0.35900003 4278195712
0.021115126 0.037065443 0.35900003 4278391812
0.022281159 0.037065443 0.35900003 4278522886
0.023512503 0.037168685 0.36000001 4278719752
0.024681784 0.037168685 0.36000001 4278587912
0.025851065 0.037168685 0.36000001 4278522632
0.027020345 0.037168685 0.36000001 4278654732
0.028267931 0.037271935 0.36100003 4278523146
0.029440459 0.037271935 0.36100003 4278392330
0.03061299 0.037271935 0.36100003 4278194951
0.031785518 0.037271935 0.36100003 4278392584
0.033049341 0.037375178 0.36200002 4278392584
0.034225117 0.037375178 0.36200002 4278195200
0.035400894 0.037375178 0.36200002 4278462736
0.036475632 0.037271935 0.36100003 4278196228
0.03764816 0.037271935 0.36100003 4278195456
0.038820688 0.037271935 0.36100003 4278196996
0.039993219 0.037271935 0.36100003 4278197252
0.041165747 0.037271935 0.36100003 4278198791
0.042338278 0.037271935 0.36100003 4278331404
0.043510806 0.037271935 0.36100003 4278858259
0.044683333 0.037271935 0.36100003 4278595601
0.045855861 0.037271935 0.36100003 4278596371
0.047028389 0.037271935 0.36100003 4278398992
0.04820092 0.037271935 0.36100003 4278794517
0.049510211 0.037375178 0.36200002 4278662931
0.050685991 0.037375178 0.36200002 4278465552
0.05200503 0.037478425 0.36300001 4278531345
0.053184059 0.037478425 0.36300001 4278400527
0.054363079 0.037478425 0.36300001 4278400527
0.055542104 0.037478425 0.36300001 4278598419
0.05687739 0.037581671 0.36400002 4278466833
0.058697678 0.037994657 0.36800003 4278993177
0.061918214 0.038510889 0.37300003 4278664212
0.065904215 0.038717382 0.37500003 4278796568
0.067122221 0.038717382 0.37500003 4278862361
0.068522453 0.038820628 0.37600002 4278599189
0.069743708 0.038820628 0.37600002 4278862875
0.070964955 0.038820628 0.37600002 4278928668
-0.0033903427 0.038444858 0.36100003 4279053842
-0.0022116704 0.038338363 0.36000001 4278857746
-0.0010394942 0.038231868 0.35900003 4278530832
0.00012618597 0.03812537 0.35800001 4278728724
0.0012889706 0.03812537 0.35800001 4278860310
0.0024449066 0.038018879 0.35700002 4278663701
0.0036044433 0.038018879 0.35700002 4278729494
0.0047639804 0.038018879 0.35700002 4278597908
0.0059069237 0.03791238 0.35600001 4278400529
0.0070632128 0.03791238 0.35600001 4278466833
0.008219501 0.03791238 0.35600001 4278466833
0.0093757901 0.03791238 0.35600001 4278532628
0.010561664 0.038018879 0.35700002 4278466835
0.0117212 0.038018879 0.35700002 4278532628
0.012880736 0.038018879 0.35700002 4278598421
0.014040273 0.038018879 0.35700002 4278466835
0.015242386 0.03812537 0.35800001 4278661648
0.016405171 0.03812537 0.35800001 4278195970
0.017567955 0.03812537 0.35800001 4279055127
0.018730739 0.03812537 0.35800001 4278661394
0.019949093 0.038231868 0.35900003 4278194945
0.021115126 0.038231868 0.35900003 4278720265
0.022281159 0.038231868 0.35900003 4278719498
0.023512503 0.038338363 0.36000001 4278719498
0.024681784 0.038338363 0.36000001 4278785291
0.025851065 0.038338363 0.36000001 4278719498
0.027095402 0.038444858 0.36100003 4278654218
0.028267931 0.038444858 0.36100003 4278522632
0.029440459 0.038444858 0.36100003 4278522632
0.030697789 0.038551353 0.36200002 4278654218
0.031873565 0.038551353 0.36200002 4278654218
0.033049341 0.038551353 0.36200002 4278654218
0.034225117 0.038551353 0.36200002 4278195204
0.035400894 0.038551353 0.36200002 4279317275
0.036576673 0.038551353 0.36200002 4279121433
0.03775245 0.038551353 0.36200002 4278989847
0.038928226 0.038551353 0.36200002 4278923541
0.040104002 0.038551353 0.36200002 4279055127
0.041279778 0.038551353 0.36200002 4279055127
0.042455558 0.038551353 0.36200002 4278922771
0.04363133 0.038551353 0.36200002 4279909666
0.044807106 0.038551353 0.36200002 4279251223
0.045982882 0.038551353 0.36200002 4278330121
0.047288932 0.038657848 0.36300001 4278197767
0.048467956 0.038657848 0.36300001 4278195971
0.049646977 0.038657848 0.36300001 4278195456
0.050826006 0.038657848 0.36300001 4278194432
0.052148297 0.038764346 0.36400002 4278195712
0.053330574 0.038764346 0.36400002 4278195200
0.0546626 0.038870838 0.36500001 4278196224
0.055848122 0.038870838 0.36500001 4278198277
0.057189904 0.038977336 0.36600003 4278199818
0.058697678 0.03919033 0.36800003 4278726675
0.061918214 0.039722804 0.37300003 4278924820
0.063298963 0.039829299 0.37400001 4278728211
0.064513713 0.039829299 0.37400001 4278400529
0.065904215 0.039935797 0.37500003 4278532628
0.067122221 0.039935797 0.37500003 4278401810
0.068522453 0.040042289 0.37600002 4278533396
0.069743708 0.040042289 0.37600002 4278599189
0.071153685 0.040148783 0.377 4278664982
0.072378181 0.040148783 0.377 4278862361
0.073602676 0.040148783 0.377 4278862361
0.074827179 0.040148783 0.377 4279385635
-0.0033903427 0.039617784 0.36100003 4279053842
-0.0022116704 0.039508041 0.36000001 4279187224
-0.0010394942 0.039398298 0.35900003 4278596371
0.00012653845 0.039398298 0.35900003 4278794517
0.0012889706 0.039288551 0.35800001 4278795287
0.0024517551 0.039288551 0.35800001 4278597908
0.0036044433 0.039178807 0.35700002 4278663701
0.0047639804 0.039178807 0.35700002 4278597908
0.0059069237 0.03906906 0.35600001 4278532115
0.0070632128 0.03906906 0.35600001 4278597908
0.008219501 0.03906906 0.35600001 4278598419
0.009402127 0.039178807 0.35700002 4278532626
0.010561664 0.039178807 0.35700002 4278532626
0.0117212 0.039178807 0.35700002 4278664214
0.012880736 0.039178807 0.35700002 4278532628
0.014079601 0.039288551 0.35800001 4278532628
0.015242386 0.039288551 0.35800001 4278858259
0.016405171 0.039288551 0.35800001 4278195456
0.017567955 0.039288551 0.35800001 4279121947
0.018783061 0.039398298 0.35900003 4279188510
0.019949093 0.039398298 0.35900003 4278524681
0.021115126 0.039398298 0.35900003 4279049742
0.022343224 0.039508041 0.36000001 4278852365
0.023512503 0.039508041 0.36000001 4279049744
0.024681784 0.039508041 0.36000001 4279116307
0.025922874 0.039617784 0.36100003 4278655756
0.027095402 0.039617784 0.36100003 4278656269
0.028267931 0.039617784 0.36100003 4279709727
0.029522011 0.039727528 0.36200002 4278918928
0.030697789 0.039727528 0.36200002 4279116307
0.031873565 0.039727528 0.36200002 4279116307
0.033140637 0.039837271 0.36300001 4278720779
0.034319662 0.039837271 0.36300001 4279183894
0.035498686 0.039837271 0.36300001 4278792468
0.036677711 0.039837271 0.36300001 4278727959
0.037856735 0.039837271 0.36300001 4278201358
0.03903576 0.039837271 0.36300001 4278265611
0.040214784 0.039837271 0.36300001 4278726673
0.041393809 0.039837271 0.36300001 4278924566
0.042572834 0.039837271 0.36300001 4278990359
0.043751858 0.039837271 0.36300001 4278858773
0.044930883 0.039837271 0.36300001 4278924566
0.046236932 0.039947018 0.36400002 4278858773
0.047419205 0.039947018 0.36400002 4278924566
0.048601482 0.039947018 0.36400002 4278990359
0.049783751 0.039947018 0.36400002 4278924566
0.051106039 0.040056761 0.36500001 4278924568
0.052291561 0.040056761 0.36500001 4278792468
0.053477082 0.040056761 0.36500001 4279055640
0.054812364 0.040166508 0.36600003 4279187226
0.056154139 0.040276252 0.36700001 4278923541
0.057346158 0.040276252 0.36700001 4279054357
0.05885718 0.040495742 0.36900002 4279317016
0.060543951 0.040824972 0.37200001 4278988051
0.061918214 0.040934719 0.37300003 4278395662
0.063298963 0.041044462 0.37400001 4278198026
0.064513713 0.041044462 0.37400001 4278195970
0.065904215 0.04115421 0.37500003 4278464787
0.067122221 0.04115421 0.37500003 4278335249
0.068522453 0.041263953 0.37600002 4278269454
0.069743708 0.041263953 0.37600002 4278466833
0.071153685 0.041373696 0.377 4278598419
0.072378181 0.041373696 0.377 4278598419
0.073602676 0.041373696 0.377 4278598419
0.074827179 0.041373696 0.377 4278858521
-0.0033903427 0.040790711 0.36100003 4278988564
-0.0022116704 0.040677715 0.36000001 4279055638
-0.0010394942 0.040564723 0.35900003 4278530578
0.00012653845 0.040564723 0.35900003 4278860056
0.0012889706 0.040451728 0.35800001 4278795287
0.0024517551 0.040451728 0.35800001 4278664214
0.0036044433 0.040338736 0.35700002 4278532628
0.0047639804 0.040338736 0.35700002 4278466835
0.0059235166 0.040338736 0.35700002 4278466835
0.0070830532 0.040338736 0.35700002 4278466835
0.0082425904 0.040338736 0.35700002 4278466835
0.009402127 0.040338736 0.35700002 4278335249
0.010561664 0.040338736 0.35700002 4278532628
0.0117212 0.040338736 0.35700002 4278532628
0.012916816 0.040451728 0.35800001 4278466835
0.014079601 0.040451728 0.35800001 4278532628
0.015242386 0.040451728 0.35800001 4279712287
0.016405171 0.040451728 0.35800001 4278195972
0.017567955 0.040451728 0.35800001 4278727189
0.018783061 0.040564723 0.35900003 4279056924
0.019949093 0.040564723 0.35900003 4278589963
0.021115126 0.040564723 0.35900003 4279642649
0.022343224 0.040677715 0.36000001 4278590474
0.023512503 0.040677715 0.36000001 4279249174
0.024681784 0.040677715 0.36000001 4279379992
0.025922874 0.040790711 0.36100003 4278392584
0.027095402 0.040790711 0.36100003 4278393097
0.028346235 0.040903702 0.36200002 4278195460
0.029522011 0.040903702 0.36200002 4278458377
0.030697789 0.040903702 0.36200002 4278853648
0.031961612 0.041016694 0.36300001 4278920211
0.033140637 0.041016694 0.36300001 4278327304
0.034319662 0.041016694 0.36300001 4279118613
0.035498686 0.041016694 0.36300001 4278989845
0.036778755 0.04112969 0.36400002 4278726675
0.037961025 0.04112969 0.36400002 4278197256
0.039143298 0.04112969 0.36400002 4278458888
0.040325571 0.04112969 0.36400002 4278393865
0.041507844 0.04112969 0.36400002 4278396173
0.042690117 0.04112969 0.36400002 4278857494
0.04387239 0.04112969 0.36400002 4278198019
0.045178436 0.041242685 0.36500001 4278726673
0.046363954 0.041242685 0.36500001 4278199044
0.047549479 0.041242685 0.36500001 4278198273
0.048735 0.041242685 0.36500001 4278924568
0.050057288 0.041355681 0.36600003 4278596373
0.051246058 0.041355681 0.36600003 4278530580
0.052434828 0.041355681 0.36600003 4278531093
0.05377011 0.041468672 0.36700001 4278531091
0.054962121 0.041468672 0.36700001 4278662677
0.056307152 0.041581668 0.36800003 4278727957
0.057658672 0.04169466 0.36900002 4278727957
0.059016682 0.041807652 0.37 4278794004
0.060543951 0.042033639 0.37200001 4278728211
0.061918214 0.042146634 0.37300003 4278794004
0.063298963 0.042259626 0.37400001 4278728211
0.064513713 0.042259626 0.37400001 4278197253
0.065904215 0.042372622 0.37500003 4279252506
0.067122221 0.042372622 0.37500003 4278532113
0.068522453 0.042485613 0.37600002 4278597906
0.069743708 0.042485613 0.37600002 4278597906
0.071153685 0.042598605 0.377 4278597908
0.072378181 0.042598605 0.377 4278532113
0.073602676 0.042598605 0.377 4278663699
0.075025663 0.042711601 0.37800002 4278924314
-0.003380951 0.041847393 0.36000001 4279121431
-0.0022116704 0.041847393 0.36000001 4279056152
-0.0010394942 0.041731153 0.35900003 4278465298
0.00012653845 0.041731153 0.35900003 4278531861
0.0012889706 0.041614905 0.35800001 4278927132
0.0024517551 0.041614905 0.35800001 4278729753
0.0036145397 0.041614905 0.35800001 4278532628
0.0047639804 0.041498665 0.35700002 4278532628
0.0059235166 0.041498665 0.35700002 4278532628
0.0070830532 0.041498665 0.35700002 4278532628
0.0082425904 0.041498665 0.35700002 4278532628
0.009402127 0.041498665 0.35700002 4278663701
0.010591248 0.041614905 0.35800001 4278663701
0.011754032 0.041614905 0.35800001 4278532115
0.012916816 0.041614905 0.35800001 4278663701
0.014079601 0.041614905 0.35800001 4278597908
0.015242386 0.041614905 0.35800001 4278854927
0.016405171 0.041614905 0.35800001 4278657037
0.017567955 0.041614905 0.35800001 4278726675
0.018783061 0.041731153 0.35900003 4279056154
0.019949093 0.041731153 0.35900003 4278524168
0.021115126 0.041731153 0.35900003 4278654986
0.022343224 0.041847393 0.36000001 4278588939
0.023512503 0.041847393 0.36000001 4278524170
0.024681784 0.041847393 0.36000001 4278721549
0.025922874 0.041963637 0.36100003 4278392584
0.027095402 0.041963637 0.36100003 4278654986
0.028346235 0.042079877 0.36200002 4278523400
0.029522011 0.042079877 0.36200002 4278656269
0.030697789 0.042079877 0.36200002 4279578652
0.031961612 0.042196121 0.36300001 4279578652
0.033140637 0.042196121 0.36300001 4278392584
0.034319662 0.042196121 0.36300001 4279250199
0.035596479 0.042312365 0.36400002 4279450398
0.036778755 0.042312365 0.36400002 4278196742
0.037961025 0.042312365 0.36400002 4278524170
0.039143298 0.042312365 0.36400002 4278786058
0.040325571 0.042312365 0.36400002 4278720777
0.041621875 0.042428605 0.36500001 4278329867
0.042807397 0.042428605 0.36500001 4278989847
0.043992914 0.042428605 0.36500001 4279186713
0.045178436 0.042428605 0.36500001 4278922517
0.046490982 0.042544849 0.36600003 4279055127
0.047679752 0.042544849 0.36600003 4278923541
0.048868522 0.042544849 0.36600003 4278198022
0.050194055 0.042661093 0.36700001 4278198536
0.051386073 0.042661093 0.36700001 4278462738
0.052578092 0.042661093 0.36700001 4278594322
0.053916626 0.042777337 0.36800003 4278199563
0.055111885 0.042777337 0.36800003 4278199563
0.056460157 0.042893577 0.36900002 4278197765
0.057814926 0.043009818 0.37 4278595089
0.059176192 0.043126062 0.37100002 4278266890
0.060543951 0.043242306 0.37200001 4278661648
0.061918214 0.043358549 0.37300003 4278727957
0.063298963 0.04347479 0.37400001 4278727957
0.064686216 0.043591034 0.37500003 4278461453
0.065904215 0.043591034 0.37500003 4279646494
0.067301206 0.043707278 0.37600002 4278531861
0.068522453 0.043707278 0.37600002 4278532115
0.069743708 0.043707278 0.37600002 4278532115
0.071153685 0.043823518 0.377 4278400529
0.072378181 0.043823518 0.377 4278662931
0.073797919 0.043939762 0.37800002 4278662931
0.075025663 0.043939762 0.37800002 4278331663
0.076253399 0.043939762 0.37800002 4285370235
-0.010598792 0.04385351 0.36700001 4284446571
-0.003380951 0.043017067 0.36000001 4279186713
-0.0022116704 0.043017067 0.36000001 4278924566
-0.0010394942 0.042897578 0.35900003 4278728470
0.00012653845 0.042897578 0.35900003 4278728470
0.0012889706 0.042778086 0.35800001 4278729240
0.0024517551 0.042778086 0.35800001 4278664214
0.0036145397 0.042778086 0.35800001 4278664214
0.0047773244 0.042778086 0.35800001 4278335249
0.0059401086 0.042778086 0.35800001 4278532628
0.0071028937 0.042778086 0.35800001 4278335249
0.0082656788 0.042778086 0.35800001 4278598421
0.0094284629 0.042778086 0.35800001 4278466835
0.010591248 0.042778086 0.35800001 4278466835
0.011754032 0.042778086 0.35800001 4278598421
0.012916816 0.042778086 0.35800001 4278664214
0.014079601 0.042778086 0.35800001 4278532628
0.015242386 0.042778086 0.35800001 4278460169
0.016405171 0.042778086 0.35800001 4278789134
0.017567955 0.042778086 0.35800001 4278990359
0.018783061 0.042897578 0.35900003 4278858773
0.019949093 0.042897578 0.35900003 4278458377
0.021115126 0.042897578 0.35900003 4278523146
0.022343224 0.043017067 0.36000001 4278720011
0.023512503 0.043017067 0.36000001 4278654218
0.024681784 0.043017067 0.36000001 4278719498
0.025922874 0.043136563 0.36100003 4278587912
0.027095402 0.043136563 0.36100003 4278785291
0.028346235 0.043256052 0.36200002 4278587912
0.029522011 0.043256052 0.36200002 4278522373
0.030697789 0.043256052 0.36200002 4278391814
0.031961612 0.043375544 0.36300001 4278523146
0.033140637 0.043375544 0.36300001 4278523146
0.034414209 0.043495037 0.36400002 4278922771
0.035596479 0.043495037 0.36400002 4278792466
0.036778755 0.043495037 0.36400002 4278262281
0.037961025 0.043495037 0.36400002 4278654218
0.039250832 0.043614529 0.36500001 4278720011
0.040436354 0.043614529 0.36500001 4279313684
0.041621875 0.043614529 0.36500001 4278329097
0.042807397 0.043614529 0.36500001 4278856724
0.044113446 0.043734021 0.36600003 4278199818
0.045302216 0.043734021 0.36600003 4278791955
0.046490982 0.043734021 0.36600003 4278726162
0.047810022 0.04385351 0.36700001 4278989847
0.04900204 0.04385351 0.36700001 4278331150
0.050194055 0.04385351 0.36700001 4278791701
0.051526092 0.043973006 0.36800003 4278592271
0.052721359 0.043973006 0.36800003 4278329099
0.054063134 0.044092495 0.36900002 4279119383
0.055261642 0.044092495 0.36900002 4278461966
0.056613166 0.044211987 0.37 4279054103
0.057971187 0.04433148 0.37100002 4278593552
0.059335694 0.044450969 0.37200001 4278725138
0.060706709 0.044570465 0.37300003 4278725138
0.062084213 0.044689953 0.37400001 4278727189
0.063298963 0.044689953 0.37400001 4278793752
0.064686216 0.044809449 0.37500003 4278197252
0.065904215 0.044809449 0.37500003 4278923541
0.067301206 0.044928938 0.37600002 4278728470
0.068522453 0.044928938 0.37600002 4278662677
0.06992919 0.045048431 0.377 4278663701
0.071153685 0.045048431 0.377 4278597908
0.072570167 0.045167923 0.37800002 4278794517
0.073797919 0.045167923 0.37800002 4278662931
0.075025663 0.045167923 0.37800002 4279318558
0.076253399 0.045167923 0.37800002 4284843889
-0.0093298806 0.044677708 0.36400002 4284315498
-0.0081252242 0.044554967 0.36300001 4284248169
-0.0045502316 0.044186745 0.36000001 4279316762
-0.003380951 0.044186745 0.36000001 4279253019
-0.0022055269 0.044064008 0.35900003 4279056152
-0.0010394942 0.044064008 0.35900003 4278925590
0.00012653845 0.044064008 0.35900003 4278991383
0.0012889706 0.043941263 0.35800001 4278991896
0.0024517551 0.043941263 0.35800001 4278729494
0.0036145397 0.043941263 0.35800001 4278598421
0.0047773244 0.043941263 0.35800001 4278466835
0.0059401086 0.043941263 0.35800001 4278466835
0.0071028937 0.043941263 0.35800001 4278532628
0.0082656788 0.043941263 0.35800001 4278532628
0.0094284629 0.043941263 0.35800001 4278598421
0.010591248 0.043941263 0.35800001 4278598421
0.011754032 0.043941263 0.35800001 4278730007
0.012916816 0.043941263 0.35800001 4278532115
0.014079601 0.043941263 0.35800001 4278400529
0.015242386 0.043941263 0.35800001 4278529294
0.016405171 0.043941263 0.35800001 4278594576
0.017567955 0.043941263 0.35800001 4278793750
0.018783061 0.044064008 0.35900003 4278859543
0.019949093 0.044064008 0.35900003 4278723855
0.021115126 0.044064008 0.35900003 4278328072
0.022343224 0.044186745 0.36000001 4278720779
0.023512503 0.044186745 0.36000001 4278589193
0.024681784 0.044186745 0.36000001 4278456839
0.025922874 0.044309489 0.36100003 4278785804
0.027095402 0.044309489 0.36100003 4278851084
0.028346235 0.044432227 0.36200002 4278851084
0.029522011 0.044432227 0.36200002 4278719498
0.030697789 0.044432227 0.36200002 4278719498
0.031961612 0.044554967 0.36300001 4278719498
0.033140637 0.044554967 0.36300001 4278785804
0.034319662 0.044554967 0.36300001 4279514908
0.035596479 0.044677708 0.36400002 4279121947
0.036778755 0.044677708 0.36400002 4279514395
0.037961025 0.044677708 0.36400002 4279118099
0.039250832 0.044800449 0.36500001 4279643930
0.040436354 0.044800449 0.36500001 4279250453
0.041621875 0.044800449 0.36500001 4279185943
0.042807397 0.044800449 0.36500001 4278857748
0.044113446 0.044923194 0.36600003 4278792468
0.045302216 0.044923194 0.36600003 4278989847
0.046618003 0.045045931 0.36700001 4278858261
0.047810022 0.045045931 0.36700001 4278660882
0.04900204 0.045045931 0.36700001 4278989847
0.050330825 0.045168675 0.36800003 4279318812
0.051526092 0.045168675 0.36800003 4279055127
0.052864619 0.045291413 0.36900002 4278528013
0.054063134 0.045291413 0.36900002 4279449115
0.055411402 0.045414153 0.37 4278198534
0.056766175 0.045536898 0.37100002 4278196481
0.057971187 0.045536898 0.37100002 4278988310
0.059335694 0.045659635 0.37200001 4278198024
0.060706709 0.04578238 0.37300003 4278198026
0.062084213 0.045905117 0.37400001 4278727187
0.063298963 0.045905117 0.37400001 4279057176
0.064686216 0.046027862 0.37500003 4278198532
0.066079959 0.046150602 0.37600002 4279187224
0.067301206 0.046150602 0.37600002 4278794263
0.068704695 0.04627334 0.377 4278728470
0.06992919 0.04627334 0.377 4278597654
0.071153685 0.04627334 0.377 4278729240
0.072570167 0.046396084 0.37800002 4278531861
0.073797919 0.046396084 0.37800002 4278795033
0.075025663 0.046396084 0.37800002 4278792214
0.076253399 0.046396084 0.37800002 4285303929
-0.0093042487 0.045734394 0.36300001 4284315498
-0.0081028407 0.045608405 0.36200002 4283920740
-0.0069079287 0.045482416 0.36100003 4283459674
-0.0057195118 0.045356423 0.36000001 4278789652
-0.0045502316 0.045356423 0.36000001 4279250973
-0.0033715598 0.045230437 0.35900003 4279318812
-0.0022055269 0.045230437 0.35900003 4278991129
-0.0010394942 0.045230437 0.35900003 4278859797
0.00012653845 0.045230437 0.35900003 4279123482
0.0012889706 0.045104444 0.35800001 4278861080
0.0024517551 0.045104444 0.35800001 4278730007
0.0036145397 0.045104444 0.35800001 4278598421
0.0047773244 0.045104444 0.35800001 4278532628
0.0059401086 0.045104444 0.35800001 4278598421
0.0071028937 0.045104444 0.35800001 4278466835
0.0082656788 0.045104444 0.35800001 4278532628
0.0094284629 0.045104444 0.35800001 4278664214
0.010591248 0.045104444 0.35800001 4278532628
0.011754032 0.045104444 0.35800001 4278532628
0.012916816 0.045104444 0.35800001 4278729494
0.014079601 0.045104444 0.35800001 4278201612
0.015242386 0.045104444 0.35800001 4278396943
0.016405171 0.045104444 0.35800001 4278660115
0.017567955 0.045104444 0.35800001 4278662677
0.018783061 0.045230437 0.35900003 4278794263
0.019949093 0.045230437 0.35900003 4278794263
0.021115126 0.045230437 0.35900003 4278925336
0.022343224 0.045356423 0.36000001 4279121945
0.023512503 0.045356423 0.36000001 4279187224
0.024681784 0.045356423 0.36000001 4279581471
0.025922874 0.045482416 0.36100003 4279384092
0.027095402 0.045482416 0.36100003 4279120666
0.028267931 0.045482416 0.36100003 4279054103
0.029522011 0.045608405 0.36200002 4279579934
0.030697789 0.045608405 0.36200002 4279579934
0.031961612 0.045734394 0.36300001 4279381785
0.033140637 0.045734394 0.36300001 4278921234
0.034319662 0.045734394 0.36300001 4279054103
0.035596479 0.045860387 0.36400002 4278196225
0.036778755 0.045860387 0.36400002 4278196226
0.037961025 0.045860387 0.36400002 4278195456
0.039250832 0.045986373 0.36500001 4278194944
0.040436354 0.045986373 0.36500001 4278193920
0.041621875 0.045986373 0.36500001 4278195200
0.04292468 0.046112366 0.36600003 4278194432
0.044113446 0.046112366 0.36600003 4278196484
0.045302216 0.046112366 0.36600003 4278197510
0.046618003 0.046238355 0.36700001 4278198537
0.047810022 0.046238355 0.36700001 4278593552
0.049135566 0.046364348 0.36800003 4278922771
0.050330825 0.046364348 0.36800003 4279384090
0.051666107 0.046490334 0.36900002 4278858259
0.052864619 0.046490334 0.36900002 4278792466
0.054209646 0.046616323 0.37 4279056152
0.055411402 0.046616323 0.37 4278990359
0.056766175 0.046742316 0.37100002 4278990359
0.058127441 0.046868306 0.37200001 4278924566
0.059495199 0.046994295 0.37300003 4278858773
0.060869459 0.047120284 0.37400001 4278858773
0.062084213 0.047120284 0.37400001 4278859797
0.06346821 0.047246277 0.37500003 4278530832
0.064686216 0.047246277 0.37500003 4278197507
0.066079959 0.047372267 0.37600002 4278858773
0.067301206 0.047372267 0.37600002 4278662677
0.068704695 0.047498256 0.377 4278728724
0.06992919 0.047498256 0.377 4278794517
0.071342431 0.047624245 0.37800002 4278662931
0.072570167 0.047624245 0.37800002 4278992666
0.073797919 0.047624245 0.37800002 4278794517
0.075025663 0.047624245 0.37800002 4279777828
0.076253399 0.047624245 0.37800002 4284973680
-0.0080804573 0.046655338 0.36100003 4283920227
-0.0068887929 0.046526097 0.36000001 4283854434
-0.0057195118 0.046526097 0.36000001 4283920738
-0.0045375922 0.046396859 0.35900003 4282210120
-0.0033715598 0.046396859 0.35900003 4278593043
-0.0022055269 0.046396859 0.35900003 4279317277
-0.0010394942 0.046396859 0.35900003 4279121945
0.00012618597 0.046267621 0.35800001 4279320094
0.0012889706 0.046267621 0.35800001 4279058205
0.0024517551 0.046267621 0.35800001 4278860826
0.0036145397 0.046267621 0.35800001 4278795546
0.0047773244 0.046267621 0.35800001 4278663960
0.0059401086 0.046267621 0.35800001 4278664214
0.0071028937 0.046267621 0.35800001 4278664214
0.0082656788 0.046267621 0.35800001 4278466835
0.0094284629 0.046267621 0.35800001 4278598421
0.010591248 0.046267621 0.35800001 4278730007
0.011754032 0.046267621 0.35800001 4278532115
0.012916816 0.046267621 0.35800001 4278663701
0.014079601 0.046267621 0.35800001 4278729494
0.015242386 0.046267621 0.35800001 4278925336
0.016405171 0.046267621 0.35800001 4278859543
0.017567955 0.046267621 0.35800001 4278663447
0.018783061 0.046396859 0.35900003 4278663447
0.019949093 0.046396859 0.35900003 4278597654
0.021115126 0.046396859 0.35900003 4278663701
0.022343224 0.046526097 0.36000001 4278728724
0.023512503 0.046526097 0.36000001 4278860310
0.024681784 0.046526097 0.36000001 4278794263
0.025922874 0.046655338 0.36100003 4278794263
0.027095402 0.046655338 0.36100003 4278728470
0.028267931 0.046655338 0.36100003 4278860056
0.029522011 0.046784576 0.36200002 4278728724
0.030697789 0.046784576 0.36200002 4278859797
0.031873565 0.046784576 0.36200002 4278991383
0.033140637 0.046913814 0.36300001 4278859797
0.034319662 0.046913814 0.36300001 4278925590
0.035596479 0.047043055 0.36400002 4278794004
0.036778755 0.047043055 0.36400002 4278924820
0.037961025 0.047043055 0.36400002 4278924820
0.039250832 0.047172293 0.36500001 4278924820
0.040436354 0.047172293 0.36500001 4278924566
0.041621875 0.047172293 0.36500001 4278989847
0.04292468 0.047301535 0.36600003 4279055127
0.044113446 0.047301535 0.36600003 4279252506
0.045302216 0.047301535 0.36600003 4279186713
0.046618003 0.047430772 0.36700001 4279317529
0.047810022 0.047430772 0.36700001 4279251482
0.049135566 0.047560014 0.36800003 4278922004
0.050330825 0.047560014 0.36800003 4278593039
0.051666107 0.047689252 0.36900002 4278329097
0.052864619 0.047689252 0.36900002 4278197254
0.054209646 0.047818489 0.37 4278196230
0.055561166 0.047947731 0.37100002 4278195456
0.056919184 0.048076969 0.37200001 4278195456
0.058127441 0.048076969 0.37200001 4278195200
0.059495199 0.04820621 0.37300003 4278193920
0.060869459 0.048335448 0.37400001 4278196225
0.062250216 0.048464689 0.37500003 4278197767
0.06346821 0.048464689 0.37500003 4278198024
0.064858705 0.048593923 0.37600002 4278726675
0.066079959 0.048593923 0.37600002 4278859543
0.067480199 0.048723161 0.377 4278662677
0.068704695 0.048723161 0.377 4278662677
0.07011468 0.048852403 0.37800002 4278860056
0.071342431 0.048852403 0.37800002 4278794263
0.072570167 0.048852403 0.37800002 4278860056
0.073797919 0.048852403 0.37800002 4278925849
0.075025663 0.048852403 0.37800002 4284974194
0.076253399 0.048852403 0.37800002 4284776561
-0.0068887929 0.047695778 0.36000001 4283854434
-0.0057036243 0.047563292 0.35900003 4283788641
-0.0045375922 0.047563292 0.35900003 4284052326
-0.0033715598 0.047563292 0.35900003 4284184426
-0.0022055269 0.047563292 0.35900003 4284249957
-0.0010365986 0.047430802 0.35800001 4280238381
0.00012618597 0.047430802 0.35800001 4278725912
0.0012889706 0.047430802 0.35800001 4279516453
0.0024517551 0.047430802 0.35800001 4279254051
0.0036145397 0.047430802 0.35800001 4279254562
0.0047773244 0.047430802 0.35800001 4279188769
0.0059401086 0.047430802 0.35800001 4279189023
0.0071028937 0.047430802 0.35800001 4279123230
0.0082656788 0.047430802 0.35800001 4279189023
0.0094547998 0.047563292 0.35900003 4278925851
0.010620832 0.047563292 0.35900003 4279189023
0.011754032 0.047430802 0.35800001 4279189023
0.012916816 0.047430802 0.35800001 4279254816
0.014079601 0.047430802 0.35800001 4279320609
0.015242386 0.047430802 0.35800001 4278925851
0.016405171 0.047430802 0.35800001 4279123228
0.017567955 0.047430802 0.35800001 4278794263
0.018783061 0.047563292 0.35900003 4278925849
0.019949093 0.047563292 0.35900003 4278860056
0.021115126 0.047563292 0.35900003 4278860056
0.022281159 0.047563292 0.35900003 4278860310
0.023512503 0.047695778 0.36000001 4278860310
0.024681784 0.047695778 0.36000001 4278728724
0.025851065 0.047695778 0.36000001 4278728470
0.027095402 0.047828268 0.36100003 4278728470
0.028267931 0.047828268 0.36100003 4278794263
0.029440459 0.047828268 0.36100003 4278729240
0.030697789 0.047960754 0.36200002 4278663701
0.031873565 0.047960754 0.36200002 4278400529
0.033140637 0.048093241 0.36300001 4278663701
0.034319662 0.048093241 0.36300001 4278597908
0.035596479 0.048225731 0.36400002 4278663701
0.036778755 0.048225731 0.36400002 4278597908
0.037961025 0.048225731 0.36400002 4278663701
0.039250832 0.048358217 0.36500001 4278532115
0.040436354 0.048358217 0.36500001 4278532115
0.041621875 0.048358217 0.36500001 4278663701
0.04292468 0.048490711 0.36600003 4278728724
0.044113446 0.048490711 0.36600003 4278794517
0.045302216 0.048490711 0.36600003 4278728724
0.046618003 0.048623197 0.36700001 4278794517
0.047810022 0.048623197 0.36700001 4278925849
0.049135566 0.048755687 0.36800003 4278794263
0.050467592 0.048888173 0.36900002 4278728470
0.051666107 0.048888173 0.36900002 4278727957
0.053007882 0.049020659 0.37 4278925336
0.054356162 0.049153149 0.37100002 4278925336
0.055561166 0.049153149 0.37100002 4278859545
0.056919184 0.049285635 0.37200001 4278924568
0.058283698 0.049418125 0.37300003 4278924568
0.059654702 0.049550612 0.37400001 4279186713
0.060869459 0.049550612 0.37400001 4279120920
0.062250216 0.049683105 0.37500003 4279384092
0.06346821 0.049683105 0.37500003 4279515678
0.064858705 0.049815591 0.37600002 4279055638
0.066079959 0.049815591 0.37600002 4278793750
0.067480199 0.049948078 0.377 4278662677
0.068704695 0.049948078 0.377 4278663447
0.07011468 0.050080568 0.37800002 4278663447
0.071342431 0.050080568 0.37800002 4278795033
0.072570167 0.050080568 0.37800002 4278991644
0.073797919 0.050080568 0.37800002 4279120666
0.075025663 0.050080568 0.37800002 4284974710
-0.0057036243 0.048729714 0.35900003 4283854434
-0.0045375922 0.048729714 0.35900003 4284117606
-0.0033715598 0.048729714 0.35900003 4284447084
-0.0021993832 0.048593976 0.35800001 4284710256
-0.0010365986 0.048593976 0.35800001 4284776047
0.00012618597 0.048593976 0.35800001 4285105012
0.0012889706 0.048593976 0.35800001 4285039733
0.0024517551 0.048593976 0.35800001 4284710768
0.0036145397 0.048593976 0.35800001 4283527777
0.0047773244 0.048593976 0.35800001 4281882952
0.0059401086 0.048593976 0.35800001 4280633655
0.0071028937 0.048593976 0.35800001 4279383588
0.0082656788 0.048593976 0.35800001 4279120416
0.0094547998 0.048729714 0.35900003 4278725912
0.010620832 0.048729714 0.35900003 4278858011
0.011754032 0.048593976 0.35800001 4278858011
0.012916816 0.048593976 0.35800001 4278990111
0.014079601 0.048593976 0.35800001 4279187488
0.015242386 0.048593976 0.35800001 4279384867
0.016405171 0.048593976 0.35800001 4279450660
0.017567955 0.048593976 0.35800001 4279450658
0.018783061 0.048729714 0.35900003 4279450658
0.019949093 0.048729714 0.35900003 4279450912
0.021115126 0.048729714 0.35900003 4279450912
0.022281159 0.048729714 0.35900003 4279188510
0.023512503 0.048865452 0.36000001 4279056924
0.024681784 0.048865452 0.36000001 4278925851
0.025851065 0.048865452 0.36000001 4279320609
0.027095402 0.049001191 0.36100003 4278991644
0.028267931 0.049001191 0.36100003 4279189023
0.029440459 0.049001191 0.36100003 4278794265
0.030697789 0.049136925 0.36200002 4278991642
0.031873565 0.049136925 0.36200002 4278795287
0.033140637 0.049272664 0.36300001 4278663701
0.034319662 0.049272664 0.36300001 4278663701
0.035498686 0.049272664 0.36300001 4278663701
0.036778755 0.049408402 0.36400002 4278597908
0.037961025 0.049408402 0.36400002 4278663701
0.039250832 0.049544137 0.36500001 4278663701
0.040436354 0.049544137 0.36500001 4278729494
0.041621875 0.049544137 0.36500001 4278597908
0.04292468 0.049679875 0.36600003 4278597908
0.044113446 0.049679875 0.36600003 4278729240
0.045425989 0.049815614 0.36700001 4278597654
0.046618003 0.049815614 0.36700001 4278729240
0.047940299 0.049951352 0.36800003 4278729240
0.049135566 0.049951352 0.36800003 4278729240
0.050467592 0.050087087 0.36900002 4278663447
0.051806122 0.050222825 0.37 4278795033
0.053007882 0.050222825 0.37 4278729240
0.054356162 0.050358564 0.37100002 4278729240
0.055710923 0.050494298 0.37200001 4278729240
0.057072192 0.050630037 0.37300003 4278795033
0.058283698 0.050630037 0.37300003 4278925849
0.059654702 0.050765775 0.37400001 4278991642
0.061032213 0.050901514 0.37500003 4278925849
0.062250216 0.050901514 0.37500003 4278859543
0.063637458 0.051037248 0.37600002 4278925336
0.064858705 0.051037248 0.37600002 4279056406
0.066255704 0.051172987 0.377 4278991383
0.067480199 0.051172987 0.377 4278926103
0.068886936 0.051308725 0.37800002 4278860310
0.07011468 0.051308725 0.37800002 4278728724
0.071342431 0.051308725 0.37800002 4278925849
0.072570167 0.051308725 0.37800002 4279186974
0.073993146 0.05144446 0.37900001 4284514413
0.012916816 0.049757157 0.35800001 4285435263
0.014079601 0.049757157 0.35800001 4285304190
0.015242386 0.049757157 0.35800001 4284843639
0.016405171 0.049757157 0.35800001 4284317295
0.017567955 0.049757157 0.35800001 4283265377
0.018783061 0.049896147 0.35900003 4282081103
0.019949093 0.049896147 0.35900003 4280698678
0.021115126 0.049896147 0.35900003 4280172075
0.022281159 0.049896147 0.35900003 4280040489
0.023512503 0.05003513 0.36000001 4278988314
0.024681784 0.05003513 0.36000001 4279121183
0.025851065 0.05003513 0.36000001 4278858011
0.027095402 0.050174121 0.36100003 4278726425
0.028267931 0.050174121 0.36100003 4278858009
0.029440459 0.050174121 0.36100003 4279319074
0.030697789 0.050313104 0.36200002 4279319072
0.031873565 0.050313104 0.36200002 4279187740
0.033049341 0.050313104 0.36200002 4279056924
0.034319662 0.050452087 0.36300001 4278991131
0.035498686 0.050452087 0.36300001 4279056924
0.036778755 0.050591078 0.36400002 4279188510
0.037961025 0.050591078 0.36400002 4278991131
0.039250832 0.050730061 0.36500001 4278991644
0.040436354 0.050730061 0.36500001 4279123228
0.041621875 0.050730061 0.36500001 4278925849
0.04292468 0.050869051 0.36600003 4278991642
0.044113446 0.050869051 0.36600003 4278991642
0.045425989 0.051008034 0.36700001 4278925849
0.046618003 0.051008034 0.36700001 4279123228
0.047940299 0.051147025 0.36800003 4278991642
0.049135566 0.051147025 0.36800003 4279320094
0.050467592 0.051286008 0.36900002 4279056922
0.051806122 0.051424995 0.37 4279188508
0.053151149 0.051563982 0.37100002 4279056922
0.054356162 0.051563982 0.37100002 4279056922
0.055710923 0.051702969 0.37200001 4278991129
0.057072192 0.051841956 0.37300003 4279254301
0.058439955 0.051980942 0.37400001 4279254301
0.059654702 0.051980942 0.37400001 4279254555
0.061032213 0.052119929 0.37500003 4278991129
0.062250216 0.052119929 0.37500003 4279188508
0.063637458 0.052258916 0.37600002 4279188508
0.064858705 0.052258916 0.37600002 4279056152
0.066255704 0.052397899 0.377 4279187992
0.067480199 0.052397899 0.377 4279187992
0.068886936 0.052536886 0.37800002 4279187992
0.07011468 0.052536886 0.37800002 4279319064
0.071342431 0.052536886 0.37800002 4279514395
0.072762154 0.052675873 0.37900001 4284842094
0.030697789 0.051489282 0.36200002 4284843637
0.031873565 0.051489282 0.36200002 4284449133
0.033049341 0.051489282 0.36200002 4283725410
0.034319662 0.051631514 0.36300001 4283199066
0.035498686 0.051631514 0.36300001 4282277451
0.036778755 0.051773753 0.36400002 4281159483
0.037961025 0.051773753 0.36400002 4280633139
0.039250832 0.051915988 0.36500001 4280239151
0.040436354 0.051915988 0.36500001 4279975979
0.041621875 0.051915988 0.36500001 4279778600
0.04292468 0.052058224 0.36600003 4279975979
0.044113446 0.052058224 0.36600003 4279514658
0.045425989 0.052200459 0.36700001 4279843623
0.046618003 0.052200459 0.36700001 4279777830
0.047940299 0.052342698 0.36800003 4279843623
0.049269084 0.05248493 0.36900002 4279777576
0.050467592 0.05248493 0.36900002 4279843369
0.051806122 0.052627165 0.37 4279646244
0.053151149 0.052769404 0.37100002 4280106795
0.05450267 0.052911635 0.37200001 4280304172
0.055860687 0.053053875 0.37300003 4279909414
0.057072192 0.053053875 0.37300003 4279975977
0.058439955 0.053196106 0.37400001 4280041770
0.059814211 0.053338345 0.37500003 4280106793
0.061032213 0.053338345 0.37500003 4280896311
0.062416214 0.05348058 0.37600002 4280369967
0.063637458 0.05348058 0.37600002 4281027897
0.065031201 0.053622812 0.377 4281291067
0.066255704 0.053622812 0.377 4281882689
0.067480199 0.053622812 0.377 4282210884
0.068886936 0.053765051 0.37800002 4283197781
0.07011468 0.053765051 0.37800002 4285367925
0.071342431 0.053765051 0.37800002 4285630327
0.072762154 0.053907286 0.37900001 4285236339
0.055860687 0.054265786 0.37300003 4284843378
0.057225201 0.05441127 0.37400001 4285171573
0.058439955 0.05441127 0.37400001 4284974194
0.059814211 0.054556757 0.37500003 4285039987
0.061032213 0.054556757 0.37500003 4285105780
0.062416214 0.054702237 0.37600002 4285039987
0.063637458 0.054702237 0.37600002 4285039987
0.065031201 0.054847721 0.377 4285039987
0.066255704 0.054847721 0.377 4285105266
0.067659192 0.054993208 0.37800002 4285105266
0.068886936 0.054993208 0.37800002 4285171059
0.07011468 0.054993208 0.37800002 4284973680
0.071342431 0.054993208 0.37800002 4285302132
0.031468626 0.041958954 0.36337206 4294967295
0.031468626 0.041958954 0.36337206 4294901760
0.031468626 0.041958954 0.36387205 4294901760
0.031468626 0.041958954 0.36437204 4294901760
0.031468626 0.041958954 0.36487207 4294901760
0.031468626 0.041958954 0.36537206 4294901760
0.031468626 0.041958954 0.36587206 4294901760
0.031468626 0.041958954 0.36637205 4294901760
0.031468626 0.041958954 0.36687207 4294901760
0.031468626 0.041958954 0.36737207 4294901760
0.031468626 0.041958954 0.36787206 4294901760
0.031468626 0.041958954 0.36837205 4294901760
0.031468626 0.041958954 0.36887205 4294901760
0.031468626 0.041958954 0.36937207 4294901760
0.031468626 0.041958954 0.36987206 4294901760
0.031468626 0.041958954 0.37037206 4294901760
0.031468626 0.041958954 0.37087205 4294901760
0.031468626 0.041958954 0.37137204 4294901760
0.031468626 0.041958954 0.37187207 4294901760
0.031468626 0.041958954 0.37237206 4294901760
0.031468626 0.041958954 0.37287205 4294901760
0.031468626 0.041958954 0.37337205 4294901760
0.031468626 0.041958954 0.37387207 4294901760
0.031468626 0.041958954 0.37437207 4294901760
0.031468626 0.041958954 0.37487206 4294901760
0.031468626 0.041958954 0.37537205 4294901760
0.031468626 0.041958954 0.37587208 4294901760
0.031468626 0.041958954 0.37637207 4294901760
0.031468626 0.041958954 0.37687206 4294901760
0.031468626 0.041958954 0.37737206 4294901760
0.031468626 0.041958954 0.37787205 4294901760
0.031468626 0.041958954 0.37837207 4294901760
0.031468626 0.041958954 0.37887207 4294901760
0.031468626 0.041958954 0.37937206 4294901760
0.031468626 0.041958954 0.37987205 4294901760
0.031468626 0.041958954 0.38037205 4294901760
0.031468626 0.041958954 0.38087207 4294901760
0.031468626 0.041958954 0.38137206 4294901760
0.031468626 0.041958954 0.38187206 4294901760
0.031468626 0.041958954 0.38237205 4294901760
0.031468626 0.041958954 0.38287207 4294901760
0.031468626 0.041958954 0.38337207 4294901760
0.031468626 0.041958954 0.38387206 4294901760
0.031468626 0.041958954 0.38437206 4294901760
0.031468626 0.041958954 0.38487208 4294901760
0.031468626 0.041958954 0.38537207 4294901760
0.031468626 0.041958954 0.38587207 4294901760
0.031468626 0.041958954 0.38637206 4294901760
0.031468626 0.041958954 0.38687205 4294901760
0.031468626 0.041958954 0.38737208 4294901760
0.031468626 0.041958954 0.38787207 4294901760
0.031468626 0.041958954 0.38837206 4294901760
0.031468626 0.041958954 0.38887206 4294901760
0.031468626 0.041958954 0.38937205 4294901760
0.031468626 0.041958954 0.38987207 4294901760
0.031468626 0.041958954 0.39037207 4294901760
0.031468626 0.041958954 0.39087206 4294901760
0.031468626 0.041958954 0.39137205 4294901760
0.031468626 0.041958954 0.39187205 4294901760
0.031468626 0.041958954 0.39237207 4294901760
0.031468626 0.041958954 0.39287207 4294901760
0.031468626 0.041958954 0.39337206 4294901760
0.031468626 0.041958954 0.39387205 4294901760
0.031468626 0.041958954 0.39437208 4294901760
0.031468626 0.041958954 0.39487207 4294901760
0.031468626 0.041958954 0.39537206 4294901760
0.031468626 0.041958954 0.39587206 4294901760
0.031468626 0.041958954 0.39637208 4294901760
0.031468626 0.041958954 0.39687207 4294901760
0.031468626 0.041958954 0.39737207 4294901760
0.031468626 0.041958954 0.39787206 4294901760
0.031468626 0.041958954 0.39837205 4294901760
0.031468626 0.041958954 0.39887208 4294901760
0.031468626 0.041958954 0.39937207 4294901760
0.031468626 0.041958954 0.39987206 4294901760
0.031468626 0.041958954 0.40037206 4294901760
0.031468626 0.041958954 0.40087205 4294901760
0.031468626 0.041958954 0.40137208 4294901760
0.031468626 0.041958954 0.40187207 4294901760
0.031468626 0.041958954 0.40237206 4294901760
0.031468626 0.041958954 0.40287206 4294901760
0.031468626 0.041958954 0.40337208 4294901760
0.031468626 0.041958954 0.40387207 4294901760
0.031468626 0.041958954 0.40437207 4294901760
0.031468626 0.041958954 0.40487206 4294901760
0.031468626 0.041958954 0.40537205 4294901760
0.031468626 0.041958954 0.40587208 4294901760
0.031468626 0.041958954 0.40637207 4294901760
0.031468626 0.041958954 0.40687206 4294901760
0.031468626 0.041958954 0.40737206 4294901760
0.031468626 0.041958954 0.40787208 4294901760
0.031468626 0.041958954 0.40837207 4294901760
0.031468626 0.041958954 0.40887207 4294901760
0.031468626 0.041958954 0.40937206 4294901760
0.031468626 0.041958954 0.40987206 4294901760
0.031468626 0.041958954 0.41037208 4294901760
0.031468626 0.041958954 0.41087207 4294901760
0.031468626 0.041958954 0.41137207 4294901760
0.031468626 0.041958954 0.41187206 4294901760
0.031468626 0.041958954 0.41237208 4294901760
0.031468626 0.041958954 0.41287208 4294901760
0.031468626 0.041958954 0.41337207 4294901760
0.031468626 0.041958954 0.36337206 4278255360
0.031335261 0.041961964 0.36385393 4278255360
0.031201897 0.041964978 0.36433581 4278255360
0.031068532 0.041967988 0.36481768 4278255360
0.030935168 0.041970998 0.36529955 4278255360
0.030801803 0.041974008 0.36578143 4278255360
0.030668439 0.041977022 0.36626333 4278255360
