# .PCD v0.7 - Point Cloud Data file format
VERSION 0.7
FIELDS x y z rgb
SIZE 4 4 4 4
TYPE F F F U
COUNT 1 1 1 1
WIDTH 1034
HEIGHT 1
VIEWPOINT 0 0 0 1 0 0 0
POINTS 1034
DATA ascii
0.0031434514 0.035459369 0.45900002 4278731291
0.0046241879 0.035382118 0.45800003 4278533912
0.0060850838 0.035227612 0.45600003 4278533910
0.0075329873 0.035073105 0.45400003 4278665496
0.0089877397 0.03499585 0.45300001 4278533910
0.010412908 0.034841344 0.45100003 4278665496
0.01185142 0.034764089 0.45000002 4278533912
0.013313021 0.034764089 0.45000002 4278731291
0.01474179 0.034686837 0.44900003 4278468119
0.016236221 0.034764089 0.45000002 4278665496
0.017697822 0.034764089 0.45000002 4278665496
0.019159423 0.034764089 0.45000002 4278402837
-0.017015638 0.038721766 0.48100004 4278927382
-0.01542122 0.038641263 0.48000002 4278993945
-0.0138333 0.038560763 0.47900003 4278928156
-0.0089554312 0.037675232 0.46800002 4278862361
-0.0073877033 0.037433725 0.46500003 4278796568
-0.0058647431 0.037353221 0.46400002 4278862361
-0.004348279 0.037272722 0.46300003 4278862361
-0.0028383103 0.037192214 0.46200001 4278794517
-0.0013377335 0.037192214 0.46200001 4279912231
0.00016249088 0.037111714 0.46100003 4279189275
0.0016562191 0.037031211 0.46000001 4279124765
0.0031434514 0.036950707 0.45900002 4278197504
0.0046241879 0.036870208 0.45800003 4278727187
0.0060984283 0.036789704 0.45700002 4278924820
0.0075495797 0.036628697 0.45500001 4279584031
0.0090075806 0.036548197 0.45400003 4279124250
0.010435997 0.03638719 0.45200002 4278993177
0.011904093 0.03638719 0.45200002 4278993177
0.013342606 0.03630669 0.45100003 4278796568
0.014807455 0.03630669 0.45100003 4278862361
0.016272303 0.03630669 0.45100003 4278664982
0.017737152 0.03630669 0.45100003 4278664980
0.019202001 0.03630669 0.45100003 4278796566
0.020712674 0.03638719 0.45200002 4278664980
0.022180771 0.03638719 0.45200002 4278533910
-0.018539302 0.040200833 0.48000002 4279320096
-0.016980261 0.040200833 0.48000002 4278862363
-0.015389093 0.040117081 0.47900003 4278862363
-0.013804421 0.040033329 0.47800002 4278928156
-0.012123718 0.039614569 0.47300002 4278928156
-0.010542646 0.039447065 0.47100002 4278993949
-0.0089362953 0.039112058 0.46700001 4278928156
-0.0073877033 0.038944557 0.46500003 4278993947
-0.0058647431 0.038860805 0.46400002 4278862361
-0.004348279 0.038777053 0.46300003 4279058970
-0.0028383103 0.038693301 0.46200001 4278198531
-0.0013377335 0.038693301 0.46200001 4278660369
0.00016249088 0.038609549 0.46100003 4279255068
0.0016562191 0.038525797 0.46000001 4278394630
0.0031502999 0.038525797 0.46000001 4278589961
0.0046342839 0.038442045 0.45900002 4278851851
0.0061117732 0.038358297 0.45800003 4278786058
0.0075661722 0.038190793 0.45600003 4278458377
0.0090274205 0.038107038 0.45500001 4278393097
0.010482173 0.038023289 0.45400003 4278393867
0.011930429 0.037939534 0.45300001 4278196742
0.013401774 0.037939534 0.45300001 4278197767
0.014840287 0.037855785 0.45200002 4278197250
0.016308382 0.037855785 0.45200002 4278728209
0.01777648 0.037855785 0.45200002 4278860308
0.019244578 0.037855785 0.45200002 4279320859
0.020712674 0.037855785 0.45200002 4278795285
0.022180771 0.037855785 0.45200002 4278532628
0.023648867 0.037855785 0.45200002 4278796568
0.025061397 0.037772033 0.45100003 4278599189
0.026526244 0.037772033 0.45100003 4278599189
0.027991094 0.037772033 0.45100003 4278401810
0.029390628 0.037688281 0.45000002 4278204431
0.044104431 0.037772033 0.45100003 4278929953
0.045569282 0.037772033 0.45100003 4279390504
-0.01850068 0.0416734 0.47900003 4278925849
-0.01690951 0.041586399 0.47800002 4278796570
-0.015356964 0.041586399 0.47800002 4278862877
-0.0138333 0.0416734 0.47900003 4278665498
-0.012046823 0.040890392 0.47000003 4278533912
-0.010475496 0.040716391 0.46800002 4278862363
-0.0089171594 0.04054239 0.46600002 4278993695
-0.0073718154 0.040368386 0.46400002 4278928156
-0.0058521037 0.040281389 0.46300003 4278862363
-0.004348279 0.040281389 0.46300003 4278993177
-0.0028383103 0.040194385 0.46200001 4278198273
-0.0013377335 0.040194385 0.46200001 4280043049
0.00016249088 0.040107384 0.46100003 4279320607
0.0016598196 0.040107384 0.46100003 4278392582
0.0031502999 0.040020384 0.46000001 4279905053
0.0046342839 0.039933383 0.45900002 4278851851
0.0061117732 0.039846383 0.45800003 4278457093
0.0075827646 0.039759383 0.45700002 4278785804
0.0090472614 0.039672382 0.45600003 4278917390
0.010505262 0.039585378 0.45500001 4278917390
0.011983102 0.039585378 0.45500001 4278851597
0.013431359 0.039498381 0.45400003 4278720779
0.014905952 0.039498381 0.45400003 4278654986
0.016380543 0.039498381 0.45400003 4278197250
0.017855138 0.039498381 0.45400003 4279319324
0.019287152 0.039411377 0.45300001 4278989845
0.020758498 0.039411377 0.45300001 4278199815
0.022229843 0.039411377 0.45300001 4278195968
0.023701187 0.039411377 0.45300001 4278195456
0.025116963 0.039324377 0.45200002 4278196994
0.026585061 0.039324377 0.45200002 4278196993
0.027991094 0.03923738 0.45100003 4278529810
0.029455941 0.03923738 0.45100003 4278990359
0.030920792 0.03923738 0.45100003 4279188762
0.03238564 0.03923738 0.45100003 4278728722
0.033850487 0.03923738 0.45100003 4278795798
0.035315339 0.03923738 0.45100003 4278795798
0.036780186 0.03923738 0.45100003 4278467603
0.038245037 0.03923738 0.45100003 4278402324
0.039709885 0.03923738 0.45100003 4278533910
0.041174732 0.03923738 0.45100003 4278533910
0.042639583 0.03923738 0.45100003 4278665496
0.044104431 0.03923738 0.45100003 4278600216
0.045670319 0.039324377 0.45200002 4278797595
0.047138415 0.039324377 0.45200002 4278797595
0.048606511 0.039324377 0.45200002 4278600988
0.050074611 0.039324377 0.45200002 4278929953
0.051656738 0.039411377 0.45300001 4278798367
0.053128082 0.039411377 0.45300001 4279061285
0.054599427 0.039411377 0.45300001 4279456043
0.056070771 0.039411377 0.45300001 4279192103
-0.021657383 0.043319974 0.48000002 4280562981
-0.018462054 0.043139473 0.47800002 4279320861
-0.016874135 0.043049224 0.47700003 4278665498
-0.01529271 0.042958971 0.47600001 4278862877
-0.013486746 0.042146724 0.46700001 4278797084
-0.01199556 0.042236976 0.46800002 4278731291
-0.010453112 0.042146724 0.46700001 4278797084
-0.0088980244 0.041966226 0.46500003 4278665498
-0.0073718154 0.041875973 0.46400002 4278731291
-0.0058521037 0.041785724 0.46300003 4278928156
-0.004348279 0.041785724 0.46300003 4278993179
-0.0028383103 0.041695476 0.46200001 4278196992
-0.0013377335 0.041695476 0.46200001 4279648289
0.00016249088 0.041605227 0.46100003 4279452193
0.0016598196 0.041605227 0.46100003 4278458636
0.0031502999 0.041514974 0.46000001 4280037409
0.0046443804 0.041514974 0.46000001 4279116818
0.0061251172 0.041424725 0.45900002 4278524168
0.0075993575 0.041334476 0.45800003 4278984721
0.0090671014 0.041244224 0.45700002 4279905823
0.010551439 0.041244224 0.45700002 4279972129
0.012009439 0.041153975 0.45600003 4280300581
0.013490528 0.041153975 0.45600003 4279050514
0.014938785 0.041063726 0.45500001 4278918674
0.016416624 0.041063726 0.45500001 4279250969
0.017894465 0.041063726 0.45500001 4279188762
0.01932973 0.040973477 0.45400003 4278991896
0.020804323 0.040973477 0.45400003 4279188762
0.022278916 0.040973477 0.45400003 4279319324
0.023701187 0.040883224 0.45300001 4279056152
0.025172532 0.040883224 0.45300001 4278924566
0.026585061 0.040792976 0.45200002 4279385117
0.028053159 0.040792976 0.45200002 4279385119
0.029521253 0.040792976 0.45200002 4279121433
0.030920792 0.040702727 0.45100003 4278857748
0.03238564 0.040702727 0.45100003 4278396427
0.033850487 0.040702727 0.45100003 4278196738
0.035315339 0.040702727 0.45100003 4278195456
0.036780186 0.040702727 0.45100003 4278196737
0.038245037 0.040702727 0.45100003 4278199307
0.039709885 0.040702727 0.45100003 4278727189
0.041174732 0.040702727 0.45100003 4278596371
0.042734127 0.040792976 0.45200002 4278860056
0.044202223 0.040792976 0.45200002 4279189791
0.045670319 0.040792976 0.45200002 4278664984
0.047138415 0.040792976 0.45200002 4278533396
0.048606511 0.040792976 0.45200002 4278664982
0.050074611 0.040792976 0.45200002 4278862361
0.051656738 0.040883224 0.45300001 4278862361
0.053128082 0.040883224 0.45300001 4278665496
0.054599427 0.040883224 0.45300001 4278731802
0.056070771 0.040883224 0.45300001 4278797597
0.057542115 0.040883224 0.45300001 4279191336
0.05901346 0.040883224 0.45300001 4281162563
-0.021612264 0.044786043 0.47900003 4279772951
-0.019972729 0.044599045 0.47700003 4280830766
-0.018384809 0.044505544 0.47600001 4279255068
-0.016803384 0.044412047 0.47500002 4278928154
-0.015196327 0.044225048 0.47300002 4278862361
-0.013486746 0.043664053 0.46700001 4278665494
-0.011969929 0.043664053 0.46700001 4278797080
-0.010430729 0.043570556 0.46600002 4278731289
-0.0088980244 0.043477058 0.46500003 4278731291
-0.0073718154 0.043383557 0.46400002 4278665498
-0.0058521037 0.04329006 0.46300003 4278731291
-0.0043388871 0.043196559 0.46200001 4278465298
-0.0028383103 0.043196559 0.46200001 4278197510
-0.0013377335 0.043196559 0.46200001 4279056152
0.00016249088 0.043103062 0.46100003 4279714852
0.0016598196 0.043103062 0.46100003 4278524431
0.0031502999 0.043009561 0.46000001 4279445785
0.0046443804 0.043009561 0.46000001 4278854414
0.0061251172 0.042916063 0.45900002 4278920207
0.0076159495 0.042916063 0.45900002 4278260998
0.0090869423 0.042822566 0.45800003 4280301094
0.010574528 0.042822566 0.45800003 4278589709
0.012035775 0.042729065 0.45700002 4279379479
0.013520112 0.042729065 0.45700002 4278723343
0.014971618 0.042635567 0.45600003 4278328074
0.016452705 0.042635567 0.45600003 4279646240
0.017933793 0.042635567 0.45600003 4278992414
0.019372307 0.042542066 0.45500001 4278199820
0.020850148 0.042542066 0.45500001 4278198285
0.022278916 0.042448569 0.45400003 4278195712
0.023753507 0.042448569 0.45400003 4278857746
0.025172532 0.042355068 0.45300001 4278198273
0.026643876 0.042355068 0.45300001 4278266636
0.028053159 0.042261571 0.45200002 4279188508
0.029521253 0.042261571 0.45200002 4278464785
0.030989353 0.042261571 0.45200002 4278925336
0.032457449 0.042261571 0.45200002 4279121945
0.033925544 0.042261571 0.45200002 4279056152
0.03539364 0.042261571 0.45200002 4278990359
0.036861736 0.042261571 0.45200002 4279319324
0.038329836 0.042261571 0.45200002 4279056152
0.039797932 0.042261571 0.45200002 4279385119
0.041266028 0.042261571 0.45200002 4279384865
0.042734127 0.042261571 0.45200002 4278989593
0.044202223 0.042261571 0.45200002 4278198535
0.045670319 0.042261571 0.45200002 4278196736
0.047138415 0.042261571 0.45200002 4278198532
0.048606511 0.042261571 0.45200002 4278861080
0.050185394 0.042355068 0.45300001 4278532113
0.051656738 0.042355068 0.45300001 4278795800
0.053128082 0.042355068 0.45300001 4278795800
0.054599427 0.042355068 0.45300001 4278533910
0.056070771 0.042355068 0.45300001 4278731289
0.057542115 0.042355068 0.45300001 4278928416
0.05901346 0.042355068 0.45300001 4278335765
-0.026553961 0.046826106 0.48400003 4280034577
-0.024878697 0.046632607 0.48200002 4279705614
-0.023264792 0.046535861 0.48100004 4279311115
-0.021612264 0.046342365 0.47900003 4279377932
-0.019972729 0.046148866 0.47700003 4280634157
-0.018346185 0.045955371 0.47500002 4279189275
-0.016732633 0.045761872 0.47300002 4278797084
-0.015132072 0.045568377 0.47100002 4278731289
-0.013515625 0.045278132 0.46800002 4278731289
-0.011969929 0.045181382 0.46700001 4278665496
-0.010408346 0.044987891 0.46500003 4278797084
-0.0088788886 0.044891141 0.46400002 4278665498
-0.007355928 0.044794392 0.46300003 4278665498
-0.0058521037 0.044794392 0.46300003 4278665498
-0.0043388871 0.044697642 0.46200001 4279123998
-0.0028383103 0.044697642 0.46200001 4278331150
-0.001334838 0.044600897 0.46100003 4279516705
0.00016249088 0.044600897 0.46100003 4279714852
0.0016598196 0.044600897 0.46100003 4278656015
0.0031502999 0.044504147 0.46000001 4278589709
0.0046443804 0.044504147 0.46000001 4278654732
0.0061251172 0.044407401 0.45900002 4278720525
0.0076159495 0.044407401 0.45900002 4278654732
0.0091067832 0.044407401 0.45900002 4278720525
0.010574528 0.044310652 0.45800003 4278654732
0.012062112 0.044310652 0.45800003 4278194951
0.013520112 0.044213902 0.45700002 4278722832
0.01500445 0.044213902 0.45700002 4278787855
0.016488785 0.044213902 0.45700002 4279844389
0.017933793 0.044117156 0.45600003 4279912233
0.019414883 0.044117156 0.45600003 4278459658
0.020850148 0.044020407 0.45500001 4278853135
0.022327987 0.044020407 0.45500001 4278194944
0.023753507 0.043923661 0.45400003 4278526730
0.025228102 0.043923661 0.45400003 4279516189
0.026643876 0.043826912 0.45300001 4278595601
0.028115222 0.043826912 0.45300001 4278462990
0.029586565 0.043826912 0.45300001 4279581984
0.031057913 0.043826912 0.45300001 4278397710
0.032457449 0.043730162 0.45200002 4279121433
0.033925544 0.043730162 0.45200002 4278924568
0.03539364 0.043730162 0.45200002 4278727959
0.036861736 0.043730162 0.45200002 4278794263
0.038329836 0.043730162 0.45200002 4279386400
0.039797932 0.043730162 0.45200002 4278728470
0.041266028 0.043730162 0.45200002 4278925849
0.042734127 0.043730162 0.45200002 4278795033
0.044202223 0.043730162 0.45200002 4278795033
0.045670319 0.043730162 0.45200002 4278860826
0.047242705 0.043826912 0.45300001 4279188508
0.048714045 0.043826912 0.45300001 4278464015
0.050185394 0.043826912 0.45300001 4279058457
0.051656738 0.043826912 0.45300001 4278927384
0.053128082 0.043826912 0.45300001 4278795798
0.054599427 0.043826912 0.45300001 4278795798
0.056070771 0.043826912 0.45300001 4278927384
0.057542115 0.043826912 0.45300001 4278927384
0.05901346 0.043826912 0.45300001 4278927386
0.060484808 0.043826912 0.45300001 4284910200
-0.026608825 0.048498664 0.48500001 4280296981
-0.024930311 0.048298672 0.48300001 4279704844
-0.023264792 0.04809868 0.48100004 4279375625
-0.021612264 0.047898684 0.47900003 4279639567
-0.019930856 0.04759869 0.47600001 4280568618
-0.018307561 0.047398698 0.47400004 4279058459
-0.016697258 0.047198702 0.47200003 4278731291
-0.015099945 0.046998709 0.47000003 4278731289
-0.013515625 0.046798714 0.46800002 4278731289
-0.011944297 0.046598718 0.46600002 4278533910
-0.010408346 0.046498723 0.46500003 4278665498
-0.0088788886 0.046398722 0.46400002 4278731291
-0.007355928 0.046298727 0.46300003 4278467865
-0.0058394638 0.046198729 0.46200001 4278796830
-0.0043388871 0.046198729 0.46200001 4278198534
-0.0028321669 0.046098731 0.46100003 4278725910
-0.001334838 0.046098731 0.46100003 4279780647
0.00016249088 0.046098731 0.46100003 4278795033
0.0016562191 0.045998733 0.46000001 4279647777
0.0031502999 0.045998733 0.46000001 4279382555
0.0046443804 0.045998733 0.46000001 4278657039
0.0061251172 0.045898739 0.45900002 4278195461
0.0076159495 0.045898739 0.45900002 4278588939
0.0091067832 0.045898739 0.45900002 4278720525
0.010574528 0.045798741 0.45800003 4278786318
0.012062112 0.045798741 0.45800003 4278720525
0.013549698 0.045798741 0.45800003 4278851597
0.01500445 0.045698743 0.45700002 4278786318
0.016488785 0.045698743 0.45700002 4280173608
0.017973121 0.045698743 0.45700002 4279121945
0.019414883 0.045598745 0.45600003 4278393865
0.020895973 0.045598745 0.45600003 4278524170
0.022327987 0.045498747 0.45500001 4278723341
0.023805827 0.045498747 0.45500001 4279054873
0.025228102 0.045398753 0.45400003 4278199049
0.026702695 0.045398753 0.45400003 4278594835
0.028115222 0.045298751 0.45300001 4278331917
0.029586565 0.045298751 0.45300001 4279187226
0.031057913 0.045298751 0.45300001 4278199049
0.032529257 0.045298751 0.45300001 4279713316
0.033925544 0.045198757 0.45200002 4278594324
0.03539364 0.045198757 0.45200002 4278396945
0.036861736 0.045198757 0.45200002 4278725910
0.038329836 0.045198757 0.45200002 4278331150
0.039797932 0.045198757 0.45200002 4278529296
0.041357324 0.045298751 0.45300001 4278792468
0.042828668 0.045298751 0.45300001 4278199301
0.044300012 0.045298751 0.45300001 4278200585
0.04577136 0.045298751 0.45300001 4278992412
0.047242705 0.045298751 0.45300001 4278596371
0.048714045 0.045298751 0.45300001 4279516703
0.050185394 0.045298751 0.45300001 4278992662
0.051656738 0.045298751 0.45300001 4278795796
0.053128082 0.045298751 0.45300001 4278730003
0.054599427 0.045298751 0.45300001 4278730003
0.056070771 0.045298751 0.45300001 4278730005
0.057542115 0.045298751 0.45300001 4278795800
0.05901346 0.045298751 0.45300001 4278992412
0.060484808 0.045298751 0.45300001 4283924072
-0.030004824 0.050487466 0.48900002 4280361997
-0.028358439 0.05038422 0.48800004 4280362256
-0.026663689 0.050177727 0.48600003 4280362002
-0.024981929 0.049971234 0.48400003 4279638281
-0.023361526 0.049867988 0.48300001 4279638027
-0.021702504 0.049661495 0.48100004 4279507211
-0.019930856 0.049145263 0.47600001 4278986254
-0.018307561 0.048938774 0.47400004 4279055638
-0.016697258 0.048732277 0.47200003 4278993179
-0.015099945 0.048525784 0.47000003 4278795800
-0.013515625 0.048319291 0.46800002 4278927386
-0.011944297 0.048112798 0.46600002 4278663960
-0.010408346 0.048009556 0.46500003 4278664730
-0.0088788886 0.047906306 0.46400002 4278664730
-0.007355928 0.047803063 0.46300003 4278664730
-0.0058394638 0.047699813 0.46200001 4278598937
-0.0043294956 0.047596566 0.46100003 4278927134
-0.0028321669 0.047596566 0.46100003 4279058207
-0.001334838 0.047596566 0.46100003 4279058207
0.0001621384 0.04749332 0.46000001 4278992925
0.0016562191 0.04749332 0.46000001 4278927132
0.0031502999 0.04749332 0.46000001 4278992412
0.0046443804 0.04749332 0.46000001 4278860826
0.0061251172 0.047390074 0.45900002 4279123228
0.0076159495 0.047390074 0.45900002 4279188510
0.0091067832 0.047390074 0.45900002 4279516705
0.010574528 0.047286831 0.45800003 4279647523
0.012062112 0.047286831 0.45800003 4279186459
0.013549698 0.047286831 0.45800003 4279579934
0.01500445 0.047183581 0.45700002 4279052820
0.016488785 0.047183581 0.45700002 4279251482
0.017973121 0.047183581 0.45700002 4278194688
0.019414883 0.047080338 0.45600003 4278197511
0.020895973 0.047080338 0.45600003 4278592269
0.022327987 0.046977088 0.45500001 4279053590
0.023805827 0.046977088 0.45500001 4279646240
0.025228102 0.046873845 0.45400003 4279253019
0.026702695 0.046873845 0.45400003 4279385119
0.028177287 0.046873845 0.45400003 4279319324
0.029586565 0.046770595 0.45300001 4278858773
0.031057913 0.046770595 0.45300001 4279516191
0.032529257 0.046770595 0.45300001 4279253019
0.034000598 0.046770595 0.45300001 4279187740
0.035471946 0.046770595 0.45300001 4278595349
0.036861736 0.046667352 0.45200002 4279055386
0.038414635 0.046770595 0.45300001 4278198279
0.039885979 0.046770595 0.45300001 4278198791
0.041357324 0.046770595 0.45300001 4278856978
0.042828668 0.046770595 0.45300001 4279054357
0.044300012 0.046770595 0.45300001 4278397197
0.04577136 0.046770595 0.45300001 4278795287
0.047242705 0.046770595 0.45300001 4278200585
0.048714045 0.046770595 0.45300001 4279320094
0.050185394 0.046770595 0.45300001 4278663960
0.051656738 0.046770595 0.45300001 4278730005
0.053128082 0.046770595 0.45300001 4278598419
0.054599427 0.046770595 0.45300001 4278795798
0.056070771 0.046770595 0.45300001 4278927384
0.057542115 0.046770595 0.45300001 4278795800
0.05901346 0.046770595 0.45300001 4279386400
0.060484808 0.046770595 0.45300001 4281555524
-0.02841655 0.052076276 0.48900002 4280362256
-0.026773416 0.051969782 0.48800004 4280230416
-0.025085159 0.051756792 0.48600003 4279704072
-0.023458261 0.051650293 0.48500001 4279506695
-0.021792741 0.051437303 0.48300001 4279507465
-0.015099945 0.050052863 0.47000003 4278462988
-0.013515625 0.049839873 0.46800002 4279055900
-0.011944297 0.049626879 0.46600002 4279385635
-0.010385961 0.04941389 0.46400002 4279386148
-0.0088788886 0.04941389 0.46400002 4279518758
-0.007355928 0.049307395 0.46300003 4279321379
-0.0058394638 0.0492009 0.46200001 4279255586
-0.0043294956 0.049094405 0.46100003 4279124000
-0.0028321669 0.049094405 0.46100003 4279124000
-0.0013319424 0.048987906 0.46000001 4278992414
0.0001621384 0.048987906 0.46000001 4278729755
0.0016562191 0.048987906 0.46000001 4278664732
0.0031434514 0.048881412 0.45900002 4278664730
0.0046342839 0.048881412 0.45900002 4278795546
0.0061251172 0.048881412 0.45900002 4278729753
0.0076159495 0.048881412 0.45900002 4278993179
0.0090869423 0.04877492 0.45800003 4278664214
0.010574528 0.04877492 0.45800003 4278664214
0.012062112 0.04877492 0.45800003 4278795800
0.013520112 0.048668422 0.45700002 4278861080
0.01500445 0.048668422 0.45700002 4278795287
0.016488785 0.048668422 0.45700002 4278860826
0.017933793 0.048561927 0.45600003 4279123228
0.019414883 0.048561927 0.45600003 4279386400
0.020850148 0.048455428 0.45500001 4279056922
0.022327987 0.048455428 0.45500001 4279516703
0.023753507 0.048348937 0.45400003 4279581982
0.025228102 0.048348937 0.45400003 4278857748
0.026702695 0.048348937 0.45400003 4278198279
0.028115222 0.048242439 0.45300001 4278196481
0.029586565 0.048242439 0.45300001 4278196224
0.031057913 0.048242439 0.45300001 4278196224
0.032529257 0.048242439 0.45300001 4278198278
0.034000598 0.048242439 0.45300001 4279252506
0.035471946 0.048242439 0.45300001 4279121431
0.03694329 0.048242439 0.45300001 4279187738
0.038414635 0.048242439 0.45300001 4278925336
0.039885979 0.048242439 0.45300001 4278925336
0.041357324 0.048242439 0.45300001 4278925336
0.042828668 0.048242439 0.45300001 4278991131
0.044300012 0.048242439 0.45300001 4278859545
0.04577136 0.048242439 0.45300001 4278729240
0.047242705 0.048242439 0.45300001 4278198272
0.048714045 0.048242439 0.45300001 4279056924
0.050185394 0.048242439 0.45300001 4278729753
0.051656738 0.048242439 0.45300001 4278730007
0.053128082 0.048242439 0.45300001 4278927384
0.054599427 0.048242439 0.45300001 4278730005
0.056070771 0.048242439 0.45300001 4278795798
0.057542115 0.048242439 0.45300001 4278861078
0.05901346 0.048242439 0.45300001 4279453217
0.060484808 0.048242439 0.45300001 4281292612
-0.026883142 0.05377483 0.49000001 4279967246
-0.025240006 0.053665087 0.48900002 4279704074
-0.023603365 0.053555343 0.48800004 4279507465
-0.016256537 0.055530746 0.50600004 4285432944
-0.014641928 0.055640489 0.50700003 4284776299
-0.01299519 0.055640489 0.50700003 4285302643
-0.010385961 0.050921474 0.46400002 4284711022
-0.0088597536 0.05081173 0.46300003 4283198553
-0.0073400401 0.050701983 0.46200001 4281357632
-0.0058268243 0.05059224 0.46100003 4279712805
-0.0043294956 0.05059224 0.46100003 4279318047
-0.0028260231 0.050482493 0.46000001 4279252767
-0.0013319424 0.050482493 0.46000001 4279582246
0.0001621384 0.050482493 0.46000001 4279517221
0.0016526188 0.05037275 0.45900002 4279451941
0.0031434514 0.05037275 0.45900002 4279583527
0.0046342839 0.05037275 0.45900002 4279583781
0.0061251172 0.05037275 0.45900002 4279452195
0.0076159495 0.05037275 0.45900002 4279320607
0.0090869423 0.050263006 0.45800003 4278991642
0.010574528 0.050263006 0.45800003 4279255068
0.012062112 0.050263006 0.45800003 4278991896
0.013520112 0.050153259 0.45700002 4278861080
0.01500445 0.050153259 0.45700002 4278992666
0.016452705 0.050043516 0.45600003 4278861080
0.017933793 0.050043516 0.45600003 4278861080
0.019372307 0.049933773 0.45500001 4278795287
0.020850148 0.049933773 0.45500001 4278795287
0.022278916 0.049824029 0.45400003 4278992666
0.023753507 0.049824029 0.45400003 4278992666
0.025228102 0.049824029 0.45400003 4278992666
0.026643876 0.049714282 0.45300001 4278795033
0.028115222 0.049714282 0.45300001 4279188508
0.029586565 0.049714282 0.45300001 4279056922
0.031057913 0.049714282 0.45300001 4279319324
0.032529257 0.049714282 0.45300001 4279779361
0.033925544 0.049604539 0.45200002 4279647775
0.03539364 0.049604539 0.45200002 4279647775
0.036861736 0.049604539 0.45200002 4278857748
0.038329836 0.049604539 0.45200002 4278265611
0.039797932 0.049604539 0.45200002 4278196481
0.041266028 0.049604539 0.45200002 4278194944
0.042734127 0.049604539 0.45200002 4278197510
0.044202223 0.049604539 0.45200002 4278198281
0.045670319 0.049604539 0.45200002 4278858007
0.047138415 0.049604539 0.45200002 4278197764
0.048606511 0.049604539 0.45200002 4279123228
0.050074611 0.049604539 0.45200002 4278795546
0.051542707 0.049604539 0.45200002 4278729753
0.053010803 0.049604539 0.45200002 4278993179
0.054599427 0.049714282 0.45300001 4278796570
0.056070771 0.049714282 0.45300001 4278862363
0.057542115 0.049714282 0.45300001 4278795546
0.05901346 0.049714282 0.45300001 4278795035
0.060484808 0.049714282 0.45300001 4285633923
-0.027047733 0.055705871 0.49300003 4280296209
-0.025394851 0.055592876 0.49200001 4279901451
-0.023796834 0.055592876 0.49200001 4279639051
-0.017793899 0.056835808 0.50300002 4280165911
-0.016256537 0.057174791 0.50600004 4281549362
-0.014641928 0.057287782 0.50700003 4284578407
-0.01299519 0.057287782 0.50700003 4284513129
-0.011370838 0.057400778 0.50800002 4284644715
-0.0097399876 0.05751377 0.509 4284644715
-0.008086754 0.05751377 0.509 4284512616
-0.0058268243 0.052090075 0.46100003 4284315750
-0.0043201041 0.051977079 0.46000001 4284381543
-0.0028260231 0.051977079 0.46000001 4284447334
-0.0013319424 0.051977079 0.46000001 4284974190
0.00016178592 0.051864088 0.45900002 4284382053
0.0016526188 0.051864088 0.45900002 4283330139
0.0031434514 0.051864088 0.45900002 4281620034
0.0046342839 0.051864088 0.45900002 4279777828
0.0061251172 0.051864088 0.45900002 4278858009
0.0075993575 0.051751096 0.45800003 4279055902
0.0090869423 0.051751096 0.45800003 4279648037
0.010574528 0.051751096 0.45800003 4279648807
0.012035775 0.0516381 0.45700002 4279649061
0.013520112 0.0516381 0.45700002 4279715365
0.014971618 0.051525109 0.45600003 4279583779
0.016452705 0.051525109 0.45600003 4279452195
0.017894465 0.051412113 0.45500001 4279255586
0.019372307 0.051412113 0.45500001 4279124000
0.020804323 0.051299121 0.45400003 4279321377
0.022278916 0.051299121 0.45400003 4278795800
0.023701187 0.051186126 0.45300001 4278927386
0.025172532 0.051186126 0.45300001 4278927386
0.026643876 0.051186126 0.45300001 4278730007
0.028115222 0.051186126 0.45300001 4278795800
0.029521253 0.051073134 0.45200002 4278730007
0.030989353 0.051073134 0.45200002 4278663701
0.032457449 0.051073134 0.45200002 4278991896
0.033925544 0.051073134 0.45200002 4278728724
0.03539364 0.051073134 0.45200002 4278926103
0.036861736 0.051073134 0.45200002 4279123482
0.038329836 0.051073134 0.45200002 4279123482
0.039797932 0.051073134 0.45200002 4278860310
0.041266028 0.051073134 0.45200002 4278860310
0.042734127 0.051073134 0.45200002 4279451682
0.044202223 0.051073134 0.45200002 4279779877
0.045670319 0.051073134 0.45200002 4280108842
0.047138415 0.051073134 0.45200002 4279648291
0.048606511 0.051073134 0.45200002 4279123228
0.050074611 0.051073134 0.45200002 4278992412
0.051542707 0.051073134 0.45200002 4278992925
0.053010803 0.051073134 0.45200002 4278927132
0.054478899 0.051073134 0.45200002 4278796570
0.056070771 0.051186126 0.45300001 4278862363
0.057542115 0.051186126 0.45300001 4279190304
0.05901346 0.051186126 0.45300001 4278990109
0.060484808 0.051186126 0.45300001 4285566079
-0.02876522 0.057540167 0.49500003 4280230413
-0.027157461 0.057540167 0.49500003 4280098830
-0.0255497 0.057540167 0.49500003 4279901453
-0.023941938 0.057540167 0.49500003 4279770383
-0.022379296 0.057656407 0.49600002 4279638797
-0.020935774 0.058121376 0.5 4279573004
-0.01938902 0.058353864 0.50200003 4279704590
-0.017829275 0.058586348 0.50400001 4279770385
-0.016256537 0.058818836 0.50600004 4279836950
-0.014641928 0.05893508 0.50700003 4285301108
-0.013020822 0.05905132 0.50800002 4284315237
-0.011370838 0.05905132 0.50800002 4284381030
-0.0097399876 0.05916756 0.509 4284446823
-0.008086754 0.05916756 0.509 4284381030
-0.0064461618 0.059283808 0.51000005 4284512616
-0.0043201041 0.053471666 0.46000001 4284512616
-0.0028260231 0.053471666 0.46000001 4284315237
-0.0013319424 0.053471666 0.46000001 4284446821
0.00016178592 0.053355426 0.45900002 4284381541
0.0016526188 0.053355426 0.45900002 4284315748
0.0031434514 0.053355426 0.45900002 4284381543
0.0046342839 0.053355426 0.45900002 4284381543
0.0061251172 0.053355426 0.45900002 4284513129
0.0075993575 0.053239185 0.45800003 4284973680
0.0090869423 0.053239185 0.45800003 4285565817
0.010574528 0.053239185 0.45800003 4285632124
0.012035775 0.053122938 0.45700002 4284842606
0.013490528 0.053006697 0.45600003 4283132758
0.014971618 0.053006697 0.45600003 4280830518
0.016416624 0.052890453 0.45500001 4279384617
0.017894465 0.052890453 0.45500001 4279121445
0.01932973 0.052774213 0.45400003 4279121697
0.020804323 0.052774213 0.45400003 4279319846
0.022229843 0.052657969 0.45300001 4279583529
0.023701187 0.052657969 0.45300001 4279386148
0.025172532 0.052657969 0.45300001 4279583781
0.026585061 0.052541725 0.45200002 4279452193
0.028053159 0.052541725 0.45200002 4279452193
0.029521253 0.052541725 0.45200002 4279321377
0.030989353 0.052541725 0.45200002 4279189791
0.032457449 0.052541725 0.45200002 4279321377
0.033925544 0.052541725 0.45200002 4279255584
0.03539364 0.052541725 0.45200002 4279123998
0.036861736 0.052541725 0.45200002 4278992412
0.038329836 0.052541725 0.45200002 4278795033
0.039797932 0.052541725 0.45200002 4279058205
0.041266028 0.052541725 0.45200002 4279123998
0.042734127 0.052541725 0.45200002 4279058207
0.044202223 0.052541725 0.45200002 4278860828
0.045670319 0.052541725 0.45200002 4279058207
0.047138415 0.052541725 0.45200002 4279058207
0.048606511 0.052541725 0.45200002 4279058205
0.050074611 0.052541725 0.45200002 4278992925
0.051542707 0.052541725 0.45200002 4279058718
0.053010803 0.052541725 0.45200002 4278992925
0.054478899 0.052541725 0.45200002 4279124765
0.056070771 0.052657969 0.45300001 4279058972
0.057542115 0.052657969 0.45300001 4279319844
0.05901346 0.052657969 0.45300001 4284383856
0.060484808 0.052657969 0.45300001 4285435261
-0.028823331 0.05926796 0.49600002 4280492813
-0.027212324 0.05926796 0.49600002 4280098832
-0.02565293 0.059387453 0.49700001 4279901453
-0.024038672 0.059387453 0.49700001 4279770385
-0.022469535 0.059506945 0.49800003 4279638799
-0.020977648 0.059865423 0.50100005 4279638799
-0.019427644 0.060104404 0.50300002 4279770385
-0.017864648 0.060343385 0.505 4279704592
-0.016256537 0.060462881 0.50600004 4279638799
-0.014641928 0.060582373 0.50700003 4285366642
-0.013020822 0.060701862 0.50800002 4284445540
-0.01139322 0.060821354 0.509 4284511846
-0.0097399876 0.060821354 0.509 4284511846
-0.008086754 0.060821354 0.509 4284511846
-0.0064461618 0.060940851 0.51000005 4284315237
-0.0047896812 0.060940851 0.51000005 4284315237
-0.0031331999 0.060940851 0.51000005 4284315237
0.0016526188 0.054846764 0.45900002 4284381028
0.0031434514 0.054846764 0.45900002 4284249442
0.0046342839 0.054846764 0.45900002 4284446821
0.0061251172 0.054846764 0.45900002 4284512614
0.012035775 0.054607779 0.45700002 4285499511
0.013490528 0.05448829 0.45600003 4285433977
0.014971618 0.05448829 0.45600003 4285302905
0.016416624 0.054368794 0.45500001 4285302907
0.017894465 0.054368794 0.45500001 4285434493
0.01932973 0.054249305 0.45400003 4285566077
0.020804323 0.054249305 0.45400003 4285697663
0.022229843 0.054129809 0.45300001 4285303675
0.023701187 0.054129809 0.45300001 4284382827
0.025116963 0.05401032 0.45200002 4283133273
0.026585061 0.05401032 0.45200002 4281949769
0.028053159 0.05401032 0.45200002 4280963133
0.029521253 0.05401032 0.45200002 4279252515
0.030989353 0.05401032 0.45200002 4278989597
0.032457449 0.05401032 0.45200002 4278858009
0.033925544 0.05401032 0.45200002 4278858009
0.03539364 0.05401032 0.45200002 4279055388
0.036861736 0.05401032 0.45200002 4279318558
0.038329836 0.05401032 0.45200002 4279450144
0.039797932 0.05401032 0.45200002 4279384867
0.041266028 0.05401032 0.45200002 4279779625
0.042734127 0.05401032 0.45200002 4279451430
0.044202223 0.05401032 0.45200002 4279583529
0.045670319 0.05401032 0.45200002 4279583527
0.047138415 0.05401032 0.45200002 4279583527
0.048606511 0.05401032 0.45200002 4279452195
0.050074611 0.05401032 0.45200002 4279583781
0.051542707 0.05401032 0.45200002 4279649574
0.053010803 0.05401032 0.45200002 4279583781
0.054478899 0.05401032 0.45200002 4279452195
0.055946995 0.05401032 0.45200002 4278596119
0.057542115 0.054129809 0.45300001 4283594342
0.05901346 0.054129809 0.45300001 4285303677
0.060484808 0.054129809 0.45300001 4285631870
-0.028881442 0.061002254 0.49700001 4280624401
-0.027267186 0.061002254 0.49700001 4279901199
-0.025704546 0.061124999 0.49800003 4279901199
-0.024135407 0.061247736 0.49900001 4279770385
-0.022559773 0.061370477 0.5 4279704592
-0.021019518 0.061615963 0.50200003 4279704592
-0.019466268 0.061861441 0.50400001 4279704592
-0.017864648 0.061984181 0.505 4279836178
-0.014670807 0.062352408 0.50800002 4284708458
-0.013046453 0.062475145 0.509 4284446053
-0.01139322 0.062475145 0.509 4284380260
-0.0097399876 0.062475145 0.509 4284577639
-0.0081026424 0.062597893 0.51000005 4284446053
-0.0064461618 0.062597893 0.51000005 4284380260
-0.0047896812 0.062597893 0.51000005 4284249444
-0.0031331999 0.062597893 0.51000005 4284249444
-0.0014767188 0.062597893 0.51000005 4284117858
-0.028881442 0.062617064 0.49700001 4280427792
-0.02732205 0.062743053 0.49800003 4279901199
-0.02575616 0.062869042 0.49900001 4279704590
-0.024183774 0.062995031 0.5 4279704590
-0.022604896 0.063121028 0.50100005 4279638797
-0.021061389 0.063373007 0.50300002 4279638797
-0.019466268 0.063498996 0.50400001 4279639567
-0.017900025 0.063750975 0.50600004 4279573776
-0.014670807 0.064002953 0.50800002 4284445540
-0.013046453 0.064128943 0.509 4284446053
-0.01139322 0.064128943 0.509 4284380260
-0.0097591234 0.06425494 0.51000005 4284249444
-0.0081026424 0.06425494 0.51000005 4284249444
-0.0064461618 0.06425494 0.51000005 4284052065
-0.0047896812 0.06425494 0.51000005 4284117858
-0.0031331999 0.06425494 0.51000005 4284117858
-0.0014767188 0.06425494 0.51000005 4284117858
-0.028939554 0.064361103 0.49800003 4280361745
-0.02732205 0.064361103 0.49800003 4279770383
-0.02575616 0.064490341 0.49900001 4279638797
-0.024183774 0.064619578 0.5 4279704590
-0.022650015 0.064878061 0.50200003 4279638797
-0.021061389 0.065007299 0.50300002 4279573774
-0.01950489 0.065265775 0.505 4279705360
-0.017900025 0.06539502 0.50600004 4279639569
-0.013072086 0.065911978 0.51000005 4284577126
-0.011415605 0.065911978 0.51000005 4284248674
-0.0097591234 0.065911978 0.51000005 4284052065
-0.0081026424 0.065911978 0.51000005 4284117858
-0.0064461618 0.065911978 0.51000005 4284117858
-0.0047896812 0.065911978 0.51000005 4284117858
-0.0031331999 0.065911978 0.51000005 4284117858
-0.028939554 0.06597916 0.49800003 4279967244
-0.027376914 0.066111647 0.49900001 4279770383
-0.025807776 0.066244133 0.5 4279704592
-0.024232144 0.066376626 0.50100005 4279507213
-0.022650015 0.066509113 0.50200003 4279770385
-0.021103261 0.066774085 0.50400001 4279704592
-0.019543516 0.067039065 0.50600004 4279573776
-0.017935401 0.067171551 0.50700003 4279836950
-0.016352918 0.067436531 0.509 4279574291
-0.014728567 0.067569025 0.51000005 4284445540
-0.013072086 0.067569025 0.51000005 4284248161
-0.011415605 0.067569025 0.51000005 4284182881
-0.0097591234 0.067569025 0.51000005 4284182881
-0.0081026424 0.067569025 0.51000005 4283986272
-0.0064461618 0.067569025 0.51000005 4283986272
-0.0047896812 0.067569025 0.51000005 4283920479
-0.0031331999 0.067569025 0.51000005 4283986272
-0.028997665 0.067732945 0.49900001 4280230416
-0.027431777 0.06786868 0.5 4279901453
-0.025859393 0.068004422 0.50100005 4279704590
-0.024280511 0.068140157 0.50200003 4279704590
-0.022695133 0.068275891 0.50300002 4279704592
-0.021145131 0.068547368 0.505 4279836178
-0.019582139 0.068818845 0.50700003 4279967764
-0.017970776 0.06895458 0.50800002 4279902743
-0.016385047 0.069226064 0.51000005 4281153069
-0.014757446 0.069361798 0.51100004 4284313954
-0.013123348 0.069497533 0.51200002 4284446053
-0.011415605 0.069226064 0.51000005 4284182881
-0.0097591234 0.069226064 0.51000005 4284182881
-0.0081026424 0.069226064 0.51000005 4284052065
-0.0064461618 0.069226064 0.51000005 4284052065
-0.0047896812 0.069226064 0.51000005 4284052065
-0.0031331999 0.069226064 0.51000005 4283920479
-0.028997665 0.069354251 0.49900001 4280164368
-0.027431777 0.069493234 0.5 4279966992
-0.025911009 0.069771215 0.50200003 4279770383
-0.024328878 0.069910198 0.50300002 4279770383
-0.022785371 0.070188165 0.505 4279770383
-0.021228876 0.070466146 0.50700003 4279836178
-0.019620761 0.070605129 0.50800002 4280033557
-0.018041529 0.070883103 0.51000005 4279903002
-0.014815205 0.07130006 0.51300001 4284445540
-0.013148979 0.07130006 0.51300001 4284248674
-0.011594673 0.07199499 0.51800001 4284051295
-0.0099122068 0.07199499 0.51800001 4284117088
-0.0082297418 0.07199499 0.51800001 4284117088
-0.030679777 0.071117789 0.5 4280296209
-0.029055776 0.071117789 0.5 4279901453
-0.027486643 0.071260028 0.50100005 4279704590
-0.025962623 0.071544498 0.50300002 4279638799
-0.024377245 0.07168673 0.50400001 4279704592
-0.022830492 0.071971208 0.50600004 4279836178
-0.016481429 0.072966851 0.51300001 4284117088
-0.014872964 0.073251329 0.51500005 4284248420
-0.013200243 0.073251329 0.51500005 4284380006
-0.011594673 0.073678032 0.51800001 4284117088
-0.0099122068 0.073678032 0.51800001 4284117088
-0.0082297418 0.073678032 0.51800001 4284182881
-0.02292073 0.073906213 0.50800002 4280099868
-0.021354491 0.074197188 0.51000005 4284247137
-0.019775257 0.074488156 0.51200002 4284380006
-0.018183028 0.074779123 0.514 4284380260
-0.016545685 0.074924611 0.51500005 4284248674
-0.014901844 0.075070098 0.51600003 4284182881
-0.013251506 0.075215578 0.51700002 4284051295
-0.011594673 0.075361058 0.51800001 4284117088
-0.0099313436 0.075506553 0.51900005 4284182881
-0.0082456302 0.075506553 0.51900005 4284313952
-0.022965848 0.075705491 0.509 4279310867
-0.021396363 0.07600297 0.51100004 4281417778
-0.019813878 0.076300427 0.51300001 4284313952
-0.018218406 0.076597907 0.51500005 4284511844
-0.016609939 0.076895364 0.51700002 4284380258
-0.014959602 0.0770441 0.51800001 4284248672
-0.013277137 0.0770441 0.51800001 4284182881
-0.011617057 0.077192843 0.51900005 4284117088
-0.0099504786 0.077341571 0.52000004 4284117088
-0.032497603 0.07644739 0.50300002 4279969567
-0.030863857 0.07644739 0.50300002 4279772188
-0.029288223 0.076599367 0.50400001 4279640602
-0.027706094 0.076751351 0.505 4279377430
-0.026169086 0.07705532 0.50700003 4279377430
-0.024619082 0.077359281 0.509 4279903774
-0.021438234 0.077815235 0.51200002 4279772186
-0.014988483 0.078879118 0.51900005 4283985502
-0.01330277 0.078879118 0.51900005 4284117086
-0.01163944 0.079031102 0.52000004 4283919707
-0.030986575 0.078392148 0.505 4279706655
-0.029404448 0.078547388 0.50600004 4279838241
-0.027815823 0.078702621 0.50700003 4279772701
-0.026220702 0.078857847 0.50800002 4279838494
-0.014988483 0.080565408 0.51900005 4284182366
-0.0133284 0.080720641 0.52000004 4284182366
-0.014988483 0.08225169 0.51900005 4284248674
-0.0133284 0.082410164 0.52000004 4284117086
-0.016609939 0.085294291 0.51700002 4284050530
-0.018218406 0.086637631 0.51500005 4284444768
-0.016609939 0.086974077 0.51700002 4284248161
-0.018218406 0.088310912 0.51500005 4284642147
-0.026323933 0.089110568 0.51000005 4279377943
-0.018218406 0.089984201 0.51500005 4284313954
-0.018218406 0.09165749 0.51500005 4284380260
-0.018218406 0.093330778 0.51500005 4284511333
-0.018218406 0.095004067 0.51500005 4284511333
0.0099871624 0.049974363 0.46933186 4294967295
0.0099871624 0.049974363 0.46933186 4294901760
0.0099871624 0.049974363 0.46983185 4294901760
0.0099871624 0.049974363 0.47033185 4294901760
0.0099871624 0.049974363 0.47083187 4294901760
0.0099871624 0.049974363 0.47133186 4294901760
0.0099871624 0.049974363 0.47183186 4294901760
0.0099871624 0.049974363 0.47233185 4294901760
0.0099871624 0.049974363 0.47283188 4294901760
0.0099871624 0.049974363 0.47333187 4294901760
0.0099871624 0.049974363 0.47383186 4294901760
0.0099871624 0.049974363 0.47433186 4294901760
0.0099871624 0.049974363 0.47483185 4294901760
0.0099871624 0.049974363 0.47533187 4294901760
0.0099871624 0.049974363 0.47583187 4294901760
0.0099871624 0.049974363 0.47633186 4294901760
0.0099871624 0.049974363 0.47683185 4294901760
0.0099871624 0.049974363 0.47733188 4294901760
0.0099871624 0.049974363 0.47783187 4294901760
0.0099871624 0.049974363 0.47833186 4294901760
0.0099871624 0.049974363 0.47883186 4294901760
0.0099871624 0.049974363 0.47933185 4294901760
0.0099871624 0.049974363 0.47983187 4294901760
0.0099871624 0.049974363 0.48033187 4294901760
0.0099871624 0.049974363 0.48083186 4294901760
0.0099871624 0.049974363 0.48133186 4294901760
0.0099871624 0.049974363 0.48183185 4294901760
0.0099871624 0.049974363 0.48233187 4294901760
0.0099871624 0.049974363 0.48283187 4294901760
0.0099871624 0.049974363 0.48333186 4294901760
0.0099871624 0.049974363 0.48383185 4294901760
0.0099871624 0.049974363 0.48433188 4294901760
0.0099871624 0.049974363 0.48483187 4294901760
0.0099871624 0.049974363 0.48533186 4294901760
0.0099871624 0.049974363 0.48583186 4294901760
0.0099871624 0.049974363 0.48633188 4294901760
0.0099871624 0.049974363 0.48683187 4294901760
0.0099871624 0.049974363 0.48733187 4294901760
0.0099871624 0.049974363 0.48783186 4294901760
0.0099871624 0.049974363 0.48833185 4294901760
0.0099871624 0.049974363 0.48883188 4294901760
0.0099871624 0.049974363 0.48933187 4294901760
0.0099871624 0.049974363 0.48983186 4294901760
0.0099871624 0.049974363 0.49033186 4294901760
0.0099871624 0.049974363 0.49083185 4294901760
0.0099871624 0.049974363 0.49133188 4294901760
0.0099871624 0.049974363 0.49183187 4294901760
0.0099871624 0.049974363 0.49233186 4294901760
0.0099871624 0.049974363 0.49283186 4294901760
0.0099871624 0.049974363 0.49333188 4294901760
0.0099871624 0.049974363 0.49383187 4294901760
0.0099871624 0.049974363 0.49433187 4294901760
0.0099871624 0.049974363 0.49483186 4294901760
0.0099871624 0.049974363 0.49533185 4294901760
0.0099871624 0.049974363 0.49583188 4294901760
0.0099871624 0.049974363 0.49633187 4294901760
0.0099871624 0.049974363 0.49683186 4294901760
0.0099871624 0.049974363 0.49733186 4294901760
0.0099871624 0.049974363 0.49783188 4294901760
0.0099871624 0.049974363 0.49833187 4294901760
0.0099871624 0.049974363 0.49883187 4294901760
0.0099871624 0.049974363 0.49933186 4294901760
0.0099871624 0.049974363 0.49983186 4294901760
0.0099871624 0.049974363 0.50033188 4294901760
0.0099871624 0.049974363 0.50083184 4294901760
0.0099871624 0.049974363 0.50133187 4294901760
0.0099871624 0.049974363 0.50183189 4294901760
0.0099871624 0.049974363 0.50233185 4294901760
0.0099871624 0.049974363 0.50283188 4294901760
0.0099871624 0.049974363 0.5033319 4294901760
0.0099871624 0.049974363 0.50383186 4294901760
0.0099871624 0.049974363 0.50433189 4294901760
0.0099871624 0.049974363 0.50483185 4294901760
0.0099871624 0.049974363 0.50533187 4294901760
0.0099871624 0.049974363 0.5058319 4294901760
0.0099871624 0.049974363 0.50633186 4294901760
0.0099871624 0.049974363 0.50683188 4294901760
0.0099871624 0.049974363 0.50733185 4294901760
0.0099871624 0.049974363 0.50783187 4294901760
0.0099871624 0.049974363 0.50833189 4294901760
0.0099871624 0.049974363 0.50883186 4294901760
0.0099871624 0.049974363 0.50933188 4294901760
0.0099871624 0.049974363 0.50983185 4294901760
0.0099871624 0.049974363 0.51033187 4294901760
0.0099871624 0.049974363 0.51083189 4294901760
0.0099871624 0.049974363 0.51133186 4294901760
0.0099871624 0.049974363 0.51183188 4294901760
0.0099871624 0.049974363 0.51233184 4294901760
0.0099871624 0.049974363 0.51283187 4294901760
0.0099871624 0.049974363 0.51333189 4294901760
0.0099871624 0.049974363 0.51383185 4294901760
0.0099871624 0.049974363 0.51433188 4294901760
0.0099871624 0.049974363 0.5148319 4294901760
0.0099871624 0.049974363 0.51533186 4294901760
0.0099871624 0.049974363 0.51583189 4294901760
0.0099871624 0.049974363 0.51633185 4294901760
0.0099871624 0.049974363 0.51683187 4294901760
0.0099871624 0.049974363 0.5173319 4294901760
0.0099871624 0.049974363 0.51783186 4294901760
0.0099871624 0.049974363 0.51833189 4294901760
0.0099871624 0.049974363 0.51883185 4294901760
0.0099871624 0.049974363 0.51933187 4294901760
0.0099871624 0.049974363 0.46933186 4278255360
0.010114466 0.049987949 0.46981519 4278255360
0.010241769 0.050001532 0.47029853 4278255360
0.010369073 0.050015118 0.47078186 4278255360
0.010496376 0.0500287 0.4712652 4278255360
0.010623679 0.050042287 0.47174853 4278255360
0.010750983 0.050055869 0.47223186 4278255360
0.010878286 0.050069455 0.47271517 4278255360
0.01100559 0.050083041 0.4731985 4278255360
0.011132894 0.050096624 0.47368184 4278255360
0.011260197 0.05011021 0.47416517 4278255360
0.011387501 0.050123792 0.47464851 4278255360
0.011514804 0.050137378 0.47513184 4278255360
0.011642108 0.050150964 0.47561517 4278255360
0.011769411 0.050164547 0.47609851 4278255360
0.011896715 0.050178133 0.47658184 4278255360
0.012024018 0.050191715 0.47706518 4278255360
0.012151321 0.050205301 0.47754851 4278255360
0.012278625 0.050218884 0.47803184 4278255360
0.012405928 0.05023247 0.47851515 4278255360
0.012533232 0.050246056 0.47899848 4278255360
0.012660535 0.050259639 0.47948182 4278255360
0.012787838 0.050273225 0.47996515 4278255360
0.012915142 0.050286807 0.48044848 4278255360
0.013042445 0.050300393 0.48093182 4278255360
0.013169749 0.050313979 0.48141515 4278255360
0.013297053 0.050327562 0.48189849 4278255360
0.013424356 0.050341148 0.48238182 4278255360
0.01355166 0.05035473 0.48286515 4278255360
0.013678963 0.050368316 0.48334849 4278255360
0.013806267 0.050381899 0.48383182 4278255360
0.01393357 0.050395485 0.48431516 4278255360
0.014060874 0.050409071 0.48479846 4278255360
0.014188177 0.050422654 0.4852818 4278255360
0.01431548 0.05043624 0.48576513 4278255360
0.014442784 0.050449822 0.48624846 4278255360
0.014570087 0.050463408 0.4867318 4278255360
0.014697392 0.050476991 0.48721513 4278255360
0.014824694 0.050490577 0.48769847 4278255360
0.014951997 0.050504163 0.4881818 4278255360
0.015079301 0.050517745 0.48866513 4278255360
0.015206605 0.050531331 0.48914847 4278255360
0.015333908 0.050544914 0.4896318 4278255360
0.015461212 0.0505585 0.49011514 4278255360
0.015588515 0.050572086 0.49059844 4278255360
0.015715819 0.050585669 0.49108177 4278255360
0.015843123 0.050599255 0.49156511 4278255360
0.015970426 0.050612837 0.49204844 4278255360
0.016097728 0.050626423 0.49253178 4278255360
0.016225033 0.050640006 0.49301511 4278255360
0.016352337 0.050653592 0.49349844 4278255360
0.016479639 0.050667178 0.49398178 4278255360
0.016606942 0.05068076 0.49446511 4278255360
0.016734246 0.050694346 0.49494845 4278255360
0.016861551 0.050707929 0.49543178 4278255360
0.016988853 0.050721515 0.49591511 4278255360
0.017116157 0.050735097 0.49639845 4278255360
0.01724346 0.050748684 0.49688175 4278255360
0.017370764 0.05076227 0.49736509 4278255360
0.017498067 0.050775852 0.49784842 4278255360
0.017625371 0.050789438 0.49833176 4278255360
0.017752673 0.050803021 0.49881509 4278255360
0.017879978 0.050816607 0.49929842 4278255360
0.018007282 0.050830193 0.49978176 4278255360
0.018134585 0.050843775 0.50026506 4278255360
0.018261887 0.050857361 0.5007484 4278255360
0.018389191 0.050870944 0.50123173 4278255360
0.018516496 0.05088453 0.50171506 4278255360
0.018643798 0.050898112 0.5021984 4278255360
0.018771101 0.050911698 0.50268173 4278255360
0.018898405 0.050925285 0.50316507 4278255360
0.019025709 0.050938867 0.5036484 4278255360
0.019153014 0.050952453 0.50413173 4278255360
0.019280316 0.050966036 0.50461507 4278255360
0.019407619 0.050979622 0.5050984 4278255360
0.019534923 0.050993204 0.50558174 4278255360
0.019662226 0.05100679 0.50606507 4278255360
0.019789528 0.051020376 0.5065484 4278255360
0.019916832 0.051033959 0.50703174 4278255360
0.020044137 0.051047545 0.50751507 4278255360
0.020171441 0.051061127 0.50799841 4278255360
0.020298744 0.051074713 0.50848174 4278255360
0.020426046 0.0510883 0.50896508 4278255360
0.02055335 0.051101882 0.50944841 4278255360
