# .PCD v0.7 - Point Cloud Data file format
VERSION 0.7
FIELDS x y z rgb
SIZE 4 4 4 4
TYPE F F F U
COUNT 1 1 1 1
WIDTH 998
HEIGHT 1
VIEWPOINT 0 0 0 1 0 0 0
POINTS 998
DATA ascii
-0.0091996342 -0.012316371 0.41100001 4282473546
-0.0078647053 -0.012316371 0.41100001 4281881409
-0.0065297759 -0.012316371 0.41100001 4282539339
-0.0052074874 -0.012346338 0.41200003 4282867537
-0.0038693107 -0.012346338 0.41200003 4283130711
-0.0025311338 -0.012346338 0.41200003 4282999636
-0.0011929572 -0.012346338 0.41200003 4281156919
0.00014486714 -0.012316371 0.41100001 4281617724
0.0014797958 -0.012316371 0.41100001 4282670925
0.0028078761 -0.012286405 0.41000003 4285697917
0.0041395565 -0.012286405 0.41000003 4285174139
-0.020749452 -0.010740531 0.40200001 4282994994
-0.019443756 -0.010740531 0.40200001 4282600758
-0.018183179 -0.010767248 0.40300003 4282535996
-0.016916106 -0.010793966 0.40400001 4284576090
-0.015642537 -0.010820684 0.40500003 4282076470
-0.014362471 -0.010847402 0.40600002 4281286956
-0.01307591 -0.01087412 0.40700001 4280497956
-0.011811732 -0.010927555 0.40900001 4280697135
-0.010483299 -0.010927555 0.40900001 4280433963
-0.0091772508 -0.010954273 0.41000003 4280104485
-0.0078647053 -0.010980991 0.41100001 4280432680
-0.0065297759 -0.010980991 0.41100001 4280892464
-0.0051948479 -0.010980991 0.41100001 4281024050
-0.0038693107 -0.011007708 0.41200003 4281748288
-0.0025311338 -0.011007708 0.41200003 4281879872
-0.0011900616 -0.010980991 0.41100001 4281155636
0.00014486714 -0.010980991 0.41100001 4281419321
0.0014761954 -0.010954273 0.41000003 4281551931
0.0028078761 -0.010954273 0.41000003 4281683517
0.0041294601 -0.010927555 0.40900001 4282078273
0.0054312041 -0.01087412 0.40700001 4281355061
0.0067365482 -0.010847402 0.40600002 4279648041
0.0080353972 -0.010820684 0.40500003 4281295178
0.0093277488 -0.010793966 0.40400001 4284583799
0.010639941 -0.010793966 0.40400001 4287017627
0.058431286 -0.012290159 0.46000001 4279195431
0.05992537 -0.012290159 0.46000001 4279130408
0.06141945 -0.012290159 0.46000001 4279196201
-0.020697838 -0.0094109224 0.40100002 4282733107
-0.019395389 -0.0094109224 0.40100002 4285630064
-0.018138058 -0.0094343908 0.40200001 4282931529
-0.016874235 -0.0094578601 0.40300003 4283194701
-0.015603913 -0.0094813285 0.40400001 4282799941
-0.014327096 -0.0095047979 0.40500003 4282734402
-0.013043782 -0.0095282663 0.40600002 4282866758
-0.011753973 -0.0095517347 0.40700001 4280894260
-0.010457668 -0.0095752031 0.40800002 4279578402
-0.0091548664 -0.0095986715 0.40900001 4280301612
-0.0078455694 -0.0096221408 0.41000003 4280104233
-0.0065138885 -0.0096221408 0.41000003 4280496938
-0.0051948479 -0.0096456092 0.41100001 4281549624
-0.003859919 -0.0096456092 0.41100001 4283130963
-0.0025249904 -0.0096456092 0.41100001 4282407240
-0.0011900616 -0.0096456092 0.41100001 4280628776
0.00014451466 -0.0096221408 0.41000003 4280563753
0.0014761954 -0.0096221408 0.41000003 4279840543
0.0028010274 -0.0095986715 0.40900001 4280563753
0.0041193636 -0.0095752031 0.40800002 4280432678
0.0054312041 -0.0095517347 0.40700001 4281946687
0.0067365482 -0.0095282663 0.40600002 4281487163
0.0080353972 -0.0095047979 0.40500003 4279846440
0.0093508381 -0.0095047979 0.40500003 4280312889
0.010666278 -0.0095047979 0.40500003 4280115510
0.011981719 -0.0095047979 0.40500003 4281295428
0.05681343 -0.010772103 0.45900002 4278474015
0.058304261 -0.010772103 0.45900002 4278670624
0.059795097 -0.010772103 0.45900002 4278604831
0.061285932 -0.010772103 0.45900002 4278473245
0.062639996 -0.010748635 0.45800003 4278210073
0.064267598 -0.010772103 0.45900002 4278473245
0.065758429 -0.010772103 0.45900002 4278407452
0.067395777 -0.010795572 0.46000001 4278539038
0.068889849 -0.010795572 0.46000001 4278999335
-0.024543822 -0.0080878129 0.40000001 4282072874
-0.023244621 -0.0080878129 0.40000001 4281481507
-0.021945423 -0.0080878129 0.40000001 4281680167
-0.02064622 -0.0080878129 0.40000001 4285299554
-0.019347019 -0.0080878129 0.40000001 4283918424
-0.01809294 -0.0081080329 0.40100002 4285631870
-0.016790492 -0.0081080329 0.40100002 4285960060
-0.015526665 -0.0081282528 0.40200001 4283327568
-0.014256345 -0.0081484718 0.40300003 4283392330
-0.012979527 -0.0081686918 0.40400001 4285235306
-0.011696215 -0.0081889117 0.40500003 4282144329
-0.010406405 -0.0082091307 0.40600002 4282144329
-0.0091100996 -0.0082293497 0.40700001 4282012743
-0.0078264335 -0.0082697887 0.40900001 4281485886
-0.0065138885 -0.0082900086 0.41000003 4280498221
-0.0051822085 -0.0082900086 0.41000003 4280563501
-0.003859919 -0.0083102286 0.41100001 4283920477
-0.0025249904 -0.0083102286 0.41100001 4282012995
-0.0011900616 -0.0083102286 0.41100001 4280233764
0.00014451466 -0.0082900086 0.41000003 4280365604
0.0014725948 -0.0082697887 0.40900001 4279905053
0.0027941791 -0.0082495697 0.40800002 4280694569
0.0041193636 -0.0082495697 0.40800002 4280497190
0.0054312041 -0.0082293497 0.40700001 4279707674
0.0067365482 -0.0082091307 0.40600002 4281222192
0.0080552371 -0.0082091307 0.40600002 4280632104
0.0093739256 -0.0082091307 0.40600002 4279127330
0.010692614 -0.0082091307 0.40600002 4278669087
0.012011304 -0.0082091307 0.40600002 4279327017
0.013395658 -0.0082495697 0.40800002 4279984947
0.056565877 -0.0092403265 0.45700002 4278406939
0.058050212 -0.0092403265 0.45700002 4278933283
0.059534553 -0.0092403265 0.45700002 4278472732
0.061152413 -0.0092605464 0.45800003 4278604318
0.062639996 -0.0092605464 0.45800003 4278670111
0.064127579 -0.0092605464 0.45800003 4278800927
0.065758429 -0.0092807664 0.45900002 4278734880
0.067249268 -0.0092807664 0.45900002 4278866468
0.068889849 -0.0093009854 0.46000001 4279195435
0.070383936 -0.0093009854 0.46000001 4279453226
-0.024482463 -0.0067712017 0.39900002 4289578677
-0.02318651 -0.0067712017 0.39900002 4288197024
-0.021890558 -0.0067712017 0.39900002 4285563249
-0.020594606 -0.0067712017 0.39900002 4283194187
-0.019298652 -0.0067712017 0.39900002 4285759349
-0.018047819 -0.0067881718 0.40000001 4292404955
-0.01674862 -0.0067881718 0.40000001 4283195723
-0.015449419 -0.0067881718 0.40000001 4282866756
-0.014185593 -0.0068051429 0.40100002 4282339644
-0.012915271 -0.0068221129 0.40200001 4287472527
-0.011638455 -0.0068390835 0.40300003 4284578409
-0.010380774 -0.0068730246 0.40500003 4281419575
-0.0090877162 -0.0068899947 0.40600002 4281222966
-0.0077881627 -0.0069069648 0.40700001 4282209861
-0.0064980011 -0.0069409059 0.40900001 4282143298
-0.0051822085 -0.0069578765 0.41000003 4281419062
-0.003859919 -0.0069748466 0.41100001 4283657303
-0.0025249904 -0.0069748466 0.41100001 4281090608
-0.0011871661 -0.0069578765 0.41000003 4280102178
0.00014416219 -0.0069409059 0.40900001 4280233764
0.0014725948 -0.0069409059 0.40900001 4280167711
0.0027941791 -0.0069239358 0.40800002 4280496676
0.0041193636 -0.0069239358 0.40800002 4280167457
0.0054445486 -0.0069239358 0.40800002 4280101664
0.0067531401 -0.0069069648 0.40700001 4280694565
0.0080750771 -0.0069069648 0.40700001 4279906584
0.009397014 -0.0069069648 0.40700001 4279190556
0.01071895 -0.0069069648 0.40700001 4278996257
0.012070472 -0.0069239358 0.40800002 4278603548
0.01342849 -0.0069409059 0.40900001 4278670622
0.014793002 -0.0069578765 0.41000003 4279460910
0.01616401 -0.0069748466 0.41100001 4283012712
0.049409904 -0.0075688115 0.44600001 4278669341
0.050972544 -0.0075857826 0.44700003 4279129892
0.052541681 -0.0076027527 0.44800001 4278735134
0.054237843 -0.0076366938 0.45000002 4278735134
0.056194548 -0.0077045755 0.45400003 4279063586
0.057796162 -0.0077215456 0.45500001 4279128095
0.05940428 -0.0077385162 0.45600003 4278995742
0.060885374 -0.0077385162 0.45600003 4278200321
0.062503226 -0.0077554868 0.45700002 4278199554
0.063987561 -0.0077554868 0.45700002 4278200068
0.06561517 -0.0077724573 0.45800003 4279718186
0.067249268 -0.0077894274 0.45900002 4279391785
0.068740092 -0.0077894274 0.45900002 4279260199
0.070383936 -0.007806398 0.46000001 4279519021
-0.027074369 -0.00547481 0.39900002 4281945406
-0.025778418 -0.00547481 0.39900002 4283918174
-0.024482463 -0.00547481 0.39900002 4282866769
-0.02318651 -0.00547481 0.39900002 4282274632
-0.021890558 -0.00547481 0.39900002 4280233764
-0.020594606 -0.00547481 0.39900002 4283787356
-0.019298652 -0.00547481 0.39900002 4285629562
-0.0180027 -0.00547481 0.39900002 4282734668
-0.016706748 -0.00547481 0.39900002 4282800965
-0.015410795 -0.00547481 0.39900002 4281879863
-0.014150217 -0.0054885312 0.40000001 4292933598
-0.012883144 -0.0055022528 0.40100002 4282999375
-0.011609576 -0.005515974 0.40200001 4281814333
-0.01032951 -0.0055296957 0.40300003 4281419573
-0.0090653328 -0.0055571385 0.40500003 4281880124
-0.0077881627 -0.0055845808 0.40700001 4281419573
-0.0064821136 -0.005598302 0.40800002 4281945152
-0.0051822085 -0.0056257448 0.41000003 4281879613
-0.003859919 -0.005639466 0.41100001 4283524436
-0.0025311338 -0.0056531876 0.41200003 4280891946
-0.0011871661 -0.0056257448 0.41000003 4280234018
0.00014416219 -0.0056120232 0.40900001 4280102432
0.0014689944 -0.005598302 0.40800002 4280036125
0.0027941791 -0.005598302 0.40800002 4280233504
0.0041294601 -0.0056120232 0.40900001 4280233504
0.0054445486 -0.005598302 0.40800002 4280365090
0.006769733 -0.005598302 0.40800002 4280825639
0.008094918 -0.005598302 0.40800002 4279906073
0.0094201034 -0.005598302 0.40800002 4279319576
0.010771624 -0.0056120232 0.40900001 4279190554
0.012100057 -0.0056120232 0.40900001 4278601751
0.013461323 -0.0056257448 0.41000003 4278734105
0.014829082 -0.005639466 0.41100001 4279064097
0.01620334 -0.0056531876 0.41200003 4278670624
0.017584093 -0.0056669088 0.41300002 4278539556
0.018971344 -0.0056806304 0.41400003 4278868519
0.020316016 -0.0056806304 0.41400003 4279263531
0.021713009 -0.0056943516 0.41500002 4279460910
0.023060929 -0.0056943516 0.41500002 4278539554
0.024467666 -0.0057080728 0.41600001 4278539554
0.042735331 -0.0059962207 0.43700001 4278931998
0.044255752 -0.0060099419 0.43800002 4278800414
0.045886952 -0.0060373847 0.44000003 4278997025
0.047531147 -0.0060648276 0.44200003 4278997025
0.049188334 -0.0060922704 0.44400004 4279193121
0.050858509 -0.0061197127 0.44600001 4278204176
0.052541681 -0.0061471551 0.44800001 4278200578
0.054237843 -0.0061745979 0.45000002 4278201096
0.056070771 -0.0062157619 0.45300001 4278334736
0.05766914 -0.0062294835 0.45400003 4280111145
0.059274007 -0.0062432047 0.45500001 4279585314
0.060751848 -0.0062432047 0.45500001 4280177453
0.062366456 -0.0062569259 0.45600003 4279717672
0.063987561 -0.006270647 0.45700002 4279387683
0.065471902 -0.006270647 0.45700002 4279915051
0.067102753 -0.0062843687 0.45800003 4279522601
0.068740092 -0.0062980899 0.45900002 4279522601
0.070230931 -0.0062980899 0.45900002 4280109621
-0.027074369 -0.0041784183 0.39900002 4281813050
-0.025778418 -0.0041784183 0.39900002 4282405187
-0.024482463 -0.0041784183 0.39900002 4281615417
-0.02318651 -0.0041784183 0.39900002 4281417526
-0.021835696 -0.0041679461 0.39800003 4280760878
-0.02054299 -0.0041679461 0.39800003 4282735435
-0.019250287 -0.0041679461 0.39800003 4281090608
-0.017957581 -0.0041679461 0.39800003 4282670408
-0.016664878 -0.0041679461 0.39800003 4282209859
-0.015410795 -0.0041784183 0.39900002 4285960062
-0.014114843 -0.0041784183 0.39900002 4285302132
-0.012851017 -0.0041888906 0.40000001 4281814333
-0.011580696 -0.0041993628 0.40100002 4280366374
-0.01032951 -0.0042203073 0.40300003 4278524168
-0.0090429494 -0.0042307796 0.40400001 4283786826
-0.0077690273 -0.0042517241 0.40600002 4283327559
-0.0064821136 -0.0042726686 0.40800002 4281287476
-0.0051822085 -0.0042936131 0.41000003 4282076992
-0.0038693107 -0.0043145572 0.41200003 4283590744
-0.0025372773 -0.0043250294 0.41300002 4280891946
-0.0012045392 -0.0043564462 0.41600001 4280365604
0.00014698198 -0.0043669185 0.41700003 4280562983
0.0015013987 -0.0043669185 0.41700003 4280101664
0.0028558155 -0.0043669185 0.41700003 4280233250
0.0041395565 -0.0042936131 0.41000003 4280233504
0.0054712379 -0.0042936131 0.41000003 4280759848
0.0068029179 -0.0042936131 0.41000003 4280957737
0.0081147579 -0.0042831404 0.40900001 4280498210
0.0094431909 -0.0042831404 0.40900001 4279319576
0.010797961 -0.0042936131 0.41000003 4279190043
0.012129641 -0.0042936131 0.41000003 4278797082
0.013494154 -0.0043040849 0.41100001 4278929179
0.014865164 -0.0043145572 0.41200003 4279062302
0.01620334 -0.0043145572 0.41200003 4278931486
0.017584093 -0.0043250294 0.41300002 4278867490
0.018971344 -0.0043355017 0.41400003 4278670624
0.020316016 -0.0043355017 0.41400003 4278539038
0.021713009 -0.004345974 0.41500002 4278604831
0.023116497 -0.0043564462 0.41600001 4278933796
0.024467666 -0.0043564462 0.41600001 4278802210
0.025880901 -0.0043669185 0.41700003 4278735904
0.027300628 -0.0043773907 0.41800001 4278735134
0.028658295 -0.0043773907 0.41800001 4278202629
0.030087767 -0.004387863 0.41900003 4278733855
0.031598791 -0.0044088075 0.42100003 4278998306
0.033122811 -0.0044297515 0.42300001 4278866720
0.034659818 -0.0044506961 0.42500001 4278340376
0.036209822 -0.0044716406 0.42700002 4278734621
0.037772816 -0.0044925851 0.42900002 4279392037
0.0393488 -0.0045135296 0.43100002 4279325474
0.040937781 -0.0045344741 0.43300003 4278666007
0.042637542 -0.0045658909 0.43600002 4279455012
0.044255752 -0.0045868354 0.43800002 4278199811
0.045782663 -0.0045973072 0.43900001 4278200839
0.047423609 -0.0046182517 0.44100001 4279585064
0.049077548 -0.0046391962 0.44300002 4280637752
0.050744478 -0.0046601407 0.44500002 4279783213
0.052424401 -0.0046810852 0.44700003 4279717420
0.054117315 -0.0047020297 0.44900003 4279455014
0.055823222 -0.0047229743 0.45100003 4279126562
0.057542115 -0.0047439183 0.45300001 4279127330
0.059143737 -0.004754391 0.45400003 4279193123
0.060751848 -0.0047648628 0.45500001 4278797595
0.062366456 -0.0047753355 0.45600003 4279389732
0.063847549 -0.0047753355 0.45600003 4278203662
0.065471902 -0.0047858073 0.45700002 4279455012
0.067102753 -0.0047962801 0.45800003 4279062050
0.068590336 -0.0047962801 0.45800003 4279982902
0.070230931 -0.0048067519 0.45900002 4284450676
-0.027074369 -0.0028820266 0.39900002 4282010427
-0.025778418 -0.0028820266 0.39900002 4281878841
-0.024482463 -0.0028820266 0.39900002 4281615671
-0.02318651 -0.0028820266 0.39900002 4280364836
-0.021835696 -0.0028748037 0.39800003 4281747773
-0.02054299 -0.0028748037 0.39800003 4281879611
-0.019250287 -0.0028748037 0.39800003 4284182879
-0.017957581 -0.0028748037 0.39800003 4282538052
-0.016664878 -0.0028748037 0.39800003 4284906602
-0.015372172 -0.0028748037 0.39800003 4285302130
-0.014114843 -0.0028820266 0.39900002 4281221683
-0.01281889 -0.0028820266 0.39900002 4281154343
-0.011580696 -0.002896473 0.40100002 4280691219
-0.010303878 -0.0029036959 0.40200001 4281085718
-0.0090429494 -0.0029181424 0.40400001 4284572731
-0.0077690273 -0.0029325886 0.40600002 4283061037
-0.0064821136 -0.0029470348 0.40800002 4281419571
-0.0051822085 -0.002961481 0.41000003 4281222196
-0.0038693107 -0.0029759274 0.41200003 4282735951
-0.002543421 -0.0029903736 0.41400003 4280102948
-0.0012045392 -0.0030048196 0.41600001 4280562983
0.00014698198 -0.003012043 0.41700003 4280891948
0.0014977981 -0.0030048196 0.41600001 4280234018
0.0028421185 -0.0029975967 0.41500002 4280694569
0.00415975 -0.0029759274 0.41200003 4280497188
0.0054845819 -0.0029687041 0.41100001 4281417776
0.0068195104 -0.0029687041 0.41100001 4281089325
0.0081544397 -0.0029687041 0.41100001 4279906332
0.0094893686 -0.0029687041 0.41100001 4279123482
0.010824297 -0.0029687041 0.41100001 4279058972
0.012159226 -0.0029687041 0.41100001 4278665496
0.013526988 -0.0029759274 0.41200003 4279126047
0.014865164 -0.0029759274 0.41200003 4278995742
0.016242668 -0.0029831503 0.41300002 4279127582
0.017584093 -0.0029831503 0.41300002 4278800414
0.018971344 -0.0029903736 0.41400003 4278998306
0.020365089 -0.0029975967 0.41500002 4278669341
0.021713009 -0.0029975967 0.41500002 4278800927
0.023116497 -0.0030048196 0.41600001 4278735134
0.024467666 -0.0030048196 0.41600001 4278866720
0.025880901 -0.003012043 0.41700003 4278932000
0.027300628 -0.0030192661 0.41800001 4278932000
0.028726855 -0.0030264892 0.41900003 4278337044
0.030159576 -0.0030337123 0.42000002 4279389732
0.031598791 -0.0030409356 0.42100003 4278995744
0.033122811 -0.0030553816 0.42300001 4278202377
0.034659818 -0.0030698278 0.42500001 4278199817
0.036209822 -0.0030842742 0.42700002 4278199047
0.037772816 -0.0030987205 0.42900002 4278526730
0.0393488 -0.0031131667 0.43100002 4278526476
0.040937781 -0.0031276129 0.43300003 4278460687
0.042539749 -0.0031420593 0.43500003 4280372530
0.044154711 -0.0031565053 0.43700001 4279586346
0.045782663 -0.0031709515 0.43900001 4279455014
0.047316074 -0.0031781748 0.44000003 4279652393
0.049077548 -0.0031998442 0.44300002 4278204179
0.050630447 -0.0032070675 0.44400004 4278731037
0.052307121 -0.0032215135 0.44600001 4278203922
0.053996786 -0.0032359597 0.44800001 4278796316
0.055699442 -0.0032504059 0.45000002 4278467351
0.057415091 -0.0032648523 0.45200002 4278664730
0.05901346 -0.0032720752 0.45300001 4278203922
0.06061833 -0.0032792985 0.45400003 4278862109
0.062229685 -0.0032865216 0.45500001 4279520293
0.063847549 -0.0032937448 0.45600003 4278203665
0.065471902 -0.0033009679 0.45700002 4279456043
0.066956237 -0.0033009679 0.45700002 4279588142
0.068590336 -0.0033081912 0.45800003 4279257642
-0.028441424 -0.001589609 0.40000001 4284575577
-0.027142225 -0.001589609 0.40000001 4284445020
-0.025843024 -0.001589609 0.40000001 4282405437
-0.024482463 -0.001585635 0.39900002 4281813050
-0.02318651 -0.001585635 0.39900002 4279181076
-0.021835696 -0.0015816611 0.39800003 4281550907
-0.02054299 -0.0015816611 0.39800003 4279971875
-0.019250287 -0.0015816611 0.39800003 4283327318
-0.017957581 -0.0015816611 0.39800003 4283195986
-0.016664878 -0.0015816611 0.39800003 4284248161
-0.015372172 -0.0015816611 0.39800003 4286616709
-0.014079467 -0.0015816611 0.39800003 4281812019
-0.01281889 -0.001585635 0.39900002 4283981116
-0.011551816 -0.001589609 0.40000001 4287927661
-0.010278247 -0.001593583 0.40100002 4282664223
-0.009020566 -0.0016015311 0.40300003 4282466842
-0.0077498923 -0.0016094792 0.40500003 4282204185
-0.0064821136 -0.0016214012 0.40800002 4281419562
-0.0051822085 -0.0016293493 0.41000003 4281420341
-0.0038693107 -0.0016372973 0.41200003 4282012482
-0.002543421 -0.0016452454 0.41400003 4280695598
-0.0012045392 -0.0016531934 0.41600001 4280628776
0.00014698198 -0.0016571674 0.41700003 4281484085
0.0014977981 -0.0016531934 0.41600001 4280628776
0.0028421185 -0.0016492193 0.41500002 4280826153
0.004169846 -0.0016412713 0.41300002 4280826151
0.0054979268 -0.0016372973 0.41200003 4281155116
0.0068361033 -0.0016372973 0.41200003 4281024302
0.0081742806 -0.0016372973 0.41200003 4279841563
0.0095124571 -0.0016372973 0.41200003 4279124250
0.010850633 -0.0016372973 0.41200003 4279190556
0.012188811 -0.0016372973 0.41200003 4278797082
0.013526988 -0.0016372973 0.41200003 4278929181
0.014901243 -0.0016412713 0.41300002 4279062048
0.016242668 -0.0016412713 0.41300002 4278996509
0.017626671 -0.0016452454 0.41400003 4278405656
0.018971344 -0.0016452454 0.41400003 4279063586
0.020365089 -0.0016492193 0.41500002 4278866718
0.021765329 -0.0016531934 0.41600001 4278800927
0.023116497 -0.0016531934 0.41600001 4278800673
0.024526484 -0.0016571674 0.41700003 4278866466
0.025880901 -0.0016571674 0.41700003 4278669087
0.027300628 -0.0016611414 0.41800001 4279063332
0.028726855 -0.0016651155 0.41900003 4278665496
0.030159576 -0.0016690894 0.42000002 4280112940
0.031673849 -0.0016770376 0.42200002 4278199822
0.033122811 -0.0016810115 0.42300001 4278592273
0.034659818 -0.0016889595 0.42500001 4278722578
0.036209822 -0.0016969076 0.42700002 4278722832
0.037772816 -0.0017048557 0.42900002 4278787855
0.0393488 -0.0017128037 0.43100002 4278853648
0.040937781 -0.0017207518 0.43300003 4278197258
0.042539749 -0.0017286999 0.43500003 4280108840
0.044154711 -0.0017366478 0.43700001 4278531091
0.045678377 -0.0017406219 0.43800002 4278198530
0.047316074 -0.0017485699 0.44000003 4278401812
0.048966765 -0.001756518 0.44200003 4279388707
0.050630447 -0.0017644661 0.44400004 4278927902
0.052307121 -0.001772414 0.44600001 4278664730
0.053996786 -0.0017803621 0.44800001 4278202896
0.055699442 -0.0017883101 0.45000002 4278201357
0.057415091 -0.0017962581 0.45200002 4278202384
0.05901346 -0.0018002321 0.45300001 4279387683
0.06061833 -0.0018042063 0.45400003 4279650855
0.062229685 -0.0018081802 0.45500001 4280111406
0.063847549 -0.0018121543 0.45600003 4279850031
0.065328635 -0.0018121543 0.45600003 4279522349
0.066956237 -0.0018161283 0.45700002 4279522351
0.068440571 -0.0018161283 0.45700002 4281295432
-0.027210081 -0.00029069302 0.40100002 4281942826
-0.025843024 -0.00028996807 0.40000001 4281680939
-0.024543822 -0.00028996807 0.40000001 4281484853
-0.02318651 -0.00028924318 0.39900002 4278787855
-0.021890558 -0.00028924318 0.39900002 4283328090
-0.02054299 -0.00028851826 0.39800003 4279314717
-0.019250287 -0.00028851826 0.39800003 4283196756
-0.017957581 -0.00028851826 0.39800003 4283328342
-0.016664878 -0.00028851826 0.39800003 4282865484
-0.015372172 -0.00028851826 0.39800003 4284116321
-0.014079467 -0.00028851826 0.39800003 4282074927
-0.01281889 -0.00028924318 0.39900002 4282599718
-0.011551816 -0.00028996807 0.40000001 4282927906
-0.010278247 -0.00029069302 0.40100002 4282401049
-0.009020566 -0.00029214285 0.40300003 4282335769
-0.0077498923 -0.00029359269 0.40500003 4281941788
-0.0064662257 -0.00029504253 0.40700001 4281944624
-0.0051822085 -0.00029721731 0.41000003 4281024300
-0.0038693107 -0.00029866715 0.41200003 4282340162
-0.002543421 -0.00030011698 0.41400003 4280958509
-0.0012045392 -0.00030156682 0.41600001 4282865738
0.00014662951 -0.00030156682 0.41600001 4281878841
0.0014977981 -0.00030156682 0.41600001 4281286704
0.0028421185 -0.0003008419 0.41500002 4281023532
0.0041799429 -0.00030011698 0.41400003 4280695337
0.0055112713 -0.00029939206 0.41300002 4280695337
0.0068526953 -0.00029939206 0.41300002 4281091376
0.0081742806 -0.00029866715 0.41200003 4279777567
0.0095124571 -0.00029866715 0.41200003 4279255838
0.010850633 -0.00029866715 0.41200003 4279058970
0.012188811 -0.00029866715 0.41200003 4278731289
0.01355982 -0.00029939206 0.41300002 4279060767
0.014901243 -0.00029939206 0.41300002 4279062050
0.016281998 -0.00030011698 0.41400003 4278733855
0.017626671 -0.00030011698 0.41400003 4278800414
0.019017167 -0.0003008419 0.41500002 4278931998
0.020365089 -0.0003008419 0.41500002 4278800412
0.021765329 -0.00030156682 0.41600001 4278734619
0.023116497 -0.00030156682 0.41600001 4278734367
0.024526484 -0.00030229174 0.41700003 4278865953
0.025942964 -0.00030301666 0.41800001 4278865953
0.027300628 -0.00030301666 0.41800001 4279523369
0.028726855 -0.00030374157 0.41900003 4278993179
0.030159576 -0.00030446649 0.42000002 4279388707
0.031673849 -0.00030591633 0.42200002 4278856213
0.033201117 -0.00030736616 0.42400002 4279183896
0.034659818 -0.00030809108 0.42500001 4280104744
0.036209822 -0.00030954092 0.42700002 4279908133
0.037772816 -0.00031099078 0.42900002 4278460685
0.0393488 -0.00031244062 0.43100002 4279579166
0.040937781 -0.00031389046 0.43300003 4278197252
0.042539749 -0.00031534029 0.43500003 4280044330
0.04405367 -0.00031606521 0.43600002 4278331404
0.045678377 -0.00031751505 0.43800002 4278197509
0.047316074 -0.00031896491 0.44000003 4279058459
0.048966765 -0.00032041475 0.44200003 4279058972
0.050630447 -0.00032186459 0.44400004 4278335249
0.052307121 -0.00032331442 0.44600001 4279388707
0.053996786 -0.00032476426 0.44800001 4279717672
0.055699442 -0.0003262141 0.45000002 4279915051
0.057288069 -0.00032693904 0.45100003 4280243762
0.05901346 -0.00032838885 0.45300001 4278663960
0.06061833 -0.0003291138 0.45400003 4278200071
0.062229685 -0.00032983869 0.45500001 4278201613
0.063847549 -0.00033056363 0.45600003 4279587629
0.065328635 -0.00033056363 0.45600003 4279653935
0.066956237 -0.00033128855 0.45700002 4279388717
0.068440571 -0.00033128855 0.45700002 4286161548
-0.024543822 0.0010096728 0.40000001 4281419312
-0.023244621 0.0010096728 0.40000001 4279248402
-0.021890558 0.0010071486 0.39900002 4284446823
-0.020594606 0.0010071486 0.39900002 4279314715
-0.019250287 0.0010046245 0.39800003 4283789406
-0.017957581 0.0010046245 0.39800003 4283394133
-0.016664878 0.0010046245 0.39800003 4282800461
-0.015372172 0.0010046245 0.39800003 4281813566
-0.014079467 0.0010046245 0.39800003 4281680939
-0.01281889 0.0010071486 0.39900002 4282403111
-0.011551816 0.0010096728 0.40000001 4281744152
-0.010278247 0.001012197 0.40100002 4281875738
-0.009020566 0.0010172453 0.40300003 4282336287
-0.0077498923 0.0010222938 0.40500003 4281810202
-0.0064821136 0.0010298663 0.40800002 4282931267
-0.0051822085 0.0010349146 0.41000003 4282866758
-0.0038693107 0.0010399631 0.41200003 4280893229
-0.002543421 0.0010450114 0.41400003 4281549876
-0.0012045392 0.0010500597 0.41600001 4283063113
0.00014662951 0.0010500597 0.41600001 4283194699
0.0014977981 0.0010500597 0.41600001 4283261262
0.0028421185 0.0010475356 0.41500002 4283524688
0.0041799429 0.0010450114 0.41400003 4283261514
0.0055246158 0.0010450114 0.41400003 4282208828
0.0068526953 0.0010424872 0.41300002 4283921242
0.0081941206 0.0010424872 0.41300002 4279647262
0.0095355455 0.0010424872 0.41300002 4279256351
0.010876969 0.0010424872 0.41300002 4279124763
0.012218395 0.0010424872 0.41300002 4278862873
0.01355982 0.0010424872 0.41300002 4278929179
0.014937324 0.0010450114 0.41400003 4279193634
0.016281998 0.0010450114 0.41400003 4278931232
0.017626671 0.0010450114 0.41400003 4278931746
0.019017167 0.0010475356 0.41500002 4278866207
0.020365089 0.0010475356 0.41500002 4278800412
0.021765329 0.0010500597 0.41600001 4278866205
0.023172066 0.0010525839 0.41700003 4278668828
0.024526484 0.0010525839 0.41700003 4278932000
0.025942964 0.0010551082 0.41800001 4278866207
0.027365942 0.0010576323 0.41900003 4278733085
0.028795416 0.0010601565 0.42000002 4279849256
0.030231385 0.0010626807 0.42100003 4278466835
0.031673849 0.0010652049 0.42200002 4279909412
0.033201117 0.0010702532 0.42400002 4278856724
0.034741372 0.0010753016 0.42600003 4279447582
0.036294624 0.00108035 0.42800003 4279644961
0.037772816 0.0010828741 0.42900002 4279711522
0.0393488 0.0010879225 0.43100002 4280830768
0.040937781 0.0010929708 0.43300003 4279121179
0.042539749 0.0010980192 0.43500003 4279912746
0.04405367 0.0011005434 0.43600002 4278198022
0.045678377 0.0011055918 0.43800002 4280107815
0.047208536 0.0011081159 0.43900001 4280307754
0.048855979 0.0011131642 0.44100001 4279716387
0.050516412 0.0011182127 0.44300002 4279124250
0.052189842 0.0011232611 0.44500002 4278199809
0.053876258 0.0011283094 0.44700003 4278198784
0.055699442 0.0011358819 0.45000002 4278400275
0.057288069 0.0011384061 0.45100003 4279914027
0.05901346 0.0011434545 0.45300001 4280309555
0.06061833 0.0011459787 0.45400003 4279783725
0.062229685 0.0011485028 0.45500001 4279521066
0.063847549 0.001151027 0.45600003 4279521836
0.065328635 0.001151027 0.45600003 4279192103
0.066956237 0.0011535512 0.45700002 4285699716
-0.024605183 0.002315087 0.40100002 4281615146
-0.023244621 0.0023093137 0.40000001 4281483821
-0.021945423 0.0023093137 0.40000001 4283656535
-0.020594606 0.0023035405 0.39900002 4279380762
-0.019298652 0.0023035405 0.39900002 4283723611
-0.0180027 0.0023035405 0.39900002 4283592025
-0.016706748 0.0023035405 0.39900002 4283853403
-0.015410795 0.0023035405 0.39900002 4281155636
-0.014114843 0.0023035405 0.39900002 4282733625
-0.012851017 0.0023093137 0.40000001 4282864432
-0.011551816 0.0023093137 0.40000001 4281678359
-0.010303878 0.0023208603 0.40200001 4281810204
-0.009020566 0.0023266335 0.40300003 4281810204
-0.0077498923 0.0023381801 0.40500003 4281613341
-0.0064821136 0.0023554999 0.40800002 4282931781
-0.0051822085 0.0023670467 0.41000003 4282538306
-0.0038693107 0.0023785932 0.41200003 4280037920
-0.002543421 0.0023901397 0.41400003 4282207804
-0.0012016437 0.002395913 0.41500002 4283590227
0.00014662951 0.0024016863 0.41600001 4283656020
0.0014977981 0.0024016863 0.41600001 4283195469
0.0028421185 0.002395913 0.41500002 4283129676
0.0041900389 0.002395913 0.41500002 4283788373
0.0055246158 0.0023901397 0.41400003 4283722580
0.0068692882 0.0023901397 0.41400003 4283329365
0.0082139615 0.0023901397 0.41400003 4279910949
0.0095586339 0.0023901397 0.41400003 4280176940
0.010876969 0.0023843665 0.41300002 4279058970
0.01224798 0.0023901397 0.41400003 4278797082
0.013592653 0.0023901397 0.41400003 4278928668
0.014937324 0.0023901397 0.41400003 4278864671
0.016281998 0.0023901397 0.41400003 4278865441
0.017669247 0.002395913 0.41500002 4278865953
0.019017167 0.002395913 0.41500002 4279063586
0.020414161 0.0024016863 0.41600001 4278800414
0.021765329 0.0024016863 0.41600001 4278866207
0.023172066 0.0024074595 0.41700003 4278800160
0.024526484 0.0024074595 0.41700003 4278865953
0.025942964 0.0024132328 0.41800001 4278865953
0.027365942 0.0024190061 0.41900003 4278203150
0.028795416 0.0024247793 0.42000002 4279915051
0.030231385 0.0024305528 0.42100003 4278200069
0.031748902 0.0024420992 0.42300001 4278987801
0.033201117 0.0024478727 0.42400002 4278790422
0.034741372 0.0024594192 0.42600003 4278393613
0.036294624 0.0024709657 0.42800003 4278853394
0.037772816 0.002476739 0.42900002 4278853396
0.0393488 0.0024882855 0.43100002 4278787601
0.040937781 0.0024998321 0.43300003 4279976488
0.042441957 0.0025056053 0.43400002 4279319072
0.04405367 0.0025171519 0.43600002 4278199820
0.045678377 0.0025286984 0.43800002 4278198018
0.047208536 0.0025344717 0.43900001 4278529808
0.048855979 0.0025460182 0.44100001 4279780899
0.050516412 0.002557565 0.44300002 4279585316
0.052189842 0.0025691115 0.44500002 4280112944
0.053876258 0.0025806581 0.44700003 4279193125
0.055575669 0.0025922046 0.44900003 4279258918
0.057288069 0.0026037514 0.45100003 4279652906
0.05901346 0.0026152977 0.45300001 4279323941
0.06061833 0.0026210712 0.45400003 4278796832
0.062229685 0.0026268442 0.45500001 4280044850
0.063847549 0.0026326177 0.45600003 4284384623
0.065328635 0.0026326177 0.45600003 4286752658
-0.023302734 0.003617977 0.40100002 4284378965
-0.022000287 0.003617977 0.40100002 4280630057
-0.02064622 0.0036089544 0.40000001 4281157173
-0.019347019 0.0036089544 0.40000001 4284184164
-0.018047819 0.0036089544 0.40000001 4283460441
-0.016706748 0.0035999322 0.39900002 4283525719
-0.015410795 0.0035999322 0.39900002 4280892718
-0.014114843 0.0035999322 0.39900002 4280826153
-0.012851017 0.0036089544 0.40000001 4281943087
-0.011580696 0.003617977 0.40100002 4282270249
-0.010303878 0.0036269992 0.40200001 4281151768
-0.0090429494 0.0036450441 0.40400001 4284643167
-0.0077690273 0.0036630889 0.40600002 4281747255
-0.0064821136 0.0036811335 0.40800002 4283524947
-0.0051822085 0.0036991783 0.41000003 4282011708
-0.0038693107 0.0037172232 0.41200003 4281351470
-0.002543421 0.003735268 0.41400003 4283721043
-0.0012016437 0.0037442902 0.41500002 4283787606
0.00014662951 0.0037533126 0.41600001 4283984985
0.0014977981 0.0037533126 0.41600001 4284116571
0.0028421185 0.0037442902 0.41500002 4283788119
0.0041900389 0.0037442902 0.41500002 4283524947
0.0055379602 0.0037442902 0.41500002 4283722580
0.0068692882 0.003735268 0.41400003 4280303911
0.0082139615 0.003735268 0.41400003 4279779615
0.0095586339 0.003735268 0.41400003 4279255836
0.010903306 0.003735268 0.41400003 4279190043
0.01224798 0.003735268 0.41400003 4278993947
0.013592653 0.003735268 0.41400003 4279060767
0.014937324 0.003735268 0.41400003 4279193634
0.016321326 0.0037442902 0.41500002 4278931486
0.017669247 0.0037442902 0.41500002 4278800414
0.019062992 0.0037533126 0.41600001 4278800160
0.020414161 0.0037533126 0.41600001 4279063586
0.021817649 0.0037623351 0.41700003 4279129379
0.023172066 0.0037623351 0.41700003 4278800673
0.024585299 0.0037713575 0.41800001 4278800675
0.025942964 0.0037713575 0.41800001 4279523373
0.027365942 0.0037803799 0.41900003 4278201355
0.028795416 0.0037894021 0.42000002 4279849004
0.030231385 0.0037984247 0.42100003 4278199301
0.031748902 0.0038164693 0.42300001 4278854164
0.033201117 0.0038254918 0.42400002 4278788373
0.034741372 0.0038435366 0.42600003 4278919189
0.036294624 0.0038615814 0.42800003 4278787603
0.037772816 0.0038706036 0.42900002 4278657298
0.0393488 0.0038886485 0.43100002 4279644961
0.040937781 0.0039066933 0.43300003 4280110125
0.042441957 0.0039157155 0.43400002 4279518756
0.04405367 0.0039337603 0.43600002 4279585314
0.045574088 0.0039427825 0.43700001 4279454498
0.047208536 0.0039608274 0.43900001 4279258144
0.048855979 0.0039788722 0.44100001 4279193123
0.050516412 0.003996917 0.44300002 4279193636
0.052189842 0.0040149619 0.44500002 4279127843
0.053876258 0.0040330067 0.44700003 4278733087
0.055575669 0.0040510516 0.44900003 4278928929
0.057288069 0.0040690964 0.45100003 4280636987
0.05888319 0.0040781186 0.45200002 4283859561
0.06061833 0.0040961634 0.45400003 4286357900
-0.022055149 0.0049331384 0.40200001 4282339642
-0.020697838 0.0049208668 0.40100002 4284972134
-0.019395389 0.0049208668 0.40100002 4281879609
-0.01809294 0.0049208668 0.40100002 4284050780
-0.016790492 0.0049208668 0.40100002 4283261777
-0.015449419 0.0049085952 0.40000001 4282274884
-0.014150217 0.0049085952 0.40000001 4281616441
-0.012883144 0.0049208668 0.40100002 4281155890
-0.011609576 0.0049331384 0.40200001 4282405953
-0.01032951 0.0049454099 0.40300003 4283065420
-0.0090653328 0.0049699531 0.40500003 4280828206
-0.0077881627 0.0049944958 0.40700001 4282473033
-0.0038787022 0.0050681247 0.41300002 4281615671
-0.002543421 0.0050803963 0.41400003 4282667843
-0.0012016437 0.0050926679 0.41500002 4283656533
0.00014662951 0.005104939 0.41600001 4283722326
0.0014977981 0.005104939 0.41600001 4283722326
0.0028489667 0.005104939 0.41600001 4283590740
0.0041900389 0.0050926679 0.41500002 4283591764
0.0055379602 0.0050926679 0.41500002 4283591764
0.0068858806 0.0050926679 0.41500002 4279317527
0.0082338015 0.0050926679 0.41500002 4279845922
0.0095817223 0.0050926679 0.41500002 4279189271
0.010929643 0.0050926679 0.41500002 4279255834
0.012277564 0.0050926679 0.41500002 4279257117
0.013625485 0.0050926679 0.41500002 4279126045
0.014973405 0.0050926679 0.41500002 4279062048
0.016321326 0.0050926679 0.41500002 4278865693
0.017669247 0.0050926679 0.41500002 4278866207
0.019062992 0.005104939 0.41600001 4278931746
0.020414161 0.005104939 0.41600001 4278866207
0.021817649 0.005117211 0.41700003 4278866205
0.023227634 0.0051294821 0.41800001 4278866207
0.024585299 0.0051294821 0.41800001 4278800160
0.02600503 0.0051417537 0.41900003 4279456297
0.027431253 0.0051540253 0.42000002 4278269204
0.028795416 0.0051540253 0.42000002 4279585062
0.030303193 0.0051785684 0.42200002 4278334482
0.031748902 0.0051908395 0.42300001 4279647523
0.033201117 0.0052031111 0.42400002 4280305967
0.034741372 0.0052276542 0.42600003 4279912492
0.036294624 0.0052521974 0.42800003 4279781930
0.037772816 0.0052644685 0.42900002 4279520039
0.0393488 0.0052890116 0.43100002 4279388707
0.040937781 0.0053135548 0.43300003 4279323939
0.042441957 0.0053258259 0.43400002 4279258144
0.04405367 0.005350369 0.43600002 4279127582
0.045574088 0.0053626406 0.43700001 4279193375
0.047208536 0.0053871833 0.43900001 4278733083
0.048745196 0.0053994553 0.44000003 4279456295
0.050516412 0.0054362696 0.44300002 4279454246
0.052072562 0.0054485411 0.44400004 4281163842
0.053755727 0.0054730838 0.44600001 4284779377
0.055575669 0.0055098985 0.44900003 4286226312
0.057288069 0.0055344417 0.45100003 4285897095
0.05888319 0.0055467128 0.45200002 4285831302
0.06061833 0.0055712559 0.45400003 4286027911
-0.019492123 0.0062547983 0.40300003 4282931779
-0.018138058 0.0062392773 0.40200001 4282076218
-0.016832363 0.0062392773 0.40200001 4284840809
-0.015488042 0.0062237573 0.40100002 4285105264
-0.014185593 0.0062237573 0.40100002 4281156403
-0.0129474 0.0062547983 0.40300003 4281616441
-0.011638455 0.0062547983 0.40300003 4281419575
-0.010355142 0.0062703188 0.40400001 4280958770
-0.0090653328 0.0062858397 0.40500003 4281947202
0.00014662951 0.0064565656 0.41600001 4282011712
0.0014977981 0.0064565656 0.41600001 4283459158
0.0028489667 0.0064565656 0.41600001 4283590742
0.0042001354 0.0064565656 0.41600001 4283525717
0.0055379602 0.0064410456 0.41500002 4284447332
0.0068858806 0.0064410456 0.41500002 4279581982
0.0082338015 0.0064410456 0.41500002 4279649313
0.0095817223 0.0064410456 0.41500002 4279321627
0.010929643 0.0064410456 0.41500002 4279124761
0.012277564 0.0064410456 0.41500002 4279257117
0.013625485 0.0064410456 0.41500002 4279323424
0.014973405 0.0064410456 0.41500002 4279127843
0.016321326 0.0064410456 0.41500002 4278997027
0.017711822 0.0064565656 0.41600001 4278800927
0.019062992 0.0064565656 0.41600001 4278998306
0.020463234 0.0064720865 0.41700003 4278735134
0.021817649 0.0064720865 0.41700003 4278274581
0.023227634 0.006487607 0.41800001 4278800927
0.024585299 0.006487607 0.41800001 4278800673
0.02600503 0.006503128 0.41900003 4278272023
0.027431253 0.006518648 0.42000002 4278468119
0.028863978 0.006534169 0.42100003 4279258148
0.030303193 0.0065496895 0.42200002 4279389732
0.031748902 0.0065652099 0.42300001 4279389732
0.033201117 0.0065807309 0.42400002 4279389219
0.034741372 0.0066117719 0.42600003 4279389219
0.036209822 0.0066272924 0.42700002 4279323939
0.037772816 0.0066583334 0.42900002 4279323939
0.0393488 0.0066893748 0.43100002 4278732572
0.040937781 0.0067204162 0.43300003 4279258916
0.042441957 0.0067359363 0.43400002 4279193125
0.04405367 0.0067669777 0.43600002 4279520291
0.045574088 0.0067824982 0.43700001 4279453730
0.047100998 0.0067980192 0.43800002 4282476622
0.04863441 0.0068135392 0.43900001 4286094724
0.050516412 0.0068756216 0.44300002 4286356615
0.052072562 0.0068911426 0.44400004 4285896579
0.053755727 0.0069221836 0.44600001 4286159751
0.055575669 0.0069687455 0.44900003 4286028165
0.057288069 0.0069997869 0.45100003 4285962118
0.05888319 0.007015307 0.45200002 4286225290
-0.016916106 0.007582956 0.40400001 4280889886
-0.015526665 0.0075454167 0.40200001 4282140468
-0.014220969 0.0075454167 0.40200001 4283655242
-0.012979527 0.007582956 0.40400001 4284247891
-0.011696215 0.0076017259 0.40500003 4283852883
-0.010380774 0.0076017259 0.40500003 4283195471
0.0028489667 0.0078081922 0.41600001 4281551931
0.0042001354 0.0078081922 0.41600001 4282867789
0.0055513047 0.0078081922 0.41600001 4279974692
0.0069024726 0.0078081922 0.41600001 4279845668
0.0082338015 0.0077894228 0.41500002 4279649572
0.0095817223 0.0077894228 0.41500002 4279190558
0.010929643 0.0077894228 0.41500002 4278993947
0.012277564 0.0077894228 0.41500002 4278928668
0.013625485 0.0077894228 0.41500002 4279389732
0.015009484 0.0078081922 0.41600001 4279325222
0.016360654 0.0078081922 0.41600001 4278931234
0.017711822 0.0078081922 0.41600001 4278734369
0.019108817 0.0078269625 0.41700003 4278866468
0.020463234 0.0078269625 0.41700003 4278800673
0.021869969 0.0078457315 0.41800001 4278800673
0.023227634 0.0078457315 0.41800001 4278800673
0.024644116 0.0078645013 0.41900003 4278800673
0.02600503 0.0078645013 0.41900003 4278864671
0.027431253 0.0078832712 0.42000002 4279258916
0.028863978 0.0079020411 0.42100003 4279193125
0.030231385 0.0079020411 0.42100003 4279127843
0.031673849 0.007920811 0.42200002 4279325222
0.033122811 0.0079395799 0.42300001 4279390502
0.034659818 0.0079771196 0.42500001 4279784490
0.036209822 0.0080146594 0.42700002 4280047151
0.037684768 0.0080334293 0.42800003 4279650855
0.0393488 0.008089738 0.43100002 4280110123
0.040937781 0.0081272777 0.43300003 4281885769
0.042441957 0.0081460467 0.43400002 4285043063
0.04405367 0.0081835864 0.43600002 4286817931
0.045574088 0.0082023554 0.43700001 4286291587
0.047100998 0.0082211262 0.43800002 4286027648
0.04863441 0.0082398951 0.43900001 4286290822
0.050516412 0.0083149746 0.44300002 4286093443
0.052072562 0.0083337445 0.44400004 4286093445
0.053755727 0.0083712833 0.44600001 4286290824
0.0042001354 0.0091598183 0.41600001 4282475341
0.0055513047 0.0091598183 0.41600001 4279120668
0.0069024726 0.0091598183 0.41600001 4279517223
0.0082536414 0.0091598183 0.41600001 4279517473
0.0096048107 0.0091598183 0.41600001 4279255584
0.010955979 0.0091598183 0.41600001 4279387683
0.012307148 0.0091598183 0.41600001 4279323428
0.013658317 0.0091598183 0.41600001 4279127843
0.015009484 0.0091598183 0.41600001 4279062820
0.016360654 0.0091598183 0.41600001 4279062820
0.017711822 0.0091598183 0.41600001 4279129127
0.019108817 0.0091818376 0.41700003 4278998054
0.020463234 0.0091818376 0.41700003 4278603296
0.021869969 0.0092038559 0.41800001 4278866468
0.023227634 0.0092038559 0.41800001 4279063334
0.024644116 0.0092258751 0.41900003 4279194406
0.02600503 0.0092258751 0.41900003 4279391015
0.027431253 0.0092478935 0.42000002 4279522601
0.028863978 0.0092699127 0.42100003 4279719469
0.030231385 0.0092699127 0.42100003 4280047412
0.031673849 0.0092919311 0.42200002 4280373813
0.033122811 0.0093139503 0.42300001 4281622597
0.034659818 0.0093579879 0.42500001 4285239417
0.0055513047 0.010511445 0.41600001 4287279513
0.0069024726 0.010511445 0.41600001 4285371518
0.0082536414 0.010511445 0.41600001 4279976238
0.0096048107 0.010511445 0.41600001 4279121947
0.010955979 0.010511445 0.41600001 4279583781
0.012307148 0.010511445 0.41600001 4279454246
0.013658317 0.010511445 0.41600001 4279652652
0.015009484 0.010511445 0.41600001 4279391017
0.016360654 0.010511445 0.41600001 4279654187
0.0177544 0.010536713 0.41700003 4279654957
0.019108817 0.010536713 0.41700003 4279786543
0.020512305 0.01056198 0.41800001 4279785773
0.021869969 0.01056198 0.41800001 4279654187
0.023283204 0.010587249 0.41900003 4279849006
0.024644116 0.010587249 0.41900003 4279979309
0.02600503 0.010587249 0.41900003 4281623112
0.0096048107 0.011863071 0.41600001 4287279515
0.010955979 0.011863071 0.41600001 4286161034
0.012307148 0.011863071 0.41600001 4281227841
0.013658317 0.011863071 0.41600001 4279780908
0.015009484 0.011863071 0.41600001 4279453224
0.016360654 0.011863071 0.41600001 4279650855
0.0177544 0.01189159 0.41700003 4279650857
0.019108817 0.01189159 0.41700003 4281096768
0.01645617 -0.00081309298 0.41980252 4294967295
0.01645617 -0.00081309298 0.41980252 4294901760
0.01645617 -0.00081309298 0.42030251 4294901760
0.01645617 -0.00081309298 0.4208025 4294901760
0.01645617 -0.00081309298 0.42130253 4294901760
0.01645617 -0.00081309298 0.42180252 4294901760
0.01645617 -0.00081309298 0.42230251 4294901760
0.01645617 -0.00081309298 0.42280251 4294901760
0.01645617 -0.00081309298 0.42330253 4294901760
0.01645617 -0.00081309298 0.42380252 4294901760
0.01645617 -0.00081309298 0.42430252 4294901760
0.01645617 -0.00081309298 0.42480251 4294901760
0.01645617 -0.00081309298 0.42530251 4294901760
0.01645617 -0.00081309298 0.42580253 4294901760
0.01645617 -0.00081309298 0.42630252 4294901760
0.01645617 -0.00081309298 0.42680252 4294901760
0.01645617 -0.00081309298 0.42730251 4294901760
0.01645617 -0.00081309298 0.4278025 4294901760
0.01645617 -0.00081309298 0.42830253 4294901760
0.01645617 -0.00081309298 0.42880252 4294901760
0.01645617 -0.00081309298 0.42930251 4294901760
0.01645617 -0.00081309298 0.42980251 4294901760
0.01645617 -0.00081309298 0.43030253 4294901760
0.01645617 -0.00081309298 0.43080252 4294901760
0.01645617 -0.00081309298 0.43130252 4294901760
0.01645617 -0.00081309298 0.43180251 4294901760
0.01645617 -0.00081309298 0.43230253 4294901760
0.01645617 -0.00081309298 0.43280253 4294901760
0.01645617 -0.00081309298 0.43330252 4294901760
0.01645617 -0.00081309298 0.43380252 4294901760
0.01645617 -0.00081309298 0.43430251 4294901760
0.01645617 -0.00081309298 0.43480253 4294901760
0.01645617 -0.00081309298 0.43530253 4294901760
0.01645617 -0.00081309298 0.43580252 4294901760
0.01645617 -0.00081309298 0.43630251 4294901760
0.01645617 -0.00081309298 0.43680251 4294901760
0.01645617 -0.00081309298 0.43730253 4294901760
0.01645617 -0.00081309298 0.43780252 4294901760
0.01645617 -0.00081309298 0.43830252 4294901760
0.01645617 -0.00081309298 0.43880251 4294901760
0.01645617 -0.00081309298 0.43930253 4294901760
0.01645617 -0.00081309298 0.43980253 4294901760
0.01645617 -0.00081309298 0.44030252 4294901760
0.01645617 -0.00081309298 0.44080251 4294901760
0.01645617 -0.00081309298 0.44130254 4294901760
0.01645617 -0.00081309298 0.44180253 4294901760
0.01645617 -0.00081309298 0.44230253 4294901760
0.01645617 -0.00081309298 0.44280252 4294901760
0.01645617 -0.00081309298 0.44330251 4294901760
0.01645617 -0.00081309298 0.44380254 4294901760
0.01645617 -0.00081309298 0.44430253 4294901760
0.01645617 -0.00081309298 0.44480252 4294901760
0.01645617 -0.00081309298 0.44530252 4294901760
0.01645617 -0.00081309298 0.44580251 4294901760
0.01645617 -0.00081309298 0.44630253 4294901760
0.01645617 -0.00081309298 0.44680253 4294901760
0.01645617 -0.00081309298 0.44730252 4294901760
0.01645617 -0.00081309298 0.44780251 4294901760
0.01645617 -0.00081309298 0.44830251 4294901760
0.01645617 -0.00081309298 0.44880253 4294901760
0.01645617 -0.00081309298 0.44930252 4294901760
0.01645617 -0.00081309298 0.44980252 4294901760
0.01645617 -0.00081309298 0.45030251 4294901760
0.01645617 -0.00081309298 0.45080253 4294901760
0.01645617 -0.00081309298 0.45130253 4294901760
0.01645617 -0.00081309298 0.45180252 4294901760
0.01645617 -0.00081309298 0.45230252 4294901760
0.01645617 -0.00081309298 0.45280254 4294901760
0.01645617 -0.00081309298 0.45330253 4294901760
0.01645617 -0.00081309298 0.45380253 4294901760
0.01645617 -0.00081309298 0.45430252 4294901760
0.01645617 -0.00081309298 0.45480251 4294901760
0.01645617 -0.00081309298 0.45530254 4294901760
0.01645617 -0.00081309298 0.45580253 4294901760
0.01645617 -0.00081309298 0.45630252 4294901760
0.01645617 -0.00081309298 0.45680252 4294901760
0.01645617 -0.00081309298 0.45730251 4294901760
0.01645617 -0.00081309298 0.45780253 4294901760
0.01645617 -0.00081309298 0.45830253 4294901760
0.01645617 -0.00081309298 0.45880252 4294901760
0.01645617 -0.00081309298 0.45930251 4294901760
0.01645617 -0.00081309298 0.45980254 4294901760
0.01645617 -0.00081309298 0.46030253 4294901760
0.01645617 -0.00081309298 0.46080253 4294901760
0.01645617 -0.00081309298 0.46130252 4294901760
0.01645617 -0.00081309298 0.46180251 4294901760
0.01645617 -0.00081309298 0.46230254 4294901760
0.01645617 -0.00081309298 0.46280253 4294901760
0.01645617 -0.00081309298 0.46330252 4294901760
0.01645617 -0.00081309298 0.46380252 4294901760
0.01645617 -0.00081309298 0.46430254 4294901760
0.01645617 -0.00081309298 0.46480253 4294901760
0.01645617 -0.00081309298 0.46530253 4294901760
0.01645617 -0.00081309298 0.46580252 4294901760
0.01645617 -0.00081309298 0.46630251 4294901760
0.01645617 -0.00081309298 0.46680254 4294901760
0.01645617 -0.00081309298 0.46730253 4294901760
0.01645617 -0.00081309298 0.46780252 4294901760
0.01645617 -0.00081309298 0.46830252 4294901760
0.01645617 -0.00081309298 0.46880254 4294901760
0.01645617 -0.00081309298 0.46930254 4294901760
0.01645617 -0.00081309298 0.46980253 4294901760
0.01645617 -0.00081309298 0.41980252 4278255360
0.016272223 -0.00091859861 0.42025533 4278255360
0.016088275 -0.0010241043 0.42070812 4278255360
0.015904326 -0.00112961 0.42116094 4278255360
0.015720379 -0.0012351156 0.42161372 4278255360
0.015536431 -0.0013406214 0.42206654 4278255360
0.015352483 -0.001446127 0.42251936 4278255360
0.015168536 -0.0015516327 0.42297214 4278255360
0.014984587 -0.0016571383 0.42342496 4278255360
0.01480064 -0.001762644 0.42387775 4278255360
0.014616692 -0.0018681497 0.42433056 4278255360
0.014432744 -0.0019736553 0.42478335 4278255360
0.014248796 -0.0020791609 0.42523617 4278255360
0.014064848 -0.0021846667 0.42568898 4278255360
0.013880901 -0.0022901723 0.42614177 4278255360
0.013696953 -0.0023956781 0.42659459 4278255360
0.013513005 -0.0025011837 0.42704737 4278255360
0.013329057 -0.0026066895 0.42750019 4278255360
0.01314511 -0.002712195 0.427953 4278255360
