# .PCD v0.7 - Point Cloud Data file format
VERSION 0.7
FIELDS x y z rgb
SIZE 4 4 4 4
TYPE F F F U
COUNT 1 1 1 1
WIDTH 1043
HEIGHT 1
VIEWPOINT 0 0 0 1 0 0 0
POINTS 1043
DATA ascii
0.020890607 0.018392574 0.57900006 4283898386
0.0227712 0.018392574 0.57900006 4283569934
0.024651794 0.018392574 0.57900006 4283176975
0.026532387 0.018392574 0.57900006 4282585608
0.028412981 0.018392574 0.57900006 4283770907
0.030293573 0.018392574 0.57900006 4283511585
-0.0092624314 0.020413864 0.583 4286878343
-0.0073688473 0.020413864 0.583 4283319612
-0.0054752622 0.020413864 0.583 4285147170
-0.0035816771 0.020413864 0.583 4285145373
-0.0016851967 0.020378849 0.58200002 4286000936
0.00020514033 0.020378849 0.58200002 4284619283
0.0020990777 0.020413864 0.583 4286331446
0.0039926628 0.020413864 0.583 4284621857
0.0058862474 0.020413864 0.583 4284294689
0.0077798329 0.020413864 0.583 4283703065
0.0096734175 0.020413864 0.583 4283112465
0.011547162 0.020378849 0.58200002 4283046420
0.013414412 0.020343835 0.58100003 4283045909
0.015275164 0.020308819 0.58000004 4283505688
0.017159006 0.020308819 0.58000004 4283571220
0.019010015 0.020273805 0.57900006 4283571220
0.020890607 0.020273805 0.57900006 4283308561
0.0227712 0.020273805 0.57900006 4282848010
0.024651794 0.020273805 0.57900006 4285157177
0.026532387 0.020273805 0.57900006 4285488193
0.028412981 0.020273805 0.57900006 4283507221
0.030345893 0.020308819 0.58000004 4284493603
-0.0092624314 0.022308089 0.583 4287863696
-0.0073688473 0.022308089 0.583 4285092683
-0.0054752622 0.022308089 0.583 4284359966
-0.0035816771 0.022308089 0.583 4284687134
-0.0016880921 0.022308089 0.583 4284489755
0.00020549279 0.022308089 0.583 4283898388
0.0020990777 0.022308089 0.583 4283767829
0.0039926628 0.022308089 0.583 4283110669
0.0058862474 0.022308089 0.583 4282586381
0.0077798329 0.022308089 0.583 4283378717
0.0096568251 0.022269826 0.58200002 4284501048
0.011547162 0.022269826 0.58200002 4284765247
0.013414412 0.022231562 0.58100003 4285947211
0.015275164 0.022193298 0.58000004 4282587666
0.017159006 0.022193298 0.58000004 4282586385
0.019042848 0.022193298 0.58000004 4282717969
0.020890607 0.022155035 0.57900006 4283441430
0.0227712 0.022155035 0.57900006 4284163870
0.02469437 0.022193298 0.58000004 4285484857
0.02657821 0.022193298 0.58000004 4284370739
0.028462052 0.022193298 0.58000004 4285290046
0.030345893 0.022193298 0.58000004 4283179792
-0.0092783198 0.024243832 0.58400005 4287926405
-0.0073814872 0.024243832 0.58400005 4283510051
-0.0054846541 0.024243832 0.58400005 4284032802
-0.0035816771 0.024202315 0.583 4283834651
-0.0016880921 0.024202315 0.583 4283440663
0.00020549279 0.024202315 0.583 4282980625
0.0020990777 0.024202315 0.583 4282389772
0.0039926628 0.024202315 0.583 4282918166
0.0058862474 0.024202315 0.583 4283910706
0.0077798329 0.024202315 0.583 4284108852
0.0096734175 0.024202315 0.583 4283846448
0.011547162 0.024160802 0.58200002 4284175411
0.013414412 0.02411929 0.58100003 4283776294
0.0153015 0.02411929 0.58100003 4282587664
0.017159006 0.024077777 0.58000004 4282455567
0.019042848 0.024077777 0.58000004 4282587153
0.020926686 0.024077777 0.58000004 4282587151
0.022810528 0.024077777 0.58000004 4283178518
0.02469437 0.024077777 0.58000004 4284228632
0.02657821 0.024077777 0.58000004 4285614646
0.028462052 0.024077777 0.58000004 4284174130
0.030345893 0.024077777 0.58000004 4284436017
-0.011194289 0.026186068 0.58500004 4286419076
-0.0092783198 0.026141306 0.58400005 4284698439
-0.0073814872 0.026141306 0.58400005 4283707946
-0.0054846541 0.026141306 0.58400005 4288318589
-0.003587821 0.026141306 0.58400005 4283311389
-0.0016909878 0.026141306 0.58400005 4283046420
0.00020584528 0.026141306 0.58400005 4282521873
0.0021026784 0.026141306 0.58400005 4282593313
0.0039995112 0.026141306 0.58400005 4283319082
0.0058963443 0.026141306 0.58400005 4283779883
0.0077798329 0.026096541 0.583 4283583274
0.0096734175 0.026096541 0.583 4284175665
0.011547162 0.02605178 0.58200002 4284504630
0.013437499 0.02605178 0.58200002 4282918418
0.0153015 0.026007017 0.58100003 4283113747
0.01718859 0.026007017 0.58100003 4283177745
0.019042848 0.025962256 0.58000004 4283112465
0.020926686 0.025962256 0.58000004 4282193160
0.022810528 0.025962256 0.58000004 4283248415
0.02469437 0.025962256 0.58000004 4283243538
0.02657821 0.025962256 0.58000004 4284163609
0.028462052 0.025962256 0.58000004 4283975468
0.030345893 0.025962256 0.58000004 4283713579
0.032285299 0.026007017 0.58100003 4284100894
-0.011194289 0.028086795 0.58500004 4286879111
-0.0092942072 0.028086795 0.58500004 4283644467
-0.0073941266 0.028086795 0.58500004 4288318848
-0.0054940456 0.028086795 0.58500004 4287264364
-0.0035939645 0.028086795 0.58500004 4283375899
-0.0016938833 0.028086795 0.58500004 4281996047
0.00020655022 0.028134806 0.58600003 4286474850
0.0021062787 0.028086795 0.58500004 4282531113
0.0040063597 0.028086795 0.58500004 4283057194
0.0058963443 0.028038785 0.58400005 4283583274
0.0077931779 0.028038785 0.58400005 4283912753
0.0096734175 0.02799077 0.583 4282333986
0.011567002 0.02799077 0.583 4279701504
0.013437499 0.02794276 0.58200002 4280752394
0.0153015 0.027894748 0.58100003 4281341964
0.01718859 0.027894748 0.58100003 4282720022
0.019075679 0.027894748 0.58100003 4282784532
0.020962765 0.027894748 0.58100003 4283182620
0.022849856 0.027894748 0.58100003 4283581223
0.024736945 0.027894748 0.58100003 4282986524
0.026624035 0.027894748 0.58100003 4283179542
0.028462052 0.027846737 0.58000004 4283311378
0.030345893 0.027846737 0.58000004 4284040747
0.032285299 0.027894748 0.58100003 4284694825
0.034113575 0.027846737 0.58000004 4287058497
0.035997417 0.027846737 0.58000004 4285346599
-0.011213424 0.03003878 0.58600003 4287404428
-0.0092942072 0.02998752 0.58500004 4282461736
-0.0074067661 0.03003878 0.58600003 4287598977
-0.005503437 0.03003878 0.58600003 4283575846
-0.003600108 0.03003878 0.58600003 4282980629
-0.0016967788 0.03003878 0.58600003 4282921512
0.00020655022 0.03003878 0.58600003 4283059260
0.0021098792 0.03003878 0.58600003 4282531881
0.0040132082 0.03003878 0.58600003 4282927145
0.0059064408 0.02998752 0.58500004 4283583792
0.0077931779 0.02993626 0.58400005 4279308032
0.00969001 0.02993626 0.58400005 4279571209
0.011567002 0.029884996 0.583 4279506188
0.013437499 0.029833736 0.58200002 4280297247
0.015327836 0.029833736 0.58200002 4279047180
0.01718859 0.029782476 0.58100003 4282662969
0.019075679 0.029782476 0.58100003 4280422927
0.020962765 0.029782476 0.58100003 4281937179
0.022849856 0.029782476 0.58100003 4281740822
0.024736945 0.029782476 0.58100003 4281872408
0.026624035 0.029782476 0.58100003 4281605132
0.028462052 0.029731216 0.58000004 4284031253
0.030345893 0.029731216 0.58000004 4284952351
0.032229733 0.029731216 0.58000004 4285345053
0.034113575 0.029731216 0.58000004 4285409306
0.035997417 0.029731216 0.58000004 4285672221
0.037815943 0.029679956 0.57900006 4285870627
-0.013116754 0.031942751 0.58600003 4286549892
-0.011213424 0.031942751 0.58600003 4283516993
-0.0093100946 0.031942751 0.58600003 4285555544
-0.0074067661 0.031942751 0.58600003 4287795586
-0.005503437 0.031942751 0.58600003 4283901731
-0.003600108 0.031942751 0.58600003 4282322959
-0.0016996743 0.031997263 0.58700001 4287664770
0.0002069027 0.031997263 0.58700001 4280823841
0.0021134797 0.031997263 0.58700001 4282730027
0.0040132082 0.031942751 0.58600003 4283190317
0.0059064408 0.031888243 0.58500004 4279374082
0.0077931779 0.031833734 0.58400005 4279440395
0.00969001 0.031833734 0.58400005 4278979849
0.011567002 0.031779222 0.583 4280756260
0.013460588 0.031779222 0.583 4282401853
0.015327836 0.031724714 0.58200002 4279441940
0.017218174 0.031724714 0.58200002 4278783238
0.019108512 0.031724714 0.58200002 4280295704
0.020962765 0.031670205 0.58100003 4279637000
0.022849856 0.031670205 0.58100003 4281347357
0.024736945 0.031670205 0.58100003 4281018646
0.026624035 0.031670205 0.58100003 4281740570
0.028462052 0.031615693 0.58000004 4283308046
0.030345893 0.031615693 0.58000004 4286134315
0.032174166 0.031561185 0.57900006 4286129947
0.03405476 0.031561185 0.57900006 4288630851
0.035935353 0.031561185 0.57900006 4285670938
0.037750628 0.031506673 0.57800001 4285080084
0.039627977 0.031506673 0.57800001 4284559909
-0.015020082 0.033846725 0.58600003 4286287490
-0.013116754 0.033846725 0.58600003 4287860612
-0.011213424 0.033846725 0.58600003 4283509288
-0.0093100946 0.033846725 0.58600003 4287859329
-0.0074067661 0.033846725 0.58600003 4284438860
-0.005503437 0.033846725 0.58600003 4282782483
-0.003600108 0.033846725 0.58600003 4281600521
-0.0016996743 0.033904485 0.58700001 4286614910
0.0002069027 0.033904485 0.58700001 4280824356
0.0021134797 0.033904485 0.58700001 4282663982
0.0040132082 0.033846725 0.58600003 4280427020
0.0059064408 0.033788968 0.58500004 4281743405
0.0078065223 0.033788968 0.58500004 4279177228
0.00969001 0.033731211 0.58400005 4284310620
0.011567002 0.033673447 0.583 4288520082
0.013460588 0.033673447 0.583 4288521104
0.015327836 0.03361569 0.58200002 4286614140
0.017218174 0.03361569 0.58200002 4285036393
0.019108512 0.03361569 0.58200002 4281284655
0.020998847 0.03361569 0.58200002 4280099098
0.022889184 0.03361569 0.58200002 4279835410
0.024736945 0.033557933 0.58100003 4280822296
0.02657821 0.033500172 0.58000004 4280624147
0.028462052 0.033500172 0.58000004 4282784014
0.030293573 0.033442415 0.57900006 4284621591
0.032174166 0.033442415 0.57900006 4284749836
0.033995941 0.033384655 0.57800001 4285341203
0.035873286 0.033384655 0.57800001 4285210133
0.037750628 0.033384655 0.57800001 4284685074
0.039559416 0.033326894 0.57700002 4283507487
-0.014994451 0.035689693 0.58500004 4286353537
-0.013116754 0.035750698 0.58600003 4284432185
-0.011213424 0.035750698 0.58600003 4285085490
-0.0093100946 0.035750698 0.58600003 4289104253
-0.0074067661 0.035750698 0.58600003 4284036909
-0.005503437 0.035750698 0.58600003 4283045139
-0.003600108 0.035750698 0.58600003 4283771942
-0.0016967788 0.035750698 0.58600003 4287007613
0.0002069027 0.035811707 0.58700001 4282664248
0.0021098792 0.035750698 0.58600003 4286740070
0.0040132082 0.035750698 0.58600003 4279702534
0.0059064408 0.035689693 0.58500004 4279177998
0.0078065223 0.035689693 0.58500004 4280296226
0.00969001 0.035628684 0.58400005 4282008119
0.011567002 0.035567675 0.583 4286283369
0.013460588 0.035567675 0.583 4281414687
0.015354172 0.035567675 0.583 4281678380
0.017247757 0.035567675 0.583 4283126859
0.019108512 0.035506666 0.58200002 4279506961
0.020998847 0.035506666 0.58200002 4280494626
0.022889184 0.035506666 0.58200002 4279112973
0.024736945 0.03544566 0.58100003 4280427543
0.02657821 0.035384651 0.58000004 4280230161
0.028412981 0.035323646 0.57900006 4281931017
0.030293573 0.035323646 0.57900006 4283374093
0.032118596 0.035262633 0.57800001 4284816915
0.033995941 0.035262633 0.57800001 4284948244
0.035811223 0.035201628 0.57700002 4284292113
0.037685316 0.035201628 0.57700002 4283635214
0.039559416 0.035201628 0.57700002 4282851871
-0.016894532 0.037590418 0.58500004 4286353283
-0.014994451 0.037590418 0.58500004 4286022775
-0.01309437 0.037590418 0.58500004 4285479476
-0.011194289 0.037590418 0.58500004 4285542443
-0.0092942072 0.037590418 0.58500004 4286067756
-0.0073941266 0.037590418 0.58500004 4285213217
-0.005503437 0.037654676 0.58600003 4283308307
-0.003600108 0.037654676 0.58600003 4282651149
-0.0016967788 0.037654676 0.58600003 4284493614
0.00020655022 0.037654676 0.58600003 4284559148
0.0021098792 0.037654676 0.58600003 4284296749
0.0040132082 0.037654676 0.58600003 4280684812
0.0059064408 0.037590418 0.58500004 4279243021
0.0078065223 0.037590418 0.58500004 4282928451
0.00969001 0.037526164 0.58400005 4281348897
0.011586844 0.037526164 0.58400005 4282202400
0.013460588 0.037461903 0.583 4282004506
0.015354172 0.037461903 0.583 4280821526
0.017247757 0.037461903 0.583 4280297501
0.019141342 0.037461903 0.583 4281151786
0.020998847 0.037397645 0.58200002 4279835928
0.022889184 0.037397645 0.58200002 4279309584
0.024736945 0.037333392 0.58100003 4280295957
0.02657821 0.037269134 0.58000004 4280164368
0.028412981 0.037204877 0.57900006 4281800717
0.030241249 0.037140619 0.57800001 4283572501
0.032118596 0.037140619 0.57800001 4283767054
0.033937123 0.037076361 0.57700002 4283964433
0.035811223 0.037076361 0.57700002 4283308046
0.037685316 0.037076361 0.57700002 4283177745
0.039490856 0.037012104 0.57600003 4283250227
-0.016894532 0.039491143 0.58500004 4286550146
-0.014994451 0.039491143 0.58500004 4284241999
-0.01309437 0.039491143 0.58500004 4285542441
-0.011194289 0.039491143 0.58500004 4286066732
-0.0092942072 0.039491143 0.58500004 4285080089
-0.0073941266 0.039491143 0.58500004 4285211418
-0.0054940456 0.039491143 0.58500004 4283438348
-0.003600108 0.039558649 0.58600003 4283176208
-0.0016967788 0.039558649 0.58600003 4284424478
0.00020655022 0.039558649 0.58600003 4284752414
0.0021098792 0.039558649 0.58600003 4284293405
0.0040132082 0.039558649 0.58600003 4280945671
0.0059064408 0.039491143 0.58500004 4281348649
0.0078065223 0.039491143 0.58500004 4283388230
0.00969001 0.039423637 0.58400005 4280953882
0.011586844 0.039423637 0.58400005 4282136607
0.013460588 0.039356127 0.583 4281543957
0.015354172 0.039356127 0.583 4280623886
0.017247757 0.039356127 0.583 4279969047
0.019141342 0.039356127 0.583 4280165661
0.020998847 0.039288625 0.58200002 4281875511
0.022889184 0.039288625 0.58200002 4278585859
0.024736945 0.039221119 0.58100003 4280295957
0.02657821 0.039153613 0.58000004 4280230161
0.028412981 0.039086107 0.57900006 4281867023
0.030241249 0.039018597 0.57800001 4284097562
0.032118596 0.039018597 0.57800001 4283767827
0.033937123 0.038951091 0.57700002 4283046157
0.035811223 0.038951091 0.57700002 4282916116
0.037685316 0.038951091 0.57700002 4284167983
0.039490856 0.038883585 0.57600003 4282595893
-0.016865652 0.041321114 0.58400005 4286615425
-0.014994451 0.041391868 0.58500004 4283648315
-0.01309437 0.041391868 0.58500004 4285607721
-0.011194289 0.041391868 0.58500004 4285343263
-0.0092942072 0.041391868 0.58500004 4286000934
-0.0073941266 0.041391868 0.58500004 4284948248
-0.0054940456 0.041391868 0.58500004 4284029202
-0.0035939645 0.041391868 0.58500004 4283569934
-0.0016967788 0.041462623 0.58600003 4284489753
0.00020655022 0.041462623 0.58600003 4284488470
0.0021098792 0.041462623 0.58600003 4284096278
0.0040132082 0.041462623 0.58600003 4281272578
0.0059064408 0.041391868 0.58500004 4279901203
0.0078065223 0.041391868 0.58500004 4279638031
0.0097066024 0.041391868 0.58500004 4282599736
0.011586844 0.041321114 0.58400005 4280822550
0.013483677 0.041321114 0.58400005 4281347609
0.015354172 0.041250356 0.583 4282664757
0.017247757 0.041250356 0.583 4280691485
0.019141342 0.041250356 0.583 4278915078
0.020998847 0.041179601 0.58200002 4280757028
0.022889184 0.041179601 0.58200002 4279638031
0.024736945 0.041108847 0.58100003 4280427540
0.02657821 0.041038092 0.58000004 4280426770
0.028412981 0.040967338 0.57900006 4282588434
0.030241249 0.04089658 0.57800001 4284294171
0.032118596 0.04089658 0.57800001 4283443225
0.033937123 0.040825825 0.57700002 4282986524
0.035811223 0.040825825 0.57700002 4281931531
0.037685316 0.040825825 0.57700002 4282129430
-0.016865652 0.04321859 0.58400005 4286681216
-0.014968819 0.04321859 0.58400005 4283123000
-0.01309437 0.043292593 0.58500004 4284689701
-0.011194289 0.043292593 0.58500004 4284490523
-0.0092942072 0.043292593 0.58500004 4284621339
-0.0073941266 0.043292593 0.58500004 4284160275
-0.0054940456 0.043292593 0.58500004 4284292374
-0.0035939645 0.043292593 0.58500004 4284094995
-0.0016967788 0.043366596 0.58600003 4284292376
0.00020655022 0.043366596 0.58600003 4283832854
0.0021098792 0.043366596 0.58600003 4283638557
0.0040132082 0.043366596 0.58600003 4282261270
0.0059165373 0.043366596 0.58600003 4279440141
0.0078065223 0.043292593 0.58500004 4279112203
0.0097066024 0.043292593 0.58500004 4278783492
0.011586844 0.04321859 0.58400005 4283257666
0.013483677 0.04321859 0.58400005 4282862908
0.01538051 0.04321859 0.58400005 4281152290
0.017247757 0.04314458 0.583 4280165145
0.019141342 0.04314458 0.583 4282337597
0.020998847 0.043070577 0.58200002 4279243016
0.022849856 0.042996574 0.58100003 4280819993
0.024736945 0.042996574 0.58100003 4280623634
0.02657821 0.042922571 0.58000004 4281083669
0.028412981 0.042848568 0.57900006 4283506710
0.030241249 0.042774558 0.57800001 4284162585
0.032118596 0.042774558 0.57800001 4282592279
0.033995941 0.042774558 0.57800001 4282199318
0.035811223 0.042700555 0.57700002 4281867023
0.037685316 0.042700555 0.57700002 4282854184
-0.016865652 0.045116063 0.58400005 4286353283
-0.014968819 0.045116063 0.58400005 4286352253
-0.01309437 0.045193318 0.58500004 4283312422
-0.011194289 0.045193318 0.58500004 4284165415
-0.0092942072 0.045193318 0.58500004 4283834651
-0.0073941266 0.045193318 0.58500004 4283768345
-0.0054940456 0.045193318 0.58500004 4284687904
-0.0035939645 0.045193318 0.58500004 4284292376
-0.0016967788 0.04527057 0.58600003 4287981411
0.00020655022 0.04527057 0.58600003 4287596924
0.0021098792 0.04527057 0.58600003 4284043848
0.0040132082 0.04527057 0.58600003 4282595627
0.0059165373 0.04527057 0.58600003 4280821274
0.0078198668 0.04527057 0.58600003 4279309066
0.0097066024 0.045193318 0.58500004 4279046410
0.011606684 0.045193318 0.58500004 4279506963
0.013483677 0.045116063 0.58400005 4280691237
0.01538051 0.045116063 0.58400005 4282072888
0.017247757 0.045038808 0.583 4282270521
0.019141342 0.045038808 0.583 4280756512
0.020998847 0.044961553 0.58200002 4281734672
0.022849856 0.044884302 0.58100003 4284430120
0.024736945 0.044884302 0.58100003 4282394137
0.02657821 0.04480705 0.58000004 4282263064
0.028412981 0.044729795 0.57900006 4284228632
0.030293573 0.044729795 0.57900006 4283965460
0.032118596 0.04465254 0.57800001 4282198805
0.033995941 0.04465254 0.57800001 4282133525
0.035873286 0.04465254 0.57800001 4281867793
0.037750628 0.04465254 0.57800001 4281803547
0.039696541 0.044729795 0.57900006 4287075211
-0.016865652 0.04701354 0.58400005 4286419078
-0.014968819 0.04701354 0.58400005 4286353285
-0.01309437 0.04709404 0.58500004 4286085234
-0.011194289 0.04709404 0.58500004 4283580219
-0.0092942072 0.04709404 0.58500004 4283311907
-0.0073941266 0.04709404 0.58500004 4286864731
-0.0054940456 0.04709404 0.58500004 4284362794
-0.0035939645 0.04709404 0.58500004 4284556318
-0.0016967788 0.047174543 0.58600003 4283504405
0.00020655022 0.047174543 0.58600003 4288054393
0.0021098792 0.047174543 0.58600003 4286352249
0.0040132082 0.047174543 0.58600003 4281152036
0.0059165373 0.047174543 0.58600003 4281940261
0.0078198668 0.047174543 0.58600003 4281545503
0.0097231949 0.047174543 0.58600003 4278913799
0.011606684 0.04709404 0.58500004 4279769363
0.013506765 0.04709404 0.58500004 4281216809
0.01538051 0.04701354 0.58400005 4278979592
0.017247757 0.046933033 0.583 4279766280
0.019141342 0.046933033 0.583 4282129432
0.020998847 0.046852533 0.58200002 4284949273
0.022849856 0.046772029 0.58100003 4285014548
0.02469437 0.046691529 0.58000004 4286794559
0.02657821 0.046691529 0.58000004 4284360988
0.028412981 0.046611026 0.57900006 4284359704
0.030293573 0.046611026 0.57900006 4283572755
0.032174166 0.046611026 0.57900006 4281869840
0.03405476 0.046611026 0.57900006 4282001428
0.035935353 0.046611026 0.57900006 4282394650
0.037815943 0.046611026 0.57900006 4281475865
0.039765101 0.046691529 0.58000004 4284904555
-0.01309437 0.048994765 0.58500004 4286549892
-0.011194289 0.048994765 0.58500004 4285758320
-0.0092942072 0.048994765 0.58500004 4282919981
-0.0073941266 0.048994765 0.58500004 4284564806
-0.0054940456 0.048994765 0.58500004 4287859329
-0.0035939645 0.048994765 0.58500004 4284100140
-0.0016938833 0.048994765 0.58500004 4284622111
0.00020655022 0.049078517 0.58600003 4284754470
0.0021098792 0.049078517 0.58600003 4286482293
0.0040132082 0.049078517 0.58600003 4286416759
0.0059165373 0.049078517 0.58600003 4281217054
0.0078198668 0.049078517 0.58600003 4281742878
0.0097231949 0.049078517 0.58600003 4281742365
0.011626525 0.049078517 0.58600003 4281413404
0.013506765 0.048994765 0.58500004 4281149726
0.015406846 0.048994765 0.58500004 4281018140
0.017277343 0.048911016 0.58400005 4282721049
0.019141342 0.048827261 0.583 4284163355
0.020998847 0.048743509 0.58200002 4285144853
0.022849856 0.048659757 0.58100003 4285802270
0.02469437 0.048576009 0.58000004 4285802270
0.02657821 0.048576009 0.58000004 4285539098
0.028412981 0.048492257 0.57900006 4284162837
0.030293573 0.048492257 0.57900006 4282393358
0.032174166 0.048492257 0.57900006 4281804049
0.03405476 0.048492257 0.57900006 4282328596
0.035997417 0.048576009 0.58000004 4282264350
0.037881255 0.048576009 0.58000004 4280886808
0.039765101 0.048576009 0.58000004 4285430384
-0.01309437 0.05089549 0.58500004 4286353283
-0.011194289 0.05089549 0.58500004 4286156158
-0.0092942072 0.05089549 0.58500004 4287270017
-0.0073941266 0.05089549 0.58500004 4281870119
-0.0054940456 0.05089549 0.58500004 4287991430
-0.0035939645 0.05089549 0.58500004 4284767825
-0.0016938833 0.05089549 0.58500004 4284951589
0.00020619776 0.05089549 0.58500004 4285147172
0.0021062787 0.05089549 0.58500004 4285416254
0.0040132082 0.05098249 0.58600003 4287399030
0.0059165373 0.05098249 0.58600003 4280887573
0.0078198668 0.05098249 0.58600003 4281479195
0.0097231949 0.05098249 0.58600003 4281610261
0.011626525 0.05098249 0.58600003 4281609750
0.013529854 0.05098249 0.58600003 4281346324
0.015406846 0.05089549 0.58500004 4281346324
0.017277343 0.050808489 0.58400005 4282525975
0.019141342 0.050721485 0.583 4283967259
0.020998847 0.050634485 0.58200002 4285735707
0.022849856 0.050547484 0.58100003 4285998109
0.02469437 0.050460488 0.58000004 4285800730
0.02657821 0.050460488 0.58000004 4285144853
0.028462052 0.050460488 0.58000004 4283833360
0.030345893 0.050460488 0.58000004 4282522893
0.032229733 0.050460488 0.58000004 4282196240
0.034113575 0.050460488 0.58000004 4282655508
0.035997417 0.050460488 0.58000004 4281081618
0.037881255 0.050460488 0.58000004 4280360723
0.039833657 0.050547484 0.58100003 4280561704
-0.01309437 0.052796219 0.58500004 4286287490
-0.011194289 0.052796219 0.58500004 4286484869
-0.0092942072 0.052796219 0.58500004 4286418560
-0.0073941266 0.052796219 0.58500004 4286021492
-0.0054940456 0.052796219 0.58500004 4282198314
-0.0035939645 0.052796219 0.58500004 4287793536
-0.0016909878 0.05270597 0.58400005 4284696640
0.00020584528 0.05270597 0.58400005 4285214507
0.0021062787 0.052796219 0.58500004 4285474849
0.0040063597 0.052796219 0.58500004 4284751642
0.0059064408 0.052796219 0.58500004 4282983192
0.0078198668 0.052886467 0.58600003 4281934097
0.0097231949 0.052886467 0.58600003 4281542419
0.011626525 0.052886467 0.58600003 4281805845
0.013529854 0.052886467 0.58600003 4281608212
0.015406846 0.052796219 0.58500004 4281476626
0.017277343 0.05270597 0.58400005 4282394387
0.019141342 0.052615717 0.583 4284295193
0.020998847 0.052525468 0.58200002 4285866523
0.022849856 0.052435219 0.58100003 4286195231
0.024736945 0.052435219 0.58100003 4285538330
0.02657821 0.05234497 0.58000004 4288434507
0.028462052 0.05234497 0.58000004 4285473820
0.030345893 0.05234497 0.58000004 4284752664
0.032229733 0.05234497 0.58000004 4283178256
0.034113575 0.05234497 0.58000004 4283508507
0.03605948 0.052435219 0.58100003 4280753939
0.037946567 0.052435219 0.58100003 4279571981
0.039833657 0.052435219 0.58100003 4280627244
-0.0092942072 0.054696944 0.58500004 4286419076
-0.0073941266 0.054696944 0.58500004 4286484353
-0.0054940456 0.054696944 0.58500004 4284635476
-0.003587821 0.054603446 0.58400005 4283052848
-0.0016909878 0.054603446 0.58400005 4287137143
0.00020584528 0.054603446 0.58400005 4284830277
0.0021026784 0.054603446 0.58400005 4285540385
0.0039995112 0.054603446 0.58400005 4285605408
0.0058963443 0.054603446 0.58400005 4285736481
0.0078065223 0.054696944 0.58500004 4285539615
0.0097231949 0.054790441 0.58600003 4284490007
0.011626525 0.054790441 0.58600003 4284293911
0.013529854 0.054790441 0.58600003 4284294423
0.015433182 0.054790441 0.58600003 4284229400
0.017306928 0.054696944 0.58500004 4284752916
0.019141342 0.054509941 0.583 4285539865
0.020998847 0.054416444 0.58200002 4286327071
0.022849856 0.054322947 0.58100003 4285866520
0.024736945 0.054322947 0.58100003 4285998109
0.02657821 0.054229449 0.58000004 4287118132
0.028462052 0.054229449 0.58000004 4285341721
0.030345893 0.054229449 0.58000004 4284685331
0.032229733 0.054229449 0.58000004 4283835675
0.03417239 0.054322947 0.58100003 4283509536
0.03605948 0.054322947 0.58100003 4280426005
0.037946567 0.054322947 0.58100003 4279571981
0.039833657 0.054322947 0.58100003 4281286201
-0.0073941266 0.056597669 0.58500004 4286353285
-0.0054846541 0.056500919 0.58400005 4286745728
-0.003587821 0.056500919 0.58400005 4282595891
-0.0016880921 0.05640417 0.583 4283444008
0.00020549279 0.05640417 0.583 4284888624
0.0020990777 0.05640417 0.583 4286131748
0.0039926628 0.05640417 0.583 4286328868
0.0058862474 0.05640417 0.583 4285866523
0.0077931779 0.056500919 0.58400005 4286392869
0.0097066024 0.056597669 0.58500004 4286922293
0.011626525 0.056694414 0.58600003 4286462510
0.013529854 0.056694414 0.58600003 4285540635
0.015433182 0.056694414 0.58600003 4286000414
0.017306928 0.056597669 0.58500004 4285671703
0.019174177 0.056500919 0.58400005 4285080336
0.021034926 0.05640417 0.583 4284619279
0.022889184 0.05630742 0.58200002 4285078547
0.024736945 0.056210674 0.58100003 4285537558
0.026624035 0.056210674 0.58100003 4285340949
0.028511124 0.056210674 0.58100003 4284553745
0.030398212 0.056210674 0.58100003 4283700491
0.032285299 0.056210674 0.58100003 4283046932
0.03417239 0.056210674 0.58100003 4283907891
0.03605948 0.056210674 0.58100003 4280031762
0.037946567 0.056210674 0.58100003 4279837211
0.039833657 0.056210674 0.58100003 4285431930
-0.0093100946 0.058598388 0.58600003 4286419078
-0.0073941266 0.058498394 0.58500004 4286287492
-0.0054846541 0.058398396 0.58400005 4286550662
-0.003587821 0.058398396 0.58400005 4287207049
-0.0016880921 0.058298394 0.583 4284233524
0.00020514033 0.0581984 0.58200002 4284952619
0.0020954772 0.0581984 0.58200002 4285934369
0.0039858143 0.0581984 0.58200002 4285407512
0.0058761509 0.0581984 0.58200002 4285538328
0.0077798329 0.058298394 0.583 4284946191
0.0097066024 0.058498394 0.58500004 4284357136
0.011626525 0.058598388 0.58600003 4283767054
0.013529854 0.058598388 0.58600003 4283374093
0.015433182 0.058598388 0.58600003 4283242507
0.017306928 0.058498394 0.58500004 4282193160
0.019174177 0.058398396 0.58400005 4281011200
0.021034926 0.058298394 0.583 4282718737
0.022889184 0.0581984 0.58200002 4283767827
0.024736945 0.058098402 0.58100003 4284422931
0.026624035 0.058098402 0.58100003 4284357138
0.028511124 0.058098402 0.58100003 4283897870
0.030398212 0.058098402 0.58100003 4283373069
0.032285299 0.058098402 0.58100003 4282919461
0.03417239 0.058098402 0.58100003 4281607710
0.03605948 0.058098402 0.58100003 4285166442
-0.0073941266 0.060399115 0.58500004 4286155906
-0.0054846541 0.060295872 0.58400005 4286287492
-0.0035816771 0.060192619 0.583 4286155904
-0.0016851967 0.060089376 0.58200002 4285819232
0.00020478785 0.059986129 0.58100003 4283836452
0.0020918769 0.059986129 0.58100003 4285277986
0.0039789658 0.059986129 0.58100003 4285343009
0.0058761509 0.060089376 0.58200002 4284619283
0.0077798329 0.060192619 0.583 4284093966
0.00969001 0.060295872 0.58400005 4282915086
0.011626525 0.060502362 0.58600003 4281077509
0.013552942 0.060605608 0.58700001 4280356360
0.015459519 0.060605608 0.58700001 4280291337
0.017336512 0.060502362 0.58600003 4280357643
0.01920701 0.060399115 0.58500004 4280226057
0.021071009 0.060295872 0.58400005 4281602570
0.022889184 0.060089376 0.58200002 4283968806
0.024779521 0.060089376 0.58200002 4283374870
0.026624035 0.059986129 0.58100003 4283505686
0.028511124 0.059986129 0.58100003 4283111698
0.030398212 0.059986129 0.58100003 4283311391
0.032285299 0.059986129 0.58100003 4283318328
0.03417239 0.059986129 0.58100003 4280754202
0.03605948 0.059986129 0.58100003 4285825657
-0.0073941266 0.06229984 0.58500004 4286419078
-0.0054846541 0.062193345 0.58400005 4286353285
-0.0035816771 0.062086847 0.583 4286155906
-0.0016851967 0.061980352 0.58200002 4287073926
0.00020478785 0.061873857 0.58100003 4282462508
0.0020918769 0.061873857 0.58100003 4284229411
0.0039789658 0.061873857 0.58100003 4284359712
0.0058660549 0.061873857 0.58100003 4283767575
0.0077664885 0.061980352 0.58200002 4283570966
0.00969001 0.062193345 0.58400005 4282983709
0.011626525 0.062406335 0.58600003 4281668879
0.013552942 0.06251283 0.58700001 4281078540
0.015459519 0.06251283 0.58700001 4281473298
0.017336512 0.062406335 0.58600003 4281539091
0.01920701 0.06229984 0.58500004 4282065433
0.021071009 0.062193345 0.58400005 4282328346
0.022928512 0.062086847 0.583 4282722334
0.024779521 0.061980352 0.58200002 4282260500
0.026669858 0.061980352 0.58200002 4282194707
0.028511124 0.061873857 0.58100003 4282919713
0.030398212 0.061873857 0.58100003 4282395422
0.032285299 0.061873857 0.58100003 4280293649
0.034231205 0.061980352 0.58200002 4280098330
-0.0016823012 0.063761584 0.58100003 4286155906
0.00020443539 0.063651845 0.58000004 4286022523
0.0020882764 0.063651845 0.58000004 4282328353
0.0039721173 0.063651845 0.58000004 4283048735
0.0058660549 0.063761584 0.58100003 4283113499
0.007753144 0.063761584 0.58100003 4283443745
0.01920701 0.064200565 0.58500004 4280160518
0.021071009 0.064090826 0.58400005 4280095243
0.022928512 0.063981071 0.583 4280292622
0.024779521 0.063871332 0.58200002 4280226829
0.026669858 0.063871332 0.58200002 4279898378
0.028511124 0.063761584 0.58100003 4279833098
0.030398212 0.063761584 0.58100003 4279833098
0.032285299 0.063761584 0.58100003 4279900949
0.034231205 0.063871332 0.58200002 4279903004
0.00020443539 0.06553632 0.58000004 4286155906
0.0020882764 0.06553632 0.58000004 4286613627
0.0039721173 0.06553632 0.58000004 4284504401
0.022889184 0.065762304 0.58200002 4279703565
0.024779521 0.065762304 0.58200002 4279769360
0.026669858 0.065762304 0.58200002 4279571981
0.028511124 0.065649316 0.58100003 4279506188
0.014785498 0.039196722 0.58143139 4294967295
0.014785498 0.039196722 0.58143139 4294901760
0.014785498 0.038698021 0.58139533 4294901760
0.014785498 0.038199324 0.58135933 4294901760
0.014785498 0.037700623 0.58132327 4294901760
0.014785498 0.037201926 0.58128721 4294901760
0.014785498 0.036703225 0.58125114 4294901760
0.014785498 0.036204528 0.58121514 4294901760
0.014785498 0.035705827 0.58117908 4294901760
0.014785498 0.03520713 0.58114302 4294901760
0.014785498 0.034708429 0.58110702 4294901760
0.014785498 0.034209732 0.58107096 4294901760
0.014785498 0.033711031 0.5810349 4294901760
0.014785498 0.033212334 0.58099884 4294901760
0.014785498 0.032713633 0.58096284 4294901760
0.014785498 0.032214932 0.58092678 4294901760
0.014785498 0.031716235 0.58089072 4294901760
0.014785498 0.031217536 0.58085465 4294901760
0.014785498 0.030718837 0.58081865 4294901760
0.014785498 0.030220136 0.58078259 4294901760
0.014785498 0.029721439 0.58074653 4294901760
0.014785498 0.029222738 0.58071053 4294901760
0.014785498 0.028724041 0.58067447 4294901760
0.014785498 0.02822534 0.58063841 4294901760
0.014785498 0.027726641 0.58060235 4294901760
0.014785498 0.027227942 0.58056635 4294901760
0.014785498 0.026729243 0.58053029 4294901760
0.014785498 0.026230544 0.58049423 4294901760
0.014785498 0.025731843 0.58045822 4294901760
0.014785498 0.025233146 0.58042216 4294901760
0.014785498 0.024734447 0.5803861 4294901760
0.014785498 0.024235748 0.58035004 4294901760
0.014785498 0.023737047 0.58031404 4294901760
0.014785498 0.02323835 0.58027798 4294901760
0.014785498 0.022739649 0.58024192 4294901760
0.014785498 0.02224095 0.58020592 4294901760
0.014785498 0.021742251 0.58016986 4294901760
0.014785498 0.021243552 0.5801338 4294901760
0.014785498 0.020744853 0.58009773 4294901760
0.014785498 0.020246154 0.58006173 4294901760
0.014785498 0.019747455 0.58002567 4294901760
0.014785498 0.019248756 0.57998961 4294901760
0.014785498 0.018750057 0.57995355 4294901760
0.014785498 0.018251358 0.57991755 4294901760
0.014785498 0.017752657 0.57988149 4294901760
0.014785498 0.01725396 0.57984543 4294901760
0.014785498 0.016755261 0.57980943 4294901760
0.014785498 0.01625656 0.57977337 4294901760
0.014785498 0.015757861 0.57973731 4294901760
0.014785498 0.015259162 0.57970124 4294901760
0.014785498 0.014760463 0.57966524 4294901760
0.014785498 0.014261764 0.57962918 4294901760
0.014785498 0.013763065 0.57959312 4294901760
0.014785498 0.013264365 0.57955712 4294901760
0.014785498 0.012765668 0.57952106 4294901760
0.014785498 0.012266966 0.579485 4294901760
0.014785498 0.011768267 0.57944894 4294901760
0.014785498 0.011269568 0.57941294 4294901760
0.014785498 0.01077087 0.57937688 4294901760
0.014785498 0.010272171 0.57934082 4294901760
0.014785498 0.0097734723 0.57930481 4294901760
0.014785498 0.0092747714 0.57926875 4294901760
0.014785498 0.0087760724 0.57923269 4294901760
0.014785498 0.0082773734 0.57919663 4294901760
0.014785498 0.0077786744 0.57916063 4294901760
0.014785498 0.0072799772 0.57912457 4294901760
0.014785498 0.0067812763 0.57908851 4294901760
0.014785498 0.0062825754 0.57905245 4294901760
0.014785498 0.0057838783 0.57901645 4294901760
0.014785498 0.0052851774 0.57898039 4294901760
0.014785498 0.0047864802 0.57894433 4294901760
0.014785498 0.0042877793 0.57890832 4294901760
0.014785498 0.0037890822 0.57887226 4294901760
0.014785498 0.0032903813 0.5788362 4294901760
0.014785498 0.0027916804 0.57880014 4294901760
0.014785498 0.0022929832 0.57876414 4294901760
0.014785498 0.0017942861 0.57872808 4294901760
0.014785498 0.0012955852 0.57869202 4294901760
0.014785498 0.00079688802 0.57865602 4294901760
0.014785498 0.00029818714 0.57861996 4294901760
0.014785498 -0.00020051375 0.5785839 4294901760
0.014785498 -0.00069921091 0.57854784 4294901760
0.014785498 -0.0011979118 0.57851183 4294901760
0.014785498 -0.001696609 0.57847577 4294901760
0.014785498 -0.0021953098 0.57843971 4294901760
0.014785498 -0.002694007 0.57840371 4294901760
0.014785498 -0.0031927079 0.57836765 4294901760
0.014785498 -0.0036914088 0.57833159 4294901760
0.014785498 -0.0041901059 0.57829553 4294901760
0.014785498 -0.0046888031 0.57825953 4294901760
0.014785498 -0.005187504 0.57822347 4294901760
0.014785498 -0.0056862012 0.57818741 4294901760
0.014785498 -0.006184902 0.57815135 4294901760
0.014785498 -0.0066836029 0.57811534 4294901760
0.014785498 -0.0071823001 0.57807928 4294901760
0.014785498 -0.007681001 0.57804322 4294901760
0.014785498 -0.0081796981 0.57800722 4294901760
0.014785498 -0.008678399 0.57797116 4294901760
0.014785498 -0.0091770999 0.5779351 4294901760
0.014785498 -0.0096757971 0.57789904 4294901760
0.014785498 -0.010174498 0.57786304 4294901760
0.014785498 -0.010673195 0.57782698 4294901760
0.014785498 0.039196722 0.58143139 4278255360
0.015282176 0.039200872 0.58137399 4278255360
0.015778853 0.039205018 0.58131659 4278255360
0.016275531 0.039209168 0.58125919 4278255360
0.016772207 0.039213315 0.58120179 4278255360
0.017268885 0.039217465 0.58114439 4278255360
0.017765561 0.039221615 0.58108699 4278255360
0.018262239 0.039225761 0.58102959 4278255360
0.018758915 0.039229911 0.58097219 4278255360
0.019255593 0.039234061 0.5809148 4278255360
0.01975227 0.039238207 0.5808574 4278255360
0.020248948 0.039242357 0.5808 4278255360
0.020745624 0.039246503 0.5807426 4278255360
0.021242302 0.039250653 0.5806852 4278255360
0.021738978 0.039254803 0.5806278 4278255360
0.022235656 0.039258949 0.5805704 4278255360
0.022732332 0.039263099 0.580513 4278255360
0.02322901 0.039267249 0.5804556 4278255360
0.023725688 0.039271396 0.5803982 4278255360
0.024222365 0.039275546 0.5803408 4278255360
0.024719041 0.039279692 0.5802834 4278255360
0.025215719 0.039283842 0.580226 4278255360
0.025712397 0.039287992 0.5801686 4278255360
0.026209073 0.039292138 0.58011121 4278255360
0.026705749 0.039296288 0.58005381 4278255360
0.027202427 0.039300434 0.57999641 4278255360
0.027699105 0.039304584 0.57993901 4278255360
0.028195783 0.039308734 0.57988161 4278255360
0.028692458 0.03931288 0.57982421 4278255360
0.029189136 0.03931703 0.57976681 4278255360
0.029685814 0.03932118 0.57970941 4278255360
0.03018249 0.039325327 0.57965201 4278255360
0.030679166 0.039329477 0.57959461 4278255360
0.031175846 0.039333623 0.57953721 4278255360
0.031672522 0.039337773 0.57947981 4278255360
0.0321692 0.039341923 0.57942241 4278255360
0.032665879 0.039346069 0.57936502 4278255360
0.033162553 0.039350219 0.57930762 4278255360
0.033659231 0.039354369 0.57925022 4278255360
0.034155905 0.039358515 0.57919282 4278255360
0.034652583 0.039362665 0.57913542 4278255360
0.035149261 0.039366812 0.57907802 4278255360
0.035645939 0.039370961 0.57902062 4278255360
0.036142617 0.039375111 0.57896322 4278255360
0.036639296 0.039379258 0.57890582 4278255360
0.03713597 0.039383408 0.57884842 4278255360
0.037632648 0.039387558 0.57879102 4278255360
0.038129322 0.039391704 0.57873362 4278255360
0.038626 0.039395854 0.57867622 4278255360
0.039122678 0.0394 0.57861882 4278255360
0.039619356 0.03940415 0.57856143 4278255360
0.040116034 0.0394083 0.57850403 4278255360
0.040612713 0.039412446 0.57844663 4278255360
0.041109387 0.039416596 0.57838923 4278255360
0.041606069 0.039420743 0.57833183 4278255360
0.042102743 0.039424893 0.57827443 4278255360
0.042599417 0.039429042 0.57821703 4278255360
0.043096095 0.039433189 0.57815963 4278255360
0.043592773 0.039437339 0.57810223 4278255360
0.044089451 0.039441489 0.57804483 4278255360
0.044586129 0.039445635 0.57798743 4278255360
0.045082808 0.039449785 0.57793003 4278255360
0.045579482 0.039453931 0.57787263 4278255360
0.04607616 0.039458081 0.57781523 4278255360
0.046572834 0.039462231 0.57775784 4278255360
0.047069512 0.039466377 0.57770044 4278255360
0.047566194 0.039470527 0.57764304 4278255360
0.048062868 0.039474677 0.57758564 4278255360
0.048559546 0.039478824 0.57752824 4278255360
0.049056221 0.039482974 0.57747084 4278255360
0.049552899 0.03948712 0.57741344 4278255360
0.050049577 0.03949127 0.57735604 4278255360
0.050546255 0.03949542 0.57729864 4278255360
0.051042933 0.039499566 0.57724124 4278255360
0.051539607 0.039503716 0.57718384 4278255360
0.052036285 0.039507866 0.57712644 4278255360
0.052532963 0.039512012 0.57706904 4278255360
0.053029638 0.039516162 0.57701164 4278255360
0.053526316 0.039520308 0.57695425 4278255360
0.054022994 0.039524458 0.57689685 4278255360
0.054519672 0.039528608 0.57683945 4278255360
0.05501635 0.039532755 0.57678205 4278255360
0.055513024 0.039536905 0.57672465 4278255360
0.056009702 0.039541051 0.57666725 4278255360
0.056506377 0.039545201 0.57660985 4278255360
0.057003058 0.039549351 0.57655245 4278255360
0.057499737 0.039553497 0.57649505 4278255360
0.057996411 0.039557647 0.57643765 4278255360
0.058493089 0.039561797 0.57638025 4278255360
0.058989763 0.039565943 0.57632285 4278255360
0.059486441 0.039570093 0.57626545 4278255360
0.059983123 0.039574239 0.57620806 4278255360
0.060479797 0.039578389 0.57615066 4278255360
0.060976475 0.039582539 0.57609326 4278255360
0.06147315 0.039586686 0.57603586 4278255360
0.061969828 0.039590836 0.57597846 4278255360
0.062466506 0.039594986 0.57592106 4278255360
0.062963188 0.039599132 0.57586366 4278255360
0.063459858 0.039603282 0.57580626 4278255360
0.063956536 0.039607428 0.57574886 4278255360
0.064453214 0.039611578 0.57569146 4278255360
0.014785498 0.039196722 0.58143139 4278190335
0.014843048 0.039160918 0.58192676 4278190335
0.014900596 0.039125115 0.58242214 4278190335
0.014958145 0.039089311 0.58291757 4278190335
0.015015693 0.039053503 0.58341295 4278190335
0.015073243 0.0390177 0.58390832 4278190335
0.015130791 0.038981896 0.58440369 4278190335
0.01518834 0.038946092 0.58489907 4278190335
0.015245888 0.038910288 0.58539444 4278190335
0.015303438 0.038874485 0.58588988 4278190335
0.015360986 0.038838681 0.58638525 4278190335
0.015418535 0.038802873 0.58688062 4278190335
0.015476083 0.03876707 0.587376 4278190335
0.015533633 0.038731266 0.58787137 4278190335
0.015591182 0.038695462 0.58836681 4278190335
0.01564873 0.038659658 0.58886218 4278190335
0.015706278 0.038623855 0.58935755 4278190335
0.015763829 0.038588051 0.58985293 4278190335
0.015821377 0.038552243 0.5903483 4278190335
0.015878925 0.038516439 0.59084368 4278190335
0.015936473 0.038480636 0.59133911 4278190335
0.015994024 0.038444832 0.59183449 4278190335
0.016051572 0.038409028 0.59232986 4278190335
0.01610912 0.038373224 0.59282523 4278190335
0.016166668 0.038337421 0.59332061 4278190335
0.016224219 0.038301617 0.59381604 4278190335
0.016281767 0.038265809 0.59431142 4278190335
0.016339315 0.038230006 0.59480679 4278190335
0.016396865 0.038194202 0.59530216 4278190335
0.016454414 0.038158398 0.59579754 4278190335
0.016511962 0.038122594 0.59629291 4278190335
0.01656951 0.038086791 0.59678835 4278190335
0.01662706 0.038050987 0.59728372 4278190335
0.016684609 0.038015179 0.5977791 4278190335
0.016742157 0.037979376 0.59827447 4278190335
0.016799705 0.037943572 0.59876984 4278190335
0.016857255 0.037907768 0.59926522 4278190335
0.016914804 0.037871964 0.59976065 4278190335
0.016972352 0.037836161 0.60025603 4278190335
0.0170299 0.037800357 0.6007514 4278190335
0.01708745 0.037764549 0.60124677 4278190335
0.017144999 0.037728745 0.60174215 4278190335
0.017202547 0.037692942 0.60223758 4278190335
0.017260097 0.037657138 0.60273296 4278190335
0.017317645 0.037621334 0.60322833 4278190335
0.017375194 0.03758553 0.6037237 4278190335
0.017432742 0.037549727 0.60421908 4278190335
0.017490292 0.037513919 0.60471445 4278190335
0.01754784 0.037478115 0.60520989 4278190335
0.017605389 0.037442312 0.60570526 4278190335
0.017662939 0.037406508 0.60620064 4278190335
0.017720487 0.037370704 0.60669601 4278190335
0.017778035 0.0373349 0.60719138 4278190335
0.017835584 0.037299097 0.60768682 4278190335
0.017893134 0.037263289 0.60818219 4278190335
0.017950682 0.037227485 0.60867757 4278190335
0.01800823 0.037191682 0.60917294 4278190335
0.018065779 0.037155878 0.60966831 4278190335
0.018123329 0.037120074 0.61016369 4278190335
0.018180877 0.03708427 0.61065912 4278190335
0.018238425 0.037048467 0.6111545 4278190335
0.018295974 0.037012659 0.61164987 4278190335
0.018353524 0.036976855 0.61214525 4278190335
0.018411072 0.036941051 0.61264062 4278190335
0.01846862 0.036905248 0.61313605 4278190335
0.01852617 0.036869444 0.61363143 4278190335
0.018583719 0.03683364 0.6141268 4278190335
0.018641267 0.036797836 0.61462218 4278190335
0.018698815 0.036762029 0.61511755 4278190335
0.018756364 0.036726225 0.61561292 4278190335
0.018813914 0.036690421 0.61610836 4278190335
0.018871462 0.036654618 0.61660373 4278190335
0.018929012 0.036618814 0.61709911 4278190335
0.01898656 0.03658301 0.61759448 4278190335
0.019044109 0.036547206 0.61808985 4278190335
0.019101657 0.036511399 0.61858523 4278190335
0.019159205 0.036475595 0.61908066 4278190335
0.019216755 0.036439791 0.61957604 4278190335
0.019274304 0.036403988 0.62007141 4278190335
0.019331854 0.036368184 0.62056679 4278190335
0.019389402 0.03633238 0.62106216 4278190335
0.01944695 0.036296576 0.62155759 4278190335
0.019504499 0.036260769 0.62205297 4278190335
0.019562047 0.036224965 0.62254834 4278190335
0.019619595 0.036189161 0.62304372 4278190335
0.019677145 0.036153357 0.62353909 4278190335
0.019734694 0.036117554 0.62403452 4278190335
0.019792244 0.03608175 0.6245299 4278190335
0.019849792 0.036045946 0.62502527 4278190335
0.01990734 0.036010142 0.62552065 4278190335
0.019964889 0.035974335 0.62601602 4278190335
0.020022439 0.035938531 0.62651139 4278190335
0.020079987 0.035902727 0.62700683 4278190335
0.020137535 0.035866924 0.6275022 4278190335
0.020195084 0.03583112 0.62799758 4278190335
0.020252634 0.035795316 0.62849295 4278190335
0.020310182 0.035759512 0.62898833 4278190335
0.02036773 0.035723705 0.6294837 4278190335
0.020425279 0.035687901 0.62997913 4278190335
0.020482829 0.035652097 0.63047451 4278190335
0.020540377 0.035616294 0.63096988 4278190335
0.014785498 0.039196722 0.58143139 4294967295
0.014670401 0.03926833 0.58044064 4294967295
0.014555303 0.039339941 0.57944983 4294967295
0.014440206 0.039411549 0.57845908 4294967295
0.014325108 0.039483156 0.57746834 4294967295
0.014210011 0.039554764 0.57647753 4294967295
0.014094913 0.039626375 0.57548678 4294967295
0.013979815 0.039697982 0.57449597 4294967295
0.013864717 0.03976959 0.57350522 4294967295
0.01374962 0.039841201 0.57251447 4294967295
0.013634522 0.039912809 0.57152367 4294967295
0.013519425 0.039984416 0.57053292 4294967295
0.013404327 0.040056024 0.56954217 4294967295
0.01328923 0.040127635 0.56855136 4294967295
0.013174132 0.040199243 0.56756061 4294967295
0.013059035 0.04027085 0.56656986 4294967295
0.012943937 0.040342461 0.56557906 4294967295
0.01282884 0.040414069 0.56458831 4294967295
0.012713742 0.040485676 0.56359756 4294967295
0.012598645 0.040557288 0.56260675 4294967295
0.012483547 0.040628895 0.561616 4294967295
0.01236845 0.040700503 0.5606252 4294967295
0.012253352 0.04077211 0.55963445 4294967295
0.012138254 0.040843721 0.5586437 4294967295
0.012023157 0.040915329 0.55765289 4294967295
0.011908059 0.040986937 0.55666214 4294967295
0.011792962 0.041058548 0.55567139 4294967295
0.011677864 0.041130155 0.55468059 4294967295
0.011562767 0.041201763 0.55368984 4294967295
0.011447669 0.04127337 0.55269909 4294967295
0.011332572 0.041344982 0.55170828 4294967295
0.011217473 0.041416589 0.55071753 4294967295
0.011102377 0.041488197 0.54972672 4294967295
0.010987278 0.041559808 0.54873598 4294967295
0.010872181 0.041631415 0.54774523 4294967295
0.010757083 0.041703023 0.54675442 4294967295
0.010641986 0.041774631 0.54576367 4294967295
0.010526888 0.041846242 0.54477292 4294967295
0.010411791 0.041917849 0.54378211 4294967295
0.010296693 0.041989457 0.54279137 4294967295
0.010181595 0.042061068 0.54180062 4294967295
0.010066498 0.042132676 0.54080981 4294967295
0.0099514006 0.042204283 0.53981906 4294967295
0.0098363031 0.042275891 0.53882825 4294967295
0.0097212046 0.042347502 0.53783751 4294967295
0.0096061081 0.042419109 0.53684676 4294967295
0.0094910096 0.042490717 0.53585595 4294967295
0.0093759131 0.042562328 0.5348652 4294967295
0.0092608146 0.042633936 0.53387445 4294967295
0.0091457171 0.042705543 0.53288364 4294967295
0.0090306196 0.042777151 0.5318929 4294967295
0.0089155221 0.042848762 0.53090215 4294967295
0.0088004246 0.04292037 0.52991134 4294967295
0.0086853271 0.042991977 0.52892059 4294967295
0.0085702296 0.043063588 0.52792978 4294967295
0.0084551312 0.043135196 0.52693903 4294967295
0.0083400346 0.043206804 0.52594829 4294967295
0.0082249362 0.043278411 0.52495754 4294967295
0.0081098396 0.043350022 0.52396673 4294967295
0.0079947412 0.04342163 0.52297598 4294967295
0.0078796437 0.043493241 0.52198517 4294967295
0.0077645462 0.043564849 0.52099442 4294967295
0.0076494487 0.043636456 0.52000368 4294967295
0.0075343512 0.043708064 0.51901287 4294967295
0.0074192537 0.043779671 0.51802212 4294967295
0.0073041562 0.043851282 0.51703137 4294967295
0.0071890582 0.04392289 0.51604056 4294967295
0.0070739607 0.043994501 0.51504982 4294967295
0.0069588628 0.044066109 0.51405907 4294967295
0.0068437662 0.044137716 0.51306826 4294967295
0.0067286687 0.044209324 0.51207751 4294967295
0.0066135712 0.044280931 0.5110867 4294967295
0.0064984728 0.044352543 0.51009595 4294967295
0.0063833753 0.04442415 0.50910521 4294967295
0.0062682778 0.044495761 0.5081144 4294967295
0.0061531803 0.044567369 0.50712365 4294967295
0.0060380828 0.044638976 0.5061329 4294967295
0.0059229853 0.044710584 0.50514209 4294967295
0.0058078878 0.044782195 0.50415134 4294967295
0.0056927893 0.044853803 0.5031606 4294967295
0.0055776918 0.04492541 0.50216979 4294967295
0.0054625943 0.044997022 0.50117904 4294967295
0.0053474978 0.045068629 0.50018823 4294967295
