# .PCD v0.7 - Point Cloud Data file format
VERSION 0.7
FIELDS x y z rgb
SIZE 4 4 4 4
TYPE F F F U
COUNT 1 1 1 1
WIDTH 1013
HEIGHT 1
VIEWPOINT 0 0 0 1 0 0 0
POINTS 1013
DATA ascii
0.030952191 -0.010937897 0.36500001 4282075968
0.032137711 -0.010937897 0.36500001 4282405454
0.033323228 -0.010937897 0.36500001 4288853431
0.03450875 -0.010937897 0.36500001 4280234283
0.036879793 -0.010937897 0.36500001 4280826155
0.038065314 -0.010937897 0.36500001 4282142531
0.03935837 -0.010967864 0.36600003 4282735181
0.04054714 -0.010967864 0.36600003 4282470726
0.041849941 -0.01099783 0.36700001 4281944382
0.043159239 -0.011027797 0.36800003 4280892718
0.044354506 -0.011027797 0.36800003 4281353782
0.045673542 -0.011057764 0.36900002 4281880126
0.046872053 -0.011057764 0.36900002 4281682234
0.048070569 -0.011057764 0.36900002 4281418292
0.049269084 -0.011057764 0.36900002 4280826153
0.050330825 -0.011027797 0.36800003 4281089325
0.051526092 -0.011027797 0.36800003 4281615153
0.052578092 -0.01099783 0.36700001 4281417774
0.05377011 -0.01099783 0.36700001 4281746739
0.054812364 -0.010967864 0.36600003 4281615667
0.055848122 -0.010937897 0.36500001 4282076218
0.05687739 -0.01090793 0.36400002 4282010425
0.057900153 -0.010877962 0.36300001 4280365600
0.059079178 -0.010877962 0.36300001 4279644443
0.060092207 -0.010847996 0.36200002 4279582244
0.061267979 -0.010847996 0.36200002 4280634418
0.062443756 -0.010847996 0.36200002 4285697653
0.088096403 -0.011117698 0.37100002 4284775784
0.089542113 -0.011147664 0.37200001 4281420854
0.090750366 -0.011147664 0.37200001 4279909153
0.09220583 -0.011177632 0.37300003 4279712287
0.093667775 -0.011207598 0.37400001 4279581982
0.095136233 -0.011237565 0.37500003 4279582750
0.096354231 -0.011237565 0.37500003 4279255068
0.097832426 -0.011267532 0.37600002 4278992666
0.099053673 -0.011267532 0.37600002 4278993179
0.10027492 -0.011267532 0.37600002 4279124765
0.10176611 -0.011297498 0.377 4279059740
0.1029906 -0.011297498 0.377 4279125533
0.10421509 -0.011297498 0.377 4279389217
0.10543959 -0.011297498 0.377 4279455010
0.10666409 -0.011297498 0.377 4279389217
0.10817477 -0.011327466 0.37800002 4279455010
0.10940251 -0.011327466 0.37800002 4280046635
0.11063025 -0.011327466 0.37800002 4280309807
0.018205898 -0.0099122813 0.37100002 4282008101
0.019410906 -0.0099122813 0.37100002 4281942824
0.020560347 -0.0098855626 0.37 4281089577
0.027395627 -0.0097519746 0.36500001 4279376912
0.028581148 -0.0097519746 0.36500001 4281680183
0.029766668 -0.0097519746 0.36500001 4281551677
0.03086739 -0.0097252568 0.36400002 4282538572
0.032049663 -0.0097252568 0.36400002 4280235566
0.033231933 -0.0097252568 0.36400002 4279774247
0.034414209 -0.0097252568 0.36400002 4281944382
0.035596479 -0.0097252568 0.36400002 4281154352
0.036879793 -0.0097519746 0.36500001 4282406986
0.038065314 -0.0097519746 0.36500001 4282209607
0.03935837 -0.0097786924 0.36600003 4282143814
0.04054714 -0.0097786924 0.36600003 4282208837
0.041849941 -0.0098054102 0.36700001 4281879872
0.043159239 -0.009832128 0.36800003 4282143044
0.044354506 -0.009832128 0.36800003 4280827184
0.045673542 -0.0098588457 0.36900002 4280958772
0.046872053 -0.0098588457 0.36900002 4281550909
0.048070569 -0.0098588457 0.36900002 4281156149
0.049269084 -0.0098588457 0.36900002 4280234016
0.050467592 -0.0098588457 0.36900002 4281549362
0.051526092 -0.009832128 0.36800003 4281483569
0.052721359 -0.009832128 0.36800003 4281417776
0.05377011 -0.0098054102 0.36700001 4281549362
0.054812364 -0.0097786924 0.36600003 4281944632
0.056001134 -0.0097786924 0.36600003 4281944632
0.057033643 -0.0097519746 0.36500001 4282207804
0.057900153 -0.009698539 0.36300001 4281549360
0.059079178 -0.009698539 0.36300001 4279774746
0.060258206 -0.009698539 0.36300001 4278989593
0.061267979 -0.0096718213 0.36200002 4279252765
0.062443756 -0.0096718213 0.36200002 4282606925
0.063619532 -0.0096718213 0.36200002 4285303155
0.064795315 -0.0096718213 0.36200002 4285433714
0.084481373 -0.0099122813 0.37100002 4284182877
0.085686386 -0.0099122813 0.37100002 4280960817
0.08689139 -0.0099122813 0.37100002 4279711520
0.088096403 -0.0099122813 0.37100002 4279712287
0.089542113 -0.0099389981 0.37200001 4279778850
0.090750366 -0.0099389981 0.37200001 4279385889
0.09220583 -0.0099657169 0.37300003 4278925851
0.093667775 -0.0099924337 0.37400001 4278925849
0.094882526 -0.0099924337 0.37400001 4279123482
0.096354231 -0.010019152 0.37500003 4279058459
0.097832426 -0.010045869 0.37600002 4279058972
0.099053673 -0.010045869 0.37600002 4279849258
0.10027492 -0.010045869 0.37600002 4279323428
0.10176611 -0.010072587 0.377 4279126047
0.1029906 -0.010072587 0.377 4279455012
0.10421509 -0.010072587 0.377 4279323424
0.10543959 -0.010072587 0.377 4279980840
0.10940251 -0.010099305 0.37800002 4280373547
0.11063025 -0.010099305 0.37800002 4279912485
0.018205898 -0.008706864 0.37100002 4280758552
0.019410906 -0.008706864 0.37100002 4281351974
0.020615915 -0.008706864 0.37100002 4281813300
0.021762107 -0.0086833946 0.37 4284051032
0.022901803 -0.0086599262 0.36900002 4282538822
0.028581148 -0.0085660517 0.36500001 4281352499
0.029685117 -0.0085425833 0.36400002 4281551679
0.032049663 -0.0085425833 0.36400002 4281420604
0.033231933 -0.0085425833 0.36400002 4282670671
0.034414209 -0.0085425833 0.36400002 4282341706
0.035596479 -0.0085425833 0.36400002 4280958257
0.036778755 -0.0085425833 0.36400002 4282011458
0.038065314 -0.0085660517 0.36500001 4282209607
0.039250832 -0.0085660517 0.36500001 4281946435
0.04054714 -0.0085895211 0.36600003 4282143044
0.041849941 -0.0086129894 0.36700001 4281814079
0.043041959 -0.0086129894 0.36700001 4281880642
0.044354506 -0.0086364578 0.36800003 4280038438
0.045673542 -0.0086599262 0.36900002 4280696117
0.046872053 -0.0086599262 0.36900002 4280761912
0.048070569 -0.0086599262 0.36900002 4280761912
0.049269084 -0.0086599262 0.36900002 4280696368
0.050467592 -0.0086599262 0.36900002 4280959022
0.051666107 -0.0086599262 0.36900002 4280958509
0.052864619 -0.0086599262 0.36900002 4281024302
0.054063134 -0.0086599262 0.36900002 4281024302
0.055261642 -0.0086599262 0.36900002 4281221681
0.056460157 -0.0086599262 0.36900002 4281484851
0.057658672 -0.0086599262 0.36900002 4281878839
0.057900153 -0.008519114 0.36300001 4281879609
0.059079178 -0.008519114 0.36300001 4280104481
0.060258206 -0.008519114 0.36300001 4278923287
0.061437227 -0.008519114 0.36300001 4278594835
0.062443756 -0.0084956456 0.36200002 4279778598
0.063619532 -0.0084956456 0.36200002 4284448618
0.064795315 -0.0084956456 0.36200002 4285236850
0.083051898 -0.0086833946 0.37 4279842588
0.084481373 -0.008706864 0.37100002 4279974946
0.085686386 -0.008706864 0.37100002 4279385889
0.08689139 -0.008706864 0.37100002 4279056924
0.088333853 -0.0087303324 0.37200001 4278925851
0.089542113 -0.0087303324 0.37200001 4278860826
0.090994321 -0.0087538008 0.37300003 4278795800
0.09220583 -0.0087538008 0.37300003 4278862363
0.093667775 -0.0087772692 0.37400001 4279059742
0.095136233 -0.0088007385 0.37500003 4279125535
0.096354231 -0.0088007385 0.37500003 4279454500
0.097832426 -0.0088242069 0.37600002 4278928156
0.099053673 -0.0088242069 0.37600002 4279454498
0.10027492 -0.0088242069 0.37600002 4279323426
0.10176611 -0.0088476753 0.377 4279783977
0.1029906 -0.0088476753 0.377 4280047149
0.10666409 -0.0088476753 0.377 4280043299
0.10817477 -0.0088711446 0.37800002 4280503850
0.018205898 -0.0075014471 0.37100002 4281219616
0.019410906 -0.0075014471 0.37100002 4281089061
0.020727053 -0.0075418861 0.37300003 4283459408
0.021820923 -0.0075014471 0.37100002 4282340927
0.022901803 -0.0074610082 0.36900002 4281616437
0.024035003 -0.0074407887 0.36800003 4281484853
0.026281916 -0.0074003497 0.36600003 4282931531
0.03086739 -0.0073599103 0.36400002 4282735951
0.032049663 -0.0073599103 0.36400002 4282606675
0.033231933 -0.0073599103 0.36400002 4282475089
0.034414209 -0.0073599103 0.36400002 4282277197
0.035596479 -0.0073599103 0.36400002 4283394648
0.036778755 -0.0073599103 0.36400002 4282931529
0.038065314 -0.0073801298 0.36500001 4282801228
0.039250832 -0.0073801298 0.36500001 4282933330
0.04054714 -0.0074003497 0.36600003 4282670158
0.041849941 -0.0074205687 0.36700001 4280892979
0.043041959 -0.0074205687 0.36700001 4279905571
0.044354506 -0.0074407887 0.36800003 4280169256
0.045673542 -0.0074610082 0.36900002 4280630324
0.046872053 -0.0074610082 0.36900002 4280630839
0.048070569 -0.0074610082 0.36900002 4280631355
0.049269084 -0.0074610082 0.36900002 4280565558
0.050467592 -0.0074610082 0.36900002 4280235819
0.051666107 -0.0074610082 0.36900002 4280893231
0.052864619 -0.0074610082 0.36900002 4280761645
0.054063134 -0.0074610082 0.36900002 4280893231
0.055261642 -0.0074610082 0.36900002 4281090608
0.056460157 -0.0074610082 0.36900002 4281222194
0.057658672 -0.0074610082 0.36900002 4281287987
0.057900153 -0.0073396903 0.36300001 4281287985
0.059241932 -0.0073599103 0.36400002 4280696618
0.060424209 -0.0073599103 0.36400002 4279054357
0.061437227 -0.0073396903 0.36300001 4278923541
0.062616251 -0.0073396903 0.36300001 4278857494
0.063795276 -0.0073396903 0.36300001 4279251482
0.064974301 -0.0073396903 0.36300001 4285697915
0.071455128 -0.0074003497 0.36600003 4285433714
0.072643898 -0.0074003497 0.36600003 4285631093
0.074034385 -0.0074205687 0.36700001 4286091644
0.075226404 -0.0074205687 0.36700001 4285894265
0.076418422 -0.0074205687 0.36700001 4283723609
0.077821918 -0.0074407887 0.36800003 4280435243
0.079017177 -0.0074407887 0.36800003 4279383068
0.080430411 -0.0074610082 0.36900002 4279975459
0.081628926 -0.0074610082 0.36900002 4278923541
0.083051898 -0.0074812272 0.37 4279319064
0.084253661 -0.0074812272 0.37 4279055892
0.085686386 -0.0075014471 0.37100002 4278859797
0.08689139 -0.0075014471 0.37100002 4278860310
0.088333853 -0.0075216666 0.37200001 4278795287
0.089542113 -0.0075216666 0.37200001 4278795287
0.090994321 -0.0075418861 0.37300003 4278796570
0.09220583 -0.0075418861 0.37300003 4279322660
0.093667775 -0.0075621055 0.37400001 4278993695
0.095136233 -0.0075823255 0.37500003 4279519269
0.096354231 -0.0075823255 0.37500003 4279980074
0.097832426 -0.0076025445 0.37600002 4280045865
0.099053673 -0.0076025445 0.37600002 4280177451
0.10027492 -0.0076025445 0.37600002 4280374830
0.10176611 -0.007622764 0.377 4280176170
0.1029906 -0.007622764 0.377 4279912231
0.10817477 -0.0076429839 0.37800002 4280699180
0.016434528 -0.0065505859 0.38600001 4281678112
0.017642433 -0.0065336158 0.38500002 4281612319
0.018794768 -0.0064996746 0.38300002 4281481503
0.021938557 -0.0063299704 0.37300003 4280299545
0.022963868 -0.0062790592 0.37 4281614892
0.024035003 -0.0062451186 0.36800003 4281680939
0.025161708 -0.006228148 0.36700001 4281878577
0.026281916 -0.0062111774 0.36600003 4282866504
0.027395627 -0.0061942069 0.36500001 4281221683
0.029685117 -0.0061772368 0.36400002 4283394648
0.03086739 -0.0061772368 0.36400002 4282409037
0.032049663 -0.0061772368 0.36400002 4282343503
0.033231933 -0.0061772368 0.36400002 4282080331
0.034414209 -0.0061772368 0.36400002 4282342990
0.035596479 -0.0061772368 0.36400002 4282473033
0.036778755 -0.0061772368 0.36400002 4280957739
0.038065314 -0.0061942069 0.36500001 4281813818
0.039250832 -0.0061942069 0.36500001 4281683517
0.04054714 -0.0062111774 0.36600003 4282604617
0.04173591 -0.0062111774 0.36600003 4282538824
0.043041959 -0.006228148 0.36700001 4282407238
0.044233974 -0.006228148 0.36700001 4282734152
0.045673542 -0.0062620887 0.36900002 4280761391
0.046872053 -0.0062620887 0.36900002 4280302390
0.048070569 -0.0062620887 0.36900002 4280499769
0.049269084 -0.0062620887 0.36900002 4280565308
0.050467592 -0.0062620887 0.36900002 4281157183
0.051666107 -0.0062620887 0.36900002 4280499502
0.052864619 -0.0062620887 0.36900002 4280565549
0.054063134 -0.0062620887 0.36900002 4280630829
0.055261642 -0.0062620887 0.36900002 4280762415
0.056460157 -0.0062620887 0.36900002 4280959022
0.057814926 -0.0062790592 0.37 4281156401
0.059016682 -0.0062790592 0.37 4280959790
0.059404682 -0.0061942069 0.36500001 4279512857
0.060590208 -0.0061942069 0.36500001 4278856978
0.061606478 -0.0061772368 0.36400002 4278791955
0.062788747 -0.0061772368 0.36400002 4278923541
0.063971028 -0.0061772368 0.36400002 4279120920
0.064974301 -0.0061602662 0.36300001 4279120666
0.066335566 -0.0061772368 0.36400002 4284975473
0.067517839 -0.0061772368 0.36400002 4284974190
0.068888851 -0.0061942069 0.36500001 4285237362
0.070074365 -0.0061942069 0.36500001 4285895032
0.071455128 -0.0062111774 0.36600003 4286223997
0.072643898 -0.0062111774 0.36600003 4284315746
0.074034385 -0.006228148 0.36700001 4281223727
0.075226404 -0.006228148 0.36700001 4279580186
0.076418422 -0.006228148 0.36700001 4279646494
0.077821918 -0.0062451186 0.36800003 4279318812
0.079017177 -0.0062451186 0.36800003 4278990359
0.080430411 -0.0062620887 0.36900002 4278727187
0.081628926 -0.0062620887 0.36900002 4278858773
0.083051898 -0.0062790592 0.37 4278793750
0.084253661 -0.0062790592 0.37 4278596371
0.085686386 -0.0062960298 0.37100002 4279123998
0.08689139 -0.0062960298 0.37100002 4279190045
0.088333853 -0.0063129999 0.37200001 4279584803
0.089542113 -0.0063129999 0.37200001 4279453217
0.090994321 -0.0063299704 0.37300003 4279518756
0.092453025 -0.006346941 0.37400001 4279848234
0.093667775 -0.006346941 0.37400001 4280241963
0.095136233 -0.0063639116 0.37500003 4280373549
0.096611172 -0.0063808816 0.37600002 4280505135
0.097832426 -0.0063808816 0.37600002 4280373036
0.10176611 -0.0063978522 0.377 4280435497
0.1029906 -0.0063978522 0.377 4280172325
0.017688256 -0.0052964329 0.38600001 4284573510
0.018892914 -0.0052827117 0.38500002 4281613089
0.02205619 -0.0051454986 0.37500003 4281218335
0.023460384 -0.0051866625 0.37800002 4281482275
0.024035003 -0.0050494494 0.36800003 4281482273
0.025161708 -0.0050357278 0.36700001 4281482788
0.026281916 -0.0050220066 0.36600003 4283918676
0.029685117 -0.0049945638 0.36400002 4282343244
0.03086739 -0.0049945638 0.36400002 4282277197
0.032049663 -0.0049945638 0.36400002 4282408783
0.033231933 -0.0049945638 0.36400002 4282408785
0.034414209 -0.0049945638 0.36400002 4281946689
0.035596479 -0.0049945638 0.36400002 4281616952
0.036778755 -0.0049945638 0.36400002 4281088809
0.038065314 -0.0050082849 0.36500001 4280430620
0.039250832 -0.0050082849 0.36500001 4282140203
0.04054714 -0.0050220066 0.36600003 4282798133
0.04173591 -0.0050220066 0.36600003 4280761128
0.043041959 -0.0050357278 0.36700001 4282801224
0.044233974 -0.0050357278 0.36700001 4283590229
0.045673542 -0.0050631706 0.36900002 4280629805
0.046872053 -0.0050631706 0.36900002 4280368181
0.048070569 -0.0050631706 0.36900002 4280499769
0.049269084 -0.0050631706 0.36900002 4280565308
0.050467592 -0.0050631706 0.36900002 4280631101
0.051666107 -0.0050631706 0.36900002 4280499767
0.052864619 -0.0050631706 0.36900002 4280433711
0.054063134 -0.0050631706 0.36900002 4280893231
0.056010444 -0.0051317769 0.37400001 4280695852
0.057225201 -0.0051317769 0.37400001 4280630829
0.057814926 -0.0050768917 0.37 4280696620
0.05885718 -0.0050631706 0.36900002 4281157171
0.059730191 -0.0050357278 0.36700001 4279381273
0.06075621 -0.0050220066 0.36600003 4278922517
0.061775722 -0.0050082849 0.36500001 4278660369
0.062961243 -0.0050082849 0.36500001 4278857748
0.063971028 -0.0049945638 0.36400002 4278858261
0.065153301 -0.0049945638 0.36400002 4278858261
0.066517808 -0.0050082849 0.36500001 4279187226
0.067703329 -0.0050082849 0.36500001 4280370217
0.068888851 -0.0050082849 0.36500001 4280501290
0.070074365 -0.0050082849 0.36500001 4279974946
0.071455128 -0.0050220066 0.36600003 4279909153
0.072643898 -0.0050220066 0.36600003 4279252506
0.074034385 -0.0050357278 0.36700001 4279384090
0.075226404 -0.0050357278 0.36700001 4279055638
0.076626651 -0.0050494494 0.36800003 4278792466
0.077821918 -0.0050494494 0.36800003 4278858773
0.079017177 -0.0050494494 0.36800003 4278990359
0.080430411 -0.0050631706 0.36900002 4278990359
0.081628926 -0.0050631706 0.36900002 4278793750
0.083051898 -0.0050768917 0.37 4279385887
0.084253661 -0.0050768917 0.37 4279385887
0.085686386 -0.0050906129 0.37100002 4279254814
0.08689139 -0.0050906129 0.37100002 4279321377
0.088333853 -0.0051043341 0.37200001 4280045354
0.089782819 -0.0051180557 0.37300003 4280045354
0.090994321 -0.0051180557 0.37300003 4280504881
0.092453025 -0.0051317769 0.37400001 4280373297
0.093918227 -0.0051454986 0.37500003 4280503086
0.095136233 -0.0051454986 0.37500003 4279514908
0.096611172 -0.0051592197 0.37600002 4279184660
0.10054161 -0.0051729409 0.377 4279579936
0.023460384 -0.0039585019 0.37800002 4281349917
0.025093149 -0.003832835 0.36600003 4281679136
0.026210107 -0.0038223625 0.36500001 4281943339
0.027395627 -0.0038223625 0.36500001 4281615921
0.028502844 -0.0038118905 0.36400002 4281616691
0.029685117 -0.0038118905 0.36400002 4283264859
0.03086739 -0.0038118905 0.36400002 4282804054
0.032049663 -0.0038118905 0.36400002 4281947464
0.033231933 -0.0038118905 0.36400002 4281485886
0.034414209 -0.0038118905 0.36400002 4280694565
0.035596479 -0.0038118905 0.36400002 4280693790
0.036778755 -0.0038118905 0.36400002 4281613343
0.038065314 -0.0038223625 0.36500001 4281021204
0.039250832 -0.0038223625 0.36500001 4281678616
0.040436354 -0.0038223625 0.36500001 4281283858
0.04173591 -0.003832835 0.36600003 4283195205
0.043041959 -0.003843307 0.36700001 4282669377
0.044233974 -0.003843307 0.36700001 4280958511
0.045673542 -0.0038642515 0.36900002 4280695598
0.046872053 -0.0038642515 0.36900002 4280368181
0.048070569 -0.0038642515 0.36900002 4280302388
0.049269084 -0.0038642515 0.36900002 4280565562
0.050467592 -0.0038642515 0.36900002 4280565562
0.051666107 -0.0038642515 0.36900002 4280762941
0.052864619 -0.0038642515 0.36900002 4280368183
0.055235233 -0.0039480291 0.377 4280366635
0.056010444 -0.0039166128 0.37400001 4280695598
0.057072192 -0.0039061406 0.37300003 4280499243
0.057971187 -0.0038851961 0.37100002 4280565036
0.059016682 -0.0038747236 0.37 4279315480
0.059892945 -0.0038537795 0.36800003 4279644957
0.060922209 -0.003843307 0.36700001 4279382809
0.06211422 -0.003843307 0.36700001 4278856978
0.063133746 -0.003832835 0.36600003 4278791955
0.064322516 -0.003832835 0.36600003 4278989847
0.065332286 -0.0038223625 0.36500001 4278595603
0.066517808 -0.0038223625 0.36500001 4278595601
0.067703329 -0.0038223625 0.36500001 4278989845
0.068888851 -0.0038223625 0.36500001 4278858259
0.070266359 -0.003832835 0.36600003 4279055638
0.071455128 -0.003832835 0.36600003 4278989845
0.072842374 -0.003843307 0.36700001 4278792466
0.074034385 -0.003843307 0.36700001 4278792466
0.075226404 -0.003843307 0.36700001 4278792466
0.076626651 -0.0038537795 0.36800003 4278727187
0.077821918 -0.0038537795 0.36800003 4279648289
0.079231896 -0.0038642515 0.36900002 4279517473
0.080430411 -0.0038642515 0.36900002 4279254301
0.081628926 -0.0038642515 0.36900002 4279451680
0.083051898 -0.0038747236 0.37 4279320607
0.084253661 -0.0038747236 0.37 4279846438
0.085686386 -0.0038851961 0.37100002 4280241196
0.087125592 -0.0038956681 0.37200001 4280569391
0.088333853 -0.0038956681 0.37200001 4281029942
0.089782819 -0.0039061406 0.37300003 4280042533
0.091238268 -0.0039166128 0.37400001 4279447578
0.092453025 -0.0039166128 0.37400001 4279776029
0.093918227 -0.0039270851 0.37500003 4280697131
0.095389925 -0.0039375573 0.37600002 4280960303
0.026210107 -0.0026364403 0.36500001 4281350687
0.027395627 -0.0026364403 0.36500001 4281154593
0.028502844 -0.0026292175 0.36400002 4281879863
0.029685117 -0.0026292175 0.36400002 4282144579
0.03086739 -0.0026292175 0.36400002 4281552444
0.032049663 -0.0026292175 0.36400002 4282998605
0.033231933 -0.0026292175 0.36400002 4280694305
0.034414209 -0.0026292175 0.36400002 4280494358
0.035596479 -0.0026292175 0.36400002 4281085977
0.036778755 -0.0026292175 0.36400002 4280691214
0.038065314 -0.0026364403 0.36500001 4281349399
0.039250832 -0.0026364403 0.36500001 4282204960
0.040436354 -0.0026364403 0.36500001 4282402339
0.04173591 -0.0026436637 0.36600003 4282602552
0.043041959 -0.0026508868 0.36700001 4280958761
0.044233974 -0.0026508868 0.36700001 4280037409
0.045673542 -0.002665333 0.36900002 4280037417
0.046872053 -0.002665333 0.36900002 4280433208
0.048070569 -0.002665333 0.36900002 4280302136
0.049269084 -0.002665333 0.36900002 4280433722
0.050467592 -0.002665333 0.36900002 4280433722
0.051666107 -0.002665333 0.36900002 4280499515
0.054583795 -0.0027520105 0.38100001 4280565308
0.055235233 -0.0027231178 0.377 4280301612
0.056160208 -0.0027086718 0.37500003 4280761393
0.057225201 -0.0027014485 0.37400001 4280499243
0.058283698 -0.0026942254 0.37300003 4279249174
0.059176192 -0.0026797792 0.37100002 4279184408
0.060218446 -0.0026725559 0.37 4279579164
0.061254211 -0.002665333 0.36900002 4279448602
0.062283471 -0.0026581099 0.36800003 4279646492
0.063306242 -0.0026508868 0.36700001 4278791953
0.064498261 -0.0026508868 0.36700001 4278726673
0.065511286 -0.0026436637 0.36600003 4278201610
0.066700049 -0.0026436637 0.36600003 4280373034
0.067888819 -0.0026436637 0.36600003 4278726673
0.069077589 -0.0026436637 0.36600003 4278792466
0.070266359 -0.0026436637 0.36600003 4278727187
0.071650356 -0.0026508868 0.36700001 4278595601
0.072842374 -0.0026508868 0.36700001 4278661394
0.074034385 -0.0026508868 0.36700001 4278727187
0.075431384 -0.0026581099 0.36800003 4279516703
0.076626651 -0.0026581099 0.36800003 4279188508
0.077821918 -0.0026581099 0.36800003 4279320094
0.079231896 -0.002665333 0.36900002 4279780645
0.080430411 -0.002665333 0.36900002 4279912231
0.081850141 -0.0026725559 0.37 4280503598
0.083051898 -0.0026725559 0.37 4280569391
0.084481373 -0.0026797792 0.37100002 4280766770
0.085686386 -0.0026797792 0.37100002 4279318299
0.087125592 -0.0026870023 0.37200001 4279580188
0.088333853 -0.0026870023 0.37200001 4280105508
0.089782819 -0.0026942254 0.37300003 4281288757
0.091238268 -0.0027014485 0.37400001 4280367655
0.092453025 -0.0027014485 0.37400001 4280432678
0.093918227 -0.0027086718 0.37500003 4280499243
0.026210107 -0.0014505181 0.36500001 4280495378
0.027395627 -0.0014505181 0.36500001 4280430872
0.028502844 -0.0014465442 0.36400002 4280430618
0.029685117 -0.0014465442 0.36400002 4283590740
0.03086739 -0.0014465442 0.36400002 4282998857
0.032049663 -0.0014465442 0.36400002 4282273849
0.033231933 -0.0014465442 0.36400002 4282272304
0.034414209 -0.0014465442 0.36400002 4281940511
0.035596479 -0.0014465442 0.36400002 4282599211
0.036778755 -0.0014465442 0.36400002 4282862638
0.038065314 -0.0014505181 0.36500001 4282467880
0.039250832 -0.0014505181 0.36500001 4282402087
0.040436354 -0.0014505181 0.36500001 4282073894
0.04173591 -0.0014544923 0.36600003 4283590227
0.043041959 -0.0014584663 0.36700001 4280037407
0.044233974 -0.0014584663 0.36700001 4280695085
0.045673542 -0.0014664143 0.36900002 4280234283
0.046872053 -0.0014664143 0.36900002 4280695867
0.048070569 -0.0014664143 0.36900002 4280170036
0.049269084 -0.0014664143 0.36900002 4280170550
0.050467592 -0.0014664143 0.36900002 4280433722
0.051666107 -0.0014664143 0.36900002 4280367929
0.054583795 -0.0015141026 0.38100001 4280631101
0.055381749 -0.0015021805 0.37800002 4280170286
0.056459725 -0.0014982064 0.377 4280300840
0.05737821 -0.0014902585 0.37500003 4279643934
0.058439955 -0.0014862844 0.37400001 4279052310
0.059495199 -0.0014823105 0.37300003 4279184408
0.0603812 -0.0014743623 0.37100002 4279513371
0.06142021 -0.0014703883 0.37 4279514395
0.062452719 -0.0014664143 0.36900002 4279514906
0.063651234 -0.0014664143 0.36900002 4279647262
0.064674005 -0.0014624404 0.36800003 4279187224
0.065690279 -0.0014584663 0.36700001 4278990359
0.06688229 -0.0014584663 0.36700001 4278464015
0.068074308 -0.0014584663 0.36700001 4280437805
0.069266327 -0.0014584663 0.36700001 4278924566
0.070458338 -0.0014584663 0.36700001 4278727187
0.071650356 -0.0014584663 0.36700001 4279056406
0.072842374 -0.0014584663 0.36700001 4279319578
0.074236117 -0.0014624404 0.36800003 4279319578
0.075431384 -0.0014624404 0.36800003 4279845922
0.076626651 -0.0014624404 0.36800003 4280108840
0.078033388 -0.0014664143 0.36900002 4280372012
0.079231896 -0.0014664143 0.36900002 4280568877
0.080648378 -0.0014703883 0.37 4280305192
0.081850141 -0.0014703883 0.37 4280897329
0.083051898 -0.0014703883 0.37 4280040485
0.084481373 -0.0014743623 0.37100002 4280434473
0.085686386 -0.0014743623 0.37100002 4281091889
0.087125592 -0.0014783364 0.37200001 4280959790
0.088571317 -0.0014823105 0.37300003 4280630055
0.089782819 -0.0014823105 0.37300003 4280301090
0.093918227 -0.0014902585 0.37500003 4283920990
0.027320571 -0.00026387096 0.36400002 4280561688
0.028502844 -0.00026387096 0.36400002 4279904276
0.029685117 -0.00026387096 0.36400002 4283985752
0.03086739 -0.00026387096 0.36400002 4282932551
0.032049663 -0.00026387096 0.36400002 4282669379
0.033231933 -0.00026387096 0.36400002 4281944624
0.034414209 -0.00026387096 0.36400002 4282270501
0.035596479 -0.00026387096 0.36400002 4282928685
0.036778755 -0.00026387096 0.36400002 4282665259
0.037961025 -0.00026387096 0.36400002 4282468652
0.039250832 -0.00026459587 0.36500001 4283786574
0.040436354 -0.00026459587 0.36500001 4283853653
0.04173591 -0.00026532082 0.36600003 4283656020
0.043041959 -0.00026604571 0.36700001 4281682232
0.044233974 -0.00026604571 0.36700001 4280892464
0.045673542 -0.00026749558 0.36900002 4280497708
0.046872053 -0.00026749558 0.36900002 4280234800
0.048070569 -0.00026749558 0.36900002 4280301363
0.049269084 -0.00026749558 0.36900002 4280170290
0.050467592 -0.00026749558 0.36900002 4280499001
0.051666107 -0.00026749558 0.36900002 4280630587
0.054583795 -0.00027619459 0.38100001 4280499515
0.055674773 -0.00027546968 0.38000003 4280894009
0.056609489 -0.00027401984 0.37800002 4278854677
0.057684224 -0.00027329492 0.377 4278987029
0.05875247 -0.00027257 0.37600002 4278987029
0.059654702 -0.00027112017 0.37400001 4279184406
0.060706709 -0.00027039525 0.37300003 4279382555
0.061752211 -0.00026967033 0.37200001 4279449115
0.062791213 -0.00026894541 0.37100002 4279713057
0.06382373 -0.00026822046 0.37 4279516189
0.064849749 -0.00026749558 0.36900002 4279516703
0.066048265 -0.00026749558 0.36900002 4279516703
0.067064531 -0.00026677066 0.36800003 4280240426
0.068259798 -0.00026677066 0.36800003 4279779875
0.069455065 -0.00026677066 0.36800003 4279779875
0.070458338 -0.00026604571 0.36700001 4279779875
0.071650356 -0.00026604571 0.36700001 4279977254
0.073040858 -0.00026677066 0.36800003 4280372012
0.074236117 -0.00026677066 0.36800003 4280503598
0.075431384 -0.00026677066 0.36800003 4280832563
0.076834872 -0.00026749558 0.36900002 4280700979
0.078033388 -0.00026749558 0.36900002 4280569393
0.079231896 -0.00026749558 0.36900002 4279581471
0.081850141 -0.00026822046 0.37 4280632876
0.083276361 -0.00026894541 0.37100002 4279972125
0.084481373 -0.00026894541 0.37100002 4280037918
0.085917346 -0.00026967033 0.37200001 4280038688
0.028502844 0.00091880228 0.36400002 4279246094
0.029685117 0.00091880228 0.36400002 4282670408
0.03086739 0.00091880228 0.36400002 4283065420
0.032049663 0.00091880228 0.36400002 4283129676
0.033231933 0.00091880228 0.36400002 4282602562
0.034414209 0.00091880228 0.36400002 4283062851
0.035596479 0.00091880228 0.36400002 4283654475
0.036778755 0.00091880228 0.36400002 4284708192
0.037961025 0.00091880228 0.36400002 4284116571
0.039250832 0.00092132646 0.36500001 4283788119
0.040436354 0.00092132646 0.36500001 4283788121
0.04173591 0.00092385069 0.36600003 4283656535
0.043041959 0.00092637481 0.36700001 4283261777
0.044233974 0.00092637481 0.36700001 4279576604
0.045673542 0.00093142322 0.36900002 4280497708
0.046872053 0.00093142322 0.36900002 4280300591
0.048070569 0.00093142322 0.36900002 4280037419
0.049269084 0.00093142322 0.36900002 4280301363
0.050467592 0.00093142322 0.36900002 4280433462
0.051666107 0.00093142322 0.36900002 4280762173
0.054727063 0.00096423761 0.38200003 4280696380
0.055674773 0.0009591892 0.38000003 4280762173
0.056759246 0.00095666497 0.37900001 4281354562
0.057837237 0.00095414085 0.37800002 4279053592
0.058908723 0.00095161662 0.377 4278922006
0.059973713 0.00094909244 0.37600002 4279053590
0.060869459 0.00094404409 0.37400001 4279251736
0.061918214 0.00094151992 0.37300003 4279713055
0.062960461 0.00093899574 0.37200001 4279778848
0.063996226 0.00093647157 0.37100002 4279647775
0.065201238 0.00093647157 0.37100002 4279582496
0.06622725 0.00093394733 0.37 4279516703
0.067246772 0.00093142322 0.36900002 4280503598
0.068445288 0.00093142322 0.36900002 4279977254
0.069643795 0.00093142322 0.36900002 4280240426
0.070650324 0.00092889904 0.36800003 4280306219
0.071845591 0.00092889904 0.36800003 4280438829
0.073040858 0.00092889904 0.36800003 4280570415
0.074236117 0.00092889904 0.36800003 4280701231
0.075431384 0.00092889904 0.36800003 4280700977
0.076834872 0.00093142322 0.36900002 4280832563
0.078033388 0.00093142322 0.36900002 4280305194
0.079446614 0.00093394733 0.37 4280830514
0.081850141 0.00093394733 0.37 4280500266
0.029766668 0.0021072486 0.36500001 4280827956
0.03086739 0.0021014756 0.36400002 4279906084
0.032049663 0.0021014756 0.36400002 4284840807
0.033231933 0.0021014756 0.36400002 4284380256
0.034414209 0.0021014756 0.36400002 4284313950
0.035596479 0.0021014756 0.36400002 4284248157
0.036778755 0.0021014756 0.36400002 4284182364
0.037961025 0.0021014756 0.36400002 4284182877
0.039250832 0.0021072486 0.36500001 4283985498
0.040436354 0.0021072486 0.36500001 4283985500
0.04173591 0.0021130221 0.36600003 4283788121
0.043041959 0.0021187954 0.36700001 4283524949
0.044233974 0.0021187954 0.36700001 4281549876
0.045673542 0.0021303419 0.36900002 4280958257
0.046872053 0.0021303419 0.36900002 4280300078
0.048070569 0.0021303419 0.36900002 4280036906
0.049269084 0.0021303419 0.36900002 4280235570
0.050467592 0.0021303419 0.36900002 4280302390
0.051666107 0.0021303419 0.36900002 4281158215
0.054727063 0.0022053947 0.38200003 4280368699
0.055821285 0.0021996212 0.38100001 4279907378
0.05690901 0.0021938481 0.38000003 4280302388
0.057990242 0.0021880746 0.37900001 4279908133
0.059064981 0.0021823014 0.37800002 4279053592
0.060133215 0.0021765281 0.377 4278922519
0.061194964 0.0021707548 0.37600002 4279777826
0.062250216 0.0021649816 0.37500003 4279647777
0.063298963 0.0021592083 0.37400001 4279647775
0.064341217 0.002153435 0.37300003 4279713568
0.065376982 0.0021476618 0.37200001 4280042533
0.06640625 0.0021418885 0.37100002 4280503598
0.067611255 0.0021418885 0.37100002 4280372012
0.06863077 0.0021361152 0.37 4280240426
0.069643795 0.0021303419 0.36900002 4280306219
0.070842311 0.0021303419 0.36900002 4280569391
0.071845591 0.0021245687 0.36800003 4280700977
0.073040858 0.0021245687 0.36800003 4280700977
0.074236117 0.0021245687 0.36800003 4280766770
0.075636357 0.0021303419 0.36900002 4280963635
0.076834872 0.0021303419 0.36900002 4280305194
0.078033388 0.0021303419 0.36900002 4280500266
0.054727063 0.0034465517 0.38200003 4279578413
0.055821285 0.0034375291 0.38100001 4279973171
0.05705877 0.0034375291 0.38100001 4280630841
0.058143254 0.0034285069 0.38000003 4280500535
0.059221238 0.0034194842 0.37900001 4278987547
0.060292721 0.0034104621 0.37800002 4279119385
0.061357714 0.0034014394 0.377 4279515424
0.062416214 0.0033924172 0.37600002 4279647775
0.06346821 0.003383395 0.37500003 4279647775
0.064513713 0.0033743724 0.37400001 4279845668
0.065552726 0.0033653502 0.37300003 4280503598
0.066585235 0.0033563275 0.37200001 4280503598
0.067793489 0.0033563275 0.37200001 4280240426
0.06881626 0.0033473053 0.37100002 4280372012
0.069832534 0.0033382827 0.37 4280503598
0.070842311 0.0033292605 0.36900002 4280766772
0.072040819 0.0033292605 0.36900002 4281029430
0.073239334 0.0033292605 0.36900002 4281358395
0.074437842 0.0033292605 0.36900002 4281357882
0.075636357 0.0033292605 0.36900002 4281488698
0.05705877 0.0046754372 0.38100001 4280499769
0.058143254 0.0046631657 0.38000003 4280500539
0.059221238 0.0046508941 0.37900001 4280697918
0.060292721 0.004638623 0.37800002 4279909414
0.061357714 0.0046263509 0.377 4279713057
0.062416214 0.0046140798 0.37600002 4279713570
0.06346821 0.0046018083 0.37500003 4279648291
0.064513713 0.0045895367 0.37400001 4280306221
0.065728471 0.0045895367 0.37400001 4280569393
0.066764235 0.0045772656 0.37300003 4280240426
0.067975737 0.0045772656 0.37300003 4280503598
0.069001749 0.0045649935 0.37200001 4280569391
0.070021272 0.0045527224 0.37100002 4280898356
0.071226276 0.0045527224 0.37100002 4281292602
0.072431289 0.0045527224 0.37100002 4281226296
0.065728471 0.0058047008 0.37400001 4280175405
0.066943221 0.0058047008 0.37400001 4280306991
0.067975737 0.0057891808 0.37300003 4280438577
0.069187239 0.0057891808 0.37300003 4280239147
0.065346062 -0.0072522722 0.37030122 4294967295
0.065346062 -0.0072522722 0.37030122 4294901760
0.065295987 -0.0077474443 0.37034914 4294901760
0.065245919 -0.0082426164 0.37039709 4294901760
0.065195844 -0.0087377885 0.37044501 4294901760
0.065145768 -0.0092329606 0.37049294 4294901760
0.0650957 -0.0097281327 0.37054086 4294901760
0.065045625 -0.010223305 0.37058881 4294901760
0.06499555 -0.010718476 0.37063673 4294901760
0.064945482 -0.011213649 0.37068465 4294901760
0.064895406 -0.01170882 0.37073261 4294901760
0.064845331 -0.012203993 0.37078053 4294901760
0.064795256 -0.012699164 0.37082845 4294901760
0.064745188 -0.013194337 0.37087637 4294901760
0.064695112 -0.013689509 0.37092432 4294901760
0.064645037 -0.014184681 0.37097225 4294901760
0.064594969 -0.014679853 0.37102017 4294901760
0.064544894 -0.015175025 0.37106812 4294901760
0.064494818 -0.015670197 0.37111604 4294901760
0.064444751 -0.016165368 0.37116396 4294901760
0.064394675 -0.016660541 0.37121192 4294901760
0.0643446 -0.017155714 0.37125984 4294901760
0.064294532 -0.017650884 0.37130776 4294901760
0.064244457 -0.018146057 0.37135568 4294901760
0.064194381 -0.01864123 0.37140363 4294901760
0.064144313 -0.019136401 0.37145156 4294901760
0.064094238 -0.019631572 0.37149948 4294901760
0.064044163 -0.020126745 0.37154743 4294901760
0.063994095 -0.020621918 0.37159535 4294901760
0.063944019 -0.021117089 0.37164328 4294901760
0.063893944 -0.02161226 0.3716912 4294901760
0.063843869 -0.022107434 0.37173915 4294901760
0.063793801 -0.022602607 0.37178707 4294901760
0.063743725 -0.023097778 0.37183499 4294901760
0.06369365 -0.023592951 0.37188295 4294901760
0.063643582 -0.024088122 0.37193087 4294901760
0.063593507 -0.024583293 0.37197879 4294901760
0.063543431 -0.025078466 0.37202671 4294901760
0.063493364 -0.025573637 0.37207466 4294901760
0.063443288 -0.026068809 0.37212259 4294901760
0.063393213 -0.026563982 0.37217051 4294901760
0.063343145 -0.027059155 0.37221846 4294901760
0.06329307 -0.027554326 0.37226638 4294901760
0.063242994 -0.028049497 0.3723143 4294901760
0.063192926 -0.02854467 0.37236223 4294901760
0.063142851 -0.029039841 0.37241018 4294901760
0.063092776 -0.029535012 0.3724581 4294901760
0.0630427 -0.030030185 0.37250602 4294901760
0.062992632 -0.030525358 0.37255397 4294901760
0.062942557 -0.03102053 0.3726019 4294901760
0.062892482 -0.031515703 0.37264982 4294901760
0.062842414 -0.032010876 0.37269777 4294901760
0.062792338 -0.032506045 0.37274569 4294901760
0.062742263 -0.033001214 0.37279361 4294901760
0.062692195 -0.033496387 0.37284154 4294901760
0.06264212 -0.03399156 0.37288949 4294901760
0.062592044 -0.034486733 0.37293741 4294901760
0.062541977 -0.034981906 0.37298533 4294901760
0.062491901 -0.035477079 0.37303329 4294901760
0.06244183 -0.035972249 0.37308121 4294901760
0.062391754 -0.036467418 0.37312913 4294901760
0.062341683 -0.036962595 0.37317705 4294901760
0.062291607 -0.037457764 0.373225 4294901760
0.062241536 -0.037952937 0.37327293 4294901760
0.062191464 -0.03844811 0.37332085 4294901760
0.062141389 -0.038943283 0.3733688 4294901760
0.062091317 -0.039438453 0.37341672 4294901760
0.062041245 -0.039933629 0.37346464 4294901760
0.06199117 -0.040428799 0.37351257 4294901760
0.061941098 -0.040923972 0.37356052 4294901760
0.061891027 -0.041419141 0.37360844 4294901760
0.061840951 -0.041914314 0.37365636 4294901760
0.06179088 -0.042409487 0.37370431 4294901760
0.061740804 -0.04290466 0.37375224 4294901760
0.061690733 -0.043399833 0.37380016 4294901760
0.061640661 -0.043895002 0.37384808 4294901760
0.061590586 -0.044390175 0.37389603 4294901760
0.061540514 -0.044885345 0.37394395 4294901760
0.061490443 -0.045380518 0.37399188 4294901760
0.061440367 -0.045875691 0.37403983 4294901760
0.061390296 -0.046370864 0.37408775 4294901760
0.06134022 -0.046866037 0.37413567 4294901760
0.061290149 -0.047361206 0.3741836 4294901760
0.061240077 -0.047856379 0.37423155 4294901760
0.061190002 -0.048351549 0.37427947 4294901760
0.06113993 -0.048846722 0.37432739 4294901760
0.061089858 -0.049341895 0.37437534 4294901760
0.061039783 -0.049837068 0.37442327 4294901760
0.060989711 -0.050332241 0.37447119 4294901760
0.06093964 -0.05082741 0.37451914 4294901760
0.060889564 -0.051322583 0.37456706 4294901760
0.060839493 -0.051817752 0.37461498 4294901760
0.060789417 -0.052312929 0.37466291 4294901760
0.060739346 -0.052808098 0.37471086 4294901760
0.060689274 -0.053303272 0.37475878 4294901760
0.060639199 -0.053798445 0.3748067 4294901760
0.060589127 -0.054293614 0.37485465 4294901760
0.060539052 -0.054788787 0.37490258 4294901760
0.06048898 -0.05528396 0.3749505 4294901760
0.060438909 -0.055779133 0.37499842 4294901760
0.060388833 -0.056274302 0.37504637 4294901760
0.060338762 -0.056769475 0.37509429 4294901760
0.065346062 -0.0072522722 0.37030122 4278255360
0.065838411 -0.0072946916 0.37037733 4278255360
0.066330761 -0.0073371115 0.37045345 4278255360
0.06682311 -0.0073795309 0.37052956 4278255360
0.067315452 -0.0074219508 0.37060568 4278255360
0.067807801 -0.0074643702 0.37068179 4278255360
0.06830015 -0.0075067901 0.37075791 4278255360
0.0687925 -0.0075492095 0.37083402 4278255360
0.069284849 -0.0075916294 0.37091014 4278255360
0.069777198 -0.0076340488 0.37098628 4278255360
0.070269547 -0.0076764687 0.3710624 4278255360
0.070761889 -0.0077188881 0.37113851 4278255360
0.071254238 -0.007761308 0.37121463 4278255360
0.071746588 -0.0078037274 0.37129074 4278255360
0.072238937 -0.0078461468 0.37136686 4278255360
0.072731286 -0.0078885667 0.37144297 4278255360
0.073223636 -0.0079309866 0.37151909 4278255360
0.073715985 -0.0079734065 0.3715952 4278255360
0.074208334 -0.0080158254 0.37167132 4278255360
0.074700676 -0.0080582453 0.37174743 4278255360
0.075193025 -0.0081006652 0.37182355 4278255360
0.075685374 -0.0081430841 0.37189966 4278255360
0.076177724 -0.008185504 0.37197578 4278255360
0.076670073 -0.0082279239 0.37205189 4278255360
0.077162422 -0.0082703438 0.37212801 4278255360
0.077654764 -0.0083127636 0.37220412 4278255360
0.078147113 -0.0083551826 0.37228027 4278255360
0.078639463 -0.0083976025 0.37235638 4278255360
0.079131812 -0.0084400224 0.3724325 4278255360
0.079624161 -0.0084824413 0.37250862 4278255360
0.08011651 -0.0085248612 0.37258473 4278255360
0.08060886 -0.0085672811 0.37266085 4278255360
0.081101209 -0.0086097009 0.37273696 4278255360
0.081593558 -0.0086521208 0.37281308 4278255360
0.0820859 -0.0086945398 0.37288919 4278255360
0.082578249 -0.0087369597 0.37296531 4278255360
0.083070599 -0.0087793795 0.37304142 4278255360
0.083562948 -0.0088217985 0.37311754 4278255360
0.084055297 -0.0088642184 0.37319365 4278255360
0.084547639 -0.0089066382 0.37326977 4278255360
0.085039988 -0.0089490581 0.37334588 4278255360
0.085532337 -0.0089914771 0.373422 4278255360
0.086024687 -0.009033897 0.37349814 4278255360
0.086517036 -0.0090763168 0.37357426 4278255360
0.087009385 -0.0091187358 0.37365037 4278255360
0.087501734 -0.0091611557 0.37372649 4278255360
0.087994084 -0.0092035756 0.3738026 4278255360
0.088486433 -0.0092459954 0.37387872 4278255360
0.088978775 -0.0092884153 0.37395483 4278255360
0.089471124 -0.0093308343 0.37403095 4278255360
0.089963473 -0.0093732541 0.37410706 4278255360
0.090455823 -0.009415674 0.37418318 4278255360
0.090948164 -0.009458093 0.37425929 4278255360
0.091440514 -0.0095005129 0.37433541 4278255360
0.091932863 -0.0095429327 0.37441152 4278255360
0.092425212 -0.0095853526 0.37448764 4278255360
0.092917562 -0.0096277725 0.37456375 4278255360
0.093409911 -0.0096701914 0.37463987 4278255360
0.09390226 -0.0097126113 0.37471598 4278255360
0.094394609 -0.0097550303 0.37479213 4278255360
0.094886959 -0.0097974502 0.37486824 4278255360
0.095379308 -0.00983987 0.37494436 4278255360
0.09587165 -0.0098822899 0.37502047 4278255360
0.096363999 -0.0099247098 0.37509659 4278255360
0.096856348 -0.0099671287 0.3751727 4278255360
0.09734869 -0.010009549 0.37524882 4278255360
0.097841047 -0.010051969 0.37532493 4278255360
0.098333389 -0.010094388 0.37540105 4278255360
0.098825738 -0.010136807 0.37547716 4278255360
0.099318087 -0.010179227 0.37555328 4278255360
0.099810436 -0.010221647 0.3756294 4278255360
0.10030279 -0.010264067 0.37570551 4278255360
0.10079513 -0.010306487 0.37578163 4278255360
0.10128748 -0.010348906 0.37585774 4278255360
0.10177983 -0.010391326 0.37593386 4278255360
0.10227218 -0.010433745 0.37601 4278255360
0.10276453 -0.010476165 0.37608612 4278255360
0.10325687 -0.010518584 0.37616223 4278255360
0.10374922 -0.010561004 0.37623835 4278255360
0.10424157 -0.010603424 0.37631446 4278255360
0.10473392 -0.010645843 0.37639058 4278255360
0.10522626 -0.010688263 0.37646669 4278255360
0.10571861 -0.010730683 0.37654281 4278255360
0.10621096 -0.010773102 0.37661892 4278255360
0.10670331 -0.010815522 0.37669504 4278255360
0.10719566 -0.010857942 0.37677115 4278255360
0.10768801 -0.010900361 0.37684727 4278255360
0.10818036 -0.010942781 0.37692338 4278255360
0.10867271 -0.0109852 0.3769995 4278255360
0.10916506 -0.01102762 0.37707561 4278255360
0.1096574 -0.011070039 0.37715173 4278255360
0.11014976 -0.011112459 0.37722784 4278255360
0.1106421 -0.011154879 0.37730399 4278255360
0.11113445 -0.011197299 0.3773801 4278255360
0.1116268 -0.011239719 0.37745622 4278255360
0.11211914 -0.011282138 0.37753233 4278255360
0.11261149 -0.011324557 0.37760845 4278255360
0.11310384 -0.011366977 0.37768456 4278255360
0.11359619 -0.011409396 0.37776068 4278255360
0.11408854 -0.011451816 0.37783679 4278255360
0.11458088 -0.011494236 0.37791291 4278255360
0.065346062 -0.0072522722 0.37030122 4278190335
0.065263592 -0.0071965037 0.3707912 4278190335
0.065181121 -0.0071407352 0.37128121 4278190335
0.065098651 -0.0070849666 0.37177119 4278190335
0.06501618 -0.0070291981 0.37226117 4278190335
0.064933717 -0.0069734296 0.37275115 4278190335
0.064851247 -0.0069176611 0.37324116 4278190335
0.064768776 -0.0068618925 0.37373114 4278190335
0.064686306 -0.006806124 0.37422112 4278190335
0.064603835 -0.0067503555 0.37471113 4278190335
0.064521365 -0.0066945869 0.37520111 4278190335
0.064438894 -0.0066388184 0.37569109 4278190335
0.064356424 -0.0065830499 0.37618107 4278190335
0.064273961 -0.0065272814 0.37667108 4278190335
0.06419149 -0.0064715124 0.37716106 4278190335
0.06410902 -0.0064157438 0.37765104 4278190335
0.064026549 -0.0063599753 0.37814102 4278190335
0.063944079 -0.0063042068 0.37863103 4278190335
0.063861609 -0.0062484383 0.37912101 4278190335
0.063779138 -0.0061926697 0.37961099 4278190335
0.063696668 -0.0061369012 0.380101 4278190335
0.063614205 -0.0060811327 0.38059098 4278190335
0.063531734 -0.0060253642 0.38108096 4278190335
0.063449264 -0.0059695956 0.38157094 4278190335
0.063366793 -0.0059138271 0.38206095 4278190335
0.063284323 -0.0058580586 0.38255093 4278190335
0.063201852 -0.00580229 0.3830409 4278190335
0.063119382 -0.0057465215 0.38353091 4278190335
0.063036911 -0.005690753 0.38402089 4278190335
0.062954441 -0.0056349845 0.38451087 4278190335
0.062871978 -0.0055792159 0.38500085 4278190335
0.062789507 -0.0055234474 0.38549086 4278190335
0.062707037 -0.0054676789 0.38598084 4278190335
0.062624566 -0.0054119099 0.38647082 4278190335
0.062542096 -0.0053561414 0.3869608 4278190335
0.062459625 -0.0053003733 0.38745081 4278190335
0.062377159 -0.0052446043 0.38794079 4278190335
0.062294688 -0.0051888358 0.38843077 4278190335
0.062212218 -0.0051330673 0.38892078 4278190335
0.062129747 -0.0050772987 0.38941076 4278190335
0.06204728 -0.0050215302 0.38990074 4278190335
0.06196481 -0.0049657617 0.39039075 4278190335
0.061882339 -0.0049099931 0.39088073 4278190335
0.061799869 -0.0048542246 0.39137071 4278190335
0.061717402 -0.0047984561 0.39186069 4278190335
0.061634932 -0.0047426876 0.3923507 4278190335
0.061552461 -0.004686919 0.39284068 4278190335
0.061469991 -0.0046311505 0.39333066 4278190335
0.061387524 -0.004575382 0.39382064 4278190335
0.061305054 -0.0045196135 0.39431065 4278190335
0.061222583 -0.0044638449 0.39480063 4278190335
0.061140113 -0.0044080764 0.39529061 4278190335
0.061057642 -0.0043523079 0.39578062 4278190335
0.060975175 -0.0042965394 0.3962706 4278190335
0.060892705 -0.0042407708 0.39676058 4278190335
0.060810234 -0.0041850023 0.39725056 4278190335
0.060727764 -0.0041292338 0.39774057 4278190335
0.060645297 -0.0040734652 0.39823055 4278190335
0.060562827 -0.0040176967 0.39872053 4278190335
0.060480356 -0.0039619282 0.39921051 4278190335
0.060397886 -0.0039061594 0.39970052 4278190335
0.060315419 -0.0038503909 0.4001905 4278190335
0.060232949 -0.0037946224 0.40068048 4278190335
0.060150478 -0.0037388538 0.40117049 4278190335
0.060068008 -0.0036830853 0.40166047 4278190335
0.059985541 -0.0036273168 0.40215045 4278190335
0.05990307 -0.003571548 0.40264046 4278190335
0.0598206 -0.0035157795 0.40313044 4278190335
0.059738129 -0.003460011 0.40362042 4278190335
0.059655663 -0.0034042427 0.4041104 4278190335
0.059573192 -0.0033484742 0.40460041 4278190335
0.059490722 -0.0032927054 0.40509039 4278190335
0.059408251 -0.0032369369 0.40558037 4278190335
0.059325784 -0.0031811683 0.40607035 4278190335
0.059243314 -0.0031253998 0.40656036 4278190335
0.059160843 -0.0030696313 0.40705034 4278190335
0.059078373 -0.0030138628 0.40754032 4278190335
0.058995903 -0.0029580942 0.40803033 4278190335
0.058913436 -0.0029023257 0.40852031 4278190335
0.058830965 -0.0028465572 0.40901029 4278190335
0.058748495 -0.0027907887 0.40950027 4278190335
0.058666024 -0.0027350201 0.40999028 4278190335
0.058583558 -0.0026792516 0.41048026 4278190335
0.058501087 -0.0026234831 0.41097024 4278190335
0.058418617 -0.0025677145 0.41146022 4278190335
0.058336146 -0.0025119456 0.41195023 4278190335
0.058253679 -0.002456177 0.41244021 4278190335
0.058171209 -0.0024004085 0.41293019 4278190335
0.058088738 -0.0023446404 0.4134202 4278190335
0.058006268 -0.0022888719 0.41391018 4278190335
0.057923801 -0.0022331034 0.41440016 4278190335
0.057841331 -0.0021773344 0.41489017 4278190335
0.05775886 -0.0021215659 0.41538015 4278190335
0.05767639 -0.0020657973 0.41587013 4278190335
0.057593923 -0.0020100288 0.41636011 4278190335
0.057511453 -0.0019542603 0.41685012 4278190335
0.057428982 -0.0018984918 0.4173401 4278190335
0.057346512 -0.0018427232 0.41783008 4278190335
0.057264045 -0.0017869547 0.41832006 4278190335
0.057181574 -0.0017311862 0.41881007 4278190335
0.057099104 -0.0016754176 0.41930005 4278190335
0.065346062 -0.0072522722 0.37030122 4294967295
0.065840878 -0.0075868834 0.36736128 4294967295
0.0663357 -0.0079214945 0.36442137 4294967295
0.066830516 -0.0082561057 0.36148143 4294967295
0.067325331 -0.0085907169 0.35854149 4294967295
0.067820147 -0.008925329 0.35560155 4294967295
0.06831497 -0.0092599401 0.35266164 4294967295
0.068809785 -0.0095945513 0.3497217 4294967295
0.0693046 -0.0099291625 0.34678176 4294967295
0.069799423 -0.010263774 0.34384185 4294967295
0.070294239 -0.010598385 0.34090191 4294967295
0.070789054 -0.010932996 0.33796197 4294967295
0.071283869 -0.011267608 0.33502206 4294967295
0.071778692 -0.011602219 0.33208212 4294967295
0.072273508 -0.01193683 0.32914218 4294967295
0.072768323 -0.012271442 0.32620227 4294967295
0.073263139 -0.012606053 0.32326233 4294967295
0.073757961 -0.012940664 0.32032239 4294967295
0.074252777 -0.013275275 0.31738245 4294967295
0.074747592 -0.013609886 0.31444255 4294967295
0.075242415 -0.013944497 0.31150261 4294967295
