# .PCD v0.7 - Point Cloud Data file format
VERSION 0.7
FIELDS x y z rgb
SIZE 4 4 4 4
TYPE F F F U
COUNT 1 1 1 1
WIDTH 1041
HEIGHT 1
VIEWPOINT 0 0 0 1 0 0 0
POINTS 1041
DATA ascii
0.033140637 0.035119578 0.36300001 4278532115
0.034319662 0.035119578 0.36300001 4278532626
0.035498686 0.035119578 0.36300001 4278466833
0.036778755 0.035216328 0.36400002 4278795800
0.037961025 0.035216328 0.36400002 4278598421
0.039143298 0.035216328 0.36400002 4278598421
0.040325571 0.035216328 0.36400002 4278532628
0.041507844 0.035216328 0.36400002 4278730007
0.042690117 0.035216328 0.36400002 4278533398
0.04387239 0.035216328 0.36400002 4278599189
0.045178436 0.035313074 0.36500001 4278401808
0.046363954 0.035313074 0.36500001 4278665494
0.047549479 0.035313074 0.36500001 4278270736
0.048735 0.035313074 0.36500001 4278665496
0.049920518 0.035313074 0.36500001 4278797082
0.051106039 0.035313074 0.36500001 4278533910
0.052291561 0.035313074 0.36500001 4278731289
0.053623598 0.035409823 0.36600003 4278797080
0.054812364 0.035409823 0.36600003 4278797080
0.056001134 0.035409823 0.36600003 4278797080
0.057189904 0.035409823 0.36600003 4278928666
-0.011822936 0.036798988 0.36800003 4280035871
-0.010627672 0.036798988 0.36800003 4279574291
-0.0094067743 0.03669899 0.36700001 4279640084
-0.0081923753 0.036598995 0.36600003 4279771670
-0.0069844704 0.036498994 0.36500001 4279640082
-0.005783062 0.036398999 0.36400002 4279377680
-0.00458815 0.036299001 0.36300001 4279444500
-0.0033903427 0.036099009 0.36100003 4279053842
-0.0022116704 0.035999011 0.36000001 4278923539
-0.0010423897 0.035999011 0.36000001 4278727441
0.00012653845 0.035899013 0.35900003 4278859027
0.0012925711 0.035899013 0.35900003 4278729492
0.0024586036 0.035899013 0.35900003 4278795283
0.0036246362 0.035899013 0.35900003 4278663697
0.0047773244 0.035799015 0.35800001 4278597904
0.0059567015 0.035899013 0.35900003 4278597906
0.0071227346 0.035899013 0.35900003 4278532113
0.0082887672 0.035899013 0.35900003 4278663699
0.0094547998 0.035899013 0.35900003 4278400527
0.010620832 0.035899013 0.35900003 4278532113
0.011786866 0.035899013 0.35900003 4278663699
0.012952897 0.035899013 0.35900003 4278663699
0.014079601 0.035799015 0.35800001 4278597906
0.015242386 0.035799015 0.35800001 4278465552
0.016405171 0.035799015 0.35800001 4278198276
0.017567955 0.035799015 0.35800001 4278792214
0.018730739 0.035799015 0.35800001 4278924568
0.019893523 0.035799015 0.35800001 4278858773
0.021115126 0.035899013 0.35900003 4278197507
0.022281159 0.035899013 0.35900003 4278196228
0.023447191 0.035899013 0.35900003 4278195971
0.024613226 0.035899013 0.35900003 4278195971
0.025851065 0.035999011 0.36000001 4278195971
0.027020345 0.035999011 0.36000001 4278196740
0.028267931 0.036099009 0.36100003 4278263304
0.029440459 0.036099009 0.36100003 4278462218
0.030697789 0.036199003 0.36200002 4278594574
0.031873565 0.036199003 0.36200002 4278792466
0.033140637 0.036299001 0.36300001 4278924566
0.034319662 0.036299001 0.36300001 4278596371
0.035498686 0.036299001 0.36300001 4278531091
0.036778755 0.036398999 0.36400002 4278465298
0.037961025 0.036398999 0.36400002 4278662677
0.039143298 0.036398999 0.36400002 4278662931
0.040325571 0.036398999 0.36400002 4278531345
0.041507844 0.036398999 0.36400002 4278662931
0.042690117 0.036398999 0.36400002 4278400529
0.043992914 0.036498994 0.36500001 4278466835
0.045178436 0.036498994 0.36500001 4278466833
0.046363954 0.036498994 0.36500001 4278401810
0.047549479 0.036498994 0.36500001 4278467603
0.048735 0.036498994 0.36500001 4278533398
0.049920518 0.036498994 0.36500001 4278599191
0.051246058 0.036598995 0.36600003 4278664984
0.052434828 0.036598995 0.36600003 4278599191
0.053623598 0.036598995 0.36600003 4278533396
0.054812364 0.036598995 0.36600003 4278467603
0.056001134 0.036598995 0.36600003 4278862359
0.057346158 0.03669899 0.36700001 4278796566
0.058697678 0.036798988 0.36800003 4278928152
0.060055695 0.036898986 0.36900002 4278928152
0.061254211 0.036898986 0.36900002 4278797080
-0.011822936 0.037994657 0.36800003 4279443736
-0.010627672 0.037994657 0.36800003 4279640600
-0.0094067743 0.03789141 0.36700001 4279903256
-0.0081923753 0.037788164 0.36600003 4279771668
-0.0069844704 0.037684917 0.36500001 4279640082
-0.005783062 0.037581671 0.36400002 4279640852
-0.004575511 0.037375178 0.36200002 4279510291
-0.0033903427 0.037271935 0.36100003 4278856976
-0.0022116704 0.037168685 0.36000001 4279121431
-0.0010423897 0.037168685 0.36000001 4278924820
0.00012653845 0.037065443 0.35900003 4278728211
0.0012925711 0.037065443 0.35900003 4278663699
0.0024586036 0.037065443 0.35900003 4278729492
0.0036246362 0.037065443 0.35900003 4278729492
0.0047773244 0.036962193 0.35800001 4278729492
0.0059401086 0.036962193 0.35800001 4278400527
0.0071028937 0.036962193 0.35800001 4278400527
0.0082887672 0.037065443 0.35900003 4278532113
0.0094547998 0.037065443 0.35900003 4278532115
0.010620832 0.037065443 0.35900003 4278597908
0.011786866 0.037065443 0.35900003 4278597908
0.012952897 0.037065443 0.35900003 4278597908
0.014079601 0.036962193 0.35800001 4278663701
0.015242386 0.036962193 0.35800001 4278792468
0.016405171 0.036962193 0.35800001 4278262792
0.017567955 0.036962193 0.35800001 4278198025
0.018730739 0.036962193 0.35800001 4278858775
0.019949093 0.037065443 0.35900003 4278197513
0.021115126 0.037065443 0.35900003 4278392330
0.022281159 0.037065443 0.35900003 4278522634
0.023447191 0.037065443 0.35900003 4278456841
0.024681784 0.037168685 0.36000001 4278719498
0.025851065 0.037168685 0.36000001 4278719498
0.027020345 0.037168685 0.36000001 4278720011
0.028267931 0.037271935 0.36100003 4278522632
0.029440459 0.037271935 0.36100003 4278522886
0.030697789 0.037375178 0.36200002 4278522886
0.031873565 0.037375178 0.36200002 4278391814
0.033140637 0.037478425 0.36300001 4278260998
0.034319662 0.037478425 0.36300001 4278195712
0.035596479 0.037581671 0.36400002 4278660882
0.036778755 0.037581671 0.36400002 4278195712
0.037961025 0.037581671 0.36400002 4278194688
0.039143298 0.037581671 0.36400002 4278195457
0.040325571 0.037581671 0.36400002 4278195457
0.041621875 0.037684917 0.36500001 4278197253
0.042807397 0.037684917 0.36500001 4278198537
0.043992914 0.037684917 0.36500001 4278331150
0.045178436 0.037684917 0.36500001 4278660628
0.046363954 0.037684917 0.36500001 4278595603
0.047549479 0.037684917 0.36500001 4278727957
0.048868522 0.037788164 0.36600003 4278925336
0.050057288 0.037788164 0.36600003 4278793750
0.051246058 0.037788164 0.36600003 4278662677
0.052434828 0.037788164 0.36600003 4278465552
0.053623598 0.037788164 0.36600003 4278663699
0.054962121 0.03789141 0.36700001 4278663699
0.056154139 0.03789141 0.36700001 4278597906
0.057346158 0.03789141 0.36700001 4278597906
0.058697678 0.037994657 0.36800003 4278532626
0.060055695 0.038097903 0.36900002 4278466833
0.06142021 0.03820115 0.37 4278664212
0.062960461 0.038407642 0.37200001 4278664212
0.064341217 0.038510889 0.37300003 4278730005
0.065728471 0.038614135 0.37400001 4278796568
0.067301206 0.038820628 0.37600002 4278664982
0.068704695 0.038923874 0.377 4278731289
0.07011468 0.039027121 0.37800002 4278862875
0.071531162 0.039130367 0.37900001 4278862875
0.072762154 0.039130367 0.37900001 4278862877
0.073993146 0.039130367 0.37900001 4279256097
-0.011822936 0.03919033 0.36800003 4279772188
-0.010627672 0.03919033 0.36800003 4279837209
-0.0094067743 0.039083831 0.36700001 4279968795
-0.0081923753 0.038977336 0.36600003 4280034842
-0.0069844704 0.038870838 0.36500001 4279771670
-0.0057671745 0.038657848 0.36300001 4279443988
-0.004575511 0.038551353 0.36200002 4279313684
-0.0033903427 0.038444858 0.36100003 4278725392
-0.0022116704 0.038338363 0.36000001 4278924568
-0.0010423897 0.038338363 0.36000001 4278924820
0.00012653845 0.038231868 0.35900003 4278859797
0.0012925711 0.038231868 0.35900003 4278663701
0.0024586036 0.038231868 0.35900003 4278663701
0.0036145397 0.03812537 0.35800001 4278597906
0.0047773244 0.03812537 0.35800001 4278597906
0.0059401086 0.03812537 0.35800001 4278334734
0.0071028937 0.03812537 0.35800001 4278597906
0.0082656788 0.03812537 0.35800001 4278532115
0.0094284629 0.03812537 0.35800001 4278597908
0.010591248 0.03812537 0.35800001 4278597908
0.011754032 0.03812537 0.35800001 4278532115
0.012916816 0.03812537 0.35800001 4278663701
0.014079601 0.03812537 0.35800001 4278597908
0.015242386 0.03812537 0.35800001 4278991129
0.016405171 0.03812537 0.35800001 4278196742
0.017617028 0.038231868 0.35900003 4278989593
0.018783061 0.038231868 0.35900003 4278793752
0.019949093 0.038231868 0.35900003 4278393867
0.021115126 0.038231868 0.35900003 4278785804
0.022281159 0.038231868 0.35900003 4278719498
0.023512503 0.038338363 0.36000001 4278522121
0.024681784 0.038338363 0.36000001 4278720011
0.025851065 0.038338363 0.36000001 4278654218
0.027095402 0.038444858 0.36100003 4278654218
0.028267931 0.038444858 0.36100003 4278720011
0.029522011 0.038551353 0.36200002 4278654218
0.030697789 0.038551353 0.36200002 4278654218
0.031961612 0.038657848 0.36300001 4278785291
0.033140637 0.038657848 0.36300001 4278719498
0.034319662 0.038657848 0.36300001 4278195458
0.035596479 0.038764346 0.36400002 4279055127
0.036778755 0.038764346 0.36400002 4278858775
0.037961025 0.038764346 0.36400002 4278858775
0.039143298 0.038764346 0.36400002 4279120920
0.040436354 0.038870838 0.36500001 4279120920
0.041621875 0.038870838 0.36500001 4278857748
0.042807397 0.038870838 0.36500001 4279515424
0.043992914 0.038870838 0.36500001 4278922517
0.045178436 0.038870838 0.36500001 4279448861
0.046490982 0.038977336 0.36600003 4278922517
0.047679752 0.038977336 0.36600003 4278264587
0.048868522 0.038977336 0.36600003 4278196998
0.050057288 0.038977336 0.36600003 4278195970
0.051246058 0.038977336 0.36600003 4278194432
0.052578092 0.039083831 0.36700001 4278193920
0.05377011 0.039083831 0.36700001 4278195456
0.054962121 0.039083831 0.36700001 4278195713
0.056307152 0.03919033 0.36800003 4278196483
0.057502419 0.03919033 0.36800003 4278198539
0.05885718 0.039296821 0.36900002 4278923541
0.060218446 0.039403316 0.37 4279121431
0.061586212 0.039509814 0.37100002 4278858773
0.062960461 0.039616309 0.37200001 4278398222
0.064341217 0.039722804 0.37300003 4278662677
0.065904215 0.039935797 0.37500003 4278597654
0.067301206 0.040042289 0.37600002 4278532628
0.068704695 0.040148783 0.377 4278401812
0.07011468 0.040255282 0.37800002 4278467605
0.071531162 0.040361777 0.37900001 4278533398
0.072762154 0.040361777 0.37900001 4278796570
0.073993146 0.040361777 0.37900001 4278927386
0.075422622 0.040468272 0.38000003 4279647010
-0.011822936 0.040385999 0.36800003 4279838492
-0.010598792 0.040276252 0.36700001 4279903002
-0.0093811434 0.040166508 0.36600003 4280100381
-0.008169991 0.040056761 0.36500001 4280100381
-0.006965335 0.039947018 0.36400002 4279837979
-0.0057671745 0.039837271 0.36300001 4279510295
-0.004575511 0.039727528 0.36200002 4279183381
-0.0033903427 0.039617784 0.36100003 4278923541
-0.0022116704 0.039508041 0.36000001 4279187224
-0.0010394942 0.039398298 0.35900003 4278727441
0.00012653845 0.039398298 0.35900003 4278859797
0.0012925711 0.039398298 0.35900003 4278926103
0.0024517551 0.039288551 0.35800001 4278597908
0.0036145397 0.039288551 0.35800001 4278663701
0.0047773244 0.039288551 0.35800001 4278597908
0.0059401086 0.039288551 0.35800001 4278597908
0.0071028937 0.039288551 0.35800001 4278334736
0.0082656788 0.039288551 0.35800001 4278597908
0.0094284629 0.039288551 0.35800001 4278729494
0.010591248 0.039288551 0.35800001 4278663701
0.011754032 0.039288551 0.35800001 4278795287
0.012916816 0.039288551 0.35800001 4278663701
0.014079601 0.039288551 0.35800001 4278532115
0.015242386 0.039288551 0.35800001 4279186713
0.016450996 0.039398298 0.35900003 4278195714
0.017617028 0.039398298 0.35900003 4278858775
0.018783061 0.039398298 0.35900003 4278793752
0.019949093 0.039398298 0.35900003 4278392584
0.021115126 0.039398298 0.35900003 4279247123
0.022281159 0.039398298 0.35900003 4278655756
0.023512503 0.039508041 0.36000001 4278655756
0.024681784 0.039508041 0.36000001 4279050514
0.025922874 0.039617784 0.36100003 4278590476
0.027095402 0.039617784 0.36100003 4278787853
0.028267931 0.039617784 0.36100003 4279314967
0.029522011 0.039727528 0.36200002 4278656269
0.030697789 0.039727528 0.36200002 4279248406
0.031961612 0.039837271 0.36300001 4279181846
0.033140637 0.039837271 0.36300001 4278655502
0.034414209 0.039947018 0.36400002 4278328585
0.035596479 0.039947018 0.36400002 4278858261
0.036778755 0.039947018 0.36400002 4278596371
0.037961025 0.039947018 0.36400002 4278464017
0.039250832 0.040056761 0.36500001 4278198793
0.040436354 0.040056761 0.36500001 4278857748
0.041621875 0.040056761 0.36500001 4278924568
0.042807397 0.040056761 0.36500001 4278858775
0.044113446 0.040166508 0.36600003 4278924568
0.045302216 0.040166508 0.36600003 4278858775
0.046490982 0.040166508 0.36600003 4278858775
0.047679752 0.040166508 0.36600003 4278990361
0.048868522 0.040166508 0.36600003 4278989847
0.050194055 0.040276252 0.36700001 4279055640
0.051386073 0.040276252 0.36700001 4279055640
0.052578092 0.040276252 0.36700001 4278989847
0.05377011 0.040276252 0.36700001 4278989847
0.055111885 0.040385999 0.36800003 4279121433
0.056307152 0.040385999 0.36800003 4278923289
0.057658672 0.040495742 0.36900002 4278923287
0.059016682 0.040605485 0.37 4279185689
0.0603812 0.040715229 0.37100002 4278856724
0.061586212 0.040715229 0.37100002 4278856211
0.063129716 0.040934719 0.37300003 4278527246
0.064513713 0.041044462 0.37400001 4278197510
0.065904215 0.04115421 0.37500003 4278661394
0.067301206 0.041263953 0.37600002 4278531091
0.068704695 0.041373696 0.377 4278334482
0.07011468 0.041483443 0.37800002 4278597908
0.071531162 0.041593187 0.37900001 4278400529
0.072762154 0.041593187 0.37900001 4278663701
0.074188381 0.04170293 0.38000003 4278729494
0.075422622 0.04170293 0.38000003 4278792216
-0.011822936 0.041581668 0.36800003 4279969565
-0.010598792 0.041468672 0.36700001 4280297760
-0.0093811434 0.041355681 0.36600003 4280495393
-0.0069461991 0.041016694 0.36300001 4279904026
-0.0057512871 0.040903702 0.36200002 4279641879
-0.0045628715 0.040790711 0.36100003 4279578139
-0.003380951 0.040677715 0.36000001 4279317529
-0.0022116704 0.040677715 0.36000001 4279120918
-0.0010394942 0.040564723 0.35900003 4278728211
0.00012653845 0.040564723 0.35900003 4278728724
0.0012889706 0.040451728 0.35800001 4278795287
0.0024517551 0.040451728 0.35800001 4278730007
0.0036145397 0.040451728 0.35800001 4278532628
0.0047773244 0.040451728 0.35800001 4278532628
0.0059401086 0.040451728 0.35800001 4278335249
0.0071028937 0.040451728 0.35800001 4278664214
0.0082656788 0.040451728 0.35800001 4278466835
0.0094284629 0.040451728 0.35800001 4278466835
0.010591248 0.040451728 0.35800001 4278598421
0.011754032 0.040451728 0.35800001 4278664214
0.012916816 0.040451728 0.35800001 4278663701
0.014079601 0.040451728 0.35800001 4278532115
0.015284963 0.040564723 0.35900003 4278528013
0.016450996 0.040564723 0.35900003 4278328072
0.017617028 0.040564723 0.35900003 4278924568
0.018783061 0.040564723 0.35900003 4279056154
0.019949093 0.040564723 0.35900003 4278458377
0.021115126 0.040564723 0.35900003 4279576858
0.022343224 0.040677715 0.36000001 4278458888
0.023512503 0.040677715 0.36000001 4279117588
0.024681784 0.040677715 0.36000001 4278986004
0.025922874 0.040790711 0.36100003 4278195717
0.027095402 0.040790711 0.36100003 4278459658
0.028346235 0.040903702 0.36200002 4278196999
0.029522011 0.040903702 0.36200002 4278523400
0.03078259 0.041016694 0.36300001 4279051027
0.031961612 0.041016694 0.36300001 4278657039
0.033140637 0.041016694 0.36300001 4278458377
0.034414209 0.04112969 0.36400002 4279052820
0.035596479 0.04112969 0.36400002 4278660880
0.036778755 0.04112969 0.36400002 4278858261
0.038065314 0.041242685 0.36500001 4278197508
0.039250832 0.041242685 0.36500001 4278458377
0.040436354 0.041242685 0.36500001 4278262281
0.041621875 0.041242685 0.36500001 4278265611
0.04292468 0.041355681 0.36600003 4278660369
0.044113446 0.041355681 0.36600003 4278199561
0.045302216 0.041355681 0.36600003 4278989845
0.046490982 0.041355681 0.36600003 4278200329
0.047810022 0.041468672 0.36700001 4278199818
0.04900204 0.041468672 0.36700001 4278529296
0.050194055 0.041468672 0.36700001 4278858773
0.051386073 0.041468672 0.36700001 4278596371
0.052721359 0.041581668 0.36800003 4278530578
0.053916626 0.041581668 0.36800003 4278596371
0.055111885 0.041581668 0.36800003 4278727957
0.056460157 0.04169466 0.36900002 4278596371
0.057814926 0.041807652 0.37 4278793750
0.059016682 0.041807652 0.37 4278530578
0.0603812 0.041920647 0.37100002 4278793750
0.061752211 0.042033639 0.37200001 4278596371
0.063129716 0.042146634 0.37300003 4278727187
0.064513713 0.042259626 0.37400001 4278329097
0.065904215 0.042372622 0.37500003 4278988564
0.067301206 0.042485613 0.37600002 4278727957
0.068704695 0.042598605 0.377 4278465298
0.07011468 0.042711601 0.37800002 4278663447
0.071531162 0.042824596 0.37900001 4278532115
0.072762154 0.042824596 0.37900001 4278400529
0.074188381 0.042937592 0.38000003 4278729494
0.075422622 0.042937592 0.38000003 4278331663
-0.011822936 0.042777337 0.36800003 4279510043
-0.010598792 0.042661093 0.36700001 4280034590
-0.0093555115 0.042428605 0.36500001 4279968795
-0.0081476076 0.042312365 0.36400002 4279969049
-0.0069270642 0.042079877 0.36200002 4279640854
-0.0057353997 0.041963637 0.36100003 4279445270
-0.0045628715 0.041963637 0.36100003 4279381271
-0.003380951 0.041847393 0.36000001 4279251736
-0.0022055269 0.041731153 0.35900003 4279186713
-0.0010394942 0.041731153 0.35900003 4278727957
0.00012618597 0.041614905 0.35800001 4278465298
0.0012889706 0.041614905 0.35800001 4278663701
0.0024517551 0.041614905 0.35800001 4278532628
0.0036145397 0.041614905 0.35800001 4278532628
0.0047773244 0.041614905 0.35800001 4278598421
0.0059401086 0.041614905 0.35800001 4278466835
0.0071028937 0.041614905 0.35800001 4278466835
0.0082656788 0.041614905 0.35800001 4278466835
0.0094284629 0.041614905 0.35800001 4278335249
0.010591248 0.041614905 0.35800001 4278269456
0.011754032 0.041614905 0.35800001 4278335249
0.012916816 0.041614905 0.35800001 4278400529
0.01411893 0.041731153 0.35900003 4278597908
0.015284963 0.041731153 0.35900003 4278197513
0.016450996 0.041731153 0.35900003 4278328072
0.017617028 0.041731153 0.35900003 4278661142
0.018783061 0.041731153 0.35900003 4278924314
0.019949093 0.041731153 0.35900003 4278654984
0.021173943 0.041847393 0.36000001 4278391814
0.022343224 0.041847393 0.36000001 4278523146
0.023512503 0.041847393 0.36000001 4278458377
0.024750346 0.041963637 0.36100003 4278589963
0.025922874 0.041963637 0.36100003 4278392584
0.027095402 0.041963637 0.36100003 4278589963
0.028346235 0.042079877 0.36200002 4278458377
0.029522011 0.042079877 0.36200002 4278984721
0.03078259 0.042196121 0.36300001 4279578139
0.031961612 0.042196121 0.36300001 4279973410
0.033231933 0.042312365 0.36400002 4278458377
0.034414209 0.042312365 0.36400002 4279644957
0.035596479 0.042312365 0.36400002 4279055638
0.036879793 0.042428605 0.36500001 4278197254
0.038065314 0.042428605 0.36500001 4278393095
0.039250832 0.042428605 0.36500001 4278654732
0.040436354 0.042428605 0.36500001 4278523916
0.04173591 0.042544849 0.36600003 4278396173
0.04292468 0.042544849 0.36600003 4278989847
0.044113446 0.042544849 0.36600003 4278462990
0.045425989 0.042661093 0.36700001 4278593293
0.046618003 0.042661093 0.36700001 4278791955
0.047810022 0.042661093 0.36700001 4278923541
0.04900204 0.042661093 0.36700001 4278264841
0.050194055 0.042661093 0.36700001 4278264587
0.051526092 0.042777337 0.36800003 4278660115
0.052721359 0.042777337 0.36800003 4278396943
0.053916626 0.042777337 0.36800003 4278199820
0.055261642 0.042893577 0.36900002 4278199820
0.056460157 0.042893577 0.36900002 4278197762
0.057814926 0.043009818 0.37 4278660882
0.059176192 0.043126062 0.37100002 4278398224
0.060543951 0.043242306 0.37200001 4278266124
0.061918214 0.043358549 0.37300003 4278858773
0.063129716 0.043358549 0.37300003 4278727187
0.064513713 0.04347479 0.37400001 4278196996
0.065904215 0.043591034 0.37500003 4279120666
0.067301206 0.043707278 0.37600002 4278728470
0.068704695 0.043823518 0.377 4278794263
0.07011468 0.043939762 0.37800002 4278662677
0.071531162 0.044056002 0.37900001 4278662677
0.072762154 0.044056002 0.37900001 4278794263
0.073993146 0.044056002 0.37900001 4278794263
0.075422622 0.04417225 0.38000003 4278594837
-0.0081252242 0.043375544 0.36300001 4279969565
-0.0069270642 0.043256052 0.36200002 4279837979
-0.0057353997 0.043136563 0.36100003 4279379990
-0.0045502316 0.043017067 0.36000001 4279381271
-0.0033715598 0.042897578 0.35900003 4279383322
-0.0022055269 0.042897578 0.35900003 4279055640
-0.0010365986 0.042778086 0.35800001 4278793750
0.00012618597 0.042778086 0.35800001 4278794263
0.0012889706 0.042778086 0.35800001 4278861080
0.0024449066 0.042658594 0.35700002 4278466835
0.0036044433 0.042658594 0.35700002 4278532628
0.0047639804 0.042658594 0.35700002 4278598421
0.0059235166 0.042658594 0.35700002 4278730007
0.0070830532 0.042658594 0.35700002 4278532628
0.0082656788 0.042778086 0.35800001 4278466835
0.0094284629 0.042778086 0.35800001 4278598421
0.010591248 0.042778086 0.35800001 4278466581
0.011754032 0.042778086 0.35800001 4278466581
0.012916816 0.042778086 0.35800001 4278532628
0.01411893 0.042897578 0.35900003 4278400529
0.015284963 0.042897578 0.35900003 4278987029
0.016450996 0.042897578 0.35900003 4279183894
0.017617028 0.042897578 0.35900003 4278990107
0.018783061 0.042897578 0.35900003 4278463763
0.020004662 0.043017067 0.36000001 4278720779
0.021173943 0.043017067 0.36000001 4278720265
0.022343224 0.043017067 0.36000001 4278785291
0.023512503 0.043017067 0.36000001 4278785291
0.024750346 0.043136563 0.36100003 4278719498
0.025922874 0.043136563 0.36100003 4278719498
0.027170457 0.043256052 0.36200002 4278654218
0.028346235 0.043256052 0.36200002 4278654218
0.029522011 0.043256052 0.36200002 4278654472
0.03078259 0.043375544 0.36300001 4278654472
0.031961612 0.043375544 0.36300001 4278391814
0.033231933 0.043495037 0.36400002 4278523400
0.034414209 0.043495037 0.36400002 4279119637
0.035596479 0.043495037 0.36400002 4279055125
0.036879793 0.043614529 0.36500001 4278262277
0.038065314 0.043614529 0.36500001 4278589191
0.039250832 0.043614529 0.36500001 4278588939
0.04054714 0.043734021 0.36600003 4279248406
0.04173591 0.043734021 0.36600003 4278330380
0.04292468 0.043734021 0.36600003 4278790931
0.044113446 0.043734021 0.36600003 4278264841
0.045425989 0.04385351 0.36700001 4278856978
0.046618003 0.04385351 0.36700001 4278725392
0.047810022 0.04385351 0.36700001 4278397197
0.04900204 0.04385351 0.36700001 4278660369
0.050330825 0.043973006 0.36800003 4278725908
0.051526092 0.043973006 0.36800003 4278396175
0.052721359 0.043973006 0.36800003 4278198283
0.054063134 0.044092495 0.36900002 4278593041
0.055261642 0.044092495 0.36900002 4278658832
0.056613166 0.044211987 0.37 4279251736
0.057971187 0.04433148 0.37100002 4278461966
0.059176192 0.04433148 0.37100002 4278725140
0.060543951 0.044450969 0.37200001 4278922519
0.061918214 0.044570465 0.37300003 4278727187
0.063298963 0.044689953 0.37400001 4278661394
0.064686216 0.044809449 0.37500003 4278195712
0.065904215 0.044809449 0.37500003 4278857748
0.067301206 0.044928938 0.37600002 4278465552
0.068704695 0.045048431 0.377 4278728724
0.07011468 0.045167923 0.37800002 4278465298
0.071531162 0.045287412 0.37900001 4278794263
0.072762154 0.045287412 0.37900001 4278662677
0.073993146 0.045287412 0.37900001 4278728470
0.075224139 0.045287412 0.37900001 4279318560
-0.0093042487 0.044554967 0.36300001 4284380776
-0.0081028407 0.044432227 0.36200002 4284511081
-0.0069079287 0.044309489 0.36100003 4279575834
-0.0057195118 0.044186745 0.36000001 4279380760
-0.0045375922 0.044064008 0.35900003 4279381785
-0.0033715598 0.044064008 0.35900003 4279778848
-0.0021993832 0.043941263 0.35800001 4279056152
-0.0010365986 0.043941263 0.35800001 4278728470
0.00012618597 0.043941263 0.35800001 4278795033
0.0012853701 0.043818522 0.35700002 4278795287
0.0024449066 0.043818522 0.35700002 4278664214
0.0036044433 0.043818522 0.35700002 4278598421
0.0047639804 0.043818522 0.35700002 4278532628
0.0059235166 0.043818522 0.35700002 4278598421
0.0070830532 0.043818522 0.35700002 4278598421
0.0082425904 0.043818522 0.35700002 4278598421
0.0094284629 0.043941263 0.35800001 4278664214
0.010591248 0.043941263 0.35800001 4278466835
0.011754032 0.043941263 0.35800001 4278532628
0.012916816 0.043941263 0.35800001 4278532115
0.01411893 0.044064008 0.35900003 4278268173
0.015284963 0.044064008 0.35900003 4278593806
0.016450996 0.044064008 0.35900003 4278197253
0.017617028 0.044064008 0.35900003 4278793750
0.018835381 0.044186745 0.36000001 4278859543
0.020004662 0.044186745 0.36000001 4278856211
0.021173943 0.044186745 0.36000001 4278656267
0.022343224 0.044186745 0.36000001 4278524170
0.023577817 0.044309489 0.36100003 4278391814
0.024750346 0.044309489 0.36100003 4278522886
0.025922874 0.044309489 0.36100003 4278522886
0.027170457 0.044432227 0.36200002 4278522632
0.028346235 0.044432227 0.36200002 4278720013
0.029603563 0.044554967 0.36300001 4278785291
0.03078259 0.044554967 0.36300001 4278785291
0.031961612 0.044554967 0.36300001 4278719498
0.033231933 0.044677708 0.36400002 4278522632
0.034414209 0.044677708 0.36400002 4279185689
0.035694271 0.044800449 0.36500001 4279252506
0.036879793 0.044800449 0.36500001 4279382555
0.038065314 0.044800449 0.36500001 4279381273
0.039250832 0.044800449 0.36500001 4279249687
0.04054714 0.044923194 0.36600003 4279250453
0.04173591 0.044923194 0.36600003 4278857748
0.04292468 0.044923194 0.36600003 4279120920
0.044233974 0.045045931 0.36700001 4278858261
0.045425989 0.045045931 0.36700001 4278858261
0.046618003 0.045045931 0.36700001 4278660882
0.047810022 0.045045931 0.36700001 4279055127
0.049135566 0.045168675 0.36800003 4278858775
0.050330825 0.045168675 0.36800003 4278990361
0.051526092 0.045168675 0.36800003 4278792468
0.052721359 0.045168675 0.36800003 4278791955
0.054063134 0.045291413 0.36900002 4278923287
0.055261642 0.045291413 0.36900002 4278198282
0.056613166 0.045414153 0.37 4278198280
0.057971187 0.045536898 0.37100002 4279185689
0.059335694 0.045659635 0.37200001 4278197768
0.060543951 0.045659635 0.37200001 4278198283
0.061918214 0.04578238 0.37300003 4278990359
0.063298963 0.045905117 0.37400001 4278990359
0.064686216 0.046027862 0.37500003 4278195968
0.065904215 0.046027862 0.37500003 4278858261
0.067301206 0.046150602 0.37600002 4278793752
0.068704695 0.04627334 0.377 4278531091
0.07011468 0.046396084 0.37800002 4278531091
0.071342431 0.046396084 0.37800002 4278794517
0.072762154 0.046518821 0.37900001 4278531345
0.073993146 0.046518821 0.37900001 4278925849
0.075224139 0.046518821 0.37900001 4278857496
0.076455131 0.046518821 0.37900001 4285039733
-0.0080804573 0.045482416 0.36100003 4283854947
-0.0068887929 0.045356423 0.36000001 4284380008
-0.0057036243 0.045230437 0.35900003 4279380508
-0.0045375922 0.045230437 0.35900003 4279578654
-0.0033715598 0.045230437 0.35900003 4279252252
-0.0021993832 0.045104444 0.35800001 4279253017
-0.0010365986 0.045104444 0.35800001 4279188508
0.0001258335 0.044978455 0.35700002 4279188762
0.0012853701 0.044978455 0.35700002 4278992666
0.0024449066 0.044978455 0.35700002 4278598421
0.0036044433 0.044978455 0.35700002 4278598421
0.0047639804 0.044978455 0.35700002 4278532628
0.0059235166 0.044978455 0.35700002 4278532628
0.0070830532 0.044978455 0.35700002 4278664214
0.0082425904 0.044978455 0.35700002 4278466835
0.009402127 0.044978455 0.35700002 4278598421
0.010591248 0.045104444 0.35800001 4278730007
0.011754032 0.045104444 0.35800001 4278598421
0.012916816 0.045104444 0.35800001 4278728724
0.01411893 0.045230437 0.35900003 4278268173
0.015284963 0.045230437 0.35900003 4278528013
0.016450996 0.045230437 0.35900003 4278264841
0.017617028 0.045230437 0.35900003 4278926103
0.018835381 0.045356423 0.36000001 4278794517
0.020004662 0.045356423 0.36000001 4278728724
0.021173943 0.045356423 0.36000001 4279056152
0.022405289 0.045482416 0.36100003 4278990359
0.023577817 0.045482416 0.36100003 4279187224
0.024750346 0.045482416 0.36100003 4279186711
0.025994683 0.045608405 0.36200002 4279252504
0.027170457 0.045608405 0.36200002 4279383322
0.028424539 0.045734394 0.36300001 4279843360
0.029603563 0.045734394 0.36300001 4279579934
0.03078259 0.045734394 0.36300001 4279184406
0.032049663 0.045860387 0.36400002 4279513371
0.033231933 0.045860387 0.36400002 4279579164
0.034414209 0.045860387 0.36400002 4278988310
0.035694271 0.045986373 0.36500001 4278461966
0.036879793 0.045986373 0.36500001 4278196740
0.038065314 0.045986373 0.36500001 4278195969
0.039250832 0.045986373 0.36500001 4278195458
0.04054714 0.046112366 0.36600003 4278195969
0.04173591 0.046112366 0.36600003 4278194432
0.04292468 0.046112366 0.36600003 4278195200
0.044233974 0.046238355 0.36700001 4278195712
0.045425989 0.046238355 0.36700001 4278196740
0.046618003 0.046238355 0.36700001 4278329097
0.047810022 0.046238355 0.36700001 4278593039
0.049135566 0.046364348 0.36800003 4278593806
0.050330825 0.046364348 0.36800003 4278726162
0.051526092 0.046364348 0.36800003 4279120920
0.052864619 0.046490334 0.36900002 4278857748
0.054063134 0.046490334 0.36900002 4279055640
0.055261642 0.046490334 0.36900002 4279121433
0.056613166 0.046616323 0.37 4278989847
0.057971187 0.046742316 0.37100002 4278989847
0.059335694 0.046868306 0.37200001 4278989847
0.060543951 0.046868306 0.37200001 4278989847
0.061918214 0.046994295 0.37300003 4278859543
0.063298963 0.047120284 0.37400001 4278793750
0.064686216 0.047246277 0.37500003 4278198024
0.065904215 0.047246277 0.37500003 4279055640
0.067301206 0.047372267 0.37600002 4278860058
0.068704695 0.047498256 0.377 4278728472
0.07011468 0.047624245 0.37800002 4278728470
0.071342431 0.047624245 0.37800002 4278860056
0.072762154 0.047750235 0.37900001 4278728470
0.073993146 0.047750235 0.37900001 4278925849
0.075224139 0.047750235 0.37900001 4280237866
0.076455131 0.047750235 0.37900001 4285170292
-0.0068887929 0.046526097 0.36000001 4283789154
-0.0057036243 0.046396859 0.35900003 4283854434
-0.0045375922 0.046396859 0.35900003 4283065431
-0.0033621681 0.046267621 0.35800001 4278724888
-0.0021993832 0.046267621 0.35800001 4279252256
-0.0010365986 0.046267621 0.35800001 4279187226
0.0001258335 0.046138383 0.35700002 4279516705
0.0012853701 0.046138383 0.35700002 4279189023
0.0024449066 0.046138383 0.35700002 4278795035
0.0036044433 0.046138383 0.35700002 4278598169
0.0047639804 0.046138383 0.35700002 4278795546
0.0059235166 0.046138383 0.35700002 4278598167
0.0070830532 0.046138383 0.35700002 4278532374
0.0082425904 0.046138383 0.35700002 4278663960
0.009402127 0.046138383 0.35700002 4278598167
0.010591248 0.046267621 0.35800001 4278597654
0.011754032 0.046267621 0.35800001 4278597654
0.012916816 0.046267621 0.35800001 4278663701
0.01411893 0.046396859 0.35900003 4278663701
0.015284963 0.046396859 0.35900003 4278925849
0.016450996 0.046396859 0.35900003 4278991129
0.017666101 0.046526097 0.36000001 4278925590
0.018835381 0.046526097 0.36000001 4278794517
0.020004662 0.046526097 0.36000001 4278926103
0.021173943 0.046526097 0.36000001 4278794517
0.022405289 0.046655338 0.36100003 4278662931
0.023577817 0.046655338 0.36100003 4278794517
0.024818907 0.046784576 0.36200002 4278794004
0.025994683 0.046784576 0.36200002 4278991383
0.027170457 0.046784576 0.36200002 4278991383
0.028424539 0.046913814 0.36300001 4278859797
0.029603563 0.046913814 0.36300001 4278794004
0.03086739 0.047043055 0.36400002 4279057176
0.032049663 0.047043055 0.36400002 4279122199
0.033231933 0.047043055 0.36400002 4278924820
0.034414209 0.047043055 0.36400002 4278924566
0.035694271 0.047172293 0.36500001 4278924566
0.036879793 0.047172293 0.36500001 4278858773
0.038065314 0.047172293 0.36500001 4278990359
0.039250832 0.047172293 0.36500001 4279055638
0.04054714 0.047301535 0.36600003 4279253017
0.04173591 0.047301535 0.36600003 4279055640
0.04292468 0.047301535 0.36600003 4279318812
0.044233974 0.047430772 0.36700001 4279187226
0.045425989 0.047430772 0.36700001 4279055127
0.046618003 0.047430772 0.36700001 4279383322
0.047810022 0.047430772 0.36700001 4279317529
0.049135566 0.047560014 0.36800003 4279054103
0.050330825 0.047560014 0.36800003 4279053590
0.051526092 0.047560014 0.36800003 4279052820
0.052721359 0.047560014 0.36800003 4278329097
0.054063134 0.047689252 0.36900002 4278195969
0.055261642 0.047689252 0.36900002 4278194944
0.056613166 0.047818489 0.37 4278194176
0.057971187 0.047947731 0.37100002 4278195200
0.059335694 0.048076969 0.37200001 4278194176
0.060543951 0.048076969 0.37200001 4278194688
0.061918214 0.04820621 0.37300003 4278196228
0.063298963 0.048335448 0.37400001 4278195457
0.064686216 0.048464689 0.37500003 4278529042
0.065904215 0.048464689 0.37500003 4278925338
0.067301206 0.048593923 0.37600002 4278728470
0.068704695 0.048723161 0.377 4278662677
0.06992919 0.048723161 0.377 4278860056
0.071342431 0.048852403 0.37800002 4278794263
0.072570167 0.048852403 0.37800002 4278860056
0.073993146 0.04898164 0.37900001 4278991129
0.075224139 0.04898164 0.37900001 4285039987
0.076455131 0.04898164 0.37900001 4285038960
-0.0057036243 0.047563292 0.35900003 4283657055
-0.0045249527 0.047430802 0.35800001 4284117606
-0.0033621681 0.047430802 0.35800001 4284052326
-0.0021993832 0.047430802 0.35800001 4284381552
-0.0010365986 0.047430802 0.35800001 4280830266
0.0001258335 0.047298312 0.35700002 4279185439
0.0012853701 0.047298312 0.35700002 4279120670
0.0024449066 0.047298312 0.35700002 4279515941
0.0036044433 0.047298312 0.35700002 4279319844
0.0047639804 0.047298312 0.35700002 4279254051
0.0059235166 0.047298312 0.35700002 4279122976
0.0070830532 0.047298312 0.35700002 4279188769
0.0082425904 0.047298312 0.35700002 4278991644
0.009402127 0.047298312 0.35700002 4278991644
0.010591248 0.047430802 0.35800001 4278860058
0.011754032 0.047430802 0.35800001 4279123230
0.012916816 0.047430802 0.35800001 4279189021
0.01411893 0.047563292 0.35900003 4278991642
0.015284963 0.047563292 0.35900003 4278991644
0.016450996 0.047563292 0.35900003 4279189023
0.017666101 0.047695778 0.36000001 4279189021
0.018835381 0.047695778 0.36000001 4278860056
0.020004662 0.047695778 0.36000001 4278925849
0.02123276 0.047828268 0.36100003 4278991642
0.022405289 0.047828268 0.36100003 4278860310
0.023577817 0.047828268 0.36100003 4278662931
0.024818907 0.047960754 0.36200002 4278728211
0.025994683 0.047960754 0.36200002 4278794004
0.027245512 0.048093241 0.36300001 4278859797
0.028424539 0.048093241 0.36300001 4278859797
0.029685117 0.048225731 0.36400002 4278859797
0.03086739 0.048225731 0.36400002 4278727957
0.032049663 0.048225731 0.36400002 4278728470
0.033231933 0.048225731 0.36400002 4278728470
0.03450875 0.048358217 0.36500001 4278860056
0.035694271 0.048358217 0.36500001 4278662677
0.036879793 0.048358217 0.36500001 4278860056
0.038065314 0.048358217 0.36500001 4278794263
0.03935837 0.048490711 0.36600003 4278794263
0.04054714 0.048490711 0.36600003 4278991642
0.04173591 0.048490711 0.36600003 4278728470
0.04292468 0.048490711 0.36600003 4278662677
0.044233974 0.048623197 0.36700001 4278728470
0.045425989 0.048623197 0.36700001 4278794263
0.046618003 0.048623197 0.36700001 4278860056
0.047810022 0.048623197 0.36700001 4278596371
0.049135566 0.048755687 0.36800003 4278727957
0.050330825 0.048755687 0.36800003 4278991129
0.051526092 0.048755687 0.36800003 4278991129
0.052721359 0.048755687 0.36800003 4278925336
0.054063134 0.048888173 0.36900002 4279056152
0.055261642 0.048888173 0.36900002 4279121945
0.056613166 0.049020659 0.37 4278990359
0.057971187 0.049153149 0.37100002 4278924566
0.059176192 0.049153149 0.37100002 4279121431
0.060543951 0.049285635 0.37200001 4279120918
0.061918214 0.049418125 0.37300003 4279185689
0.063298963 0.049550612 0.37400001 4279054103
0.064513713 0.049550612 0.37400001 4278990361
0.065904215 0.049683105 0.37500003 4278662679
0.067301206 0.049815591 0.37600002 4278728470
0.068704695 0.049948078 0.377 4278860310
0.06992919 0.049948078 0.377 4278860310
0.071342431 0.050080568 0.37800002 4278794517
0.072570167 0.050080568 0.37800002 4278991129
0.073797919 0.050080568 0.37800002 4279252252
0.075224139 0.050213054 0.37900001 4284906350
0.076455131 0.050213054 0.37900001 4285103729
-0.0045249527 0.048593976 0.35800001 4284117606
-0.0033621681 0.048593976 0.35800001 4284447084
-0.0021993832 0.048593976 0.35800001 4284710256
-0.0010365986 0.048593976 0.35800001 4284776049
0.0001258335 0.048458241 0.35700002 4284710770
0.0012853701 0.048458241 0.35700002 4284842356
0.0024449066 0.048458241 0.35700002 4285237114
0.0036044433 0.048458241 0.35700002 4284644977
0.0047506355 0.048322503 0.35600001 4283066715
0.0059235166 0.048458241 0.35700002 4281356608
0.0070830532 0.048458241 0.35700002 4280502069
0.0082425904 0.048458241 0.35700002 4279252002
0.009402127 0.048458241 0.35700002 4278857244
0.010591248 0.048593976 0.35800001 4278660378
0.011754032 0.048593976 0.35800001 4278857757
0.012952897 0.048729714 0.35900003 4278858525
0.01411893 0.048729714 0.35900003 4278859293
0.015284963 0.048729714 0.35900003 4278925086
0.01649682 0.048865452 0.36000001 4279254051
0.017666101 0.048865452 0.36000001 4279056670
0.018835381 0.048865452 0.36000001 4279056670
0.02006023 0.049001191 0.36100003 4279254049
0.02123276 0.049001191 0.36100003 4278990877
0.022405289 0.049001191 0.36100003 4279188510
0.023643129 0.049136925 0.36200002 4279188510
0.024818907 0.049136925 0.36200002 4279254303
0.02606649 0.049272664 0.36300001 4279188510
0.027245512 0.049272664 0.36300001 4279188762
0.028502844 0.049408402 0.36400002 4279057176
0.029685117 0.049408402 0.36400002 4279057176
0.03086739 0.049408402 0.36400002 4278925336
0.032049663 0.049408402 0.36400002 4278925851
0.033323228 0.049544137 0.36500001 4278991644
0.03450875 0.049544137 0.36500001 4278860058
0.035694271 0.049544137 0.36500001 4278794265
0.036879793 0.049544137 0.36500001 4278794263
0.038065314 0.049544137 0.36500001 4278860056
0.03935837 0.049679875 0.36600003 4278794263
0.04054714 0.049679875 0.36600003 4278794263
0.04173591 0.049679875 0.36600003 4278860056
0.04292468 0.049679875 0.36600003 4278662677
0.044233974 0.049815614 0.36700001 4278794263
0.045425989 0.049815614 0.36700001 4278728470
0.046618003 0.049815614 0.36700001 4278794263
0.047810022 0.049815614 0.36700001 4278794263
0.049135566 0.049951352 0.36800003 4278860056
0.050330825 0.049951352 0.36800003 4278925336
0.051526092 0.049951352 0.36800003 4278794263
0.052721359 0.049951352 0.36800003 4278794263
0.054063134 0.050087087 0.36900002 4278860056
0.055261642 0.050087087 0.36900002 4278991642
0.056613166 0.050222825 0.37 4278925849
0.057814926 0.050222825 0.37 4278794263
0.059176192 0.050358564 0.37100002 4278991383
0.060543951 0.050494298 0.37200001 4278991383
0.061918214 0.050630037 0.37300003 4278925590
0.063129716 0.050630037 0.37300003 4279057176
0.064513713 0.050765775 0.37400001 4278859543
0.065904215 0.050901514 0.37500003 4278794263
0.067301206 0.051037248 0.37600002 4278860056
0.068522453 0.051037248 0.37600002 4278860056
0.06992919 0.051172987 0.377 4278860056
0.071153685 0.051172987 0.377 4278991642
0.072570167 0.051308725 0.37800002 4278923291
0.073797919 0.051308725 0.37800002 4284908917
0.075224139 0.05144446 0.37900001 4285105012
0.076455131 0.05144446 0.37900001 4285301878
0.012952897 0.049896147 0.35900003 4285303159
0.01411893 0.049896147 0.35900003 4285434743
0.015284963 0.049896147 0.35900003 4285040503
0.01649682 0.05003513 0.36000001 4285040505
0.017666101 0.05003513 0.36000001 4284317295
0.018835381 0.05003513 0.36000001 4283331170
0.02006023 0.050174121 0.36100003 4282146378
0.02123276 0.050174121 0.36100003 4281027897
0.022405289 0.050174121 0.36100003 4280435247
0.023643129 0.050313104 0.36200002 4279448352
0.024818907 0.050313104 0.36200002 4278660632
0.02606649 0.050452087 0.36300001 4278792218
0.027320571 0.050591078 0.36400002 4278990109
0.028502844 0.050591078 0.36400002 4278726937
0.029685117 0.050591078 0.36400002 4279186972
0.03086739 0.050591078 0.36400002 4279186972
0.032137711 0.050730061 0.36500001 4279450144
0.033323228 0.050730061 0.36500001 4279516451
0.03450875 0.050730061 0.36500001 4279121693
0.035694271 0.050730061 0.36500001 4279319072
0.036879793 0.050730061 0.36500001 4279121947
0.038169604 0.050869051 0.36600003 4279385119
0.03935837 0.050869051 0.36600003 4279121947
0.04054714 0.050869051 0.36600003 4279187740
0.04173591 0.050869051 0.36600003 4278991131
0.04292468 0.050869051 0.36600003 4279056924
0.044233974 0.051008034 0.36700001 4278991129
0.045425989 0.051008034 0.36700001 4279254301
0.046618003 0.051008034 0.36700001 4278991129
0.047810022 0.051008034 0.36700001 4279188508
0.049135566 0.051147025 0.36800003 4279319324
0.050330825 0.051147025 0.36800003 4279121947
0.051526092 0.051147025 0.36800003 4279187740
0.052721359 0.051147025 0.36800003 4279187740
0.053916626 0.051147025 0.36800003 4279121945
0.055261642 0.051286008 0.36900002 4279385117
0.056460157 0.051286008 0.36900002 4279188508
0.057814926 0.051424995 0.37 4279188508
0.059176192 0.051563982 0.37100002 4278991129
0.060543951 0.051702969 0.37200001 4278859543
0.061752211 0.051702969 0.37200001 4278925336
0.063129716 0.051841956 0.37300003 4279254301
0.064513713 0.051980942 0.37400001 4279319324
0.065904215 0.052119929 0.37500003 4279121947
0.067122221 0.052119929 0.37500003 4279187740
0.068522453 0.052258916 0.37600002 4279121947
0.06992919 0.052397899 0.377 4279186972
0.071153685 0.052397899 0.377 4279909416
0.072570167 0.052536886 0.37800002 4285236600
0.073797919 0.052536886 0.37800002 4285105014
0.075224139 0.052675873 0.37900001 4285170292
0.026138298 0.051773753 0.36400002 4285039733
0.027320571 0.051773753 0.36400002 4285105526
0.028502844 0.051773753 0.36400002 4285434491
0.029685117 0.051773753 0.36400002 4285237112
0.030952191 0.051915988 0.36500001 4285105526
0.032137711 0.051915988 0.36500001 4284711538
0.033323228 0.051915988 0.36500001 4284448366
0.03450875 0.051915988 0.36500001 4284053862
0.035694271 0.051915988 0.36500001 4283132760
0.036879793 0.051915988 0.36500001 4282408783
0.038169604 0.052058224 0.36600003 4281620034
0.03935837 0.052058224 0.36600003 4280568116
0.04054714 0.052058224 0.36600003 4280568116
0.04173591 0.052058224 0.36600003 4280502323
0.04292468 0.052058224 0.36600003 4280568116
0.044233974 0.052200459 0.36700001 4280239151
0.045425989 0.052200459 0.36700001 4280173358
0.046618003 0.052200459 0.36700001 4280567346
0.047810022 0.052200459 0.36700001 4280698932
0.049135566 0.052342698 0.36800003 4280764212
0.050330825 0.052342698 0.36800003 4280698419
0.051526092 0.052342698 0.36800003 4280238899
0.052721359 0.052342698 0.36800003 4280567862
0.053916626 0.052342698 0.36800003 4280698932
0.055111885 0.052342698 0.36800003 4280830518
0.056460157 0.05248493 0.36900002 4281027897
0.057658672 0.05248493 0.36900002 4281093690
0.059176192 0.052769404 0.37100002 4280633909
0.0603812 0.052769404 0.37100002 4281423171
0.061752211 0.052911635 0.37200001 4281553726
0.063129716 0.053053875 0.37300003 4281881921
0.064513713 0.053196106 0.37400001 4282210886
0.065904215 0.053338345 0.37500003 4282539853
0.067122221 0.053338345 0.37500003 4282869588
0.068522453 0.05348058 0.37600002 4283790690
0.06992919 0.053622812 0.377 4285565826
0.071153685 0.053622812 0.377 4284776310
0.072570167 0.053765051 0.37800002 4285170294
0.073797919 0.053765051 0.37800002 4285236087
0.026138298 0.052956425 0.36400002 4284907633
0.027320571 0.052956425 0.36400002 4285170292
0.028502844 0.052956425 0.36400002 4285170292
0.029685117 0.052956425 0.36400002 4285038706
0.030952191 0.053101905 0.36500001 4285170292
0.032137711 0.053101905 0.36500001 4285170805
0.033323228 0.053101905 0.36500001 4285105012
0.03450875 0.053101905 0.36500001 4284907633
0.035694271 0.053101905 0.36500001 4284907633
0.036879793 0.053101905 0.36500001 4284842354
0.038169604 0.053247392 0.36600003 4284710768
0.03935837 0.053247392 0.36600003 4284448366
0.04054714 0.053247392 0.36600003 4284579952
0.04173591 0.053247392 0.36600003 4284645745
0.049135566 0.053538363 0.36800003 4284973940
0.050330825 0.053538363 0.36800003 4284842354
0.051526092 0.053538363 0.36800003 4284776561
0.052721359 0.053538363 0.36800003 4284973940
0.053916626 0.053538363 0.36800003 4284842354
0.055111885 0.053538363 0.36800003 4284842608
0.056460157 0.053683847 0.36900002 4284973680
0.057658672 0.053683847 0.36900002 4284973426
0.059176192 0.053974815 0.37100002 4285105012
0.0603812 0.053974815 0.37100002 4285105012
0.061752211 0.054120298 0.37200001 4285170805
0.063129716 0.054265786 0.37300003 4284973426
0.064513713 0.05441127 0.37400001 4284973426
0.065904215 0.054556757 0.37500003 4285105012
0.067122221 0.054556757 0.37500003 4285170805
0.068522453 0.054702237 0.37600002 4285170805
0.06992919 0.054847721 0.377 4285170805
0.071153685 0.054847721 0.377 4285236085
0.072570167 0.054993208 0.37800002 4285366901
0.073797919 0.054993208 0.37800002 4285432694
0.029605696 0.041698039 0.3644788 4294967295
0.029605696 0.041698039 0.3644788 4294901760
0.029605696 0.041698039 0.36497879 4294901760
0.029605696 0.041698039 0.36547878 4294901760
0.029605696 0.041698039 0.36597881 4294901760
0.029605696 0.041698039 0.3664788 4294901760
0.029605696 0.041698039 0.36697879 4294901760
0.029605696 0.041698039 0.36747879 4294901760
0.029605696 0.041698039 0.36797881 4294901760
0.029605696 0.041698039 0.3684788 4294901760
0.029605696 0.041698039 0.3689788 4294901760
0.029605696 0.041698039 0.36947879 4294901760
0.029605696 0.041698039 0.36997879 4294901760
0.029605696 0.041698039 0.37047881 4294901760
0.029605696 0.041698039 0.3709788 4294901760
0.029605696 0.041698039 0.3714788 4294901760
0.029605696 0.041698039 0.37197879 4294901760
0.029605696 0.041698039 0.37247878 4294901760
0.029605696 0.041698039 0.37297881 4294901760
0.029605696 0.041698039 0.3734788 4294901760
0.029605696 0.041698039 0.37397879 4294901760
0.029605696 0.041698039 0.37447879 4294901760
0.029605696 0.041698039 0.37497881 4294901760
0.029605696 0.041698039 0.3754788 4294901760
0.029605696 0.041698039 0.3759788 4294901760
0.029605696 0.041698039 0.37647879 4294901760
0.029605696 0.041698039 0.37697881 4294901760
0.029605696 0.041698039 0.37747881 4294901760
0.029605696 0.041698039 0.3779788 4294901760
0.029605696 0.041698039 0.3784788 4294901760
0.029605696 0.041698039 0.37897879 4294901760
0.029605696 0.041698039 0.37947881 4294901760
0.029605696 0.041698039 0.37997881 4294901760
0.029605696 0.041698039 0.3804788 4294901760
0.029605696 0.041698039 0.38097879 4294901760
0.029605696 0.041698039 0.38147879 4294901760
0.029605696 0.041698039 0.38197881 4294901760
0.029605696 0.041698039 0.3824788 4294901760
0.029605696 0.041698039 0.3829788 4294901760
0.029605696 0.041698039 0.38347879 4294901760
0.029605696 0.041698039 0.38397881 4294901760
0.029605696 0.041698039 0.38447881 4294901760
0.029605696 0.041698039 0.3849788 4294901760
0.029605696 0.041698039 0.38547879 4294901760
0.029605696 0.041698039 0.38597882 4294901760
0.029605696 0.041698039 0.38647881 4294901760
0.029605696 0.041698039 0.38697881 4294901760
0.029605696 0.041698039 0.3874788 4294901760
0.029605696 0.041698039 0.38797879 4294901760
0.029605696 0.041698039 0.38847882 4294901760
0.029605696 0.041698039 0.38897881 4294901760
0.029605696 0.041698039 0.3894788 4294901760
0.029605696 0.041698039 0.3899788 4294901760
0.029605696 0.041698039 0.39047879 4294901760
0.029605696 0.041698039 0.39097881 4294901760
0.029605696 0.041698039 0.39147881 4294901760
0.029605696 0.041698039 0.3919788 4294901760
0.029605696 0.041698039 0.39247879 4294901760
0.029605696 0.041698039 0.39297879 4294901760
0.029605696 0.041698039 0.39347881 4294901760
0.029605696 0.041698039 0.3939788 4294901760
0.029605696 0.041698039 0.3944788 4294901760
