# .PCD v0.7 - Point Cloud Data file format
VERSION 0.7
FIELDS x y z rgb
SIZE 4 4 4 4
TYPE F F F U
COUNT 1 1 1 1
WIDTH 541
HEIGHT 1
VIEWPOINT 0 0 0 1 0 0 0
POINTS 541
DATA ascii
0.11256358 -0.058561943 0.41700003 4279784240
0.11391798 -0.058561943 0.41700003 4281033540
0.10688896 -0.057069883 0.41600001 4281359940
0.10985474 -0.05720707 0.41700003 4279982387
0.11120916 -0.05720707 0.41700003 4279851314
0.11256358 -0.05720707 0.41700003 4279523633
0.11391798 -0.05720707 0.41700003 4279655219
0.10343527 -0.055316441 0.41300002 4281296452
0.1050304 -0.05545038 0.41400003 4279850031
0.10663202 -0.055584315 0.41500002 4279851314
0.10797994 -0.055584315 0.41500002 4279785521
0.1095913 -0.055718251 0.41600001 4279523885
0.11094247 -0.055718251 0.41600001 4279392299
0.11256358 -0.055852193 0.41700003 4279523885
0.11391798 -0.055852193 0.41700003 4279260199
0.10184665 -0.053843871 0.41200003 4280244530
0.10343527 -0.053974558 0.41300002 4279982639
0.1047767 -0.053974558 0.41300002 4279851566
0.10637507 -0.054105248 0.41400003 4279326506
0.10797994 -0.054235935 0.41500002 4279327019
0.10932786 -0.054235935 0.41500002 4279458603
0.11094247 -0.054366622 0.41600001 4279063845
0.11391798 -0.054497313 0.41700003 4281624645
0.09844818 -0.052122921 0.40900001 4280178996
0.10002057 -0.052250363 0.41000003 4279457576
0.10159945 -0.052377801 0.41100001 4279523369
0.10318483 -0.052505244 0.41200003 4279392297
0.1047767 -0.052632682 0.41300002 4279194918
0.10637507 -0.052760124 0.41400003 4279063845
0.10771975 -0.052760124 0.41400003 4278866466
0.10932786 -0.052887563 0.41500002 4280048943
0.095322892 -0.050545655 0.40700001 4279916848
0.096882291 -0.050669849 0.40800002 4279523885
0.09844818 -0.050794039 0.40900001 4279195433
0.10002057 -0.050918233 0.41000003 4279261224
0.10159945 -0.051042419 0.41100001 4279063845
0.10318483 -0.051166613 0.41200003 4278866466
0.1047767 -0.051290803 0.41300002 4279261478
0.10611812 -0.051290803 0.41300002 4280115506
0.10771975 -0.051414996 0.41400003 4280180018
0.092451312 -0.049102332 0.40600002 4279980590
0.093770005 -0.049102332 0.40600002 4279588396
0.095322892 -0.04922327 0.40700001 4279654957
0.096882291 -0.049344216 0.40800002 4279261226
0.09844818 -0.049465157 0.40900001 4279129638
0.10002057 -0.049586099 0.41000003 4278998052
0.10159945 -0.04970704 0.41100001 4278866466
0.10318483 -0.049827982 0.41200003 4279852334
0.090908162 -0.047665507 0.40500003 4279916848
0.092223607 -0.047665507 0.40500003 4279654187
0.093770005 -0.047783196 0.40600002 4279523883
0.095322892 -0.047900889 0.40700001 4279194918
0.096644834 -0.047900889 0.40700001 4279195431
0.098207481 -0.048018582 0.40800002 4279261224
0.099776611 -0.048136272 0.40900001 4279589676
0.10135225 -0.048253968 0.41000003 4279852334
0.10293437 -0.048371658 0.41100001 4279915561
0.087841347 -0.046120729 0.40300003 4279391787
0.089150295 -0.046120729 0.40300003 4279260715
0.090683691 -0.04623517 0.40400001 4279392299
0.092223607 -0.046349615 0.40500003 4279261224
0.093770005 -0.04646406 0.40600002 4279261224
0.095088691 -0.04646406 0.40600002 4279063332
0.096644834 -0.0465785 0.40700001 4279786541
0.098207481 -0.046692945 0.40800002 4280114736
0.099776611 -0.046807386 0.40900001 4280112942
0.10135225 -0.046921834 0.41000003 4279848486
0.10771975 -0.047379609 0.41400003 4281557056
0.084589034 -0.044477757 0.40000001 4279522603
0.086102955 -0.044588953 0.40100002 4279391787
0.087623373 -0.044700146 0.40200001 4279261226
0.089150295 -0.044811342 0.40300003 4279129640
0.090683691 -0.044922534 0.40400001 4279129638
0.091995887 -0.044922534 0.40400001 4279327017
0.093539044 -0.045033731 0.40500003 4279851564
0.095088691 -0.045144923 0.40600002 4280180016
0.096644834 -0.045256115 0.40700001 4280112942
0.10906442 -0.046034481 0.41400003 4284513639
0.083081611 -0.043070171 0.39900002 4279260199
0.084589034 -0.043178115 0.40000001 4279260711
0.086102955 -0.043286063 0.40100002 4279261224
0.087623373 -0.043394007 0.40200001 4278998052
0.089150295 -0.043501955 0.40300003 4279129638
0.090459235 -0.043501955 0.40300003 4279721262
0.091995887 -0.043609899 0.40400001 4280114223
0.093539044 -0.043717843 0.40500003 4280441391
0.095088691 -0.043825787 0.40600002 4279914277
0.10135225 -0.04425757 0.41000003 4280373036
0.104523 -0.044473462 0.41200003 4280240426
0.086102955 -0.041983172 0.40100002 4278998052
0.087623373 -0.042087868 0.40200001 4279983150
0.089150295 -0.042192563 0.40300003 4280246576
0.090459235 -0.042192563 0.40300003 4280311086
0.091995887 -0.042297259 0.40400001 4280309805
0.093539044 -0.042401958 0.40500003 4280176170
0.096644834 -0.042611349 0.40700001 4280373547
0.099776611 -0.04282074 0.40900001 4280437807
0.10135225 -0.04292544 0.41000003 4280108842
0.104523 -0.043134831 0.41200003 4283988582
0.075449936 -0.039868705 0.39300001 4279325742
0.076726399 -0.039868705 0.39300001 4279326254
0.078201354 -0.039970152 0.39400002 4278998826
0.084800512 -0.040680282 0.40100002 4279327019
0.086102955 -0.040680282 0.40100002 4280115508
0.087623373 -0.040781729 0.40200001 4280048945
0.089150295 -0.040883176 0.40300003 4279916846
0.093539044 -0.04108607 0.40500003 4280306989
0.095088691 -0.041187517 0.40600002 4280306989
0.07289701 -0.038591806 0.39300001 4279522603
0.074173473 -0.038591806 0.39300001 4279457580
0.075449936 -0.038591806 0.39300001 4279129640
0.076921634 -0.038690008 0.39400002 4279195435
0.078201354 -0.038690008 0.39400002 4279064619
0.079884522 -0.038886402 0.39600003 4278998826
0.081580684 -0.039082799 0.39800003 4279393584
0.083081611 -0.039180998 0.39900002 4279721779
0.084589034 -0.039279193 0.40000001 4280246324
0.086102955 -0.039377391 0.40100002 4279916846
0.096407376 -0.039868381 0.40600002 4280240426
0.07271152 -0.037219964 0.39200002 4279260715
0.073984742 -0.037219964 0.39200002 4279195433
0.075449936 -0.03731491 0.39300001 4279130408
0.076921634 -0.037409861 0.39400002 4278933029
0.07839983 -0.037504807 0.39500001 4279194920
0.080086246 -0.037694708 0.39700001 4279655471
0.081580684 -0.037789658 0.39800003 4280048945
0.083081611 -0.037884604 0.39900002 4280114225
0.090683691 -0.038359348 0.40400001 4280241709
0.069807105 -0.035762914 0.39000002 4279326506
0.071438305 -0.035946317 0.39200002 4279261226
0.07271152 -0.035946317 0.39200002 4279261226
0.073984742 -0.035946317 0.39200002 4279327019
0.075449936 -0.036038015 0.39300001 4279064617
0.077116869 -0.036221415 0.39500001 4279721775
0.078598313 -0.036313117 0.39600003 4280114223
0.080086246 -0.036404815 0.39700001 4279982637
0.087623373 -0.036863312 0.40200001 4280240174
0.06692867 -0.034318864 0.38800001 4279392049
0.068364643 -0.034407318 0.38900003 4279195435
0.069807105 -0.034495767 0.39000002 4279196201
0.071438305 -0.034672666 0.39200002 4279327787
0.07271152 -0.034672666 0.39200002 4278933542
0.074928425 -0.035114922 0.39700001 4279393580
0.076217875 -0.035114922 0.39700001 4279721262
0.077312104 -0.035026472 0.39600003 4279983920
0.087623373 -0.035557173 0.40200001 4280371760
0.062822483 -0.032887809 0.38600001 4280046897
0.064242221 -0.032973014 0.38700002 4279391787
0.065499194 -0.032973014 0.38700002 4279654959
0.06692867 -0.033058211 0.38800001 4279129642
0.068364643 -0.033143416 0.38900003 4279130410
0.069807105 -0.033228617 0.39000002 4278998822
0.071073823 -0.033228617 0.39000002 4279196201
0.073082499 -0.033569422 0.39400002 4279655982
0.074928425 -0.033825029 0.39700001 4279590189
0.080489703 -0.033995431 0.39900002 4280632624
0.084800512 -0.034165833 0.40100002 4280567342
0.086102955 -0.034165833 0.40100002 4280435756
0.049373291 -0.031059988 0.37900001 4278866470
0.050737809 -0.031141942 0.38000003 4279130410
0.051972046 -0.031141942 0.38000003 4278603814
0.061568756 -0.031633656 0.38600001 4279260461
0.062822483 -0.031633656 0.38600001 4279392301
0.064242221 -0.031715609 0.38700002 4279195431
0.065668441 -0.031797562 0.38800001 4279524396
0.067101166 -0.031879514 0.38900003 4279195431
0.068540379 -0.031961467 0.39000002 4279196201
0.071438305 -0.032125372 0.39200002 4279721262
0.077507332 -0.032535132 0.39700001 4280829231
0.080489703 -0.032699037 0.39900002 4280698415
0.04715886 -0.029985983 0.38100001 4283787858
0.048396349 -0.029985983 0.38100001 4279320859
0.049633838 -0.029985983 0.38100001 4278929949
0.050871328 -0.029985983 0.38100001 4278603294
0.052245583 -0.030064689 0.38200003 4279130408
0.053486321 -0.030064689 0.38200003 4279393584
0.05626082 -0.030222094 0.384 4279655221
0.057508048 -0.030222094 0.384 4279392049
0.058908295 -0.030300798 0.38500002 4279655219
0.060315032 -0.0303795 0.38600001 4279458353
0.061568756 -0.0303795 0.38600001 4279327791
0.064242221 -0.030458204 0.38700002 4279393582
0.065668441 -0.030536907 0.38800001 4279130410
0.067101166 -0.030615611 0.38900003 4279589678
0.068540379 -0.030694313 0.39000002 4279654957
0.048650399 -0.028898984 0.38300002 4279451932
0.049894385 -0.028898984 0.38300002 4278928152
0.051138371 -0.028898984 0.38300002 4278404888
0.05238235 -0.028898984 0.38300002 4278933029
0.053626336 -0.028898984 0.38300002 4278670120
0.055013586 -0.028974438 0.384 4280775244
0.05626082 -0.028974438 0.384 4283537267
0.057657812 -0.029049894 0.38500002 4280971340
0.0590613 -0.029125346 0.38600001 4279525170
0.061728265 -0.029200802 0.38700002 4279394093
0.062985241 -0.029200802 0.38700002 4278999589
0.06440822 -0.029276256 0.38800001 4279787309
0.065837689 -0.029351711 0.38900003 4279786541
0.067273661 -0.029427165 0.39000002 4279587879
0.068716131 -0.029502621 0.39100003 4279783465
0.074739687 -0.02987989 0.39600003 4280762924
0.078995273 -0.0300308 0.39800003 4280896307
0.047653969 -0.02779899 0.38500002 4280564255
0.048904449 -0.02779899 0.38500002 4279057174
0.050024655 -0.027726782 0.384 4279058457
0.051271889 -0.027726782 0.384 4278797595
0.052655887 -0.02779899 0.38500002 4278601499
0.05390637 -0.02779899 0.38500002 4278734882
0.055156853 -0.02779899 0.38500002 4279130412
0.056407336 -0.02779899 0.38500002 4279327537
0.057807572 -0.027871193 0.38600001 4278998826
0.0590613 -0.027871193 0.38600001 4278801956
0.060471293 -0.027943401 0.38700002 4278867749
0.061728265 -0.027943401 0.38700002 4279327787
0.063147992 -0.028015604 0.38800001 4279655982
0.064574219 -0.028087812 0.38900003 4279852334
0.066006936 -0.028160015 0.39000002 4279917357
0.046524014 -0.026617041 0.38600001 4283984721
0.047777742 -0.026617041 0.38600001 4279842326
0.04903147 -0.026617041 0.38600001 4279451932
0.050285202 -0.026617041 0.38600001 4278992666
0.051538929 -0.026617041 0.38600001 4278797084
0.052792657 -0.026617041 0.38600001 4278337046
0.054046385 -0.026617041 0.38600001 4279193634
0.055300117 -0.026617041 0.38600001 4279654185
0.056553848 -0.026617041 0.38600001 4279260711
0.057807572 -0.026617041 0.38600001 4279590189
0.059214313 -0.026685998 0.38700002 4279458605
0.060471293 -0.026685998 0.38700002 4279590191
0.061887767 -0.026754953 0.38800001 4279918129
0.06331075 -0.02682391 0.38900003 4279983152
0.064574219 -0.02682391 0.38900003 4280114736
0.066006936 -0.026892865 0.39000002 4280180016
0.067446157 -0.026961822 0.39100003 4279979820
0.070344083 -0.027099732 0.39300001 4280174121
0.046765074 -0.025494302 0.38800001 4283986774
0.048025295 -0.025494302 0.38800001 4279975198
0.04928552 -0.025494302 0.38800001 4279124252
0.050545745 -0.025494302 0.38800001 4278795800
0.051805973 -0.025494302 0.38800001 4278533912
0.052929427 -0.025428595 0.38700002 4278928670
0.054186404 -0.025428595 0.38700002 4279193636
0.055443384 -0.025428595 0.38700002 4279456806
0.05670036 -0.025428595 0.38700002 4279851564
0.057957333 -0.025428595 0.38700002 4279786541
0.059367318 -0.025494302 0.38800001 4279720750
0.060627546 -0.025494302 0.38800001 4279983922
0.062047273 -0.02556001 0.38900003 4280114225
0.064740218 -0.025625715 0.39000002 4280114225
0.066176191 -0.025691424 0.39100003 4280114225
0.046885602 -0.024296109 0.38900003 4279513877
0.048149075 -0.024296109 0.38900003 4279713309
0.049412545 -0.024296109 0.38900003 4279124765
0.050676022 -0.024296109 0.38900003 4278928156
0.051939495 -0.024296109 0.38900003 4278468119
0.053202964 -0.024296109 0.38900003 4278797084
0.054466438 -0.024296109 0.38900003 4279193123
0.055586647 -0.02423365 0.38800001 4279456808
0.056846872 -0.02423365 0.38800001 4279983152
0.058107093 -0.02423365 0.38800001 4279786543
0.05952033 -0.024296109 0.38900003 4279654955
0.060783803 -0.024296109 0.38900003 4279917357
0.062047273 -0.024296109 0.38900003 4279982639
0.0634735 -0.024358567 0.39000002 4280114225
0.064906225 -0.024421025 0.39100003 4280114225
0.066345438 -0.024483481 0.39200002 4279784490
0.067618653 -0.024483481 0.39200002 4280109871
0.04700613 -0.023091417 0.39000002 4279580440
0.048272848 -0.023091417 0.39000002 4279582236
0.04953957 -0.023091417 0.39000002 4279190045
0.050806291 -0.023091417 0.39000002 4278927386
0.052073013 -0.023091417 0.39000002 4278862877
0.053339731 -0.023091417 0.39000002 4279192355
0.054606453 -0.023091417 0.39000002 4279325224
0.055873174 -0.023091417 0.39000002 4280246324
0.056993388 -0.023032209 0.38900003 4280048945
0.058256857 -0.023032209 0.38900003 4280114738
0.059673335 -0.023091417 0.39000002 4279852338
0.060940061 -0.023091417 0.39000002 4280114740
0.062206775 -0.023091417 0.39000002 4280114225
0.063636251 -0.023150627 0.39100003 4280311604
0.064906225 -0.023150627 0.39100003 4280180020
0.066345438 -0.023209834 0.39200002 4280507448
0.047126662 -0.021880228 0.39100003 4279844641
0.048396628 -0.021880228 0.39100003 4279386141
0.049666595 -0.021880228 0.39100003 4279058459
0.050936565 -0.021880228 0.39100003 4278992666
0.052206539 -0.021880228 0.39100003 4278928668
0.053476501 -0.021880228 0.39100003 4279258916
0.054746471 -0.021880228 0.39100003 4278864673
0.056016441 -0.021880228 0.39100003 4279983154
0.057286412 -0.021880228 0.39100003 4279917107
0.058556378 -0.021880228 0.39100003 4279917107
0.059826348 -0.021880228 0.39100003 4279720752
0.061096318 -0.021880228 0.39100003 4279852338
0.063636251 -0.021880228 0.39100003 4280311606
0.044700753 -0.020662537 0.39200002 4281486647
0.045973971 -0.020662537 0.39200002 4279909153
0.047247186 -0.020662537 0.39200002 4279648289
0.048520405 -0.020662537 0.39200002 4279320607
0.04979362 -0.020662537 0.39200002 4279058459
0.051066838 -0.020662537 0.39200002 4278993179
0.052340057 -0.020662537 0.39200002 4278994461
0.053613268 -0.020662537 0.39200002 4279521318
0.054886486 -0.020662537 0.39200002 4279587881
0.056159705 -0.020662537 0.39200002 4280246324
0.057432923 -0.020662537 0.39200002 4279983154
0.058706135 -0.020662537 0.39200002 4279391533
0.059979353 -0.020662537 0.39200002 4279917877
0.061252572 -0.020662537 0.39200002 4279983670
0.063799001 -0.020662537 0.39200002 4280507448
0.045973971 -0.01938889 0.39200002 4280105762
0.047367714 -0.019438351 0.39300001 4279517473
0.048644178 -0.019438351 0.39300001 4279320607
0.049920641 -0.019438351 0.39300001 4279124765
0.051197108 -0.019438351 0.39300001 4278993949
0.052473575 -0.019438351 0.39300001 4279323424
0.053750034 -0.019438351 0.39300001 4279587109
0.055026501 -0.019438351 0.39300001 4279917359
0.056302968 -0.019438351 0.39300001 4279983152
0.057579435 -0.019438351 0.39300001 4279917359
0.058706135 -0.01938889 0.39200002 4279983152
0.059979353 -0.01938889 0.39200002 4280114486
0.046091251 -0.018161453 0.39300001 4285500538
0.047367714 -0.018161453 0.39300001 4279448861
0.048644178 -0.018161453 0.39300001 4279516705
0.049920641 -0.018161453 0.39300001 4279124511
0.051197108 -0.018161453 0.39300001 4279257121
0.052607097 -0.018207667 0.39400002 4279521318
0.053886805 -0.018207667 0.39400002 4279718697
0.05516652 -0.018207667 0.39400002 4279851566
0.056302968 -0.018161453 0.39300001 4280246326
0.057579435 -0.018161453 0.39300001 4279983154
0.05004767 -0.01692752 0.39400002 4279318812
0.051327381 -0.01692752 0.39400002 4279584551
0.052607097 -0.01692752 0.39400002 4279587113
0.053886805 -0.01692752 0.39400002 4279784492
0.056446236 -0.01692752 0.39400002 4280180020
0.072833285 -0.034072988 0.39605328 4294967295
0.072833285 -0.034072988 0.39605328 4294901760
0.072833285 -0.034072988 0.39655328 4294901760
0.072833285 -0.034072988 0.39705327 4294901760
0.072833285 -0.034072988 0.39755329 4294901760
0.072833285 -0.034072988 0.39805329 4294901760
0.072833285 -0.034072988 0.39855328 4294901760
0.072833285 -0.034072988 0.39905328 4294901760
0.072833285 -0.034072988 0.3995533 4294901760
0.072833285 -0.034072988 0.40005329 4294901760
0.072833285 -0.034072988 0.40055329 4294901760
0.072833285 -0.034072988 0.40105328 4294901760
0.072833285 -0.034072988 0.40155327 4294901760
0.072833285 -0.034072988 0.4020533 4294901760
0.072833285 -0.034072988 0.40255329 4294901760
0.072833285 -0.034072988 0.40305328 4294901760
0.072833285 -0.034072988 0.40355328 4294901760
0.072833285 -0.034072988 0.40405327 4294901760
0.072833285 -0.034072988 0.40455329 4294901760
0.072833285 -0.034072988 0.40505329 4294901760
0.072833285 -0.034072988 0.40555328 4294901760
0.072833285 -0.034072988 0.40605327 4294901760
0.072833285 -0.034072988 0.4065533 4294901760
0.072833285 -0.034072988 0.40705329 4294901760
0.072833285 -0.034072988 0.40755329 4294901760
0.072833285 -0.034072988 0.40805328 4294901760
0.072833285 -0.034072988 0.4085533 4294901760
0.072833285 -0.034072988 0.4090533 4294901760
0.072833285 -0.034072988 0.40955329 4294901760
0.072833285 -0.034072988 0.41005328 4294901760
0.072833285 -0.034072988 0.41055328 4294901760
0.072833285 -0.034072988 0.4110533 4294901760
0.072833285 -0.034072988 0.41155329 4294901760
0.072833285 -0.034072988 0.41205329 4294901760
0.072833285 -0.034072988 0.41255328 4294901760
0.072833285 -0.034072988 0.41305327 4294901760
0.072833285 -0.034072988 0.4135533 4294901760
0.072833285 -0.034072988 0.41405329 4294901760
0.072833285 -0.034072988 0.41455328 4294901760
0.072833285 -0.034072988 0.41505328 4294901760
0.072833285 -0.034072988 0.4155533 4294901760
0.072833285 -0.034072988 0.4160533 4294901760
0.072833285 -0.034072988 0.41655329 4294901760
0.072833285 -0.034072988 0.41705328 4294901760
0.072833285 -0.034072988 0.41755331 4294901760
0.072833285 -0.034072988 0.4180533 4294901760
0.072833285 -0.034072988 0.41855329 4294901760
0.072833285 -0.034072988 0.41905329 4294901760
0.072833285 -0.034072988 0.41955328 4294901760
0.072833285 -0.034072988 0.4200533 4294901760
0.072833285 -0.034072988 0.4205533 4294901760
0.072833285 -0.034072988 0.42105329 4294901760
0.072833285 -0.034072988 0.42155328 4294901760
0.072833285 -0.034072988 0.42205328 4294901760
0.072833285 -0.034072988 0.4225533 4294901760
0.072833285 -0.034072988 0.42305329 4294901760
0.072833285 -0.034072988 0.42355329 4294901760
0.072833285 -0.034072988 0.42405328 4294901760
0.072833285 -0.034072988 0.42455328 4294901760
0.072833285 -0.034072988 0.4250533 4294901760
0.072833285 -0.034072988 0.42555329 4294901760
0.072833285 -0.034072988 0.42605329 4294901760
0.072833285 -0.034072988 0.42655328 4294901760
0.072833285 -0.034072988 0.4270533 4294901760
0.072833285 -0.034072988 0.4275533 4294901760
0.072833285 -0.034072988 0.42805329 4294901760
0.072833285 -0.034072988 0.42855328 4294901760
0.072833285 -0.034072988 0.42905331 4294901760
0.072833285 -0.034072988 0.4295533 4294901760
0.072833285 -0.034072988 0.43005329 4294901760
0.072833285 -0.034072988 0.43055329 4294901760
0.072833285 -0.034072988 0.43105328 4294901760
0.072833285 -0.034072988 0.4315533 4294901760
0.072833285 -0.034072988 0.4320533 4294901760
0.072833285 -0.034072988 0.43255329 4294901760
0.072833285 -0.034072988 0.43305328 4294901760
0.072833285 -0.034072988 0.43355328 4294901760
0.072833285 -0.034072988 0.4340533 4294901760
0.072833285 -0.034072988 0.4345533 4294901760
0.072833285 -0.034072988 0.43505329 4294901760
0.072833285 -0.034072988 0.43555328 4294901760
0.072833285 -0.034072988 0.43605331 4294901760
0.072833285 -0.034072988 0.4365533 4294901760
0.072833285 -0.034072988 0.43705329 4294901760
0.072833285 -0.034072988 0.43755329 4294901760
0.072833285 -0.034072988 0.43805328 4294901760
0.072833285 -0.034072988 0.4385533 4294901760
0.072833285 -0.034072988 0.4390533 4294901760
0.072833285 -0.034072988 0.43955329 4294901760
0.072833285 -0.034072988 0.44005328 4294901760
0.072833285 -0.034072988 0.44055331 4294901760
0.072833285 -0.034072988 0.4410533 4294901760
0.072833285 -0.034072988 0.44155329 4294901760
0.072833285 -0.034072988 0.44205329 4294901760
0.072833285 -0.034072988 0.44255328 4294901760
0.072833285 -0.034072988 0.44305331 4294901760
0.072833285 -0.034072988 0.4435533 4294901760
0.072833285 -0.034072988 0.44405329 4294901760
0.072833285 -0.034072988 0.44455329 4294901760
0.072833285 -0.034072988 0.44505331 4294901760
0.072833285 -0.034072988 0.4455533 4294901760
0.072833285 -0.034072988 0.4460533 4294901760
0.072833285 -0.034072988 0.39605328 4278255360
0.072584189 -0.034041967 0.39648572 4278255360
0.072335094 -0.03401095 0.39691812 4278255360
0.072085999 -0.03397993 0.39735055 4278255360
0.071836904 -0.033948909 0.39778298 4278255360
0.071587808 -0.033917893 0.39821538 4278255360
0.071338713 -0.033886872 0.39864781 4278255360
0.071089618 -0.033855852 0.39908025 4278255360
0.070840523 -0.033824835 0.39951268 4278255360
0.070591427 -0.033793814 0.39994508 4278255360
0.070342332 -0.033762794 0.40037751 4278255360
0.070093237 -0.033731777 0.40080994 4278255360
0.069844142 -0.033700757 0.40124235 4278255360
0.069595046 -0.033669736 0.40167478 4278255360
0.069345951 -0.033638719 0.40210721 4278255360
0.069096856 -0.033607699 0.40253961 4278255360
0.068847761 -0.033576678 0.40297204 4278255360
0.068598665 -0.033545662 0.40340447 4278255360
0.06834957 -0.033514641 0.40383688 4278255360
0.068100475 -0.033483621 0.40426931 4278255360
0.06785138 -0.033452604 0.40470174 4278255360
0.067602284 -0.033421583 0.40513414 4278255360
0.067353189 -0.033390563 0.40556657 4278255360
0.067104094 -0.033359546 0.405999 4278255360
0.066854998 -0.033328526 0.40643144 4278255360
0.066605903 -0.033297509 0.40686384 4278255360
0.066356808 -0.033266488 0.40729627 4278255360
0.066107713 -0.033235468 0.4077287 4278255360
0.065858617 -0.033204451 0.4081611 4278255360
0.065609522 -0.033173431 0.40859354 4278255360
0.065360427 -0.03314241 0.40902597 4278255360
0.065111332 -0.033111393 0.40945837 4278255360
0.064862236 -0.033080373 0.4098908 4278255360
0.064613141 -0.033049352 0.41032323 4278255360
0.064364046 -0.033018336 0.41075563 4278255360
0.064114951 -0.032987315 0.41118807 4278255360
0.063865855 -0.032956295 0.4116205 4278255360
0.06361676 -0.032925278 0.41205293 4278255360
0.063367665 -0.032894257 0.41248533 4278255360
0.06311857 -0.032863237 0.41291776 4278255360
0.062869474 -0.03283222 0.41335019 4278255360
0.062620379 -0.0328012 0.4137826 4278255360
0.06237128 -0.032770179 0.41421503 4278255360
0.062122185 -0.032739162 0.41464746 4278255360
0.06187309 -0.032708142 0.41507986 4278255360
0.061623994 -0.032677121 0.41551229 4278255360
0.061374899 -0.032646105 0.41594473 4278255360
0.061125804 -0.032615084 0.41637713 4278255360
0.060876708 -0.032584064 0.41680956 4278255360
0.060627613 -0.032553047 0.41724199 4278255360
0.060378518 -0.032522026 0.41767442 4278255360
0.060129423 -0.032491006 0.41810682 4278255360
0.059880327 -0.032459989 0.41853926 4278255360
0.059631232 -0.032428969 0.41897166 4278255360
0.059382137 -0.032397948 0.41940409 4278255360
0.059133042 -0.032366931 0.41983652 4278255360
0.058883946 -0.032335911 0.42026895 4278255360
0.058634851 -0.03230489 0.42070135 4278255360
0.058385756 -0.032273874 0.42113379 4278255360
0.058136661 -0.032242853 0.42156622 4278255360
0.057887565 -0.032211833 0.42199862 4278255360
0.05763847 -0.032180816 0.42243105 4278255360
0.057389375 -0.032149795 0.42286348 4278255360
0.05714028 -0.032118775 0.42329589 4278255360
0.056891184 -0.032087758 0.42372832 4278255360
0.056642089 -0.032056738 0.42416075 4278255360
0.05639299 -0.032025717 0.42459318 4278255360
0.056143895 -0.0319947 0.42502558 4278255360
0.0558948 -0.03196368 0.42545801 4278255360
0.055645704 -0.031932659 0.42589045 4278255360
0.055396609 -0.031901643 0.42632285 4278255360
0.055147514 -0.031870622 0.42675528 4278255360
0.054898418 -0.031839602 0.42718771 4278255360
0.054649323 -0.031808585 0.42762011 4278255360
0.054400228 -0.031777564 0.42805254 4278255360
0.054151133 -0.031746544 0.42848498 4278255360
0.053902037 -0.031715527 0.42891738 4278255360
0.053652942 -0.031684507 0.42934981 4278255360
0.053403847 -0.03165349 0.42978224 4278255360
0.053154752 -0.031622469 0.43021464 4278255360
0.052905656 -0.031591449 0.43064708 4278255360
0.052656561 -0.031560432 0.43107951 4278255360
0.052407466 -0.031529412 0.43151194 4278255360
0.052158371 -0.031498391 0.43194434 4278255360
0.051909275 -0.031467374 0.43237677 4278255360
0.05166018 -0.031436354 0.4328092 4278255360
0.051411085 -0.031405333 0.43324161 4278255360
0.05116199 -0.031374317 0.43367404 4278255360
0.050912894 -0.031343296 0.43410647 4278255360
0.050663799 -0.031312276 0.43453887 4278255360
0.050414704 -0.031281259 0.4349713 4278255360
0.050165609 -0.031250238 0.43540373 4278255360
0.049916513 -0.031219218 0.43583614 4278255360
0.049667418 -0.031188199 0.43626857 4278255360
0.049418323 -0.031157181 0.436701 4278255360
0.049169227 -0.031126162 0.43713343 4278255360
0.048920132 -0.031095142 0.43756583 4278255360
0.048671037 -0.031064123 0.43799827 4278255360
0.048421942 -0.031033104 0.4384307 4278255360
0.048172846 -0.031002084 0.4388631 4278255360
0.047923751 -0.030971065 0.43929553 4278255360
