# .PCD v0.7 - Point Cloud Data file format
VERSION 0.7
FIELDS x y z rgb
SIZE 4 4 4 4
TYPE F F F U
COUNT 1 1 1 1
WIDTH 840
HEIGHT 1
VIEWPOINT 0 0 0 1 0 0 0
POINTS 840
DATA ascii
0.099256858 -0.054628003 0.41800001 4287803293
0.095639288 -0.053524762 0.42000002 4286487179
0.097003452 -0.053524762 0.42000002 4286422669
0.0981334 -0.053397324 0.41900003 4282870871
0.099494316 -0.053397324 0.41900003 4281819208
0.10085523 -0.053397324 0.41900003 4281162046
0.10221614 -0.053397324 0.41900003 4283002203
0.092910968 -0.052160136 0.42000002 4287342488
0.094275124 -0.052160136 0.42000002 4285568130
0.095639288 -0.052160136 0.42000002 4281555784
0.097003452 -0.052160136 0.42000002 4281031743
0.0981334 -0.05203595 0.41900003 4280375350
0.099494316 -0.05203595 0.41900003 4280178996
0.10085523 -0.05203595 0.41900003 4280246072
0.10221614 -0.05203595 0.41900003 4280179766
0.089967929 -0.050674576 0.41900003 4287342488
0.091546811 -0.050795514 0.42000002 4283922789
0.092910968 -0.050795514 0.42000002 4280897594
0.094275124 -0.050795514 0.42000002 4281296200
0.095639288 -0.050795514 0.42000002 4280573504
0.096772492 -0.050674576 0.41900003 4279786293
0.0981334 -0.050674576 0.41900003 4279917877
0.099494316 -0.050674576 0.41900003 4279655984
0.10085523 -0.050674576 0.41900003 4279655986
0.10221614 -0.050674576 0.41900003 4279852084
0.083919086 -0.048960123 0.41600001 4286947730
0.085270256 -0.048960123 0.41600001 4286881937
0.086829655 -0.049077816 0.41700003 4287409051
0.088184074 -0.049077816 0.41700003 4283463519
0.089753203 -0.049195506 0.41800001 4281030462
0.091328844 -0.049313203 0.41900003 4280901440
0.09268976 -0.049313203 0.41900003 4280244537
0.094050668 -0.049313203 0.41900003 4279655221
0.095411584 -0.049313203 0.41900003 4279721527
0.096772492 -0.049313203 0.41900003 4278932779
0.0981334 -0.049313203 0.41900003 4279064878
0.099494316 -0.049313203 0.41900003 4279130923
0.10085523 -0.049313203 0.41900003 4279196203
0.10221614 -0.049313203 0.41900003 4281033280
0.080631055 -0.047265165 0.41300002 4287145109
0.082170963 -0.047379609 0.41400003 4286947730
0.083717361 -0.04749405 0.41500002 4287210902
0.085065283 -0.04749405 0.41500002 4282740312
0.086621426 -0.047608491 0.41600001 4280242229
0.087972596 -0.047608491 0.41600001 4280573756
0.089538485 -0.047722939 0.41700003 4279786293
0.09111087 -0.04783738 0.41800001 4279721014
0.092468537 -0.04783738 0.41800001 4279721527
0.093826197 -0.04783738 0.41800001 4279590963
0.095183864 -0.04783738 0.41800001 4279130923
0.096772492 -0.047951825 0.41900003 4279065130
0.0981334 -0.047951825 0.41900003 4279130923
0.099494316 -0.047951825 0.41900003 4280641854
0.10085523 -0.047951825 0.41900003 4280771387
0.10221614 -0.047951825 0.41900003 4282609746
0.077570736 -0.045700893 0.41100001 4286816914
0.079097643 -0.045812089 0.41200003 4286751121
0.080631055 -0.045923285 0.41300002 4286685328
0.08197248 -0.045923285 0.41300002 4282608212
0.083515637 -0.046034481 0.41400003 4281030462
0.08486031 -0.046034481 0.41400003 4279850549
0.086413205 -0.046145674 0.41500002 4279917109
0.087761126 -0.046145674 0.41500002 4279392047
0.089323759 -0.046256866 0.41600001 4279327021
0.090674929 -0.046256866 0.41600001 4279261226
0.092247322 -0.046368062 0.41700003 4279196203
0.093601733 -0.046368062 0.41700003 4278998824
0.095183864 -0.046479255 0.41800001 4278933031
0.096541531 -0.046479255 0.41800001 4280247606
0.097899191 -0.046479255 0.41800001 4280574774
0.099256858 -0.046479255 0.41800001 4280902458
0.10085523 -0.046590451 0.41900003 4281558852
0.10221614 -0.046590451 0.41900003 4282870869
0.075864829 -0.044149622 0.40900001 4286882707
0.077381998 -0.04425757 0.41000003 4286356876
0.078905657 -0.044365514 0.41100001 4281557319
0.080240592 -0.044365514 0.41100001 4280702780
0.081774004 -0.044473462 0.41200003 4280377147
0.083313905 -0.044581406 0.41300002 4279851316
0.08465533 -0.044581406 0.41300002 4279523633
0.086204983 -0.044689354 0.41400003 4279524400
0.087549657 -0.044689354 0.41400003 4279196205
0.089109041 -0.044797298 0.41500002 4279130925
0.09045697 -0.044797298 0.41500002 4279130410
0.0920261 -0.044905242 0.41600001 4278933031
0.09337727 -0.044905242 0.41600001 4279919156
0.094956152 -0.045013186 0.41700003 4279983924
0.096310571 -0.045013186 0.41700003 4278665498
0.097664982 -0.045013186 0.41700003 4280705081
0.099256858 -0.04512113 0.41800001 4281033532
0.10085523 -0.045229077 0.41900003 4281228091
0.072491996 -0.042401958 0.40500003 4286882707
0.073989674 -0.042506654 0.40600002 4286028681
0.075679339 -0.042716045 0.40800002 4281754700
0.07719326 -0.04282074 0.40900001 4280704065
0.078521691 -0.04282074 0.40900001 4280443453
0.080045357 -0.04292544 0.41000003 4279852084
0.08157552 -0.043030132 0.41100001 4279458607
0.082910441 -0.043030132 0.41100001 4279458607
0.084450357 -0.043134831 0.41200003 4279459377
0.085788533 -0.043134831 0.41200003 4279196205
0.087338179 -0.043239526 0.41300002 4278998826
0.088679604 -0.043239526 0.41300002 4279327791
0.090239003 -0.043344226 0.41400003 4280050231
0.091804892 -0.043448918 0.41500002 4280247096
0.093152806 -0.043448918 0.41500002 4278929701
0.09472844 -0.043553613 0.41600001 4280507450
0.09607961 -0.043553613 0.41600001 4280373297
0.097430773 -0.043553613 0.41600001 4281491776
0.099019401 -0.043658312 0.41700003 4281687874
0.068998627 -0.040578835 0.40000001 4286685841
0.070473574 -0.040680282 0.40100002 4286620300
0.07213401 -0.040883176 0.40300003 4281228352
0.073625192 -0.040984623 0.40400001 4280506936
0.07530836 -0.041187517 0.40600002 4279655473
0.076815784 -0.041288964 0.40700001 4279787572
0.078329705 -0.041390412 0.40800002 4279064619
0.079850122 -0.041491859 0.40900001 4279130412
0.081178561 -0.041491859 0.40900001 4278999339
0.082708716 -0.041593306 0.41000003 4279065130
0.084245376 -0.041694753 0.41100001 4279065130
0.085580304 -0.041694753 0.41100001 4279327789
0.08712671 -0.0417962 0.41200003 4280510264
0.088464886 -0.0417962 0.41200003 4280509494
0.090021029 -0.041897647 0.41300002 4279718445
0.091583677 -0.041999094 0.41400003 4280375862
0.092928343 -0.041999094 0.41400003 4280704315
0.094500728 -0.042100541 0.41500002 4280835131
0.09584865 -0.042100541 0.41500002 4281557056
0.097430773 -0.042201988 0.41600001 4281557056
0.099019401 -0.042303436 0.41700003 4281620802
0.065902226 -0.0389846 0.39700001 4286882707
0.067191675 -0.0389846 0.39700001 4286817681
0.068826132 -0.039180998 0.39900002 4282083661
0.07029783 -0.039279193 0.40000001 4280638522
0.071955018 -0.03947559 0.40200001 4280311865
0.073442951 -0.039573789 0.40300003 4279655473
0.074937381 -0.039671987 0.40400001 4279262509
0.076627053 -0.039868381 0.40600002 4279131693
0.077945739 -0.039868381 0.40600002 4279000107
0.07945966 -0.03996658 0.40700001 4278868521
0.080980077 -0.040064778 0.40800002 4278472993
0.082506984 -0.040162977 0.40900001 4279196203
0.083835423 -0.040162977 0.40900001 4280246324
0.085372083 -0.040261175 0.41000003 4280509496
0.086915232 -0.04035937 0.41100001 4280046635
0.08825016 -0.04035937 0.41100001 4279980072
0.089803062 -0.040457573 0.41200003 4280967739
0.091362454 -0.040555768 0.41300002 4280375348
0.092928343 -0.040653966 0.41400003 4280966717
0.094273016 -0.040653966 0.41400003 4279453478
0.09584865 -0.040752165 0.41500002 4281425470
0.097430773 -0.04085036 0.41600001 4281753667
0.062844798 -0.037409861 0.39400002 4287145109
0.06428726 -0.037504807 0.39500001 4287475357
0.065736227 -0.037599761 0.39600003 4282675800
0.067191675 -0.037694708 0.39700001 4280704315
0.068653636 -0.037789658 0.39800003 4280114486
0.070122086 -0.037884604 0.39900002 4279458607
0.071776025 -0.038074505 0.40100002 4279262511
0.07326071 -0.038169451 0.40200001 4279130923
0.074751899 -0.038264401 0.40300003 4279592244
0.076249577 -0.038359348 0.40400001 4279131691
0.077753752 -0.038454298 0.40500003 4279130921
0.079264425 -0.038549248 0.40600002 4279525681
0.080781594 -0.038644195 0.40700001 4280115508
0.082103528 -0.038644195 0.40700001 4280312117
0.08363045 -0.038739145 0.40800002 4281033530
0.085163854 -0.038834091 0.40900001 4279453730
0.086703762 -0.038929045 0.41000003 4281360190
0.088035442 -0.038929045 0.41000003 4280637237
0.089585088 -0.039023992 0.41100001 4279255838
0.091141239 -0.039118942 0.41200003 4280834870
0.092703879 -0.039213888 0.41300002 4280308787
0.094273016 -0.039308839 0.41400003 4281097790
0.09584865 -0.039403789 0.41500002 4282607697
0.058706135 -0.035946317 0.39200002 4286817427
0.059979353 -0.035946317 0.39200002 4286620048
0.061408829 -0.036038015 0.39300001 4287212185
0.062844798 -0.036129717 0.39400002 4283267172
0.06412451 -0.036129717 0.39400002 4280506684
0.06557022 -0.036221415 0.39500001 4280049977
0.067022428 -0.036313117 0.39600003 4279326767
0.068481132 -0.036404815 0.39700001 4278933546
0.069946341 -0.036496516 0.39800003 4278934316
0.071597032 -0.036679912 0.40000001 4278934314
0.073078468 -0.036771614 0.40100002 4278934314
0.074566409 -0.036863312 0.40200001 4278934314
0.076060846 -0.036955014 0.40300003 4279131693
0.077561766 -0.037046712 0.40400001 4279852850
0.079069197 -0.037138414 0.40500003 4280181301
0.080583118 -0.037230112 0.40600002 4280968764
0.081901804 -0.037230112 0.40600002 4279257121
0.08342547 -0.03732181 0.40700001 4281493311
0.084955633 -0.037413511 0.40800002 4280637489
0.086492293 -0.037505209 0.40900001 4280176940
0.088035442 -0.037596911 0.41000003 4280505905
0.089585088 -0.037688609 0.41100001 4281425724
0.091141239 -0.037780311 0.41200003 4280044584
0.092703879 -0.037872009 0.41300002 4281292864
0.057286412 -0.034584217 0.39100003 4286751634
0.058556378 -0.034584217 0.39100003 4287081371
0.059979353 -0.034672666 0.39200002 4284319090
0.061252572 -0.034672666 0.39200002 4281030975
0.062685288 -0.034761116 0.39300001 4280179514
0.06412451 -0.034849569 0.39400002 4279129390
0.06557022 -0.034938019 0.39500001 4279000623
0.067022428 -0.035026472 0.39600003 4279066416
0.068481132 -0.035114922 0.39700001 4279066416
0.069946341 -0.035203371 0.39800003 4279000621
0.07141804 -0.035291821 0.39900002 4278868519
0.072896227 -0.03538027 0.40000001 4279525679
0.074380919 -0.035468724 0.40100002 4279787568
0.075872101 -0.035557173 0.40200001 4280181299
0.077369787 -0.035645626 0.40300003 4280771383
0.078873962 -0.035734076 0.40400001 4279520291
0.080384642 -0.035822526 0.40500003 4281098042
0.081700079 -0.035822526 0.40500003 4280374319
0.083220489 -0.035910975 0.40600002 4280044330
0.084747404 -0.035999425 0.40700001 4280175916
0.086280823 -0.036087878 0.40800002 4281557056
0.087820716 -0.036176328 0.40900001 4279780645
0.089367121 -0.036264781 0.41000003 4281883972
0.090920024 -0.03635323 0.41100001 4284185957
0.054326419 -0.033058211 0.38800001 4286751121
0.055729914 -0.033143416 0.38900003 4286883220
0.0571399 -0.033228617 0.39000002 4284977020
0.058556378 -0.033313818 0.39100003 4280833598
0.059826348 -0.033313818 0.39100003 4280442940
0.061252572 -0.033399019 0.39200002 4279852084
0.062685288 -0.033484221 0.39300001 4279327021
0.06412451 -0.033569422 0.39400002 4279393584
0.065404221 -0.033569422 0.39400002 4279329074
0.066853181 -0.033654623 0.39500001 4279132207
0.068308644 -0.033739828 0.39600003 4279000619
0.069946341 -0.03391023 0.39800003 4279131691
0.07141804 -0.033995431 0.39900002 4279655469
0.072896227 -0.034080632 0.40000001 4280181299
0.074380919 -0.034165833 0.40100002 4280706360
0.07568337 -0.034165833 0.40100002 4279587113
0.0771778 -0.034251034 0.40200001 4281031995
0.078678735 -0.034336239 0.40300003 4280833846
0.080186158 -0.034421436 0.40400001 4280965432
0.081700079 -0.034506641 0.40500003 4280965432
0.083015516 -0.034506641 0.40500003 4281360192
0.084539182 -0.034591842 0.40600002 4280044332
0.086069345 -0.034677044 0.40700001 4281687874
0.087605998 -0.034762245 0.40800002 4282147911
0.089149155 -0.034847446 0.40900001 4286947730
0.033194292 -0.030896083 0.377 4279584301
0.034418788 -0.030896083 0.377 4281165130
0.035548743 -0.030814132 0.37600002 4286161296
0.051538929 -0.031633656 0.38600001 4286751121
0.052929427 -0.031715609 0.38700002 4287014806
0.054326419 -0.031797562 0.38800001 4285569157
0.055586647 -0.031797562 0.38800001 4281294149
0.056993388 -0.031879514 0.38900003 4280310330
0.058406614 -0.031961467 0.39000002 4279852086
0.059826348 -0.03204342 0.39100003 4279327791
0.061252572 -0.032125372 0.39200002 4279262511
0.062525786 -0.032125372 0.39200002 4279197486
0.063961752 -0.032207321 0.39300001 4279197486
0.065404221 -0.032289278 0.39400002 4278868521
0.066853181 -0.032371227 0.39500001 4278933544
0.068308644 -0.032453183 0.39600003 4279590191
0.069770597 -0.032535132 0.39700001 4279852850
0.07141804 -0.032699037 0.39900002 4280837948
0.072713986 -0.032699037 0.39900002 4279521318
0.07419543 -0.03278099 0.40000001 4281295932
0.07568337 -0.032862943 0.40100002 4280834870
0.0771778 -0.032944895 0.40200001 4281557823
0.078678735 -0.033026848 0.40300003 4280636208
0.079987675 -0.033026848 0.40300003 4280832563
0.081498347 -0.033108801 0.40400001 4279978024
0.083015516 -0.033190753 0.40500003 4281162813
0.084539182 -0.033272706 0.40600002 4281227839
0.085857876 -0.033272706 0.40600002 4285371001
0.08739128 -0.033354659 0.40700001 4286685580
0.033194292 -0.02967117 0.377 4280108074
0.034418788 -0.02967117 0.377 4280638522
0.035548743 -0.029592467 0.37600002 4280507198
0.03676999 -0.029592467 0.37600002 4282940257
0.037991241 -0.029592467 0.37600002 4287015578
0.050154928 -0.030300798 0.38500002 4286751121
0.051538929 -0.0303795 0.38600001 4286357900
0.052792657 -0.0303795 0.38600001 4281819726
0.054186404 -0.030458204 0.38700002 4280442688
0.055586647 -0.030536907 0.38800001 4279983672
0.056993388 -0.030615611 0.38900003 4279327791
0.058406614 -0.030694313 0.39000002 4279327789
0.059673335 -0.030694313 0.39000002 4279328300
0.061096318 -0.030773019 0.39100003 4279723830
0.062525786 -0.030851722 0.39200002 4278934316
0.063961752 -0.030930424 0.39300001 4278868521
0.065404221 -0.031009128 0.39400002 4279919926
0.066853181 -0.031087831 0.39500001 4279919156
0.068481132 -0.031245237 0.39700001 4280312887
0.069946341 -0.031323943 0.39800003 4279322914
0.07141804 -0.031402644 0.39900002 4280637752
0.072896227 -0.031481348 0.40000001 4280769336
0.07419543 -0.031481348 0.40000001 4279254303
0.07568337 -0.031560052 0.40100002 4279846951
0.0771778 -0.031638753 0.40200001 4280703032
0.078483492 -0.031638753 0.40200001 4280176686
0.079987675 -0.031717457 0.40300003 4280306989
0.081498347 -0.031796161 0.40400001 4281819460
0.082810536 -0.031796161 0.40400001 4283528801
0.084330961 -0.031874865 0.40500003 4286752404
0.085646406 -0.031874865 0.40500003 4286620302
0.034418788 -0.028446259 0.377 4280436778
0.035643287 -0.028446259 0.377 4279917361
0.036867782 -0.028446259 0.377 4280049977
0.037991241 -0.028370805 0.37600002 4280243774
0.039316773 -0.028446259 0.377 4285965198
0.04877742 -0.028974438 0.384 4287475357
0.050154928 -0.029049894 0.38500002 4282477140
0.051538929 -0.029125346 0.38600001 4280770368
0.052792657 -0.029125346 0.38600001 4280311613
0.054186404 -0.029200802 0.38700002 4279393843
0.055586647 -0.029276256 0.38800001 4279000109
0.056846872 -0.029276256 0.38800001 4279329072
0.058256857 -0.029351711 0.38900003 4279197486
0.059673335 -0.029427165 0.39000002 4278671142
0.061096318 -0.029502621 0.39100003 4278869037
0.062525786 -0.029578073 0.39200002 4279394097
0.063961752 -0.029653527 0.39300001 4279261226
0.065404221 -0.029728983 0.39400002 4280114738
0.067022428 -0.02987989 0.39600003 4279587111
0.068481132 -0.029955344 0.39700001 4278792207
0.069946341 -0.0300308 0.39800003 4279252504
0.07141804 -0.030106254 0.39900002 4281360708
0.072896227 -0.030181706 0.40000001 4279319072
0.07419543 -0.030181706 0.40000001 4280635956
0.07568337 -0.030257162 0.40100002 4281097790
0.076985814 -0.030257162 0.40100002 4279650344
0.078483492 -0.030332616 0.40200001 4281557571
0.079987675 -0.030408071 0.40300003 4281884485
0.081498347 -0.030483523 0.40400001 4287081623
0.082810536 -0.030483523 0.40400001 4286883220
0.084330961 -0.030558979 0.40500003 4286751634
0.085646406 -0.030558979 0.40500003 4286751121
0.036867782 -0.027221346 0.377 4279064365
0.038092278 -0.027221346 0.377 4279722810
0.039421067 -0.027293554 0.37800002 4279656504
0.040756345 -0.027365757 0.37900001 4281427788
0.042098124 -0.027437964 0.38000003 4286425236
0.043446396 -0.027510168 0.38100001 4286752917
0.044801168 -0.027582375 0.38200003 4287213468
0.04616243 -0.027654579 0.38300002 4286687124
0.047406413 -0.027654579 0.38300002 4283332195
0.04877742 -0.027726782 0.384 4280769856
0.050154928 -0.02779899 0.38500002 4279982135
0.051405411 -0.02779899 0.38500002 4279393330
0.052792657 -0.027871193 0.38600001 4279328304
0.054186404 -0.027943401 0.38700002 4279329072
0.055586647 -0.028015604 0.38800001 4279066412
0.056846872 -0.028015604 0.38800001 4279001132
0.058256857 -0.028087812 0.38900003 4278935341
0.059673335 -0.028160015 0.39000002 4279394095
0.061096318 -0.028232221 0.39100003 4279590961
0.062525786 -0.028304426 0.39200002 4280116022
0.06412451 -0.028448837 0.39400002 4280310834
0.06557022 -0.02852104 0.39500001 4279055127
0.067022428 -0.028593246 0.39600003 4279711774
0.068481132 -0.028665451 0.39700001 4281224243
0.069946341 -0.028737657 0.39800003 4281028147
0.07141804 -0.028809862 0.39900002 4280767288
0.072896227 -0.028882066 0.40000001 4280633905
0.07419543 -0.028882066 0.40000001 4280175405
0.07568337 -0.028954273 0.40100002 4281031743
0.076985814 -0.028954273 0.40100002 4281425218
0.035832375 -0.026134348 0.37900001 4279585062
0.037063368 -0.026134348 0.37900001 4278931496
0.03829436 -0.026134348 0.37900001 4278735654
0.039525352 -0.026134348 0.37900001 4279196205
0.040863883 -0.026203305 0.38000003 4279459125
0.042208906 -0.02627226 0.38100001 4279918652
0.043446396 -0.02627226 0.38100001 4279587379
0.044801168 -0.026341219 0.38200003 4280968262
0.04616243 -0.026410174 0.38300002 4280574274
0.047530189 -0.026479129 0.384 4279983418
0.04877742 -0.026479129 0.384 4279589941
0.050154928 -0.026548086 0.38500002 4279393330
0.051538929 -0.026617041 0.38600001 4279131693
0.052792657 -0.026617041 0.38600001 4279132207
0.054186404 -0.026685998 0.38700002 4279066927
0.055586647 -0.026754953 0.38800001 4278540070
0.056993388 -0.02682391 0.38900003 4279591474
0.058406614 -0.026892865 0.39000002 4279721777
0.059826348 -0.026961822 0.39100003 4279983922
0.061252572 -0.027030777 0.39200002 4280113457
0.062685288 -0.027099732 0.39300001 4279121431
0.06412451 -0.027168689 0.39400002 4278528013
0.06557022 -0.027237644 0.39500001 4281356345
0.067022428 -0.027306603 0.39600003 4280434473
0.068481132 -0.027375558 0.39700001 4279777567
0.069946341 -0.027444515 0.39800003 4281687360
0.07141804 -0.027513471 0.39900002 4279583781
0.072896227 -0.027582426 0.40000001 4281293886
0.07419543 -0.027582426 0.40000001 4281687620
0.07568337 -0.027651383 0.40100002 4283858275
0.034692679 -0.024968646 0.38000003 4283985237
0.035926919 -0.024968646 0.38000003 4279452193
0.03716116 -0.024968646 0.38000003 4279126562
0.038395401 -0.024968646 0.38000003 4278209308
0.039629642 -0.024968646 0.38000003 4278998824
0.040971417 -0.025034353 0.38100001 4279394097
0.042319693 -0.025100062 0.38200003 4279393330
0.04356043 -0.025100062 0.38200003 4279786805
0.044918448 -0.025165766 0.38300002 4279852598
0.04616243 -0.025165766 0.38300002 4279327791
0.047530189 -0.025231473 0.384 4278801960
0.048904449 -0.025297182 0.38500002 4279329072
0.050154928 -0.025297182 0.38500002 4279394863
0.051538929 -0.025362886 0.38600001 4279066412
0.052929427 -0.025428595 0.38700002 4278803240
0.054186404 -0.025428595 0.38700002 4279000107
0.055586647 -0.025494302 0.38800001 4279591474
0.056993388 -0.02556001 0.38900003 4279325992
0.058406614 -0.025625715 0.39000002 4280311604
0.059826348 -0.025691424 0.39100003 4279976740
0.061252572 -0.02575713 0.39200002 4279382809
0.062685288 -0.025822837 0.39300001 4280698417
0.06412451 -0.025888544 0.39400002 4280567344
0.06557022 -0.02595425 0.39500001 4279382557
0.067022428 -0.026019959 0.39600003 4279448350
0.068481132 -0.026085664 0.39700001 4279252506
0.069946341 -0.026151372 0.39800003 4281161530
0.07141804 -0.026217079 0.39900002 4281557058
0.034875274 -0.023858905 0.38200003 4283985239
0.036116011 -0.023858905 0.38200003 4279648543
0.037356745 -0.023858905 0.38200003 4279190556
0.038597483 -0.023858905 0.38200003 4278273304
0.039838221 -0.023858905 0.38200003 4278800675
0.041078955 -0.023858905 0.38200003 4278934314
0.042319693 -0.023858905 0.38200003 4278276386
0.043674462 -0.023921361 0.38300002 4281038668
0.044918448 -0.023921361 0.38300002 4283669875
0.046282958 -0.023983818 0.384 4279461172
0.047530189 -0.023983818 0.384 4278869037
0.048904449 -0.024046278 0.38500002 4279264304
0.050285202 -0.024108734 0.38600001 4278737960
0.051672455 -0.024171194 0.38700002 4279459886
0.052929427 -0.024171194 0.38700002 4280050740
0.054326419 -0.02423365 0.38800001 4279655984
0.055729914 -0.024296109 0.38900003 4278865441
0.0571399 -0.024358567 0.39000002 4280178483
0.058556378 -0.024421025 0.39100003 4280177199
0.059826348 -0.024421025 0.39100003 4279843873
0.061252572 -0.024483481 0.39200002 4279448602
0.062685288 -0.02454594 0.39300001 4281026610
0.06412451 -0.024608398 0.39400002 4280236582
0.06557022 -0.024670856 0.39500001 4279052824
0.069946341 -0.024858231 0.39800003 4281489981
0.034966566 -0.022676956 0.38300002 4281946939
0.036210552 -0.022676956 0.38300002 4279780129
0.037454538 -0.022676956 0.38300002 4278993177
0.038698524 -0.022676956 0.38300002 4278666009
0.039942507 -0.022676956 0.38300002 4278732572
0.041186489 -0.022676956 0.38300002 4279590189
0.042541262 -0.022736164 0.384 4278998822
0.043788493 -0.022736164 0.384 4279000107
0.045035727 -0.022736164 0.384 4278868521
0.046403486 -0.022795374 0.38500002 4279000105
0.047653969 -0.022795374 0.38500002 4279000359
0.04903147 -0.022854581 0.38600001 4279329324
0.050285202 -0.022854581 0.38600001 4279525933
0.051672455 -0.022913791 0.38700002 4279984174
0.053066194 -0.022972999 0.38800001 4280312115
0.054466438 -0.023032209 0.38900003 4280246324
0.055729914 -0.023032209 0.38900003 4278402072
0.0571399 -0.023091417 0.39000002 4280769336
0.058556378 -0.023150627 0.39100003 4278465046
0.059979353 -0.023209834 0.39200002 4279844643
0.061408829 -0.023269042 0.39300001 4280172838
0.062844798 -0.023328252 0.39400002 4279381785
0.06412451 -0.023328252 0.39400002 4281092405
0.06557022 -0.02338746 0.39500001 4281424448
0.033898681 -0.02154447 0.38500002 4284248924
0.035149161 -0.02154447 0.38500002 4280236832
0.036399644 -0.02154447 0.38500002 4279583779
0.037650123 -0.02154447 0.38500002 4278993949
0.038900606 -0.02154447 0.38500002 4278665496
0.040151086 -0.02154447 0.38500002 4278862873
0.041401565 -0.02154447 0.38500002 4278864669
0.042652048 -0.02154447 0.38500002 4279786541
0.043902528 -0.02154447 0.38500002 4279130408
0.045153007 -0.02154447 0.38500002 4279656752
0.046403486 -0.02154447 0.38500002 4279459373
0.047777742 -0.021600427 0.38600001 4279655982
0.04903147 -0.021600427 0.38600001 4280379446
0.050415475 -0.021656388 0.38700002 4279852588
0.051805973 -0.021712348 0.38800001 4280246576
0.053202964 -0.021768307 0.38900003 4280114990
0.054466438 -0.021768307 0.38900003 4280705077
0.055873174 -0.021824267 0.39000002 4279650342
0.057286412 -0.021880228 0.39100003 4281492546
0.058556378 -0.021880228 0.39100003 4279318045
0.059979353 -0.021936186 0.39200002 4279513371
0.061408829 -0.021992145 0.39300001 4281093173
0.062844798 -0.022048106 0.39400002 4281818946
0.033986729 -0.020346273 0.38600001 4284447071
0.035240456 -0.020346273 0.38600001 4279843612
0.036494188 -0.020346273 0.38600001 4279452447
0.037747912 -0.020346273 0.38600001 4279058970
0.039001644 -0.020346273 0.38600001 4278796568
0.040255371 -0.020346273 0.38600001 4278862875
0.041509099 -0.020346273 0.38600001 4279258914
0.042762831 -0.020346273 0.38600001 4279456293
0.044016559 -0.020346273 0.38600001 4280378680
0.045270287 -0.020346273 0.38600001 4279983922
0.046524014 -0.020346273 0.38600001 4279983922
0.047901522 -0.020398986 0.38700002 4279918129
0.049158495 -0.020398986 0.38700002 4279918129
0.050545745 -0.020451695 0.38800001 4280048943
0.051939495 -0.020504406 0.38900003 4280443188
0.053202964 -0.020504406 0.38900003 4280048430
0.054606453 -0.020557117 0.39000002 4280440112
0.056016441 -0.020609828 0.39100003 4281162811
0.057286412 -0.020609828 0.39100003 4279714854
0.058706135 -0.020662537 0.39200002 4279844389
0.059979353 -0.020662537 0.39200002 4281884737
0.061408829 -0.020715248 0.39300001 4281885505
0.062685288 -0.020715248 0.39300001 4283266140
0.03407478 -0.019141583 0.38700002 4281355567
0.035331756 -0.019141583 0.38700002 4279909916
0.036588732 -0.019141583 0.38700002 4279386652
0.037845708 -0.019141583 0.38700002 4278862361
0.039102685 -0.019141583 0.38700002 4278862875
0.040359661 -0.019141583 0.38700002 4279126560
0.041616637 -0.019141583 0.38700002 4279325222
0.042873617 -0.019141583 0.38700002 4279456808
0.044016559 -0.01909212 0.38600001 4280181301
0.04538757 -0.019141583 0.38700002 4279918131
0.046644546 -0.019141583 0.38700002 4279786545
0.047901522 -0.019141583 0.38700002 4279786545
0.04928552 -0.019191043 0.38800001 4279983924
0.050676022 -0.019240506 0.38900003 4280312889
0.052073013 -0.019289967 0.39000002 4279982641
0.053339731 -0.019289967 0.39000002 4280705592
0.054746471 -0.019339429 0.39100003 4278991642
0.056016441 -0.019339429 0.39100003 4281031997
0.057286412 -0.019339429 0.39100003 4280638522
0.058706135 -0.01938889 0.39200002 4281097790
0.059979353 -0.01938889 0.39200002 4282411345
0.027718086 -0.017837968 0.38600001 4283789920
0.034162827 -0.017930392 0.38800001 4279317014
0.035423048 -0.017930392 0.38800001 4279845922
0.036683276 -0.017930392 0.38800001 4279321629
0.037943501 -0.017930392 0.38800001 4278862361
0.039203726 -0.017930392 0.38800001 4278731802
0.04046395 -0.017930392 0.38800001 4278929951
0.041724171 -0.017930392 0.38800001 4279260199
0.042873617 -0.01788418 0.38700002 4279391785
0.04413059 -0.01788418 0.38700002 4280378680
0.04538757 -0.01788418 0.38700002 4279983922
0.046765074 -0.017930392 0.38800001 4280312887
0.048025295 -0.017930392 0.38800001 4280115508
0.049412545 -0.017976604 0.38900003 4280181303
0.050806291 -0.018022817 0.39000002 4280312119
0.052073013 -0.018022817 0.39000002 4280508985
0.053476501 -0.018069031 0.39100003 4280837180
0.054746471 -0.018069031 0.39100003 4280110895
0.056016441 -0.018069031 0.39100003 4281361221
0.032987405 -0.016712705 0.38900003 4281881657
0.034250874 -0.016712705 0.38900003 4279779615
0.035514347 -0.016712705 0.38900003 4279584033
0.03677782 -0.016712705 0.38900003 4279387935
0.038041294 -0.016712705 0.38900003 4278928154
0.039304767 -0.016712705 0.38900003 4279455010
0.04056824 -0.016712705 0.38900003 4279455010
0.041724171 -0.016669741 0.38800001 4279456806
0.0429844 -0.016669741 0.38800001 4279654957
0.044244621 -0.016669741 0.38800001 4279720752
0.045504849 -0.016669741 0.38800001 4279852338
0.046765074 -0.016669741 0.38800001 4280115508
0.048149075 -0.016712705 0.38900003 4279983922
0.049412545 -0.016712705 0.38900003 4279983924
0.050806291 -0.016755667 0.39000002 4280377912
0.052206539 -0.01679863 0.39100003 4280508985
0.053476501 -0.01679863 0.39100003 4280573241
0.054886486 -0.016841594 0.39200002 4282477138
0.030460458 -0.015448804 0.38900003 4285896064
0.031723931 -0.015448804 0.38900003 4279710236
0.032987405 -0.015448804 0.38900003 4280302627
0.034250874 -0.015448804 0.38900003 4279977508
0.035605643 -0.015488517 0.39000002 4279190043
0.036872365 -0.015488517 0.39000002 4279059740
0.038139086 -0.015488517 0.39000002 4278928154
0.039405808 -0.015488517 0.39000002 4279520289
0.04056824 -0.015448804 0.38900003 4279587109
0.041831709 -0.015448804 0.38900003 4279260199
0.043095186 -0.015448804 0.38900003 4280181563
0.044358656 -0.015448804 0.38900003 4279852852
0.045622133 -0.015448804 0.38900003 4279984438
0.046885602 -0.015448804 0.38900003 4279852852
0.048149075 -0.015448804 0.38900003 4280115510
0.04953957 -0.015488517 0.39000002 4280641084
0.050936565 -0.015528233 0.39100003 4280575291
0.052206539 -0.015528233 0.39100003 4281162811
0.033072203 -0.014221366 0.39000002 4279974692
0.034338925 -0.014221366 0.39000002 4280042535
0.035605643 -0.014221366 0.39000002 4279584033
0.036872365 -0.014221366 0.39000002 4279190556
0.038139086 -0.014221366 0.39000002 4279257119
0.039405808 -0.014221366 0.39000002 4279850281
0.040672526 -0.014221366 0.39000002 4279522086
0.041939247 -0.014221366 0.39000002 4279391787
0.043095186 -0.014184902 0.38900003 4280247096
0.044358656 -0.014184902 0.38900003 4279392301
0.045622133 -0.014184902 0.38900003 4280116024
0.04700613 -0.014221366 0.39000002 4280509498
0.048272848 -0.014221366 0.39000002 4280048947
0.04953957 -0.014221366 0.39000002 4280769338
0.050936565 -0.014257832 0.39100003 4284451180
0.052206539 -0.014257832 0.39100003 4287147416
0.034338925 -0.012954217 0.39000002 4283659615
0.035605643 -0.012954217 0.39000002 4279450398
0.036872365 -0.012954217 0.39000002 4279519521
0.038139086 -0.012954217 0.39000002 4279586084
0.039405808 -0.012954217 0.39000002 4279522086
0.040672526 -0.012954217 0.39000002 4279456806
0.041939247 -0.012954217 0.39000002 4280247094
0.043205969 -0.012954217 0.39000002 4280312889
0.044472687 -0.012954217 0.39000002 4280378682
0.045739412 -0.012954217 0.39000002 4280181303
0.04700613 -0.012954217 0.39000002 4280639034
0.048272848 -0.012954217 0.39000002 4282676052
0.036966912 -0.011717035 0.39100003 4280700211
0.038236879 -0.011717035 0.39100003 4279978026
0.039506849 -0.011717035 0.39100003 4279718697
0.040672526 -0.011687067 0.39000002 4279982639
0.041939247 -0.011687067 0.39000002 4280312889
0.043205969 -0.011687067 0.39000002 4280247096
0.044472687 -0.011687067 0.39000002 4280574008
0.039506849 -0.010446636 0.39100003 4285634173
0.040776815 -0.010446636 0.39100003 4283792734
0.064402528 -0.030713931 0.39719492 4294967295
0.064402528 -0.030713931 0.39719492 4294901760
0.064402528 -0.030713931 0.39769492 4294901760
0.064402528 -0.030713931 0.39819491 4294901760
0.064402528 -0.030713931 0.39869493 4294901760
0.064402528 -0.030713931 0.39919493 4294901760
0.064402528 -0.030713931 0.39969492 4294901760
0.064402528 -0.030713931 0.40019491 4294901760
0.064402528 -0.030713931 0.40069494 4294901760
0.064402528 -0.030713931 0.40119493 4294901760
0.064402528 -0.030713931 0.40169492 4294901760
0.064402528 -0.030713931 0.40219492 4294901760
0.064402528 -0.030713931 0.40269491 4294901760
0.064402528 -0.030713931 0.40319493 4294901760
0.064402528 -0.030713931 0.40369493 4294901760
0.064402528 -0.030713931 0.40419492 4294901760
0.064402528 -0.030713931 0.40469491 4294901760
0.064402528 -0.030713931 0.40519494 4294901760
0.064402528 -0.030713931 0.40569493 4294901760
0.064402528 -0.030713931 0.40619493 4294901760
0.064402528 -0.030713931 0.40669492 4294901760
0.064402528 -0.030713931 0.40719491 4294901760
0.064402528 -0.030713931 0.40769494 4294901760
0.064402528 -0.030713931 0.40819493 4294901760
0.064402528 -0.030713931 0.40869492 4294901760
0.064402528 -0.030713931 0.40919492 4294901760
0.064402528 -0.030713931 0.40969491 4294901760
0.064402528 -0.030713931 0.41019493 4294901760
0.064402528 -0.030713931 0.41069493 4294901760
0.064402528 -0.030713931 0.41119492 4294901760
0.064402528 -0.030713931 0.41169491 4294901760
0.064402528 -0.030713931 0.41219494 4294901760
0.064402528 -0.030713931 0.41269493 4294901760
0.064402528 -0.030713931 0.41319492 4294901760
0.064402528 -0.030713931 0.41369492 4294901760
0.064402528 -0.030713931 0.41419494 4294901760
0.064402528 -0.030713931 0.41469494 4294901760
0.064402528 -0.030713931 0.41519493 4294901760
0.064402528 -0.030713931 0.41569492 4294901760
0.064402528 -0.030713931 0.41619492 4294901760
0.064402528 -0.030713931 0.41669494 4294901760
0.064402528 -0.030713931 0.41719493 4294901760
0.064402528 -0.030713931 0.41769493 4294901760
0.064402528 -0.030713931 0.41819492 4294901760
0.064402528 -0.030713931 0.41869491 4294901760
0.064402528 -0.030713931 0.41919494 4294901760
0.064402528 -0.030713931 0.41969493 4294901760
0.064402528 -0.030713931 0.42019492 4294901760
0.064402528 -0.030713931 0.42069492 4294901760
0.064402528 -0.030713931 0.42119494 4294901760
0.064402528 -0.030713931 0.42169493 4294901760
0.064402528 -0.030713931 0.42219493 4294901760
0.064402528 -0.030713931 0.42269492 4294901760
0.064402528 -0.030713931 0.42319492 4294901760
0.064402528 -0.030713931 0.42369494 4294901760
0.064402528 -0.030713931 0.42419493 4294901760
0.064402528 -0.030713931 0.42469493 4294901760
0.064402528 -0.030713931 0.42519492 4294901760
0.064402528 -0.030713931 0.42569494 4294901760
0.064402528 -0.030713931 0.42619494 4294901760
0.064402528 -0.030713931 0.42669493 4294901760
0.064402528 -0.030713931 0.42719492 4294901760
0.064402528 -0.030713931 0.42769492 4294901760
0.064402528 -0.030713931 0.42819494 4294901760
0.064402528 -0.030713931 0.42869493 4294901760
0.064402528 -0.030713931 0.42919493 4294901760
0.064402528 -0.030713931 0.42969492 4294901760
0.064402528 -0.030713931 0.43019494 4294901760
0.064402528 -0.030713931 0.43069494 4294901760
0.064402528 -0.030713931 0.43119493 4294901760
0.064402528 -0.030713931 0.43169492 4294901760
0.064402528 -0.030713931 0.43219492 4294901760
0.064402528 -0.030713931 0.43269494 4294901760
0.064402528 -0.030713931 0.43319494 4294901760
0.064402528 -0.030713931 0.43369493 4294901760
0.064402528 -0.030713931 0.43419492 4294901760
0.064402528 -0.030713931 0.43469495 4294901760
0.064402528 -0.030713931 0.43519494 4294901760
0.064402528 -0.030713931 0.43569493 4294901760
0.064402528 -0.030713931 0.43619493 4294901760
0.064402528 -0.030713931 0.43669492 4294901760
0.064402528 -0.030713931 0.43719494 4294901760
0.064402528 -0.030713931 0.43769494 4294901760
0.064402528 -0.030713931 0.43819493 4294901760
0.064402528 -0.030713931 0.43869492 4294901760
0.064402528 -0.030713931 0.43919492 4294901760
0.064402528 -0.030713931 0.43969494 4294901760
0.064402528 -0.030713931 0.44019493 4294901760
0.064402528 -0.030713931 0.44069493 4294901760
0.064402528 -0.030713931 0.44119492 4294901760
0.064402528 -0.030713931 0.44169492 4294901760
0.064402528 -0.030713931 0.44219494 4294901760
0.064402528 -0.030713931 0.44269493 4294901760
0.064402528 -0.030713931 0.44319493 4294901760
0.064402528 -0.030713931 0.44369495 4294901760
0.064402528 -0.030713931 0.44419494 4294901760
0.064402528 -0.030713931 0.44469494 4294901760
0.064402528 -0.030713931 0.44519493 4294901760
0.064402528 -0.030713931 0.44569492 4294901760
0.064402528 -0.030713931 0.44619495 4294901760
0.064402528 -0.030713931 0.44669494 4294901760
0.064402528 -0.030713931 0.44719493 4294901760
0.064402528 -0.030713931 0.39719492 4278255360
0.064170264 -0.030539745 0.39760199 4278255360
0.063937992 -0.030365562 0.39800906 4278255360
0.063705727 -0.030191377 0.39841616 4278255360
0.063473463 -0.030017192 0.39882323 4278255360
0.063241199 -0.029843006 0.3992303 4278255360
0.063008927 -0.029668823 0.3996374 4278255360
0.062776662 -0.029494638 0.40004447 4278255360
0.062544398 -0.029320452 0.40045154 4278255360
0.06231213 -0.029146267 0.40085861 4278255360
0.062079862 -0.028972084 0.40126568 4278255360
0.061847597 -0.028797898 0.40167278 4278255360
0.061615329 -0.028623713 0.40207985 4278255360
0.061383065 -0.028449528 0.40248692 4278255360
0.061150797 -0.028275345 0.40289402 4278255360
0.060918532 -0.028101159 0.40330109 4278255360
0.060686264 -0.027926974 0.40370816 4278255360
0.060453996 -0.027752789 0.40411523 4278255360
0.060221732 -0.027578605 0.40452233 4278255360
0.059989464 -0.02740442 0.4049294 4278255360
0.059757199 -0.027230235 0.40533647 4278255360
0.059524931 -0.02705605 0.40574354 4278255360
0.059292667 -0.026881866 0.40615064 4278255360
0.059060398 -0.026707681 0.40655771 4278255360
0.058828134 -0.026533496 0.40696478 4278255360
0.058595866 -0.026359312 0.40737185 4278255360
0.058363602 -0.026185127 0.40777892 4278255360
0.058131333 -0.026010942 0.40818602 4278255360
0.057899065 -0.025836756 0.40859309 4278255360
0.057666801 -0.025662571 0.40900016 4278255360
0.057434533 -0.025488388 0.40940726 4278255360
0.057202268 -0.025314203 0.40981433 4278255360
0.05697 -0.025140017 0.4102214 4278255360
0.056737736 -0.024965834 0.41062847 4278255360
0.056505468 -0.024791649 0.41103554 4278255360
0.0562732 -0.024617463 0.41144264 4278255360
0.056040935 -0.024443278 0.41184971 4278255360
0.055808667 -0.024269093 0.41225678 4278255360
0.055576403 -0.024094909 0.41266388 4278255360
0.055344135 -0.023920724 0.41307095 4278255360
0.05511187 -0.023746539 0.41347802 4278255360
0.054879602 -0.023572356 0.41388509 4278255360
0.054647334 -0.02339817 0.41429216 4278255360
0.05441507 -0.023223985 0.41469926 4278255360
0.054182801 -0.023049802 0.41510633 4278255360
0.053950537 -0.022875616 0.4155134 4278255360
0.053718269 -0.022701431 0.4159205 4278255360
0.053486004 -0.022527246 0.41632757 4278255360
0.053253736 -0.022353061 0.41673464 4278255360
0.053021468 -0.022178877 0.41714171 4278255360
0.052789204 -0.022004692 0.41754878 4278255360
0.052556939 -0.021830507 0.41795588 4278255360
0.052324671 -0.021656323 0.41836295 4278255360
0.052092403 -0.021482138 0.41877002 4278255360
0.051860139 -0.021307953 0.41917711 4278255360
0.051627871 -0.021133767 0.41958418 4278255360
0.051395606 -0.020959582 0.41999125 4278255360
0.051163338 -0.020785399 0.42039832 4278255360
0.050931074 -0.020611214 0.42080539 4278255360
0.050698806 -0.020437028 0.42121249 4278255360
0.050466537 -0.020262845 0.42161956 4278255360
0.050234273 -0.020088658 0.42202663 4278255360
0.050002005 -0.019914474 0.42243373 4278255360
0.049769741 -0.019740291 0.4228408 4278255360
0.049537472 -0.019566106 0.42324787 4278255360
0.049305208 -0.01939192 0.42365494 4278255360
0.04907294 -0.019217735 0.42406204 4278255360
0.048840672 -0.01904355 0.42446911 4278255360
0.048608407 -0.018869366 0.42487618 4278255360
0.048376143 -0.018695181 0.42528325 4278255360
0.048143875 -0.018520996 0.42569035 4278255360
0.047911607 -0.018346813 0.42609742 4278255360
0.047679342 -0.018172625 0.42650449 4278255360
0.047447074 -0.017998442 0.42691156 4278255360
0.047214806 -0.017824257 0.42731863 4278255360
0.046982542 -0.017650072 0.42772573 4278255360
0.046750277 -0.017475888 0.4281328 4278255360
0.046518009 -0.017301703 0.42853987 4278255360
0.046285741 -0.017127518 0.42894697 4278255360
0.046053477 -0.016953334 0.42935404 4278255360
0.045821209 -0.016779147 0.42976111 4278255360
0.04558894 -0.016604964 0.43016818 4278255360
0.045356676 -0.01643078 0.43057525 4278255360
0.045124412 -0.016256593 0.43098235 4278255360
0.044892143 -0.01608241 0.43138942 4278255360
0.044659875 -0.015908225 0.43179649 4278255360
0.044427611 -0.015734039 0.43220359 4278255360
0.044195347 -0.015559855 0.43261066 4278255360
0.043963075 -0.015385671 0.43301773 4278255360
0.04373081 -0.015211486 0.4334248 4278255360
0.043498546 -0.015037302 0.43383187 4278255360
0.043266278 -0.014863115 0.43423897 4278255360
0.04303401 -0.014688931 0.43464604 4278255360
0.042801745 -0.014514746 0.43505311 4278255360
0.042569481 -0.014340561 0.43546021 4278255360
0.042337213 -0.014166377 0.43586728 4278255360
0.042104945 -0.013992192 0.43627435 4278255360
0.04187268 -0.013818007 0.43668142 4278255360
0.041640412 -0.013643822 0.43708849 4278255360
0.041408144 -0.013469638 0.43749559 4278255360
0.04117588 -0.013295453 0.43790266 4278255360
