# .PCD v0.7 - Point Cloud Data file format
VERSION 0.7
FIELDS x y z rgb
SIZE 4 4 4 4
TYPE F F F U
COUNT 1 1 1 1
WIDTH 879
HEIGHT 1
VIEWPOINT 0 0 0 1 0 0 0
POINTS 879
DATA ascii
-0.016957978 -0.022663662 0.40500003 4281812525
-0.018183179 -0.021242354 0.40300003 4281614892
-0.016916106 -0.021295063 0.40400001 4282077242
-0.015681161 -0.021400485 0.40600002 4281945402
-0.013108037 -0.021505907 0.40800002 4281090356
-0.0092220176 -0.021716749 0.41200003 4280827956
0.0082734823 -0.021980301 0.41700003 4284650875
0.0096278992 -0.021980301 0.41700003 4286425490
-0.018138058 -0.019883504 0.40200001 4281418290
-0.01307591 -0.020130811 0.40700001 4281156401
-0.011782853 -0.020180274 0.40800002 4280958257
-0.0052327667 -0.020477042 0.41400003 4280761391
-0.0025495645 -0.020526502 0.41500002 4280761132
-0.0012016437 -0.020526502 0.41500002 4280958511
0.0014977981 -0.020575963 0.41600001 4281287472
0.0028489667 -0.020575963 0.41600001 4281222192
0.0069190655 -0.020625426 0.41700003 4279590193
0.0082734823 -0.020625426 0.41700003 4280182330
0.0096278992 -0.020625426 0.41700003 4279524916
0.011008652 -0.020674886 0.41800001 4280049979
0.015153807 -0.020773809 0.42000002 4281561169
0.019383764 -0.020922193 0.42300001 4280116285
0.020806741 -0.020971656 0.42400002 4279788601
0.022236213 -0.021021117 0.42500001 4279921211
0.023672184 -0.021070579 0.42600003 4279198515
0.025114648 -0.02112004 0.42700002 4278870318
0.026563611 -0.021169502 0.42800003 4279330869
0.028019065 -0.021218963 0.42900002 4278409767
0.045669109 -0.023098499 0.46700001 4278198784
-0.0052327667 -0.019131914 0.41400003 4280695339
0.00014662951 -0.019224338 0.41600001 4281417774
0.0014977981 -0.019224338 0.41600001 4281418028
0.0028558155 -0.01927055 0.41700003 4281220649
0.0042102323 -0.01927055 0.41700003 4281089577
0.0055646491 -0.01927055 0.41700003 4279448602
0.0069190655 -0.01927055 0.41700003 4279127332
0.0082734823 -0.01927055 0.41700003 4279194922
0.0096509876 -0.019316763 0.41800001 4278802728
0.011008652 -0.019316763 0.41800001 4279460656
0.012366317 -0.019316763 0.41800001 4283736435
0.013756815 -0.019362975 0.41900003 4280446018
0.015153807 -0.019409187 0.42000002 4280380479
0.016557297 -0.019455401 0.42100003 4280052027
0.017967282 -0.019501612 0.42200002 4279724857
0.019383764 -0.019547824 0.42300001 4279198513
0.020806741 -0.019594038 0.42400002 4279000621
0.022288535 -0.019686462 0.42600003 4279659062
0.02372775 -0.019732675 0.42700002 4278475558
0.025173465 -0.019778887 0.42800003 4278475558
0.026687738 -0.019871311 0.43000001 4278475558
0.02814969 -0.019917523 0.43100002 4278212129
0.040854514 -0.021442531 0.46400002 4278199808
-0.024421105 -0.017099373 0.39800003 4281285157
-0.0231284 -0.017099373 0.39800003 4281220649
-0.0065774391 -0.017786786 0.41400003 4280827184
-0.0012045392 -0.017872712 0.41600001 4280101916
0.00014662951 -0.017872712 0.41600001 4281023016
0.0028558155 -0.017915675 0.41700003 4281285929
0.0042203283 -0.017958637 0.41800001 4281089063
0.0069356579 -0.017958637 0.41800001 4279059742
0.0082933232 -0.017958637 0.41800001 4279126560
0.0096509876 -0.017958637 0.41800001 4278273818
0.011008652 -0.017958637 0.41800001 4278800673
0.012395903 -0.018001603 0.41900003 4278540068
0.013789647 -0.018044565 0.42000002 4278737449
0.015153807 -0.018044565 0.42000002 4279790389
0.016557297 -0.018087529 0.42100003 4279396144
0.018009858 -0.018173454 0.42300001 4279133742
0.019429589 -0.018216418 0.42400002 4278607398
0.020855812 -0.01825938 0.42500001 4278672421
0.022288535 -0.018302346 0.42600003 4278672421
0.023783321 -0.018388271 0.42800003 4278408736
0.025232282 -0.018431233 0.42900002 4278737187
0.026749803 -0.018517161 0.43100002 4278407968
0.028345628 -0.01864605 0.43400002 4278802726
0.030166626 -0.018903831 0.44000003 4278934312
0.031882979 -0.019075684 0.44400004 4279788338
0.035628553 -0.019548278 0.45500001 4278200834
-0.010483299 -0.016243087 0.40900001 4280960307
-0.0092220176 -0.016362229 0.41200003 4280763442
0.00014698198 -0.0165608 0.41700003 4280825637
0.0015049991 -0.016600514 0.41800001 4281351720
0.0028626637 -0.016600514 0.41800001 4281220388
0.0042203283 -0.016600514 0.41800001 4281155108
0.005591338 -0.016640229 0.41900003 4279644182
0.0069522504 -0.016640229 0.41900003 4279124765
0.0083131632 -0.016640229 0.41900003 4278928668
0.0096740769 -0.016640229 0.41900003 4278667292
0.011034989 -0.016640229 0.41900003 4278865955
0.012425486 -0.016679943 0.42000002 4278867236
0.013789647 -0.016679943 0.42000002 4279065382
0.015189888 -0.016719656 0.42100003 4279131945
0.016596625 -0.016759371 0.42200002 4279329324
0.018009858 -0.016799085 0.42300001 4278868773
0.019429589 -0.016838798 0.42400002 4279000105
0.020855812 -0.016878514 0.42500001 4279723312
0.022340855 -0.016957941 0.42700002 4279196455
0.023838889 -0.017037369 0.42900002 4278339349
0.028476253 -0.017315369 0.43600002 4279127332
0.030235186 -0.017513938 0.44100001 4278200330
0.031954788 -0.017672796 0.44500002 4278331663
-0.007922112 -0.015096528 0.41400003 4280631852
-0.0065933261 -0.015132993 0.41500002 4280762926
0.00014733446 -0.015242388 0.41800001 4281220395
0.0015085997 -0.015278853 0.41900003 4281286181
0.0028695124 -0.015278853 0.41900003 4281154595
0.0042304252 -0.015278853 0.41900003 4281089315
0.0069688428 -0.015315318 0.42000002 4279058205
0.0083330041 -0.015315318 0.42000002 4278993947
0.0096971644 -0.015315318 0.42000002 4279060767
0.011061325 -0.015315318 0.42000002 4278995744
0.012425486 -0.015315318 0.42000002 4279129125
0.01382248 -0.015351783 0.42100003 4278867490
0.015225968 -0.015388248 0.42200002 4278802208
0.016635953 -0.015424713 0.42300001 4279328554
0.018052435 -0.015461178 0.42400002 4278999335
0.019475412 -0.015497643 0.42500001 4279394093
0.020904887 -0.015534109 0.42600003 4279525166
0.022393174 -0.015607039 0.42800003 4280445498
0.023838889 -0.015643504 0.42900002 4279652904
0.02540873 -0.015752899 0.43200001 4278797084
0.026935996 -0.015825829 0.43400002 4278723857
0.028541565 -0.015935224 0.43700001 4278789138
0.030235186 -0.016081084 0.44100001 4278854677
0.031954788 -0.016226944 0.44500002 4278526480
0.035471946 -0.016518664 0.45300001 4278200069
-0.023070287 -0.013186729 0.39700001 4281352245
-0.021780832 -0.013186729 0.39700001 4280760880
-0.0092667853 -0.013751401 0.41400003 4283391289
-0.007922112 -0.013751401 0.41400003 4281616169
-0.0065933261 -0.013784616 0.41500002 4281025583
-0.0039162682 -0.013851047 0.41700003 4281155888
-0.0025679951 -0.013884263 0.41800001 4281024302
-0.0012103303 -0.013884263 0.41800001 4281286704
0.00014768694 -0.01391748 0.41900003 4281220395
0.0015122001 -0.013950695 0.42000002 4281350952
0.0028763607 -0.013950695 0.42000002 4281614122
0.0042506182 -0.013983912 0.42100003 4281615919
0.0069854357 -0.013983912 0.42100003 4279255584
0.008352845 -0.013983912 0.42100003 4279059742
0.0097202538 -0.013983912 0.42100003 4278732572
0.011087662 -0.013983912 0.42100003 4279061535
0.012455071 -0.013983912 0.42100003 4279063586
0.013855312 -0.014017127 0.42200002 4278735904
0.015262048 -0.014050343 0.42300001 4278868003
0.016635953 -0.014050343 0.42300001 4278867749
0.018052435 -0.01408356 0.42400002 4279065128
0.019475412 -0.014116775 0.42500001 4279459373
0.020953959 -0.014183206 0.42700002 4279524396
0.022393174 -0.014216423 0.42800003 4279589678
0.025467549 -0.014382503 0.43300003 4278200077
0.028606879 -0.014548583 0.43800002 4280895026
0.030303748 -0.014681446 0.44200003 4280435245
0.031954788 -0.014781094 0.44500002 4278396175
0.03539364 -0.015013605 0.45200002 4278200845
0.044057749 -0.015478629 0.46600002 4278201864
-0.019201918 -0.011896836 0.39700001 4280892977
-0.0065933261 -0.012436239 0.41500002 4281286954
-0.0052580452 -0.012466205 0.41600001 4281286704
-0.0039162682 -0.012496172 0.41700003 4281221681
-0.0025679951 -0.012526139 0.41800001 4281287474
-0.0012132258 -0.012556106 0.41900003 4281156140
0.00014803941 -0.012586073 0.42000002 4281155370
0.0015158006 -0.01261604 0.42100003 4281350952
0.0028900579 -0.012646006 0.42200002 4281351722
0.0070020277 -0.012646006 0.42200002 4279320859
0.0083726849 -0.012646006 0.42200002 4279256349
0.0097433422 -0.012646006 0.42200002 4278995744
0.011113998 -0.012646006 0.42200002 4279062048
0.012484656 -0.012646006 0.42200002 4278603035
0.013888145 -0.012675973 0.42300001 4278670111
0.015262048 -0.012675973 0.42300001 4278867749
0.016675282 -0.012705941 0.42400002 4278867749
0.018095011 -0.012735907 0.42500001 4279262507
0.019521238 -0.012765874 0.42600003 4279525166
0.020953959 -0.01279584 0.42700002 4279655471
0.022445494 -0.012855775 0.42900002 4278996005
0.025467549 -0.012975642 0.43300003 4279516451
0.027060125 -0.013065542 0.43600002 4278593554
0.02867219 -0.013155443 0.43900001 4280106793
0.030303748 -0.013245343 0.44200003 4281160251
0.031954788 -0.013335244 0.44500002 4278924314
-0.0065933261 -0.011087862 0.41500002 4281286442
-0.0052580452 -0.011114579 0.41600001 4281418290
-0.0039256597 -0.011168014 0.41800001 4281353267
-0.0025741386 -0.011194733 0.41900003 4281353267
-0.0012161214 -0.01122145 0.42000002 4281221933
0.00014839189 -0.011248169 0.42100003 4281155370
0.0015194011 -0.011274885 0.42200002 4281220649
0.0028969061 -0.011301603 0.42300001 4281286442
0.0056447159 -0.011301603 0.42300001 4279779100
0.0070186201 -0.011301603 0.42300001 4279255836
0.0083925249 -0.011301603 0.42300001 4278795796
0.0097664297 -0.011301603 0.42300001 4279191838
0.011140334 -0.011301603 0.42300001 4279258914
0.012514239 -0.011301603 0.42300001 4279721262
0.013920978 -0.011328321 0.42400002 4278800673
0.015298129 -0.011328321 0.42400002 4278867749
0.01671461 -0.011355039 0.42500001 4278933542
0.018137589 -0.011381757 0.42600003 4279262509
0.019567061 -0.011408474 0.42700002 4279327789
0.021003032 -0.011435192 0.42800003 4279919156
0.022445494 -0.01146191 0.42900002 4278205719
0.025526363 -0.011595499 0.43400002 4279385635
0.027060125 -0.011648934 0.43600002 4280501036
0.030303748 -0.011809241 0.44200003 4278723859
0.031954788 -0.011889393 0.44500002 4280963385
0.035315339 -0.0120497 0.45100003 4278663449
-0.027006514 -0.0093405172 0.39800003 4280298262
-0.025713811 -0.0093405172 0.39800003 4281418028
-0.0065774391 -0.0097160153 0.41400003 4281615405
-0.0052580452 -0.0097629521 0.41600001 4281483821
-0.0039162682 -0.0097864214 0.41700003 4281549874
-0.0025741386 -0.0098333582 0.41900003 4281023530
-0.0012161214 -0.0098568266 0.42000002 4281352749
0.00014874437 -0.0099037644 0.42200002 4281155370
0.0015230015 -0.0099272327 0.42300001 4281285929
0.0029037548 -0.0099507011 0.42400002 4281154854
0.0056580603 -0.0099507011 0.42400002 4279713820
0.0070352126 -0.0099507011 0.42400002 4279189271
0.0084123658 -0.0099507011 0.42400002 4279124761
0.009789519 -0.0099507011 0.42400002 4279257631
0.011166671 -0.0099507011 0.42400002 4279389730
0.012543825 -0.0099507011 0.42400002 4279194918
0.01395381 -0.0099741695 0.42500001 4279129638
0.015334209 -0.0099741695 0.42500001 4279064615
0.01675394 -0.0099976389 0.42600003 4278933542
0.018137589 -0.0099976389 0.42600003 4279262507
0.019567061 -0.010021107 0.42700002 4279327789
0.021003032 -0.010044577 0.42800003 4279655471
0.022497814 -0.010091512 0.43000001 4278205460
0.024005594 -0.01013845 0.43200001 4278991644
0.025526363 -0.010185388 0.43400002 4278658836
0.030303748 -0.010373137 0.44200003 4278264337
0.031882979 -0.010420075 0.44400004 4280636215
-0.027074369 -0.0080675939 0.39900002 4280691219
-0.020491375 -0.008027155 0.39700001 4280894262
-0.0078838412 -0.0083304485 0.41200003 4282667314
-0.0065774391 -0.0083708875 0.41400003 4281746478
-0.0052580452 -0.0084113255 0.41600001 4281549099
-0.0039162682 -0.0084315455 0.41700003 4281418028
-0.0012190168 -0.0085124243 0.42100003 4280957991
0.00014874437 -0.0085326433 0.42200002 4281286956
0.0015266021 -0.0085730823 0.42400002 4281615146
0.0029106031 -0.0085933013 0.42500001 4281220901
0.0042910036 -0.0085933013 0.42500001 4279844895
0.0056714048 -0.0085933013 0.42500001 4279451932
0.007051805 -0.0085933013 0.42500001 4279124763
0.0084322058 -0.0085933013 0.42500001 4279125533
0.0098126074 -0.0085933013 0.42500001 4279258144
0.011193007 -0.0085933013 0.42500001 4279390500
0.012573409 -0.0085933013 0.42500001 4278800160
0.013986642 -0.0086135212 0.42600003 4278669857
0.01537029 -0.0086135212 0.42600003 4278933542
0.016793268 -0.0086337412 0.42700002 4278999335
0.018180164 -0.0086337412 0.42700002 4279328302
0.019612886 -0.0086539611 0.42800003 4278999337
0.021052103 -0.0086741801 0.42900002 4279523885
0.022497814 -0.0086943991 0.43000001 4278205203
0.024005594 -0.0087348381 0.43200001 4278199565
0.025526363 -0.008775278 0.43400002 4278330384
0.030235186 -0.0089168139 0.44100001 4279916596
-0.027142225 -0.0067881718 0.40000001 4281282327
-0.025778418 -0.0067712017 0.39900002 4281283358
-0.024482463 -0.0067712017 0.39900002 4281549360
-0.014114843 -0.0067712017 0.39900002 4281287474
-0.009132484 -0.0069239358 0.40800002 4282603066
-0.0078647053 -0.0069748466 0.41100001 4281681452
-0.0065615512 -0.0070087877 0.41300002 4281943857
-0.0052454062 -0.0070427288 0.41500002 4281351720
-0.0039162682 -0.0070766695 0.41700003 4282075958
-0.0025741386 -0.0071106106 0.41900003 4281286442
-0.0012190168 -0.0071445513 0.42100003 4281483821
0.00014909683 -0.0071784919 0.42300001 4281549614
0.0015266021 -0.0071954625 0.42400002 4281746478
0.0043011005 -0.0072294036 0.42600003 4279845922
0.0056847497 -0.0072294036 0.42600003 4279386652
0.0070683979 -0.0072294036 0.42600003 4279256349
0.0084520467 -0.0072294036 0.42600003 4279322910
0.0098356958 -0.0072294036 0.42600003 4279456806
0.011219344 -0.0072294036 0.42600003 4279260197
0.012602993 -0.0072294036 0.42600003 4278800673
0.014019474 -0.0072463737 0.42700002 4278933029
0.01540637 -0.0072463737 0.42700002 4278999335
0.016793268 -0.0072463737 0.42700002 4278867749
0.018222742 -0.0072633442 0.42800003 4279459636
0.019612886 -0.0072633442 0.42800003 4279130671
0.021052103 -0.0072803148 0.42900002 4279786543
0.022497814 -0.0072972849 0.43000001 4279982639
0.023950025 -0.0073142555 0.43100002 4280113973
0.025467549 -0.0073481966 0.43300003 4279587631
0.026998062 -0.0073821372 0.43500003 4279917109
0.02867219 -0.0074500185 0.43900001 4279851314
0.030235186 -0.0074839597 0.44100001 4279391785
0.03181117 -0.0075179008 0.44300002 4279786543
-0.027210081 -0.0055022528 0.40100002 4281413913
-0.025907634 -0.0055022528 0.40100002 4281743907
-0.024543822 -0.0054885312 0.40000001 4281482536
-0.021890558 -0.00547481 0.39900002 4281418288
-0.009132484 -0.005598302 0.40800002 4281682743
-0.0078647053 -0.005639466 0.41100001 4281551157
-0.0065615512 -0.0056669088 0.41300002 4282405185
-0.0052454062 -0.0056943516 0.41500002 4282602050
-0.0039162682 -0.0057217944 0.41700003 4282404156
-0.0025741386 -0.0057492368 0.41900003 4281812019
-0.0012190168 -0.0057766796 0.42100003 4281615407
0.00014909683 -0.005804122 0.42300001 4281483821
0.0015302025 -0.0058315648 0.42500001 4281418542
0.0029174518 -0.0058452864 0.42600003 4280761893
0.004311197 -0.0058590076 0.42700002 4279648541
0.0056980937 -0.0058590076 0.42700002 4279386652
0.0070849899 -0.0058590076 0.42700002 4279190556
0.0084718876 -0.0058590076 0.42700002 4278862359
0.0098587843 -0.0058590076 0.42700002 4279325220
0.011245681 -0.0058590076 0.42700002 4278931746
0.012632578 -0.0058590076 0.42700002 4279064099
0.014019474 -0.0058590076 0.42700002 4278933283
0.015442451 -0.0058727288 0.42800003 4278999335
0.016832596 -0.0058727288 0.42800003 4279130921
0.018222742 -0.0058727288 0.42800003 4279525168
0.019658711 -0.0058864499 0.42900002 4279590961
0.021052103 -0.0058864499 0.42900002 4278732833
0.022497814 -0.0059001711 0.43000001 4280048432
0.023950025 -0.0059138928 0.43100002 4279589678
0.02540873 -0.0059276139 0.43200001 4279458607
0.026935996 -0.0059550568 0.43400002 4279194668
0.02867219 -0.0060236631 0.43900001 4279061798
0.03181117 -0.0060785487 0.44300002 4285176186
-0.027277935 -0.0042098351 0.40200001 4281479960
-0.02597224 -0.0042098351 0.40200001 4280624397
-0.024666542 -0.0042098351 0.40200001 4280625426
-0.023302734 -0.0041993628 0.40100002 4282403379
-0.022000287 -0.0041993628 0.40100002 4281352747
-0.010406405 -0.0042517241 0.40600002 4281682745
-0.009132484 -0.0042726686 0.40800002 4287145363
-0.0078647053 -0.0043040849 0.41100001 4287146646
-0.0065615512 -0.0043250294 0.41300002 4287672477
-0.0052580452 -0.0043564462 0.41600001 4286026882
-0.0039162682 -0.0043669185 0.41700003 4283261777
-0.0025741386 -0.004387863 0.41900003 4282800195
-0.0012190168 -0.0044088075 0.42100003 4282470714
0.00014909683 -0.0044297515 0.42300001 4282010163
0.0015302025 -0.0044506961 0.42500001 4281748275
0.0029243 -0.0044716406 0.42700002 4280434979
0.004311197 -0.0044716406 0.42700002 4279517725
0.0057114386 -0.0044821128 0.42800003 4279452445
0.0071015828 -0.0044821128 0.42800003 4279322912
0.0084917285 -0.0044821128 0.42800003 4279191840
0.0098818727 -0.0044821128 0.42800003 4278930464
0.011272018 -0.0044821128 0.42800003 4279129125
0.012662163 -0.0044821128 0.42800003 4278933283
0.014052308 -0.0044821128 0.42800003 4278999076
0.015442451 -0.0044821128 0.42800003 4278868003
0.016832596 -0.0044821128 0.42800003 4278802210
0.018265318 -0.0044925851 0.42900002 4279655982
0.019658711 -0.0044925851 0.42900002 4279787057
0.021052103 -0.0044925851 0.42900002 4279654959
0.022497814 -0.0045030573 0.43000001 4279523373
0.023950025 -0.0045135296 0.43100002 4279588396
0.02540873 -0.0045240019 0.43200001 4279191590
-0.026036849 -0.0029109193 0.40300003 4281283349
-0.024727901 -0.0029109193 0.40300003 4280691471
-0.023418957 -0.0029109193 0.40300003 4280428047
-0.022110013 -0.0029109193 0.40300003 4280295952
-0.020801069 -0.0029109193 0.40300003 4281481253
-0.019443756 -0.0029036959 0.40200001 4281746991
-0.018138058 -0.0029036959 0.40200001 4281746991
-0.0091548664 -0.0029542579 0.40900001 4286555279
-0.0078647053 -0.0029687041 0.41100001 4286752658
-0.0065615512 -0.0029831503 0.41300002 4286818451
-0.0052580452 -0.0030048196 0.41600001 4286621072
-0.0039256597 -0.0030192661 0.41800001 4286291853
-0.0025741386 -0.0030264892 0.41900003 4287014806
-0.0012190168 -0.0030409356 0.42100003 4281617720
0.00014944932 -0.0030626049 0.42400002 4280762411
0.0043212934 -0.0030914973 0.42800003 4279452447
0.0057114386 -0.0030914973 0.42800003 4279453217
0.0071015828 -0.0030914973 0.42800003 4279322912
0.0084917285 -0.0030914973 0.42800003 4279389219
0.0098818727 -0.0030914973 0.42800003 4278865441
0.011272018 -0.0030914973 0.42800003 4278800162
0.012662163 -0.0030914973 0.42800003 4279064617
0.014052308 -0.0030914973 0.42800003 4279064617
0.015478531 -0.0030987205 0.42900002 4278999337
0.016871924 -0.0030987205 0.42900002 4279130923
0.018265318 -0.0030987205 0.42900002 4279590191
0.019658711 -0.0030987205 0.42900002 4279720750
0.021052103 -0.0030987205 0.42900002 4279650857
0.022445494 -0.0030987205 0.42900002 4282280781
-0.026166065 -0.0016094792 0.40500003 4281546005
-0.024850622 -0.0016094792 0.40500003 4280362247
-0.023535181 -0.0016094792 0.40500003 4281479960
-0.022219742 -0.0016094792 0.40500003 4281413400
-0.020904299 -0.0016094792 0.40500003 4282466603
-0.019540491 -0.0016055051 0.40400001 4281679652
-0.018228298 -0.0016055051 0.40400001 4281811751
-0.016916106 -0.0016055051 0.40400001 4281416484
-0.01429172 -0.0016055051 0.40400001 4287869852
-0.013011655 -0.0016094792 0.40500003 4287936162
-0.011725094 -0.0016134531 0.40600002 4286882707
-0.010457668 -0.0016214012 0.40800002 4286751634
-0.0091548664 -0.0016253751 0.40900001 4286949013
-0.0078647053 -0.0016333233 0.41100001 4286817681
-0.0065615512 -0.0016412713 0.41300002 4286949267
-0.0052706851 -0.0016571674 0.41700003 4286686095
-0.0039256597 -0.0016611414 0.41800001 4286357646
-0.002580282 -0.0016690894 0.42000002 4286357646
-0.0012219123 -0.0016770376 0.42200002 4286356617
0.00014944932 -0.0016849856 0.42400002 4286948752
0.0071015828 -0.0017008816 0.42800003 4279255586
0.0084917285 -0.0017008816 0.42800003 4279453730
0.0098818727 -0.0017008816 0.42800003 4279522603
0.011272018 -0.0017008816 0.42800003 4279260715
0.012691746 -0.0017048557 0.42900002 4279524398
0.01408514 -0.0017048557 0.42900002 4279655984
0.015478531 -0.0017048557 0.42900002 4279326508
0.016871924 -0.0017048557 0.42900002 4278997029
-0.024973338 -0.00029504253 0.40700001 4280953614
-0.023651402 -0.00029504253 0.40700001 4281085202
-0.022329466 -0.00029504253 0.40700001 4281808925
-0.02100753 -0.00029504253 0.40700001 4282006304
-0.019637225 -0.00029431761 0.40600002 4281547550
-0.018318536 -0.00029431761 0.40600002 4281219355
-0.015603913 -0.00029286777 0.40400001 4288065947
-0.01429172 -0.00029286777 0.40400001 4287278230
-0.013011655 -0.00029359269 0.40500003 4287278232
-0.011725094 -0.00029431761 0.40600002 4287278232
0.0015374034 -0.00030954092 0.42700002 4286226060
0.0029311487 -0.00031026587 0.42800003 4286226573
0.0043212934 -0.00031026587 0.42800003 4286620818
0.0057114386 -0.00031026587 0.42800003 4286818197
0.0071015828 -0.00031026587 0.42800003 4284055141
-0.023767626 0.0010323904 0.40900001 4280953616
-0.022439193 0.0010323904 0.40900001 4281348374
-0.02111076 0.0010323904 0.40900001 4282795820
-0.019733962 0.0010298663 0.40800002 4280889620
-0.01699985 0.0010248179 0.40600002 4287607197
-0.015681161 0.0010248179 0.40600002 4287278232
-0.014362471 0.0010248179 0.40600002 4287278232
-0.013043782 0.0010248179 0.40600002 4287146392
-0.011725094 0.0010248179 0.40600002 4286686611
0.0071015828 0.00108035 0.42800003 4286883990
0.0084917285 0.00108035 0.42800003 4287081623
-0.022548921 0.0023728197 0.41100001 4281217810
-0.021213992 0.0023728197 0.41100001 4281414935
-0.019782327 0.0023612732 0.40900001 4287672473
-0.018408775 0.0023554999 0.40800002 4286883474
-0.017083593 0.0023554999 0.40800002 4287146392
-0.015758408 0.0023554999 0.40800002 4287146392
-0.014433222 0.0023554999 0.40800002 4286883990
-0.013108037 0.0023554999 0.40800002 4286752404
-0.027752925 0.0036901559 0.40900001 4281349396
-0.021317223 0.0037262456 0.41300002 4281152792
-0.020024167 0.003735268 0.41400003 4287738783
-0.018679494 0.003735268 0.41400003 4287212439
-0.017334823 0.003735268 0.41400003 4287212439
-0.015990149 0.003735268 0.41400003 4287212439
-0.014645476 0.003735268 0.41400003 4286883474
-0.013300803 0.003735268 0.41400003 4286949267
-0.024000073 0.0050681247 0.41300002 4282665513
-0.022713512 0.0050803963 0.41400003 4281283860
-0.021368841 0.0050803963 0.41400003 4281151768
-0.0201209 0.005104939 0.41600001 4287804063
-0.018769732 0.005104939 0.41600001 4287015060
-0.024116294 0.0064410456 0.41500002 4283125807
-0.02147207 0.0064565656 0.41600001 4280955161
-0.029294668 0.009071744 0.41200003 4281283606
-0.024232518 0.010536713 0.41700003 4282928431
-0.029365771 0.0131194 0.41300002 4282533416
-0.025586937 0.013246465 0.41700003 4282731822
-0.035723519 0.014321218 0.40900001 4282599209
-0.033147503 0.014356234 0.41000003 4282599209
-0.028160058 0.01453131 0.41500002 4282533673
-0.033309199 0.018442154 0.41200003 4282599463
0.0044702603 -0.0091893123 0.42085654 4294967295
0.0044702603 -0.0091893123 0.42085654 4294901760
0.0045073349 -0.0096336845 0.42063037 4294901760
0.004544409 -0.010078058 0.42040417 4294901760
0.0045814835 -0.01052243 0.420178 4294901760
0.0046185581 -0.010966802 0.4199518 4294901760
0.0046556322 -0.011411175 0.41972563 4294901760
0.0046927067 -0.011855547 0.41949943 4294901760
0.0047297813 -0.01229992 0.41927326 4294901760
0.0047668554 -0.012744293 0.41904709 4294901760
0.0048039299 -0.013188666 0.41882089 4294901760
0.0048410045 -0.013633038 0.41859472 4294901760
0.0048780786 -0.01407741 0.41836852 4294901760
0.0049151531 -0.014521783 0.41814235 4294901760
0.0049522272 -0.014966155 0.41791615 4294901760
0.0049893018 -0.015410528 0.41768998 4294901760
0.0050263763 -0.015854901 0.41746381 4294901760
0.0050634504 -0.016299274 0.41723761 4294901760
0.005100525 -0.016743645 0.41701144 4294901760
0.0051375995 -0.01718802 0.41678524 4294901760
0.0051746736 -0.017632391 0.41655907 4294901760
0.0052117482 -0.018076763 0.41633287 4294901760
0.0052488227 -0.018521136 0.4161067 4294901760
0.0052858968 -0.018965509 0.41588053 4294901760
0.0053229714 -0.01940988 0.41565433 4294901760
0.0053600455 -0.019854253 0.41542816 4294901760
0.00539712 -0.020298626 0.41520196 4294901760
0.0054341946 -0.020742998 0.41497579 4294901760
0.0054712691 -0.021187373 0.41474959 4294901760
0.0055083432 -0.021631744 0.41452342 4294901760
0.0055454178 -0.022076115 0.41429725 4294901760
0.0055824919 -0.02252049 0.41407105 4294901760
0.0056195664 -0.022964861 0.41384488 4294901760
0.005656641 -0.023409232 0.41361868 4294901760
0.0056937151 -0.023853607 0.41339251 4294901760
0.0057307896 -0.024297979 0.41316631 4294901760
0.0057678642 -0.024742352 0.41294014 4294901760
0.0058049383 -0.025186725 0.41271394 4294901760
0.0058420128 -0.025631096 0.41248778 4294901760
0.0058790874 -0.026075467 0.41226161 4294901760
0.0059161615 -0.026519842 0.41203541 4294901760
0.005953236 -0.026964214 0.41180924 4294901760
0.0059903106 -0.027408589 0.41158304 4294901760
0.0060273847 -0.02785296 0.41135687 4294901760
0.0060644592 -0.028297331 0.41113067 4294901760
0.0061015338 -0.028741706 0.4109045 4294901760
0.0061386079 -0.029186077 0.41067833 4294901760
0.0061756824 -0.029630449 0.41045213 4294901760
0.006212757 -0.030074824 0.41022596 4294901760
0.0062498311 -0.030519195 0.40999976 4294901760
0.0062869056 -0.03096357 0.40977359 4294901760
0.0063239802 -0.031407941 0.40954739 4294901760
0.0063610543 -0.031852312 0.40932122 4294901760
0.0063981288 -0.032296684 0.40909505 4294901760
0.0064352029 -0.032741055 0.40886885 4294901760
0.0064722775 -0.03318543 0.40864268 4294901760
0.006509352 -0.033629805 0.40841648 4294901760
0.0065464266 -0.034074176 0.40819031 4294901760
0.0065835007 -0.034518547 0.40796411 4294901760
0.0066205747 -0.034962919 0.40773794 4294901760
0.0066576493 -0.035407294 0.40751177 4294901760
0.0066947239 -0.035851669 0.40728557 4294901760
0.0067317984 -0.03629604 0.4070594 4294901760
0.006768873 -0.036740411 0.4068332 4294901760
0.0068059471 -0.037184782 0.40660703 4294901760
0.0068430211 -0.037629154 0.40638083 4294901760
0.0068800957 -0.038073529 0.40615466 4294901760
0.0069171702 -0.038517904 0.40592849 4294901760
0.0069542443 -0.038962275 0.40570229 4294901760
0.0069913194 -0.039406646 0.40547612 4294901760
0.0070283934 -0.039851017 0.40524992 4294901760
0.0070654675 -0.040295392 0.40502375 4294901760
0.0071025421 -0.040739764 0.40479755 4294901760
0.0071396166 -0.041184139 0.40457138 4294901760
0.0071766907 -0.04162851 0.40434521 4294901760
0.0072137653 -0.042072881 0.40411901 4294901760
0.0072508398 -0.042517252 0.40389284 4294901760
0.0072879139 -0.042961624 0.40366665 4294901760
0.0073249885 -0.043405998 0.40344048 4294901760
0.007362063 -0.04385037 0.40321428 4294901760
0.0073991371 -0.044294745 0.40298811 4294901760
0.0074362117 -0.044739116 0.40276194 4294901760
0.0074732862 -0.045183487 0.40253574 4294901760
0.0075103603 -0.045627862 0.40230957 4294901760
0.0075474349 -0.046072233 0.40208337 4294901760
0.0075845094 -0.046516605 0.4018572 4294901760
0.0076215835 -0.04696098 0.401631 4294901760
0.0076586581 -0.047405351 0.40140483 4294901760
0.0076957326 -0.047849726 0.40117866 4294901760
0.0077328067 -0.048294097 0.40095246 4294901760
0.0077698808 -0.048738468 0.40072629 4294901760
0.0078069558 -0.04918284 0.40050009 4294901760
0.0078440299 -0.049627215 0.40027392 4294901760
0.0078811049 -0.050071586 0.40004772 4294901760
0.007918179 -0.050515961 0.39982155 4294901760
0.0079552531 -0.050960332 0.39959538 4294901760
0.0079923272 -0.051404703 0.39936918 4294901760
0.0080294013 -0.051849075 0.39914301 4294901760
0.0080664763 -0.05229345 0.39891681 4294901760
0.0081035513 -0.052737825 0.39869064 4294901760
0.0081406254 -0.053182196 0.39846444 4294901760
0.0081776995 -0.053626567 0.39823827 4294901760
0.0044702603 -0.0091893123 0.42085654 4278255360
0.0048884256 -0.0092851417 0.42111334 4278255360
0.0053065908 -0.009380972 0.42137018 4278255360
0.005724756 -0.0094768014 0.42162699 4278255360
0.0061429213 -0.0095726317 0.42188379 4278255360
0.0065610865 -0.009668461 0.42214063 4278255360
0.0069792517 -0.0097642913 0.42239743 4278255360
0.007397417 -0.0098601207 0.42265424 4278255360
0.0078155827 -0.0099559501 0.42291108 4278255360
0.0082337474 -0.01005178 0.42316788 4278255360
0.0086519131 -0.01014761 0.42342469 4278255360
0.0090700779 -0.01024344 0.42368153 4278255360
0.0094882436 -0.010339269 0.42393833 4278255360
0.0099064084 -0.010435099 0.42419514 4278255360
0.010324574 -0.010530929 0.42445195 4278255360
0.010742739 -0.010626759 0.42470878 4278255360
0.011160905 -0.010722589 0.42496559 4278255360
0.01157907 -0.010818418 0.4252224 4278255360
0.011997235 -0.010914248 0.42547923 4278255360
0.0124154 -0.011010078 0.42573604 4278255360
0.012833565 -0.011105908 0.42599285 4278255360
0.013251731 -0.011201737 0.42624968 4278255360
0.013669895 -0.011297567 0.42650649 4278255360
0.014088061 -0.011393397 0.4267633 4278255360
0.014506226 -0.011489226 0.42702013 4278255360
0.014924392 -0.011585057 0.42727694 4278255360
0.015342556 -0.011680886 0.42753375 4278255360
0.015760724 -0.011776716 0.42779058 4278255360
0.016178887 -0.011872546 0.42804739 4278255360
0.016597053 -0.011968376 0.4283042 4278255360
0.017015219 -0.012064205 0.42856103 4278255360
0.017433383 -0.012160035 0.42881784 4278255360
0.017851548 -0.012255865 0.42907465 4278255360
0.018269714 -0.012351695 0.42933148 4278255360
0.01868788 -0.012447525 0.42958829 4278255360
0.019106044 -0.012543354 0.42984509 4278255360
0.019524209 -0.012639184 0.43010193 4278255360
0.019942375 -0.012735014 0.43035874 4278255360
0.020360541 -0.012830843 0.43061554 4278255360
0.020778704 -0.012926674 0.43087235 4278255360
0.021196872 -0.013022503 0.43112919 4278255360
0.021615036 -0.013118332 0.43138599 4278255360
0.022033202 -0.013214163 0.4316428 4278255360
0.022451367 -0.013309993 0.43189964 4278255360
0.022869531 -0.013405822 0.43215644 4278255360
0.023287697 -0.013501652 0.43241325 4278255360
0.023705862 -0.013597482 0.43267009 4278255360
0.024124028 -0.013693311 0.43292689 4278255360
0.024542192 -0.013789142 0.4331837 4278255360
0.024960358 -0.013884971 0.43344054 4278255360
0.025378523 -0.0139808 0.43369734 4278255360
0.025796689 -0.014076631 0.43395415 4278255360
0.026214853 -0.01417246 0.43421099 4278255360
0.026633019 -0.01426829 0.43446779 4278255360
0.027051186 -0.01436412 0.4347246 4278255360
0.02746935 -0.01445995 0.43498144 4278255360
0.027887516 -0.014555779 0.43523824 4278255360
0.02830568 -0.01465161 0.43549505 4278255360
0.028723845 -0.014747439 0.43575189 4278255360
0.029142009 -0.014843268 0.43600869 4278255360
0.029560177 -0.014939099 0.4362655 4278255360
0.029978342 -0.015034929 0.43652233 4278255360
0.030396506 -0.015130758 0.43677914 4278255360
0.030814672 -0.015226588 0.43703595 4278255360
0.031232836 -0.015322417 0.43729275 4278255360
0.031651001 -0.015418246 0.43754959 4278255360
0.032069169 -0.015514078 0.4378064 4278255360
0.032487333 -0.015609907 0.4380632 4278255360
0.032905497 -0.015705736 0.43832004 4278255360
0.03332366 -0.015801566 0.43857685 4278255360
0.033741828 -0.015897397 0.43883365 4278255360
0.034159992 -0.015993226 0.43909049 4278255360
0.034578159 -0.016089056 0.4393473 4278255360
0.034996323 -0.016184885 0.4396041 4278255360
0.035414487 -0.016280714 0.43986094 4278255360
0.035832651 -0.016376544 0.44011775 4278255360
0.036250819 -0.016472375 0.44037455 4278255360
0.036668982 -0.016568204 0.44063139 4278255360
0.037087146 -0.016664034 0.4408882 4278255360
0.037505314 -0.016759865 0.441145 4278255360
0.037923481 -0.016855694 0.44140184 4278255360
0.038341645 -0.016951524 0.44165865 4278255360
0.038759809 -0.017047353 0.44191545 4278255360
0.039177973 -0.017143182 0.44217229 4278255360
0.03959614 -0.017239012 0.4424291 4278255360
0.040014308 -0.017334843 0.4426859 4278255360
0.040432472 -0.017430672 0.44294274 4278255360
0.040850636 -0.017526502 0.44319955 4278255360
0.041268799 -0.017622333 0.44345635 4278255360
0.041686967 -0.017718162 0.44371316 4278255360
0.042105131 -0.017813992 0.44396999 4278255360
0.042523298 -0.017909821 0.4442268 4278255360
0.042941462 -0.01800565 0.44448361 4278255360
0.043359626 -0.01810148 0.44474044 4278255360
0.043777794 -0.018197309 0.44499725 4278255360
0.044195957 -0.01829314 0.44525406 4278255360
0.044614121 -0.01838897 0.44551089 4278255360
0.045032289 -0.018484801 0.4457677 4278255360
0.045450453 -0.01858063 0.44602451 4278255360
0.04586862 -0.01867646 0.44628134 4278255360
0.046286784 -0.018772289 0.44653815 4278255360
0.0044702603 -0.0091893123 0.42085654 4278190335
0.004333395 -0.0094164768 0.42128041 4278190335
0.0041965302 -0.0096436413 0.42170426 4278190335
0.0040596649 -0.0098708067 0.42212814 4278190335
0.0039228001 -0.010097971 0.42255202 4278190335
0.0037859348 -0.010325136 0.42297587 4278190335
0.0036490697 -0.0105523 0.42339975 4278190335
0.0035122046 -0.010779466 0.42382362 4278190335
0.0033753393 -0.01100663 0.42424747 4278190335
0.0032384743 -0.011233795 0.42467135 4278190335
0.0031016092 -0.01146096 0.4250952 4278190335
0.0029647441 -0.011688124 0.42551908 4278190335
0.002827879 -0.011915289 0.42594296 4278190335
0.0026910137 -0.012142453 0.42636681 4278190335
0.0025541487 -0.012369618 0.42679068 4278190335
0.0024172836 -0.012596783 0.42721456 4278190335
0.0022804185 -0.012823948 0.42763841 4278190335
0.0021435532 -0.013051112 0.42806229 4278190335
0.0020066882 -0.013278278 0.42848617 4278190335
0.0018698231 -0.013505442 0.42891002 4278190335
0.001732958 -0.013732607 0.4293339 4278190335
0.0015960929 -0.013959771 0.42975777 4278190335
0.0014592279 -0.014186935 0.43018162 4278190335
0.0013223626 -0.0144141 0.4306055 4278190335
0.0011854977 -0.014641264 0.43102938 4278190335
0.0010486324 -0.01486843 0.43145323 4278190335
0.00091176736 -0.015095594 0.43187711 4278190335
0.00077490206 -0.01532276 0.43230098 4278190335
0.00063803699 -0.015549924 0.43272483 4278190335
0.00050117215 -0.015777089 0.43314871 4278190335
0.00036430685 -0.016004253 0.43357259 4278190335
0.00022744155 -0.016231418 0.43399644 4278190335
9.0576708e-05 -0.016458582 0.43442032 4278190335
-4.6288595e-05 -0.016685747 0.43484417 4278190335
-0.0001831539 -0.016912911 0.43526804 4278190335
-0.00032001873 -0.017140076 0.43569192 4278190335
-0.00045688404 -0.017367242 0.43611577 4278190335
-0.00059374887 -0.017594406 0.43653965 4278190335
-0.00073061418 -0.017821571 0.43696353 4278190335
-0.00086747902 -0.018048735 0.43738738 4278190335
-0.0010043443 -0.018275902 0.43781126 4278190335
-0.0011412092 -0.018503066 0.43823513 4278190335
-0.0012780745 -0.018730231 0.43865898 4278190335
-0.0014149398 -0.018957395 0.43908286 4278190335
-0.0015518046 -0.01918456 0.43950674 4278190335
-0.0016886699 -0.019411724 0.43993059 4278190335
-0.0018255352 -0.019638889 0.44035447 4278190335
-0.0019624 -0.019866053 0.44077834 4278190335
-0.0020992649 -0.020093217 0.44120219 4278190335
-0.0022361306 -0.020320382 0.44162607 4278190335
-0.0023729955 -0.020547546 0.44204992 4278190335
-0.0025098603 -0.020774711 0.4424738 4278190335
-0.0026467256 -0.021001875 0.44289768 4278190335
-0.0027835905 -0.02122904 0.44332153 4278190335
-0.0029204562 -0.021456206 0.4437454 4278190335
-0.0030573211 -0.021683371 0.44416928 4278190335
-0.0031941864 -0.021910535 0.44459313 4278190335
-0.0033310512 -0.022137702 0.44501701 4278190335
-0.003467916 -0.022364866 0.44544089 4278190335
-0.0036047813 -0.02259203 0.44586474 4278190335
-0.0037416467 -0.022819195 0.44628862 4278190335
-0.003878512 -0.023046359 0.44671249 4278190335
-0.0040153773 -0.023273524 0.44713634 4278190335
-0.0041522416 -0.023500688 0.44756022 4278190335
-0.0042891069 -0.023727853 0.4479841 4278190335
-0.0044259722 -0.023955017 0.44840795 4278190335
-0.0045628375 -0.024182182 0.44883183 4278190335
-0.0046997028 -0.024409346 0.4492557 4278190335
-0.0048365681 -0.024636511 0.44967955 4278190335
-0.0049734325 -0.024863675 0.45010343 4278190335
-0.0051102978 -0.02509084 0.45052731 4278190335
-0.0052471622 -0.025318004 0.45095116 4278190335
-0.0053840284 -0.025545172 0.45137504 4278190335
-0.0055208937 -0.025772337 0.45179892 4278190335
-0.0056577581 -0.025999501 0.45222276 4278190335
-0.0057946234 -0.026226666 0.45264664 4278190335
-0.0059314887 -0.02645383 0.45307049 4278190335
-0.0060683531 -0.026680995 0.45349437 4278190335
-0.0062052184 -0.026908159 0.45391825 4278190335
-0.0063420846 -0.027135324 0.4543421 4278190335
-0.006478949 -0.027362488 0.45476598 4278190335
-0.0066158143 -0.027589653 0.45518985 4278190335
-0.0067526787 -0.027816817 0.4556137 4278190335
-0.006889544 -0.028043982 0.45603758 4278190335
-0.0070264093 -0.028271146 0.45646146 4278190335
-0.0071632746 -0.028498311 0.45688531 4278190335
-0.0073001399 -0.028725475 0.45730919 4278190335
-0.0074370052 -0.02895264 0.45773304 4278190335
-0.0075738695 -0.029179808 0.45815691 4278190335
-0.0077107348 -0.029406972 0.45858079 4278190335
-0.0078475997 -0.029634137 0.45900464 4278190335
-0.007984465 -0.029861301 0.45942852 4278190335
-0.0081213303 -0.030088466 0.4598524 4278190335
-0.0082581956 -0.03031563 0.46027625 4278190335
-0.0083950609 -0.030542795 0.46070012 4278190335
-0.0085319262 -0.030769959 0.461124 4278190335
-0.0086687896 -0.030997124 0.46154785 4278190335
-0.0088056568 -0.031224288 0.46197173 4278190335
-0.0089425221 -0.031451453 0.46239561 4278190335
-0.0090793855 -0.031678617 0.46281946 4278190335
-0.0092162509 -0.031905781 0.46324334 4278190335
0.0044702603 -0.0091893123 0.42085654 4294967295
0.0052914508 -0.0078263246 0.41831332 4294967295
0.0061126417 -0.0064633363 0.41577011 4294967295
0.0069338325 -0.0051003485 0.4132269 4294967295
0.007755023 -0.0037373602 0.41068369 4294967295
0.0085762143 -0.002374372 0.40814048 4294967295
0.0093974043 -0.0010113847 0.40559727 4294967295
0.010218595 0.00035160407 0.40305409 4294967295
0.011039786 0.0017145919 0.40051088 4294967295
0.011860977 0.0030775806 0.39796767 4294967295
0.012682168 0.0044405684 0.39542446 4294967295
0.013503358 0.0058035562 0.39288124 4294967295
0.014324548 0.007166543 0.39033803 4294967295
0.01514574 0.0085295318 0.38779482 4294967295
0.015966929 0.0098925205 0.38525161 4294967295
0.016788121 0.011255509 0.3827084 4294967295
0.017609311 0.012618496 0.38016519 4294967295
0.018430503 0.013981485 0.37762198 4294967295
0.019251693 0.015344474 0.37507877 4294967295
0.020072883 0.016707461 0.37253559 4294967295
0.020894075 0.018070448 0.36999238 4294967295
0.021715265 0.019433435 0.36744916 4294967295
0.022536457 0.020796426 0.36490595 4294967295
0.023357647 0.022159416 0.36236274 4294967295
0.024178836 0.023522399 0.35981953 4294967295
0.025000028 0.02488539 0.35727632 4294967295
0.025821218 0.026248377 0.35473311 4294967295
0.02664241 0.027611367 0.3521899 4294967295
0.0274636 0.028974354 0.34964669 4294967295
0.02828479 0.030337341 0.34710348 4294967295
0.029105984 0.031700332 0.34456027 4294967295
0.029927174 0.033063319 0.34201705 4294967295
0.030748362 0.034426305 0.33947384 4294967295
0.031569555 0.035789296 0.33693063 4294967295
0.032390743 0.037152283 0.33438745 4294967295
0.033211935 0.03851527 0.33184424 4294967295
0.034033127 0.03987826 0.32930103 4294967295
0.034854315 0.041241247 0.32675782 4294967295
0.035675507 0.042604234 0.32421461 4294967295
0.036496695 0.043967221 0.3216714 4294967295
0.037317887 0.045330212 0.31912819 4294967295
0.038139079 0.046693198 0.31658497 4294967295
0.038960267 0.048056185 0.31404179 4294967295
0.039781459 0.049419176 0.31149858 4294967295
0.04060265 0.050782163 0.30895537 4294967295
0.041423839 0.05214515 0.30641216 4294967295
0.04224503 0.053508144 0.30386895 4294967295
0.043066222 0.054871123 0.30132574 4294967295
0.04388741 0.05623411 0.29878253 4294967295
0.044708606 0.057597104 0.29623932 4294967295
0.045529794 0.058960091 0.29369611 4294967295
0.046350982 0.060323078 0.29115289 4294967295
0.047172174 0.061686065 0.28860968 4294967295
0.047993362 0.063049048 0.28606647 4294967295
0.048814557 0.064412042 0.28352326 4294967295
0.049635749 0.065775029 0.28098005 4294967295
0.050456937 0.067138016 0.27843684 4294967295
0.051278129 0.068501003 0.27589363 4294967295
0.052099317 0.06986399 0.27335045 4294967295
0.052920509 0.071226977 0.27080724 4294967295
0.053741705 0.072589971 0.268264 4294967295
0.054562893 0.073952958 0.26572081 4294967295
0.055384085 0.075315945 0.2631776 4294967295
0.056205273 0.076678932 0.26063439 4294967295
0.057026461 0.078041919 0.25809118 4294967295
0.057847653 0.079404905 0.255548 4294967295
0.058668848 0.0807679 0.25300476 4294967295
0.059490036 0.082130887 0.25046155 4294967295
0.060311228 0.083493873 0.24791835 4294967295
0.061132416 0.08485686 0.24537514 4294967295
0.061953608 0.086219847 0.24283193 4294967295
0.0627748 0.087582834 0.24028873 4294967295
0.063595995 0.088945828 0.23774551 4294967295
0.064417183 0.090308815 0.2352023 4294967295
0.065238371 0.091671802 0.2326591 4294967295
0.06605956 0.093034789 0.23011589 4294967295
0.066880755 0.094397776 0.22757268 4294967295
0.067701943 0.095760763 0.22502948 4294967295
0.068523131 0.09712375 0.22248627 4294967295
0.069344327 0.098486744 0.21994305 4294967295
0.070165515 0.099849731 0.21739985 4294967295
0.070986703 0.10121272 0.21485664 4294967295
0.071807899 0.1025757 0.21231343 4294967295
0.072629087 0.10393869 0.20977023 4294967295
0.073450275 0.10530168 0.20722702 4294967295
0.07427147 0.10666467 0.2046838 4294967295
0.075092658 0.10802766 0.2021406 4294967295
0.075913854 0.10939065 0.19959739 4294967295
0.076735042 0.11075363 0.19705418 4294967295
0.07755623 0.11211662 0.19451097 4294967295
0.078377418 0.11347961 0.19196777 4294967295
0.079198614 0.1148426 0.18942454 4294967295
0.080019802 0.1162056 0.18688133 4294967295
0.080840997 0.11756857 0.18433814 4294967295
0.081662185 0.11893155 0.18179493 4294967295
0.082483374 0.12029455 0.17925172 4294967295
0.083304562 0.12165753 0.17670852 4294967295
0.084125757 0.12302054 0.17416529 4294967295
0.084946953 0.12438352 0.17162208 4294967295
0.085768141 0.12574652 0.16907889 4294967295
0.086589329 0.1271095 0.16653568 4294967295
