# .PCD v0.7 - Point Cloud Data file format
VERSION 0.7
FIELDS x y z rgb
SIZE 4 4 4 4
TYPE F F F U
COUNT 1 1 1 1
WIDTH 860
HEIGHT 1
VIEWPOINT 0 0 0 1 0 0 0
POINTS 860
DATA ascii
0.08316908 -0.08197175 0.42600003 4288000418
0.084751211 -0.082164176 0.42700002 4284185448
0.086138099 -0.082164176 0.42700002 4281292098
0.087525003 -0.082164176 0.42700002 4280438327
0.081593439 -0.080398455 0.42500001 4288066465
0.08316908 -0.080587633 0.42600003 4282014790
0.084552728 -0.080587633 0.42600003 4280966204
0.085936375 -0.080587633 0.42600003 4280046385
0.087525003 -0.080776803 0.42700002 4279587883
0.088911898 -0.080776803 0.42700002 4279322912
0.081593439 -0.079017594 0.42500001 4281556806
0.082973845 -0.079017594 0.42500001 4280506936
0.084552728 -0.079203516 0.42600003 4279981617
0.085936375 -0.079203516 0.42600003 4279785775
0.08732003 -0.079203516 0.42600003 4279325992
0.088703677 -0.079203516 0.42600003 4279061537
0.080024309 -0.077454045 0.42400002 4281227073
0.08140146 -0.077454045 0.42400002 4280244791
0.082778618 -0.077454045 0.42400002 4279653935
0.084354244 -0.077636719 0.42500001 4279260713
0.085734643 -0.077636719 0.42500001 4278998054
0.087115049 -0.077636719 0.42500001 4279260199
0.088703677 -0.0778194 0.42600003 4279321631
0.078461662 -0.075897001 0.42300001 4281359940
0.079835571 -0.075897001 0.42300001 4280441143
0.081209473 -0.075897001 0.42300001 4279720752
0.082778618 -0.076076433 0.42400002 4279326508
0.084155768 -0.076076433 0.42400002 4279327019
0.085532919 -0.076076433 0.42400002 4278669089
0.087115049 -0.076255858 0.42500001 4281163581
0.088703677 -0.076435283 0.42600003 4283396693
0.073812723 -0.0739941 0.42000002 4288001188
0.07535588 -0.074170284 0.42100003 4283462754
0.076723285 -0.074170284 0.42100003 4281292864
0.07827618 -0.074346453 0.42200002 4279982389
0.079646841 -0.074346453 0.42200002 4279654705
0.081017487 -0.074346453 0.42200002 4279392301
0.082583375 -0.074522629 0.42300001 4279326508
0.083957285 -0.074522629 0.42300001 4279193384
0.085532919 -0.074698813 0.42400002 4281362245
0.086910069 -0.074698813 0.42400002 4282147398
0.072276063 -0.072456561 0.41900003 4287868832
0.073636979 -0.072456561 0.41900003 4282212939
0.07517688 -0.072629482 0.42000002 4280966715
0.076541036 -0.072629482 0.42000002 4280047410
0.07809069 -0.072802417 0.42100003 4279392301
0.079458103 -0.072802417 0.42100003 4279064617
0.081017487 -0.072975338 0.42200002 4278998824
0.082388148 -0.072975338 0.42200002 4278735652
0.083758809 -0.072975338 0.42200002 4280901176
0.085331187 -0.073148265 0.42300001 4282083913
0.086705089 -0.073148265 0.42300001 4283133010
0.070745893 -0.070925504 0.41800001 4287803039
0.07210356 -0.070925504 0.41800001 4281621315
0.073461227 -0.070925504 0.41800001 4281294397
0.074997894 -0.071095183 0.41900003 4279653674
0.076541036 -0.071264856 0.42000002 4279391785
0.0779052 -0.071264856 0.42000002 4279195433
0.079269364 -0.071264856 0.42000002 4279063847
0.080825508 -0.071434543 0.42100003 4279654189
0.08219292 -0.071434543 0.42100003 4280047410
0.083758809 -0.071604215 0.42200002 4280700977
0.085331187 -0.071773894 0.42300001 4281489979
0.086705089 -0.071773894 0.42300001 4285434995
0.070576653 -0.069400951 0.41700003 4281621317
0.071931072 -0.069400951 0.41700003 4280375350
0.07328549 -0.069400951 0.41700003 4279719469
0.074818894 -0.069567382 0.41800001 4280050229
0.076358803 -0.069733813 0.41900003 4279261226
0.077719718 -0.069733813 0.41900003 4278998054
0.079269364 -0.069900237 0.42000002 4279851053
0.080633521 -0.069900237 0.42000002 4280834870
0.08219292 -0.070066668 0.42100003 4281228858
0.083560333 -0.070066668 0.42100003 4282279495
0.068890236 -0.067719713 0.41500002 4280701497
0.070407398 -0.067882888 0.41600001 4280507196
0.071758568 -0.067882888 0.41600001 4279260715
0.073109739 -0.067882888 0.41600001 4279589678
0.074818894 -0.068209253 0.41800001 4279261224
0.076176554 -0.068209253 0.41800001 4279129638
0.077719718 -0.068372436 0.41900003 4280573491
0.079080626 -0.068372436 0.41900003 4280901174
0.080633521 -0.068535611 0.42000002 4281492030
0.081997685 -0.068535611 0.42000002 4281294397
0.067216806 -0.066051468 0.41300002 4280766518
0.068724237 -0.066211402 0.41400003 4279850031
0.070068903 -0.066211402 0.41400003 4279194154
0.071586072 -0.066371337 0.41500002 4279261228
0.072933994 -0.066371337 0.41500002 4279064619
0.074639909 -0.066691197 0.41700003 4279129640
0.076176554 -0.066851124 0.41800001 4280969532
0.077534221 -0.066851124 0.41800001 4280834098
0.065875381 -0.064709596 0.41300002 4280374067
0.067054056 -0.064552918 0.41200003 4280112690
0.068558231 -0.064709596 0.41300002 4279326508
0.069899656 -0.064709596 0.41300002 4279195435
0.071413584 -0.064866282 0.41400003 4279129642
0.072758257 -0.064866282 0.41400003 4278866468
0.063908935 -0.062753983 0.40900001 4280701497
0.065237358 -0.062753983 0.40900001 4279653676
0.066891305 -0.06306085 0.41100001 4279392299
0.068392232 -0.06321428 0.41200003 4279130410
0.069730408 -0.06321428 0.41200003 4279064617
0.071241081 -0.06336771 0.41300002 4278669091
0.072582506 -0.06336771 0.41300002 4280641082
0.073744945 -0.06321428 0.41200003 4280704565
0.075083114 -0.06321428 0.41200003 4282084165
0.062427491 -0.06127492 0.40800002 4280439860
0.063752681 -0.06127492 0.40800002 4279784238
0.065237358 -0.061425101 0.40900001 4279326506
0.066728555 -0.061575286 0.41000003 4279130408
0.068226233 -0.061725467 0.41100001 4279064615
0.069561154 -0.061725467 0.41100001 4278669859
0.071068585 -0.061875656 0.41200003 4280508985
0.072406769 -0.061875656 0.41200003 4280375602
0.073744945 -0.061875656 0.41200003 4281359931
0.075083114 -0.061875656 0.41200003 4280767024
0.060802784 -0.059655413 0.40600002 4280834366
0.062274482 -0.059802346 0.40700001 4279456295
0.063752681 -0.059949283 0.40800002 4279391785
0.065237358 -0.060096215 0.40900001 4279064617
0.066728555 -0.060243152 0.41000003 4279065128
0.068060234 -0.060243152 0.41000003 4278865955
0.069561154 -0.060390085 0.41100001 4280181303
0.070896089 -0.060390085 0.41100001 4280374832
0.072406769 -0.060537022 0.41200003 4281359931
0.073744945 -0.060537022 0.41200003 4281227575
0.075083114 -0.060537022 0.41200003 4281687612
0.05933759 -0.058192596 0.40500003 4280506682
0.060802784 -0.05833628 0.40600002 4279653422
0.062121473 -0.05833628 0.40600002 4279326506
0.06359642 -0.058479965 0.40700001 4279327019
0.065077856 -0.058623653 0.40800002 4279064615
0.066565797 -0.058767337 0.40900001 4279458603
0.068060234 -0.058911026 0.41000003 4280640569
0.069391914 -0.058911026 0.41000003 4279849772
0.070896089 -0.059054706 0.41100001 4281096507
0.072231017 -0.059054706 0.41100001 4281556286
0.073565945 -0.059054706 0.41100001 4281752122
0.075083114 -0.059198394 0.41200003 4283395410
0.05642667 -0.056595836 0.40300003 4282871384
0.057878878 -0.056736268 0.40400001 4281096768
0.059191074 -0.056736268 0.40400001 4279325740
0.060653023 -0.056876708 0.40500003 4279195435
0.062121473 -0.057017144 0.40600002 4279130923
0.063440166 -0.057017144 0.40600002 4278999337
0.064918354 -0.057157576 0.40700001 4280444473
0.066403046 -0.057298016 0.40800002 4280640569
0.067894228 -0.057438452 0.40900001 4280703282
0.069391914 -0.057578888 0.41000003 4281360444
0.070723593 -0.057578888 0.41000003 4281358907
0.072231017 -0.057719324 0.41100001 4281489979
0.073565945 -0.057719324 0.41100001 4283329105
0.054844186 -0.055012077 0.40100002 4282804308
0.056286652 -0.055149261 0.40200001 4280309303
0.057735614 -0.055286452 0.40300003 4279850803
0.059044562 -0.055286452 0.40300003 4279130412
0.060503263 -0.055423636 0.40400001 4279065130
0.061968468 -0.055560827 0.40500003 4278933544
0.063440166 -0.055698011 0.40600002 4279525168
0.064758852 -0.055698011 0.40600002 4280574778
0.066240288 -0.055835195 0.40700001 4281230909
0.067728229 -0.055972386 0.40800002 4280702001
0.069222659 -0.05610957 0.40900001 4281358907
0.070723593 -0.056246761 0.41000003 4281292600
0.072231017 -0.056383945 0.41100001 4282738763
0.053274699 -0.053441305 0.39900002 4282608462
0.054707415 -0.053575244 0.40000001 4280702260
0.056146637 -0.053709183 0.40100002 4279785773
0.057592351 -0.053843118 0.40200001 4279194920
0.058898047 -0.053843118 0.40200001 4279130923
0.060353503 -0.053977061 0.40300003 4278999335
0.061815456 -0.054110996 0.40400001 4280641852
0.063283913 -0.054244936 0.40500003 4281035840
0.064758852 -0.054378871 0.40600002 4280045354
0.066240288 -0.05451281 0.40700001 4282214216
0.06756223 -0.05451281 0.40700001 4280042022
0.069053411 -0.054646749 0.40800002 4281555774
0.070723593 -0.054914627 0.41000003 4282869584
0.051718198 -0.051883534 0.39700001 4282476111
0.05314118 -0.052014224 0.39800003 4280440625
0.054570649 -0.052144911 0.39900002 4279719467
0.056006618 -0.052275598 0.40000001 4279195685
0.057449088 -0.052406289 0.40100002 4279591213
0.058898047 -0.052536976 0.40200001 4279064615
0.060203739 -0.052536976 0.40200001 4280313401
0.06166245 -0.05266767 0.40300003 4280574778
0.063127652 -0.052798357 0.40400001 4279781928
0.06459935 -0.052929047 0.40500003 4280304170
0.066077538 -0.053059734 0.40600002 4280172584
0.06756223 -0.053190421 0.40700001 4281686077
0.068884164 -0.053190421 0.40700001 4282672972
0.050174691 -0.050338764 0.39500001 4283068759
0.051587928 -0.050466206 0.39600003 4280242479
0.053007659 -0.050593644 0.39700001 4279654189
0.054433882 -0.050721087 0.39800003 4279326506
0.055866603 -0.050848521 0.39900002 4278999589
0.05730582 -0.05097596 0.40000001 4278802210
0.058751538 -0.051103402 0.40100002 4279983922
0.060203739 -0.05123084 0.40200001 4280574778
0.06166245 -0.051358283 0.40300003 4279780647
0.063127652 -0.051485721 0.40400001 4280765491
0.064439841 -0.051485721 0.40400001 4282146374
0.066077538 -0.051740602 0.40600002 4281160503
0.067396231 -0.051740602 0.40600002 4282277701
0.048767958 -0.048931178 0.39400002 4283264857
0.050174691 -0.049055368 0.39500001 4280243762
0.051457655 -0.049055368 0.39500001 4279587629
0.05287414 -0.049179561 0.39600003 4279260711
0.054297112 -0.049303748 0.39700001 4278998822
0.055726588 -0.049427941 0.39800003 4278867749
0.057162557 -0.049552131 0.39900002 4280181813
0.058605023 -0.049676321 0.40000001 4280968764
0.060053982 -0.049800515 0.40100002 4279385117
0.061509438 -0.049924701 0.40200001 4280369963
0.062971398 -0.050048895 0.40300003 4280699698
0.064439841 -0.050173085 0.40400001 4281226296
0.065914787 -0.050297279 0.40500003 4282015812
0.047247186 -0.047409147 0.39200002 4282806103
0.05004767 -0.047651034 0.39400002 4279523373
0.051457655 -0.047771972 0.39500001 4279063847
0.05287414 -0.047892917 0.39600003 4279262761
0.054297112 -0.048013855 0.39700001 4278999589
0.055726588 -0.0481348 0.39800003 4280115508
0.057162557 -0.048255742 0.39900002 4280443190
0.058605023 -0.048376679 0.40000001 4279450660
0.060053982 -0.048497625 0.40100002 4281092407
0.061356433 -0.048497625 0.40100002 4281092407
0.062815137 -0.048618563 0.40200001 4280830003
0.064280339 -0.048739508 0.40300003 4281619769
0.047247186 -0.0461355 0.39200002 4279784238
0.048644178 -0.046253193 0.39300001 4279522603
0.049920641 -0.046253193 0.39300001 4278933544
0.051327381 -0.046370886 0.39400002 4278999337
0.052740615 -0.046488576 0.39500001 4278670624
0.054160345 -0.046606272 0.39600003 4280247346
0.055586569 -0.046723962 0.39700001 4279980842
0.057019293 -0.046841659 0.39800003 4279320094
0.058458511 -0.046959348 0.39900002 4281158966
0.059904218 -0.047077041 0.40000001 4281026614
0.061356433 -0.047194734 0.40100002 4280896309
0.062815137 -0.047312424 0.40200001 4282212167
0.031899016 -0.048638485 0.42500001 4280365604
0.033279419 -0.048638485 0.42500001 4280431397
0.038139086 -0.044632964 0.39000002 4279130412
0.047247186 -0.044861849 0.39200002 4279261228
0.048520405 -0.044861849 0.39200002 4279130410
0.049920641 -0.04497629 0.39300001 4279130921
0.051327381 -0.045090739 0.39400002 4279065128
0.052740615 -0.04520518 0.39500001 4280575287
0.054160345 -0.045319624 0.39600003 4280507698
0.055586569 -0.045434065 0.39700001 4281622849
0.057019293 -0.045548514 0.39800003 4280634672
0.058458511 -0.045662954 0.39900002 4280960817
0.059904218 -0.045777395 0.40000001 4280961589
0.061356433 -0.04589184 0.40100002 4282277960
0.030590428 -0.047368813 0.42600003 4280101916
0.031899016 -0.047257617 0.42500001 4280167711
0.033122811 -0.047035228 0.42300001 4280233504
0.034415163 -0.046924032 0.42200002 4280101918
0.035616219 -0.046701644 0.42000002 4280299297
0.036804281 -0.046479255 0.41800001 4280037409
0.038070649 -0.046368062 0.41700003 4279446553
0.038139086 -0.043365814 0.39000002 4278340124
0.039405808 -0.043365814 0.39000002 4278669859
0.040672526 -0.043365814 0.39000002 4279130923
0.043205969 -0.043365814 0.39000002 4279653935
0.044586722 -0.04347701 0.39100003 4279457326
0.045856692 -0.04347701 0.39100003 4279392047
0.047247186 -0.043588202 0.39200002 4279656754
0.048644178 -0.043699395 0.39300001 4279525681
0.049920641 -0.043699395 0.39300001 4279262507
0.051327381 -0.043810591 0.39400002 4280313912
0.052740615 -0.043921784 0.39500001 4280705592
0.054160345 -0.04403298 0.39600003 4279716648
0.055586569 -0.044144172 0.39700001 4280962872
0.057019293 -0.044255368 0.39800003 4280237866
0.058458511 -0.044366561 0.39900002 4281158966
0.059904218 -0.044477757 0.40000001 4282803791
0.030590428 -0.045984697 0.42600003 4280101916
0.031899016 -0.045876749 0.42500001 4280101916
0.033122811 -0.045660857 0.42300001 4280167709
0.034415163 -0.045552913 0.42200002 4280036125
0.035616219 -0.045337021 0.42000002 4280101918
0.036804281 -0.04512113 0.41800001 4279773467
0.038070649 -0.045013186 0.41700003 4279511063
0.039405808 -0.042098664 0.39000002 4278273818
0.040776815 -0.042206611 0.39100003 4278669089
0.042046785 -0.042206611 0.39100003 4278208798
0.043316755 -0.042206611 0.39100003 4278867501
0.044586722 -0.042206611 0.39100003 4283076970
0.045973971 -0.042314555 0.39200002 4279525683
0.047247186 -0.042314555 0.39200002 4278670372
0.048644178 -0.0424225 0.39300001 4278473761
0.05004767 -0.042530444 0.39400002 4279984949
0.051457655 -0.042638388 0.39500001 4280312887
0.054160345 -0.042746335 0.39600003 4280833846
0.055586569 -0.042854279 0.39700001 4280106791
0.057019293 -0.042962227 0.39800003 4281289782
0.058458511 -0.043070171 0.39900002 4282212421
0.030590428 -0.044600576 0.42600003 4279838746
0.031899016 -0.044495881 0.42500001 4279904539
0.033122811 -0.044286486 0.42300001 4280101918
0.034333609 -0.044077098 0.42100003 4279838746
0.035616219 -0.043972399 0.42000002 4280101918
0.036804281 -0.043763008 0.41800001 4279773467
0.038070649 -0.043658312 0.41700003 4279707672
0.039605975 -0.042401958 0.40500003 4278532628
0.039506849 -0.040936213 0.39100003 4278337812
0.040881105 -0.041040905 0.39200002 4278601497
0.04215432 -0.041040905 0.39200002 4278865953
0.043427538 -0.041040905 0.39200002 4279195431
0.044700753 -0.041040905 0.39200002 4278669861
0.045973971 -0.041040905 0.39200002 4278933031
0.047367714 -0.0411456 0.39300001 4279130410
0.048767958 -0.0412503 0.39400002 4279919156
0.050174691 -0.041354995 0.39500001 4280312887
0.051457655 -0.041354995 0.39500001 4280641082
0.054297112 -0.041564386 0.39700001 4282018122
0.055586569 -0.041564386 0.39700001 4281357112
0.057019293 -0.041669086 0.39800003 4283067217
0.030590428 -0.043216459 0.42600003 4280167709
0.031823963 -0.043013565 0.42400002 4280036123
0.033044506 -0.042810671 0.42200002 4280167709
0.034333609 -0.042709224 0.42100003 4279904539
0.03553142 -0.04250633 0.41900003 4280036125
0.036804281 -0.042404883 0.41800001 4279838744
0.038070649 -0.042303436 0.41700003 4279905051
0.038574167 -0.041390412 0.40800002 4279121945
0.039605975 -0.04108607 0.40500003 4278861080
0.040517252 -0.040680282 0.40100002 4278599189
0.040985391 -0.039868705 0.39300001 4278731289
0.042261854 -0.039868705 0.39300001 4278799646
0.043427538 -0.039767258 0.39200002 4279062818
0.044814784 -0.039868705 0.39300001 4279523371
0.046091251 -0.039868705 0.39300001 4279655471
0.047488246 -0.039970152 0.39400002 4279852338
0.048891731 -0.040071599 0.39500001 4280509496
0.050174691 -0.040071599 0.39500001 4280640569
0.051587928 -0.040173046 0.39600003 4280705592
0.053007659 -0.040274493 0.39700001 4279321377
0.054297112 -0.040274493 0.39700001 4281622851
0.055726588 -0.040375941 0.39800003 4282672972
0.030590428 -0.041832343 0.42600003 4280299297
0.031974073 -0.041832343 0.42600003 4280299297
0.032966204 -0.041341353 0.42100003 4280233504
0.034252055 -0.041243155 0.42000002 4280167711
0.03553142 -0.041144956 0.41900003 4279904539
0.036804281 -0.041046757 0.41800001 4279510293
0.037979353 -0.04085036 0.41600001 4280038688
0.038763255 -0.040261175 0.41000003 4278859797
0.040315174 -0.039180998 0.39900002 4278993947
0.04119397 -0.038788203 0.39500001 4278665496
0.042369392 -0.038690008 0.39400002 4278798363
0.043649107 -0.038690008 0.39400002 4279193121
0.044928819 -0.038690008 0.39400002 4279917359
0.046208534 -0.038690008 0.39400002 4279851568
0.04760877 -0.038788203 0.39500001 4280114486
0.048891731 -0.038788203 0.39500001 4280640830
0.050301719 -0.038886402 0.39600003 4280836926
0.051587928 -0.038886402 0.39600003 4281296966
0.053007659 -0.0389846 0.39700001 4281490495
0.054297112 -0.0389846 0.39700001 4282871634
0.030590428 -0.040448226 0.42600003 4280233502
0.031974073 -0.040448226 0.42600003 4279904539
0.032966204 -0.039973482 0.42100003 4279772953
0.034252055 -0.039878532 0.42000002 4280036125
0.03553142 -0.039783582 0.41900003 4280036125
0.036716234 -0.039593685 0.41700003 4279642647
0.038070649 -0.039593685 0.41700003 4279644697
0.039425068 -0.039593685 0.41700003 4278859027
0.03901922 -0.037884604 0.39900002 4278729494
0.040315174 -0.037884604 0.39900002 4278796570
0.041298259 -0.037599761 0.39600003 4278929183
0.04247693 -0.037504807 0.39500001 4279323939
0.04375989 -0.037504807 0.39500001 4279653672
0.04504285 -0.037504807 0.39500001 4279917359
0.046325814 -0.037504807 0.39500001 4280246324
0.04760877 -0.037504807 0.39500001 4280312119
0.053007659 -0.037694708 0.39700001 4282607949
0.030590428 -0.039064109 0.42600003 4280233502
0.031974073 -0.039064109 0.42600003 4280101916
0.033357725 -0.039064109 0.42600003 4280167711
0.034741372 -0.039064109 0.42600003 4280035871
0.036125023 -0.039064109 0.42600003 4279904539
0.03750867 -0.039064109 0.42600003 4279708953
0.036609907 -0.036771614 0.40100002 4279382555
0.037912354 -0.036771614 0.40100002 4278859543
0.039117008 -0.036679912 0.40000001 4279189791
0.040315174 -0.036588214 0.39900002 4278993695
0.041402545 -0.036404815 0.39700001 4279257635
0.042584468 -0.036313117 0.39600003 4279127330
0.043870676 -0.036313117 0.39600003 4280048432
0.045156885 -0.036313117 0.39600003 4279982637
0.046443094 -0.036313117 0.39600003 4279983150
0.047729302 -0.036313117 0.39600003 4280641082
0.051718198 -0.036404815 0.39700001 4283003218
0.030590428 -0.037679993 0.42600003 4280232987
0.031974073 -0.037679993 0.42600003 4280298782
0.032621007 -0.03538027 0.40000001 4279969817
0.03392021 -0.03538027 0.40000001 4279772953
0.035307456 -0.035468724 0.40100002 4279447578
0.036609907 -0.035468724 0.40100002 4279252504
0.03781781 -0.03538027 0.40000001 4279057176
0.039117008 -0.03538027 0.40000001 4278795285
0.040315174 -0.035291821 0.39900002 4278862875
0.041506838 -0.035203371 0.39800003 4279192353
0.042692002 -0.035114922 0.39700001 4279127843
0.043981459 -0.035114922 0.39700001 4280443703
0.045156885 -0.035026472 0.39600003 4279918129
0.046560373 -0.035114922 0.39700001 4280114738
0.04784983 -0.035114922 0.39700001 4280509496
0.050428741 -0.035114922 0.39700001 4283134293
0.031974073 -0.036295872 0.42600003 4280825126
0.03392021 -0.034080632 0.40000001 4279444502
0.035219409 -0.034080632 0.40000001 4279252504
0.036609907 -0.034165833 0.40100002 4279122197
0.03781781 -0.034080632 0.40000001 4278795285
0.039117008 -0.034080632 0.40000001 4278730005
0.040315174 -0.033995431 0.39900002 4279191840
0.041506838 -0.03391023 0.39800003 4279258916
0.04279954 -0.03391023 0.39800003 4279325222
0.043981459 -0.033825029 0.39700001 4279852336
0.045270916 -0.033825029 0.39700001 4280247094
0.046560373 -0.033825029 0.39700001 4280312887
0.035219409 -0.03278099 0.40000001 4278924820
0.036518607 -0.03278099 0.40000001 4278859797
0.03781781 -0.03278099 0.40000001 4278729492
0.039117008 -0.03278099 0.40000001 4279124763
0.040315174 -0.032699037 0.39900002 4279060767
0.041611124 -0.032699037 0.39900002 4279323939
0.04279954 -0.032617088 0.39800003 4280179250
0.044092245 -0.032617088 0.39800003 4279917359
0.045384951 -0.032617088 0.39800003 4280575289
0.046677656 -0.032617088 0.39800003 4280508983
0.031321805 -0.031481348 0.40000001 4285498737
0.032621007 -0.031481348 0.40000001 4279577621
0.03392021 -0.031481348 0.40000001 4279644957
0.035219409 -0.031481348 0.40000001 4279319578
0.036518607 -0.031481348 0.40000001 4279057176
0.03781781 -0.031481348 0.40000001 4278992666
0.039117008 -0.031481348 0.40000001 4279124763
0.040315174 -0.031402644 0.39900002 4279389732
0.041611124 -0.031402644 0.39900002 4279126560
0.042907074 -0.031402644 0.39900002 4280179250
0.044203028 -0.031402644 0.39900002 4280048432
0.045498982 -0.031402644 0.39900002 4280639799
0.046794936 -0.031402644 0.39900002 4282676304
0.036518607 -0.030181706 0.40000001 4279253017
0.03781781 -0.030181706 0.40000001 4278991383
0.039117008 -0.030181706 0.40000001 4279387937
0.040416211 -0.030181706 0.40000001 4279521320
0.041611124 -0.030106254 0.39900002 4279850285
0.042907074 -0.030106254 0.39900002 4280574008
0.044203028 -0.030106254 0.39900002 4279850285
0.056550536 -0.051380724 0.40732059 4294967295
0.056550536 -0.051380724 0.40732059 4294901760
0.056216016 -0.051751725 0.40734193 4294901760
0.055881497 -0.052122723 0.40736327 4294901760
0.055546977 -0.052493725 0.4073846 4294901760
0.055212457 -0.052864723 0.40740594 4294901760
0.054877933 -0.053235725 0.40742728 4294901760
0.054543413 -0.053606723 0.40744862 4294901760
0.054208893 -0.053977724 0.40746996 4294901760
0.053874373 -0.054348722 0.40749127 4294901760
0.053539854 -0.054719724 0.40751261 4294901760
0.053205334 -0.055090722 0.40753394 4294901760
0.052870814 -0.055461723 0.40755528 4294901760
0.052536294 -0.055832721 0.40757662 4294901760
0.052201774 -0.056203723 0.40759796 4294901760
0.051867254 -0.056574721 0.4076193 4294901760
0.05153273 -0.056945723 0.40764064 4294901760
0.051198211 -0.05731672 0.40766197 4294901760
0.050863691 -0.057687722 0.40768331 4294901760
0.050529171 -0.05805872 0.40770465 4294901760
0.050194651 -0.058429722 0.40772599 4294901760
0.049860131 -0.05880072 0.40774733 4294901760
0.049525611 -0.059171721 0.40776867 4294901760
0.049191091 -0.059542723 0.40778998 4294901760
0.048856568 -0.059913721 0.40781131 4294901760
0.048522048 -0.060284719 0.40783265 4294901760
0.048187528 -0.060655721 0.40785399 4294901760
0.047853008 -0.061026722 0.40787533 4294901760
0.047518488 -0.06139772 0.40789667 4294901760
0.047183968 -0.061768718 0.40791801 4294901760
0.046849448 -0.06213972 0.40793934 4294901760
0.046514928 -0.062510721 0.40796068 4294901760
0.046180405 -0.062881723 0.40798202 4294901760
0.045845889 -0.063252717 0.40800336 4294901760
0.045511365 -0.063623719 0.4080247 4294901760
0.045176845 -0.063994721 0.40804604 4294901760
0.044842325 -0.064365722 0.40806738 4294901760
0.044507805 -0.064736716 0.40808868 4294901760
0.044173285 -0.065107718 0.40811002 4294901760
0.043838765 -0.06547872 0.40813136 4294901760
0.043504246 -0.065849721 0.4081527 4294901760
0.043169722 -0.066220716 0.40817404 4294901760
0.042835206 -0.066591717 0.40819538 4294901760
0.042500682 -0.066962719 0.40821671 4294901760
0.042166162 -0.067333721 0.40823805 4294901760
0.041831642 -0.067704722 0.40825939 4294901760
0.041497122 -0.068075716 0.40828073 4294901760
0.041162603 -0.068446718 0.40830207 4294901760
0.040828083 -0.06881772 0.40832341 4294901760
0.040493563 -0.069188714 0.40834475 4294901760
0.040159039 -0.069559716 0.40836608 4294901760
0.039824523 -0.069930717 0.40838742 4294901760
0.039489999 -0.070301719 0.40840873 4294901760
0.039155483 -0.070672721 0.40843007 4294901760
0.03882096 -0.071043715 0.40845141 4294901760
0.03848644 -0.071414717 0.40847275 4294901760
0.03815192 -0.071785718 0.40849409 4294901760
0.0378174 -0.072156712 0.40851542 4294901760
0.03748288 -0.072527714 0.40853676 4294901760
0.03714836 -0.072898716 0.4085581 4294901760
0.03681384 -0.073269717 0.40857944 4294901760
0.036479317 -0.073640719 0.40860078 4294901760
0.036144797 -0.074011713 0.40862212 4294901760
0.035810277 -0.074382715 0.40864345 4294901760
0.035475757 -0.074753717 0.40866479 4294901760
0.035141237 -0.075124711 0.40868613 4294901760
0.034806717 -0.075495712 0.40870744 4294901760
0.034472197 -0.075866714 0.40872878 4294901760
0.034137674 -0.076237716 0.40875012 4294901760
0.033803158 -0.076608717 0.40877146 4294901760
0.033468634 -0.076979712 0.40879279 4294901760
0.033134118 -0.077350713 0.40881413 4294901760
0.032799594 -0.077721715 0.40883547 4294901760
0.032465074 -0.078092717 0.40885681 4294901760
0.032130554 -0.078463718 0.40887815 4294901760
0.031796034 -0.078834713 0.40889949 4294901760
0.031461515 -0.079205714 0.40892082 4294901760
0.031126993 -0.079576716 0.40894216 4294901760
0.030792473 -0.07994771 0.4089635 4294901760
0.030457953 -0.080318712 0.40898484 4294901760
0.030123431 -0.080689713 0.40900615 4294901760
0.029788911 -0.081060715 0.40902749 4294901760
0.029454391 -0.081431717 0.40904883 4294901760
0.029119872 -0.081802711 0.40907016 4294901760
0.028785352 -0.082173713 0.4090915 4294901760
0.028450832 -0.082544714 0.40911284 4294901760
0.02811631 -0.082915708 0.40913418 4294901760
0.02778179 -0.083286718 0.40915552 4294901760
0.02744727 -0.083657712 0.40917686 4294901760
0.02711275 -0.084028713 0.40919819 4294901760
0.02677823 -0.084399715 0.40921953 4294901760
0.026443711 -0.084770709 0.40924087 4294901760
0.026109189 -0.085141718 0.40926221 4294901760
0.025774667 -0.085512713 0.40928355 4294901760
0.025440147 -0.085883707 0.40930486 4294901760
0.025105629 -0.086254716 0.4093262 4294901760
0.024771109 -0.08662571 0.40934753 4294901760
0.024436589 -0.086996712 0.40936887 4294901760
0.024102066 -0.087367713 0.40939021 4294901760
0.023767546 -0.087738708 0.40941155 4294901760
0.023433026 -0.088109717 0.40943289 4294901760
0.023098506 -0.088480711 0.40945423 4294901760
0.056550536 -0.051380724 0.40732059 4278255360
0.056905296 -0.051690999 0.40748754 4278255360
0.057260055 -0.052001271 0.40765449 4278255360
0.057614814 -0.052311547 0.40782148 4278255360
0.057969574 -0.052621823 0.40798843 4278255360
0.058324333 -0.052932099 0.40815538 4278255360
0.058679093 -0.05324237 0.40832233 4278255360
0.059033852 -0.053552646 0.40848932 4278255360
0.059388611 -0.053862922 0.40865627 4278255360
0.059743371 -0.054173194 0.40882322 4278255360
0.06009813 -0.05448347 0.40899017 4278255360
0.06045289 -0.054793745 0.40915716 4278255360
0.060807649 -0.055104021 0.40932411 4278255360
0.061162408 -0.055414293 0.40949106 4278255360
0.061517168 -0.055724569 0.40965801 4278255360
0.061871927 -0.056034844 0.409825 4278255360
0.062226683 -0.05634512 0.40999195 4278255360
0.062581442 -0.056655392 0.4101589 4278255360
0.062936202 -0.056965668 0.41032586 4278255360
0.063290961 -0.057275943 0.41049284 4278255360
0.06364572 -0.057586215 0.41065979 4278255360
0.06400048 -0.057896491 0.41082674 4278255360
0.064355239 -0.058206767 0.4109937 4278255360
0.064709999 -0.058517043 0.41116068 4278255360
0.065064758 -0.058827315 0.41132763 4278255360
0.065419517 -0.05913759 0.41149458 4278255360
0.065774277 -0.059447866 0.41166154 4278255360
0.066129036 -0.059758142 0.41182849 4278255360
0.066483796 -0.060068414 0.41199547 4278255360
0.066838555 -0.060378689 0.41216242 4278255360
0.067193314 -0.060688965 0.41232938 4278255360
0.067548074 -0.060999237 0.41249633 4278255360
0.067902833 -0.061309513 0.41266331 4278255360
0.068257593 -0.061619788 0.41283026 4278255360
0.068612352 -0.06193006 0.41299722 4278255360
0.068967111 -0.062240336 0.41316417 4278255360
0.069321871 -0.062550612 0.41333115 4278255360
0.06967663 -0.062860884 0.4134981 4278255360
0.07003139 -0.063171163 0.41366506 4278255360
0.070386149 -0.063481435 0.41383201 4278255360
0.070740908 -0.063791707 0.41399899 4278255360
0.071095668 -0.064101987 0.41416594 4278255360
0.071450427 -0.064412259 0.4143329 4278255360
0.071805187 -0.064722538 0.41449985 4278255360
0.072159946 -0.06503281 0.41466683 4278255360
0.072514705 -0.065343082 0.41483378 4278255360
0.072869465 -0.065653361 0.41500074 4278255360
0.073224224 -0.065963633 0.41516769 4278255360
0.073578984 -0.066273905 0.41533464 4278255360
0.073933743 -0.066584185 0.41550162 4278255360
0.074288502 -0.066894457 0.41566858 4278255360
0.074643262 -0.067204729 0.41583553 4278255360
0.074998021 -0.067515008 0.41600248 4278255360
0.075352773 -0.06782528 0.41616946 4278255360
0.07570754 -0.06813556 0.41633642 4278255360
0.076062299 -0.068445832 0.41650337 4278255360
0.076417059 -0.068756104 0.41667032 4278255360
0.076771811 -0.069066375 0.4168373 4278255360
0.077126577 -0.069376655 0.41700426 4278255360
0.077481329 -0.069686927 0.41717121 4278255360
0.077836096 -0.069997206 0.41733816 4278255360
0.078190856 -0.070307478 0.41750515 4278255360
0.078545615 -0.07061775 0.4176721 4278255360
0.078900367 -0.07092803 0.41783905 4278255360
0.079255134 -0.071238302 0.418006 4278255360
0.079609886 -0.071548574 0.41817299 4278255360
0.079964653 -0.071858853 0.41833994 4278255360
0.080319405 -0.072169125 0.41850689 4278255360
0.080674171 -0.072479397 0.41867384 4278255360
0.081028923 -0.072789676 0.41884083 4278255360
0.08138369 -0.073099948 0.41900778 4278255360
0.081738442 -0.073410228 0.41917473 4278255360
0.082093209 -0.0737205 0.41934168 4278255360
0.082447961 -0.074030772 0.41950867 4278255360
0.082802728 -0.074341051 0.41967562 4278255360
0.08315748 -0.074651323 0.41984257 4278255360
0.083512239 -0.074961595 0.42000952 4278255360
0.083866999 -0.075271875 0.42017648 4278255360
0.084221758 -0.075582147 0.42034346 4278255360
0.084576517 -0.075892419 0.42051041 4278255360
0.084931277 -0.076202698 0.42067736 4278255360
0.085286036 -0.07651297 0.42084432 4278255360
0.085640796 -0.076823249 0.4210113 4278255360
0.085995555 -0.077133521 0.42117825 4278255360
0.086350314 -0.077443793 0.4213452 4278255360
0.086705074 -0.077754073 0.42151216 4278255360
0.087059833 -0.078064345 0.42167914 4278255360
0.087414593 -0.078374617 0.42184609 4278255360
0.087769352 -0.078684896 0.42201304 4278255360
0.088124111 -0.078995168 0.42218 4278255360
0.088478871 -0.07930544 0.42234698 4278255360
0.08883363 -0.07961572 0.42251393 4278255360
0.089188389 -0.079925992 0.42268088 4278255360
0.089543149 -0.080236271 0.42284784 4278255360
0.089897908 -0.080546543 0.42301482 4278255360
0.090252668 -0.080856815 0.42318177 4278255360
0.090607427 -0.081167087 0.42334872 4278255360
0.090962186 -0.081477366 0.42351568 4278255360
0.091316946 -0.081787638 0.42368263 4278255360
0.091671705 -0.082097918 0.42384961 4278255360
0.092026465 -0.08240819 0.42401657 4278255360
0.056550536 -0.051380724 0.40732059 4278190335
0.056364246 -0.051188465 0.40774289 4278190335
0.056177955 -0.050996203 0.40816519 4278190335
0.055991665 -0.050803944 0.40858746 4278190335
0.055805374 -0.050611686 0.40900975 4278190335
0.055619083 -0.050419427 0.40943205 4278190335
0.055432793 -0.050227165 0.40985435 4278190335
0.055246502 -0.050034907 0.41027665 4278190335
0.055060208 -0.049842648 0.41069895 4278190335
0.054873917 -0.049650386 0.41112122 4278190335
0.054687627 -0.049458127 0.41154352 4278190335
0.054501336 -0.049265869 0.41196582 4278190335
0.054315045 -0.04907361 0.41238812 4278190335
0.054128755 -0.048881348 0.41281042 4278190335
0.053942464 -0.04868909 0.41323271 4278190335
0.053756174 -0.048496831 0.41365498 4278190335
0.053569883 -0.048304573 0.41407728 4278190335
0.053383593 -0.04811231 0.41449958 4278190335
0.053197302 -0.047920052 0.41492188 4278190335
0.053011011 -0.047727793 0.41534418 4278190335
0.052824721 -0.047535531 0.41576648 4278190335
0.05263843 -0.047343273 0.41618875 4278190335
0.05245214 -0.047151014 0.41661105 4278190335
0.052265845 -0.046958752 0.41703334 4278190335
0.052079555 -0.046766493 0.41745564 4278190335
0.051893264 -0.046574235 0.41787794 4278190335
0.051706973 -0.046381976 0.41830024 4278190335
0.051520683 -0.046189714 0.41872251 4278190335
0.051334392 -0.045997456 0.41914481 4278190335
0.051148102 -0.045805197 0.41956711 4278190335
0.050961811 -0.045612939 0.41998941 4278190335
0.050775521 -0.045420676 0.42041171 4278190335
0.05058923 -0.045228418 0.420834 4278190335
0.050402939 -0.045036159 0.42125627 4278190335
0.050216649 -0.044843897 0.42167857 4278190335
0.050030358 -0.044651639 0.42210087 4278190335
0.049844064 -0.04445938 0.42252317 4278190335
0.049657773 -0.044267122 0.42294547 4278190335
0.049471483 -0.044074859 0.42336777 4278190335
0.049285192 -0.043882601 0.42379004 4278190335
0.049098901 -0.043690342 0.42421234 4278190335
0.048912611 -0.043498084 0.42463464 4278190335
0.04872632 -0.043305822 0.42505693 4278190335
0.04854003 -0.043113563 0.42547923 4278190335
0.048353739 -0.042921305 0.42590153 4278190335
0.048167448 -0.042729042 0.4263238 4278190335
0.047981158 -0.042536784 0.4267461 4278190335
0.047794867 -0.042344525 0.4271684 4278190335
0.047608577 -0.042152263 0.4275907 4278190335
0.047422282 -0.041960005 0.428013 4278190335
0.047235996 -0.041767746 0.42843527 4278190335
0.047049701 -0.041575488 0.42885756 4278190335
0.046863414 -0.041383229 0.42927986 4278190335
0.04667712 -0.041190967 0.42970216 4278190335
0.046490829 -0.040998708 0.43012446 4278190335
0.046304539 -0.04080645 0.43054676 4278190335
0.046118248 -0.040614188 0.43096906 4278190335
0.045931958 -0.040421929 0.43139133 4278190335
0.045745667 -0.040229671 0.43181363 4278190335
0.045559376 -0.040037408 0.43223593 4278190335
0.045373086 -0.03984515 0.43265823 4278190335
0.045186795 -0.039652891 0.43308052 4278190335
0.045000505 -0.039460629 0.43350279 4278190335
0.044814214 -0.039268374 0.43392509 4278190335
0.04462792 -0.039076112 0.43434739 4278190335
0.044441633 -0.038883854 0.43476969 4278190335
0.044255339 -0.038691595 0.43519199 4278190335
0.044069048 -0.038499333 0.43561429 4278190335
0.043882757 -0.038307074 0.43603656 4278190335
0.043696467 -0.038114816 0.43645886 4278190335
0.043510176 -0.037922554 0.43688115 4278190335
0.043323886 -0.037730295 0.43730345 4278190335
0.043137595 -0.037538037 0.43772575 4278190335
0.042951304 -0.037345774 0.43814805 4278190335
0.042765014 -0.037153516 0.43857032 4278190335
0.042578723 -0.036961257 0.43899262 4278190335
0.042392433 -0.036768999 0.43941492 4278190335
0.042206142 -0.03657674 0.43983722 4278190335
0.042019852 -0.036384478 0.44025952 4278190335
0.041833557 -0.03619222 0.44068182 4278190335
0.041647267 -0.035999961 0.44110408 4278190335
0.041460976 -0.035807699 0.44152638 4278190335
0.041274685 -0.03561544 0.44194868 4278190335
0.041088395 -0.035423182 0.44237098 4278190335
0.040902108 -0.03523092 0.44279328 4278190335
0.040715814 -0.035038661 0.44321558 4278190335
0.040529523 -0.034846403 0.44363785 4278190335
0.040343232 -0.03465414 0.44406015 4278190335
0.040156942 -0.034461886 0.44448245 4278190335
0.039970651 -0.034269623 0.44490474 4278190335
0.039784361 -0.034077365 0.44532704 4278190335
0.03959807 -0.033885106 0.44574934 4278190335
0.039411776 -0.033692844 0.44617161 4278190335
0.039225489 -0.033500586 0.44659391 4278190335
0.039039195 -0.033308327 0.44701621 4278190335
0.038852908 -0.033116065 0.44743851 4278190335
0.038666613 -0.032923806 0.44786081 4278190335
0.038480323 -0.032731548 0.44828308 4278190335
0.038294032 -0.032539286 0.44870538 4278190335
0.038107742 -0.032347027 0.44912767 4278190335
0.037921451 -0.032154769 0.44954997 4278190335
0.056550536 -0.051380724 0.40732059 4294967295
0.05766828 -0.052534282 0.40478683 4294967295
0.058786027 -0.053687837 0.40225306 4294967295
0.059903771 -0.054841395 0.3997193 4294967295
0.061021518 -0.055994954 0.39718553 4294967295
0.062139262 -0.057148509 0.39465177 4294967295
0.063257009 -0.058302067 0.39211801 4294967295
0.064374752 -0.059455626 0.38958424 4294967295
0.065492496 -0.060609184 0.38705048 4294967295
0.066610247 -0.061762739 0.38451672 4294967295
0.06772799 -0.062916294 0.38198295 4294967295
0.068845734 -0.064069852 0.37944919 4294967295
0.069963478 -0.065223411 0.37691545 4294967295
0.071081221 -0.066376969 0.37438166 4294967295
0.072198972 -0.067530528 0.37184793 4294967295
0.073316716 -0.068684086 0.36931413 4294967295
0.074434459 -0.069837645 0.3667804 4294967295
0.07555221 -0.070991196 0.36424664 4294967295
0.076669954 -0.072144754 0.36171287 4294967295
0.077787697 -0.073298313 0.35917911 4294967295
0.078905441 -0.074451871 0.35664535 4294967295
0.080023184 -0.075605422 0.35411158 4294967295
0.081140935 -0.076758981 0.35157782 4294967295
0.082258679 -0.077912539 0.34904405 4294967295
0.083376423 -0.079066098 0.34651029 4294967295
0.084494174 -0.080219656 0.34397653 4294967295
0.08561191 -0.081373215 0.34144276 4294967295
0.086729661 -0.082526773 0.338909 4294967295
0.087847404 -0.083680332 0.33637524 4294967295
0.088965148 -0.084833883 0.33384147 4294967295
0.090082899 -0.085987449 0.33130771 4294967295
0.091200642 -0.087141 0.32877395 4294967295
0.092318386 -0.088294558 0.32624018 4294967295
0.093436137 -0.089448117 0.32370642 4294967295
0.094553873 -0.090601668 0.32117265 4294967295
0.095671624 -0.091755226 0.31863892 4294967295
0.096789375 -0.092908785 0.31610513 4294967295
0.097907111 -0.094062343 0.31357139 4294967295
0.099024862 -0.095215902 0.3110376 4294967295
0.1001426 -0.09636946 0.30850387 4294967295
0.10126035 -0.097523019 0.30597007 4294967295
0.1023781 -0.098676577 0.30343634 4294967295
0.10349584 -0.099830128 0.30090258 4294967295
0.10461359 -0.10098369 0.29836881 4294967295
0.10573133 -0.10213725 0.29583505 4294967295
0.10684907 -0.1032908 0.29330128 4294967295
0.10796683 -0.10444436 0.29076752 4294967295
0.10908457 -0.10559791 0.28823376 4294967295
0.11020231 -0.10675147 0.28569999 4294967295
0.11132006 -0.10790503 0.28316623 4294967295
0.1124378 -0.10905859 0.28063247 4294967295
0.11355555 -0.11021215 0.2780987 4294967295
0.11467329 -0.11136571 0.27556494 4294967295
0.11579104 -0.11251926 0.27303118 4294967295
0.11690879 -0.11367282 0.27049741 4294967295
0.11802653 -0.11482637 0.26796365 4294967295
0.11914428 -0.11597993 0.26542988 4294967295
0.12026203 -0.11713349 0.26289612 4294967295
0.12137976 -0.11828704 0.26036239 4294967295
0.12249751 -0.1194406 0.25782859 4294967295
0.12361526 -0.12059417 0.25529483 4294967295
0.124733 -0.12174772 0.25276107 4294967295
0.12585075 -0.12290128 0.25022733 4294967295
0.12696849 -0.12405483 0.24769355 4294967295
0.12808624 -0.12520839 0.24515979 4294967295
0.12920398 -0.12636194 0.24262604 4294967295
0.13032173 -0.12751551 0.24009226 4294967295
0.13143948 -0.12866907 0.2375585 4294967295
0.13255721 -0.12982261 0.23502474 4294967295
0.13367496 -0.13097617 0.23249099 4294967295
0.13479272 -0.13212973 0.22995722 4294967295
0.13591045 -0.13328329 0.22742346 4294967295
0.1370282 -0.13443685 0.22488968 4294967295
0.13814595 -0.1355904 0.22235593 4294967295
0.13926369 -0.13674396 0.21982217 4294967295
0.14038144 -0.13789752 0.2172884 4294967295
0.14149918 -0.13905108 0.21475464 4294967295
0.14261693 -0.14020464 0.21222088 4294967295
0.14373466 -0.1413582 0.20968713 4294967295
0.14485241 -0.14251176 0.20715335 4294967295
0.14597017 -0.14366531 0.20461959 4294967295
0.1470879 -0.14481887 0.20208582 4294967295
0.14820565 -0.14597243 0.19955207 4294967295
0.1493234 -0.14712597 0.19701831 4294967295
0.15044114 -0.14827953 0.19448455 4294967295
0.15155889 -0.14943311 0.19195077 4294967295
0.15267664 -0.15058665 0.18941702 4294967295
0.15379438 -0.15174021 0.18688326 4294967295
0.15491213 -0.15289377 0.18434949 4294967295
0.15602987 -0.15404733 0.18181573 4294967295
0.15714762 -0.15520087 0.17928198 4294967295
0.15826537 -0.15635444 0.1767482 4294967295
0.1593831 -0.157508 0.17421444 4294967295
0.16050085 -0.15866154 0.17168067 4294967295
0.16161861 -0.1598151 0.16914693 4294967295
0.16273634 -0.16096866 0.16661316 4294967295
0.16385409 -0.16212222 0.1640794 4294967295
0.16497184 -0.16327578 0.16154562 4294967295
0.16608958 -0.16442934 0.15901187 4294967295
0.16720733 -0.1655829 0.15647811 4294967295
0.16832507 -0.16673645 0.15394434 4294967295
