# .PCD v0.7 - Point Cloud Data file format
VERSION 0.7
FIELDS x y z rgb
SIZE 4 4 4 4
TYPE F F F U
COUNT 1 1 1 1
WIDTH 1039
HEIGHT 1
VIEWPOINT 0 0 0 1 0 0 0
POINTS 1039
DATA ascii
-0.0085952785 0.015941149 0.384 4279323937
-0.0073480452 0.015941149 0.384 4278665496
-0.006084925 0.015899636 0.38300002 4284387951
-0.0048409407 0.015899636 0.38300002 4280375350
-0.0035969564 0.015899636 0.38300002 4279389480
-0.0023468281 0.015858123 0.38200003 4278995746
-0.0011060913 0.015858123 0.38200003 4279060769
0.00013464538 0.015858123 0.38200003 4279060769
-0.018960079 0.017546903 0.39200002 4279641113
-0.017641744 0.017502142 0.39100003 4279640600
-0.016288033 0.017412616 0.38900003 4279641113
-0.014985936 0.017367853 0.38800001 4279511065
-0.013654959 0.017278329 0.38600001 4279056152
-0.012369104 0.017233565 0.38500002 4278729753
-0.011089743 0.017188802 0.384 4278664980
-0.0098425103 0.017188802 0.384 4278533908
-0.0085728951 0.017144041 0.38300002 4278731287
-0.0073289103 0.017144041 0.38300002 4278797080
-0.006084925 0.017144041 0.38300002 4278468115
-0.0048409407 0.017144041 0.38300002 4278468117
-0.0035875649 0.01709928 0.38200003 4278337044
-0.0023468281 0.01709928 0.38200003 4278402837
-0.0011031957 0.017054515 0.38100001 4278600216
0.00013429289 0.017054515 0.38100001 4278600216
0.0013645806 0.016964991 0.37900001 4278600216
0.0025955732 0.016964991 0.37900001 4278863388
0.0038164693 0.016920229 0.37800002 4278731802
0.0050442144 0.016920229 0.37800002 4278600216
-0.018960079 0.018820552 0.39200002 4279509014
-0.017596623 0.018724529 0.39000002 4279771416
-0.016288033 0.018676519 0.38900003 4279443988
-0.014947313 0.018580494 0.38700002 4279576088
-0.013654959 0.018532483 0.38600001 4278856978
-0.012336976 0.01843646 0.384 4278926103
-0.011089743 0.01843646 0.384 4278664212
-0.0098168794 0.018388448 0.38300002 4278533396
-0.0085728951 0.018388448 0.38300002 4278796566
-0.0073289103 0.018388448 0.38300002 4278533394
-0.0060690381 0.018340437 0.38200003 4278401808
-0.0048283017 0.018340437 0.38200003 4278599187
-0.0035875649 0.018340437 0.38200003 4278336529
-0.0023406844 0.018292425 0.38100001 4278402322
-0.0011031957 0.018292425 0.38100001 4278270736
0.00013394043 0.018244414 0.38000003 4278402322
0.0013645806 0.018196402 0.37900001 4278402322
0.0025955732 0.018196402 0.37900001 4278468115
0.0038164693 0.018148391 0.37800002 4278533908
0.0050442144 0.018148391 0.37800002 4278533908
0.0062553659 0.018100377 0.377 4278402322
0.0074798628 0.018100377 0.377 4278402322
0.0087043596 0.018100377 0.377 4278665494
0.009928856 0.018100377 0.377 4278731287
0.011123769 0.018052367 0.37600002 4278533908
-0.018960079 0.020094201 0.39200002 4279574037
-0.017596623 0.019991679 0.39000002 4279443221
-0.016288033 0.019940419 0.38900003 4279706906
-0.014908689 0.019786635 0.38600001 4279511063
-0.013619585 0.019735375 0.38500002 4279054357
-0.012336976 0.019684114 0.384 4278859797
-0.011060865 0.019632854 0.38300002 4278663699
-0.0098168794 0.019632854 0.38300002 4278335247
-0.0085505117 0.019581594 0.38200003 4278533396
-0.0073097749 0.019581594 0.38200003 4278467603
-0.0060690381 0.019581594 0.38200003 4278533394
-0.0048283017 0.019581594 0.38200003 4278204172
-0.0035781732 0.019530332 0.38100001 4278204431
-0.0023406844 0.019530332 0.38100001 4278204431
-0.0011003002 0.019479072 0.38000003 4278467603
0.00013394043 0.019479072 0.38000003 4278336017
0.0013645806 0.019427812 0.37900001 4278467603
0.0025887247 0.01937655 0.37800002 4278401810
0.0038164693 0.01937655 0.37800002 4278532626
0.0050442144 0.01937655 0.37800002 4278400527
0.0062553659 0.01932529 0.377 4278400529
0.0074798628 0.01932529 0.377 4278598419
0.0087043596 0.01932529 0.377 4278598417
0.009928856 0.01932529 0.377 4278203915
0.011153352 0.01932529 0.377 4278336015
0.012345018 0.01927403 0.37600002 4278467601
0.013566265 0.01927403 0.37600002 4278467601
-0.018960079 0.021367848 0.39200002 4279377428
-0.017596623 0.021258829 0.39000002 4279443221
-0.016288033 0.021204319 0.38900003 4279444248
-0.014870066 0.020986279 0.38500002 4279511065
-0.013584209 0.020931769 0.384 4278857748
-0.012304849 0.020877261 0.38300002 4278794004
-0.011031985 0.02082275 0.38200003 4278532113
-0.0097912485 0.02082275 0.38200003 4278861078
-0.0085505117 0.02082275 0.38200003 4278664982
-0.0073097749 0.02082275 0.38200003 4278401810
-0.0060531502 0.02076824 0.38100001 4278532626
-0.0048156618 0.02076824 0.38100001 4278335247
-0.0035781732 0.02076824 0.38100001 4278335249
-0.0023345409 0.020713732 0.38000003 4278598421
-0.0011003002 0.020713732 0.38000003 4278466835
0.00013358794 0.020659219 0.37900001 4278598421
0.0013645806 0.020659219 0.37900001 4278598421
0.0025887247 0.020604711 0.37800002 4278598419
0.0038164693 0.020604711 0.37800002 4278198275
0.0050442144 0.020604711 0.37800002 4279121179
0.0062553659 0.020550201 0.377 4278199046
0.0074798628 0.020550201 0.377 4278268689
0.0087043596 0.020550201 0.377 4278335247
0.009928856 0.020550201 0.377 4278532626
0.011153352 0.020550201 0.377 4278335245
0.01237785 0.020550201 0.377 4278466831
0.013602345 0.020550201 0.377 4278466831
0.018549407 0.020604711 0.37800002 4278598419
0.019777149 0.020604711 0.37800002 4278598419
0.022291455 0.020659219 0.37900001 4278598419
0.023522448 0.020659219 0.37900001 4278466833
0.024688128 0.020604711 0.37800002 4278598419
0.025915874 0.020604711 0.37800002 4278533396
0.027143618 0.020604711 0.37800002 4278533394
0.028371362 0.020604711 0.37800002 4278533394
0.029599108 0.020604711 0.37800002 4278599187
0.030826852 0.020604711 0.37800002 4278599187
0.032054599 0.020604711 0.37800002 4278402322
0.033282343 0.020604711 0.37800002 4278468115
0.041765768 0.020550201 0.377 4278797082
0.042990264 0.020550201 0.377 4278994461
0.044214763 0.020550201 0.377 4278862875
0.04555979 0.020604711 0.37800002 4279126047
-0.018960079 0.022641497 0.39200002 4279574037
-0.017641744 0.022583738 0.39100003 4279706393
-0.016329905 0.022525977 0.39000002 4279838746
-0.014831441 0.022179425 0.384 4279511063
-0.013548833 0.022121666 0.38300002 4279120918
-0.012272721 0.022063907 0.38200003 4278924820
-0.011031985 0.022063907 0.38200003 4278794515
-0.0097912485 0.022063907 0.38200003 4278861078
-0.0085281283 0.022006148 0.38100001 4278599189
-0.007290639 0.022006148 0.38100001 4278467603
-0.0060531502 0.022006148 0.38100001 4278466833
-0.0048156618 0.022006148 0.38100001 4278598419
-0.0035687818 0.02194839 0.38000003 4278532628
-0.0023345409 0.02194839 0.38000003 4278335249
-0.0010974046 0.021890629 0.37900001 4278400529
0.00013358794 0.021890629 0.37900001 4278663701
0.0013609801 0.021832872 0.37800002 4278663701
0.0025887247 0.021832872 0.37800002 4278400529
0.0038164693 0.021832872 0.37800002 4278333199
0.0050442144 0.021832872 0.37800002 4278196224
0.0062553659 0.021775112 0.377 4278726160
0.0074798628 0.021775112 0.377 4278661394
0.0087043596 0.021775112 0.377 4278399759
0.009928856 0.021775112 0.377 4278531345
0.011153352 0.021775112 0.377 4278662931
0.01237785 0.021775112 0.377 4278662931
0.013602345 0.021775112 0.377 4278531345
0.014826842 0.021775112 0.377 4278728724
0.016051339 0.021775112 0.377 4278268941
0.017321661 0.021832872 0.37800002 4278597906
0.018549407 0.021832872 0.37800002 4278400527
0.019777149 0.021832872 0.37800002 4278400527
0.021004895 0.021832872 0.37800002 4278400527
0.022291455 0.021890629 0.37900001 4278597906
0.023522448 0.021890629 0.37900001 4278597906
0.02475344 0.021890629 0.37900001 4278729492
0.025915874 0.021832872 0.37800002 4278532113
0.027143618 0.021832872 0.37800002 4278400527
0.028371362 0.021832872 0.37800002 4278532113
0.029599108 0.021832872 0.37800002 4278597906
0.030826852 0.021832872 0.37800002 4278663699
0.032054599 0.021832872 0.37800002 4278730005
0.033282343 0.021832872 0.37800002 4278335247
0.035737831 0.021832872 0.37800002 4278532626
0.036965575 0.021832872 0.37800002 4278599189
0.038193323 0.021832872 0.37800002 4278664982
0.039421067 0.021832872 0.37800002 4278533910
0.040648807 0.021832872 0.37800002 4278533910
0.041765768 0.021775112 0.377 4278533910
0.042990264 0.021775112 0.377 4278533910
0.044332046 0.021832872 0.37800002 4278862875
0.04555979 0.021832872 0.37800002 4278731289
0.04678753 0.021832872 0.37800002 4278665496
0.048015274 0.021832872 0.37800002 4278797082
0.049243022 0.021832872 0.37800002 4278797082
0.050470769 0.021832872 0.37800002 4278928670
0.05169851 0.021832872 0.37800002 4279126049
0.052926257 0.021832872 0.37800002 4279059488
0.054154001 0.021832872 0.37800002 4279322660
0.055381749 0.021832872 0.37800002 4279387683
0.056609489 0.021832872 0.37800002 4279452965
0.057837237 0.021832872 0.37800002 4280569909
0.059064981 0.021832872 0.37800002 4282345550
-0.019105183 0.024098167 0.39500001 4279574037
-0.017822221 0.024098167 0.39500001 4279837209
-0.016539263 0.024098167 0.39500001 4279575574
-0.014792819 0.023366071 0.38300002 4279379477
-0.013513459 0.023305064 0.38200003 4279319064
-0.012272721 0.023305064 0.38200003 4278925590
-0.011031985 0.023305064 0.38200003 4278334734
-0.0097656166 0.023244055 0.38100001 4278663699
-0.0085281283 0.023244055 0.38100001 4278599189
-0.007290639 0.023244055 0.38100001 4278533396
-0.0060372627 0.023183048 0.38000003 4278599189
-0.0048030224 0.023183048 0.38000003 4278204431
-0.0035687818 0.023183048 0.38000003 4278401810
-0.0023283972 0.023122039 0.37900001 4278467603
-0.0010974046 0.023122039 0.37900001 4278597906
0.00013358794 0.023122039 0.37900001 4278663699
0.0013609801 0.023061031 0.37800002 4278532113
0.0025887247 0.023061031 0.37800002 4278663699
0.0038164693 0.023061031 0.37800002 4278726162
0.0050442144 0.023061031 0.37800002 4278197510
0.0062719584 0.023061031 0.37800002 4278989845
0.0074798628 0.023000022 0.377 4278530578
0.0087043596 0.023000022 0.377 4278197252
0.009928856 0.023000022 0.377 4278196740
0.011153352 0.023000022 0.377 4278327302
0.01237785 0.023000022 0.377 4278262279
0.013602345 0.023000022 0.377 4278195971
0.014826842 0.023000022 0.377 4278196740
0.016051339 0.023000022 0.377 4278198021
0.017321661 0.023061031 0.37800002 4278462218
0.018549407 0.023061031 0.37800002 4278856976
0.019777149 0.023061031 0.37800002 4278923539
0.021004895 0.023061031 0.37800002 4278661394
0.022291455 0.023122039 0.37900001 4278990359
0.023522448 0.023122039 0.37900001 4278530832
0.02475344 0.023122039 0.37900001 4278530832
0.025984434 0.023122039 0.37900001 4278465552
0.027143618 0.023061031 0.37800002 4278531345
0.028371362 0.023061031 0.37800002 4278399759
0.029599108 0.023061031 0.37800002 4278531345
0.030826852 0.023061031 0.37800002 4278531343
0.032054599 0.023061031 0.37800002 4278663699
0.033282343 0.023061031 0.37800002 4278597906
0.034510083 0.023061031 0.37800002 4278334734
0.035737831 0.023061031 0.37800002 4278597906
0.036965575 0.023061031 0.37800002 4278334734
0.038193323 0.023061031 0.37800002 4278334734
0.039421067 0.023061031 0.37800002 4278532113
0.040648807 0.023061031 0.37800002 4278532626
0.041876554 0.023061031 0.37800002 4278532626
0.043104298 0.023061031 0.37800002 4278599189
0.044332046 0.023061031 0.37800002 4278599189
0.04555979 0.023061031 0.37800002 4278533396
0.04678753 0.023061031 0.37800002 4278599189
0.048015274 0.023061031 0.37800002 4278665496
0.049373291 0.023122039 0.37900001 4279126047
0.050604288 0.023122039 0.37900001 4278862875
0.051835276 0.023122039 0.37900001 4278928668
0.053066269 0.023122039 0.37900001 4278862875
0.054297265 0.023122039 0.37900001 4278797082
0.055381749 0.023061031 0.37800002 4278862875
0.056609489 0.023061031 0.37800002 4278797082
0.057837237 0.023061031 0.37800002 4278797082
0.059221238 0.023122039 0.37900001 4278994461
0.060452227 0.023122039 0.37900001 4278928670
0.061845973 0.023183048 0.38000003 4278860826
-0.028014803 0.025317308 0.39400002 4279903772
-0.019105183 0.025381563 0.39500001 4279639830
-0.017822221 0.025381563 0.39500001 4279903002
-0.016539263 0.025381563 0.39500001 4279707158
-0.014754196 0.024546223 0.38200003 4279511574
-0.013513459 0.024546223 0.38200003 4279253017
-0.012272721 0.024546223 0.38200003 4278728211
-0.011003105 0.024481965 0.38100001 4278532115
-0.0097656166 0.024481965 0.38100001 4278795798
-0.0085281283 0.024481965 0.38100001 4278598419
-0.0072715036 0.024417708 0.38000003 4278532626
-0.0060372627 0.024417708 0.38000003 4278532626
-0.0048030224 0.024417708 0.38000003 4278466833
-0.0035593901 0.02435345 0.37900001 4278598419
-0.0023283972 0.02435345 0.37900001 4278466833
-0.0010974046 0.02435345 0.37900001 4278532626
0.00013358794 0.02435345 0.37900001 4278335247
0.0013609801 0.024289194 0.37800002 4278466833
0.0025887247 0.024289194 0.37800002 4278729492
0.0038164693 0.024289194 0.37800002 4278921234
0.0050442144 0.024289194 0.37800002 4278524683
0.0062719584 0.024289194 0.37800002 4278660880
0.0074997037 0.024289194 0.37800002 4278990359
0.0087274481 0.024289194 0.37800002 4278458636
0.009928856 0.024224935 0.377 4278654218
0.011153352 0.024224935 0.377 4278719500
0.01237785 0.024224935 0.377 4278587914
0.013602345 0.024224935 0.377 4278587914
0.014866171 0.024289194 0.37800002 4278719500
0.016093915 0.024289194 0.37800002 4278654218
0.017321661 0.024289194 0.37800002 4278720011
0.018549407 0.024289194 0.37800002 4278654218
0.019777149 0.024289194 0.37800002 4278522632
0.021060463 0.02435345 0.37900001 4278260998
0.022291455 0.02435345 0.37900001 4278195718
0.023522448 0.02435345 0.37900001 4278195712
0.02475344 0.02435345 0.37900001 4278198022
0.025984434 0.02435345 0.37900001 4278195201
0.027215425 0.02435345 0.37900001 4278196227
0.028446417 0.02435345 0.37900001 4278195456
0.029677412 0.02435345 0.37900001 4278198280
0.030908404 0.02435345 0.37900001 4278198793
0.032139398 0.02435345 0.37900001 4278397197
0.033370391 0.02435345 0.37900001 4278792466
0.034601379 0.02435345 0.37900001 4278924820
0.035832375 0.02435345 0.37900001 4278727441
0.037063368 0.02435345 0.37900001 4278530832
0.038193323 0.024289194 0.37800002 4278926103
0.039421067 0.024289194 0.37800002 4278531345
0.040648807 0.024289194 0.37800002 4278400529
0.041876554 0.024289194 0.37800002 4278334736
0.043104298 0.024289194 0.37800002 4278532115
0.044332046 0.024289194 0.37800002 4278400527
0.04555979 0.024289194 0.37800002 4278532113
0.046911307 0.02435345 0.37900001 4278335247
0.048142299 0.02435345 0.37900001 4278401810
0.049373291 0.02435345 0.37900001 4278336017
0.050604288 0.02435345 0.37900001 4278401810
0.051835276 0.02435345 0.37900001 4278467603
0.053066269 0.02435345 0.37900001 4278665496
0.054297265 0.02435345 0.37900001 4278533910
0.055528257 0.02435345 0.37900001 4278731289
0.056759246 0.02435345 0.37900001 4278862875
0.058143254 0.024417708 0.38000003 4278797082
0.059377495 0.024417708 0.38000003 4278928668
0.060611732 0.024417708 0.38000003 4278994461
0.062008724 0.024481965 0.38100001 4278928668
0.063412219 0.024546223 0.38200003 4279123998
-0.030496629 0.026529947 0.39300001 4279510291
-0.029294519 0.026597453 0.39400002 4279640854
-0.028085906 0.026664959 0.39500001 4279771416
-0.020336529 0.026597453 0.39400002 4279904285
-0.019105183 0.026664959 0.39500001 4279771670
-0.017822221 0.026664959 0.39500001 4280034842
-0.016539263 0.026664959 0.39500001 4279838744
-0.014754196 0.02578738 0.38200003 4279380758
-0.013513459 0.02578738 0.38200003 4278990613
-0.012240593 0.025719872 0.38100001 4278925588
-0.011003105 0.025719872 0.38100001 4278795285
-0.0097656166 0.025719872 0.38100001 4278730005
-0.0085057449 0.025652368 0.38000003 4278664212
-0.0072715036 0.025652368 0.38000003 4278532626
-0.0060372627 0.025652368 0.38000003 4278664212
-0.0048030224 0.025652368 0.38000003 4278335247
-0.0035593901 0.02558486 0.37900001 4278269454
-0.0023283972 0.02558486 0.37900001 4278532626
-0.0010974046 0.02558486 0.37900001 4278466833
0.00013323547 0.025517354 0.37800002 4278466833
0.0013609801 0.025517354 0.37800002 4278335249
0.0025887247 0.025517354 0.37800002 4278334736
0.0038164693 0.025517354 0.37800002 4279052820
0.0050442144 0.025517354 0.37800002 4279445783
0.0062719584 0.025517354 0.37800002 4278858259
0.0074997037 0.025517354 0.37800002 4278726675
0.0087274481 0.025517354 0.37800002 4278654732
0.0099551929 0.025517354 0.37800002 4279246355
0.011182938 0.025517354 0.37800002 4278851084
0.012410683 0.025517354 0.37800002 4278785293
0.013638427 0.025517354 0.37800002 4278720013
0.014866171 0.025517354 0.37800002 4278785806
0.016093915 0.025517354 0.37800002 4278785804
0.017321661 0.025517354 0.37800002 4278720011
0.018549407 0.025517354 0.37800002 4278654218
0.019829469 0.02558486 0.37900001 4278785291
0.021060463 0.02558486 0.37900001 4278785293
0.022291455 0.02558486 0.37900001 4278654218
0.023522448 0.02558486 0.37900001 4278657548
0.02475344 0.02558486 0.37900001 4279054873
0.025984434 0.02558486 0.37900001 4278989847
0.027215425 0.02558486 0.37900001 4278858007
0.028446417 0.02558486 0.37900001 4278791701
0.029677412 0.02558486 0.37900001 4279054873
0.030908404 0.02558486 0.37900001 4279383068
0.032139398 0.02558486 0.37900001 4278922517
0.033370391 0.02558486 0.37900001 4278725138
0.034601379 0.02558486 0.37900001 4278396173
0.035832375 0.02558486 0.37900001 4278262790
0.037063368 0.02558486 0.37900001 4278195712
0.038193323 0.025517354 0.37800002 4278195713
0.039421067 0.025517354 0.37800002 4278194432
0.040648807 0.025517354 0.37800002 4278195712
0.041876554 0.025517354 0.37800002 4278196480
0.043104298 0.025517354 0.37800002 4278197506
0.044332046 0.025517354 0.37800002 4278198021
0.045680314 0.02558486 0.37900001 4278725390
0.046911307 0.02558486 0.37900001 4278660367
0.048142299 0.02558486 0.37900001 4278595855
0.049503569 0.025652368 0.38000003 4278924820
0.050737809 0.025652368 0.38000003 4278662931
0.051972046 0.025652368 0.38000003 4278860310
0.053206287 0.025652368 0.38000003 4278465552
0.054440532 0.025652368 0.38000003 4278532115
0.055674773 0.025652368 0.38000003 4278597906
0.05705877 0.025719872 0.38100001 4278532626
0.058296259 0.025719872 0.38100001 4278598419
0.059533749 0.025719872 0.38100001 4278795798
0.06093074 0.02578738 0.38200003 4278731289
0.062171482 0.02578738 0.38200003 4278731289
0.063578218 0.025854886 0.38300002 4278993947
0.064991444 0.02592239 0.384 4278928156
-0.03185394 0.027877599 0.39400002 4278917644
-0.030574229 0.027877599 0.39400002 4279443475
-0.029368868 0.027948353 0.39500001 4279639830
-0.028085906 0.027948353 0.39500001 4279771416
-0.020388143 0.027948353 0.39500001 4279640600
-0.019056816 0.027877599 0.39400002 4279837209
-0.017822221 0.027948353 0.39500001 4279969049
-0.01595306 0.02695778 0.38100001 4279904537
-0.014754196 0.027028536 0.38200003 4279380758
-0.013478083 0.02695778 0.38100001 4278991383
-0.012240593 0.02695778 0.38100001 4278794515
-0.011003105 0.02695778 0.38100001 4278729490
-0.0097656166 0.02695778 0.38100001 4278730003
-0.0085057449 0.026887026 0.38000003 4278730003
-0.0072715036 0.026887026 0.38000003 4278532624
-0.0060372627 0.026887026 0.38000003 4278532624
-0.0047903825 0.026816269 0.37900001 4278466831
-0.0035593901 0.026816269 0.37900001 4278400525
-0.0023283972 0.026816269 0.37900001 4278400527
-0.0010945091 0.026745515 0.37800002 4278532113
0.00013323547 0.026745515 0.37800002 4278532113
0.0013609801 0.026745515 0.37800002 4278663699
0.0025887247 0.026745515 0.37800002 4278532115
0.0038164693 0.026745515 0.37800002 4278197513
0.0050442144 0.026745515 0.37800002 4279577371
0.0062719584 0.026745515 0.37800002 4278595601
0.0074997037 0.026745515 0.37800002 4278989847
0.0087274481 0.026745515 0.37800002 4278654732
0.0099551929 0.026745515 0.37800002 4279773983
0.011182938 0.026745515 0.37800002 4279050514
0.012410683 0.026745515 0.37800002 4278786572
0.013638427 0.026745515 0.37800002 4279970592
0.014866171 0.026745515 0.37800002 4279049490
0.016093915 0.026745515 0.37800002 4279708957
0.017321661 0.026745515 0.37800002 4279578141
0.018598478 0.026816269 0.37900001 4278918928
0.019829469 0.026816269 0.37900001 4278918928
0.021060463 0.026816269 0.37900001 4279181330
0.022291455 0.026816269 0.37900001 4278720779
0.023522448 0.026816269 0.37900001 4279513371
0.02475344 0.026816269 0.37900001 4278858261
0.025984434 0.026816269 0.37900001 4278989847
0.027215425 0.026816269 0.37900001 4278200074
0.028446417 0.026816269 0.37900001 4278198276
0.029677412 0.026816269 0.37900001 4278726675
0.030908404 0.026816269 0.37900001 4279056152
0.032139398 0.026816269 0.37900001 4278990359
0.033370391 0.026816269 0.37900001 4278792466
0.034601379 0.026816269 0.37900001 4279055638
0.035832375 0.026816269 0.37900001 4278858259
0.037063368 0.026816269 0.37900001 4278989845
0.03829436 0.026816269 0.37900001 4278858261
0.039525352 0.026816269 0.37900001 4279055640
0.040648807 0.026745515 0.37800002 4278989847
0.041876554 0.026745515 0.37800002 4278858261
0.04321833 0.026816269 0.37900001 4279186713
0.044449326 0.026816269 0.37900001 4279185943
0.045680314 0.026816269 0.37900001 4279382039
0.047035087 0.026887026 0.38000003 4278921488
0.048269324 0.026887026 0.38000003 4278921234
0.049503569 0.026887026 0.38000003 4278526476
0.050871328 0.02695778 0.38100001 4278197513
0.052108813 0.02695778 0.38100001 4278197256
0.053346302 0.02695778 0.38100001 4278195712
0.054583795 0.02695778 0.38100001 4278197253
0.0559678 0.027028536 0.38200003 4278596625
0.057208531 0.027028536 0.38200003 4278728724
0.058449272 0.027028536 0.38200003 4278532115
0.05969001 0.027028536 0.38200003 4278597908
0.061090246 0.027099291 0.38300002 4278598421
0.062334232 0.027099291 0.38300002 4278598421
0.063744217 0.027170045 0.384 4278795800
0.065160699 0.027240802 0.38500002 4278664214
0.066583671 0.027311556 0.38600001 4280699700
-0.033133656 0.029157747 0.39400002 4279641879
-0.031934787 0.029231749 0.39500001 4279904537
-0.030651828 0.029231749 0.39500001 4279640852
-0.029443221 0.029305754 0.39600003 4279509268
-0.028157011 0.029305754 0.39600003 4279903256
-0.026938658 0.029379759 0.39700001 4280034842
-0.020388143 0.029231749 0.39500001 4279772186
-0.019105183 0.029231749 0.39500001 4279771416
-0.017235668 0.028269693 0.38200003 4280101405
-0.01595306 0.028195687 0.38100001 4279970842
-0.014715571 0.028195687 0.38100001 4279513111
-0.013478083 0.028195687 0.38100001 4278925590
-0.012240593 0.028195687 0.38100001 4278860308
-0.011003105 0.028195687 0.38100001 4278730005
-0.0097399848 0.028121684 0.38000003 4278664210
-0.0085057449 0.028121684 0.38000003 4278730003
-0.0072715036 0.028121684 0.38000003 4278598417
-0.0060213748 0.028047679 0.37900001 4278532624
-0.0047903825 0.028047679 0.37900001 4278532624
-0.0035593901 0.028047679 0.37900001 4278597906
-0.0023283972 0.028047679 0.37900001 4278334734
-0.0010945091 0.027973674 0.37800002 4278400529
0.00013323547 0.027973674 0.37800002 4278597908
0.0013609801 0.027973674 0.37800002 4278663701
0.0025887247 0.027973674 0.37800002 4278532115
0.0038164693 0.027973674 0.37800002 4278195971
0.0050442144 0.027973674 0.37800002 4279578652
0.0062719584 0.027973674 0.37800002 4278859027
0.0074997037 0.027973674 0.37800002 4278266122
0.0087274481 0.027973674 0.37800002 4278458377
0.0099551929 0.027973674 0.37800002 4279313686
0.011182938 0.027973674 0.37800002 4278656267
0.012410683 0.027973674 0.37800002 4278853646
0.013638427 0.027973674 0.37800002 4279971362
0.014866171 0.027973674 0.37800002 4278458123
0.016093915 0.027973674 0.37800002 4279709727
0.017367486 0.028047679 0.37900001 4278327304
0.018598478 0.028047679 0.37900001 4278260998
0.019829469 0.028047679 0.37900001 4279445783
0.021060463 0.028047679 0.37900001 4278262279
0.022291455 0.028047679 0.37900001 4278523400
0.023522448 0.028047679 0.37900001 4279251223
0.02475344 0.028047679 0.37900001 4278661394
0.025984434 0.028047679 0.37900001 4278594576
0.027287235 0.028121684 0.38000003 4278197513
0.028521474 0.028121684 0.38000003 4278392584
0.029755717 0.028121684 0.38000003 4278195461
0.030989956 0.028121684 0.38000003 4278265357
0.032224201 0.028121684 0.38000003 4278726162
0.033458438 0.028121684 0.38000003 4278265611
0.034692679 0.028121684 0.38000003 4278726162
0.035832375 0.028047679 0.37900001 4278331402
0.037063368 0.028047679 0.37900001 4278198017
0.03829436 0.028047679 0.37900001 4278529296
0.039525352 0.028047679 0.37900001 4278727189
0.040756345 0.028047679 0.37900001 4278924566
0.041987337 0.028047679 0.37900001 4278858773
0.04321833 0.028047679 0.37900001 4278858773
0.044449326 0.028047679 0.37900001 4278661394
0.045800846 0.028121684 0.38000003 4278858773
0.047035087 0.028121684 0.38000003 4278858773
0.048396349 0.028195687 0.38100001 4278727187
0.049633838 0.028195687 0.38100001 4278858773
0.050871328 0.028195687 0.38100001 4278858773
0.052245583 0.028269693 0.38200003 4278727187
0.053486321 0.028269693 0.38200003 4279121433
0.054727063 0.028269693 0.38200003 4278196482
0.0559678 0.028269693 0.38200003 4278529808
0.057358291 0.028343696 0.38300002 4278727957
0.058602277 0.028343696 0.38300002 4278795287
0.059846263 0.028343696 0.38300002 4278597908
0.061249748 0.028417701 0.384 4278334482
0.062496983 0.028417701 0.384 4278531861
0.063910216 0.028491706 0.38500002 4278400275
0.065329939 0.028565709 0.38600001 4278400275
0.066583671 0.028565709 0.38600001 4278988312
-0.033301845 0.030592399 0.39600003 4279179016
-0.032015637 0.030592399 0.39600003 4279442442
-0.024421105 0.030746907 0.39800003 4283917649
-0.020388143 0.030515144 0.39500001 4279903772
-0.019008446 0.030360637 0.39300001 4279969049
-0.017235668 0.02951085 0.38200003 4280232991
-0.015994933 0.02951085 0.38200003 4279905819
-0.014715571 0.029433595 0.38100001 4279578904
-0.013478083 0.029433595 0.38100001 4278990613
-0.012240593 0.029433595 0.38100001 4278794515
-0.011003105 0.029433595 0.38100001 4278664212
-0.0097399848 0.029356342 0.38000003 4278730005
-0.0085057449 0.029356342 0.38000003 4278664212
-0.0072715036 0.029356342 0.38000003 4278664212
-0.0060213748 0.029279089 0.37900001 4278532626
-0.0047903825 0.029279089 0.37900001 4278335247
-0.0035593901 0.029279089 0.37900001 4278335247
-0.002322254 0.029201835 0.37800002 4278466833
-0.0010945091 0.029201835 0.37800002 4278532628
0.00013323547 0.029201835 0.37800002 4278598421
0.0013609801 0.029201835 0.37800002 4278466835
0.0025887247 0.029201835 0.37800002 4278465552
0.0038164693 0.029201835 0.37800002 4278328072
0.0050442144 0.029201835 0.37800002 4278196228
0.0062719584 0.029201835 0.37800002 4278660880
0.0074997037 0.029201835 0.37800002 4278857748
0.0087274481 0.029201835 0.37800002 4278589193
0.0099551929 0.029201835 0.37800002 4278523146
0.011182938 0.029201835 0.37800002 4278523146
0.012410683 0.029201835 0.37800002 4278523146
0.013638427 0.029201835 0.37800002 4278654732
0.014866171 0.029201835 0.37800002 4278523146
0.016136492 0.029279089 0.37900001 4278523146
0.017367486 0.029279089 0.37900001 4278523146
0.018598478 0.029279089 0.37900001 4278918928
0.019829469 0.029279089 0.37900001 4279709725
0.021060463 0.029279089 0.37900001 4279907102
0.022291455 0.029279089 0.37900001 4278589193
0.023522448 0.029279089 0.37900001 4279383322
0.024818754 0.029356342 0.38000003 4279187478
0.026052997 0.029356342 0.38000003 4278196740
0.027287235 0.029356342 0.38000003 4278524170
0.028521474 0.029356342 0.38000003 4278720525
0.029755717 0.029356342 0.38000003 4278523916
0.030989956 0.029356342 0.38000003 4278196738
0.032224201 0.029356342 0.38000003 4278858261
0.033458438 0.029356342 0.38000003 4278857748
0.034692679 0.029356342 0.38000003 4279055127
0.035926919 0.029356342 0.38000003 4278660369
0.037063368 0.029279089 0.37900001 4278989847
0.03829436 0.029279089 0.37900001 4278199818
0.039525352 0.029279089 0.37900001 4278923287
0.040756345 0.029279089 0.37900001 4278331663
0.041987337 0.029279089 0.37900001 4278197764
0.04321833 0.029279089 0.37900001 4278791955
0.044566605 0.029356342 0.38000003 4278791955
0.045800846 0.029356342 0.38000003 4278197762
0.04715886 0.029433595 0.38100001 4278199561
0.048396349 0.029433595 0.38100001 4278596371
0.049764112 0.02951085 0.38200003 4278398992
0.051004853 0.02951085 0.38200003 4278727957
0.052245583 0.02951085 0.38200003 4278925336
0.053626336 0.029588103 0.38300002 4278727957
0.054870322 0.029588103 0.38300002 4278197765
0.056114309 0.029588103 0.38300002 4278858773
0.057358291 0.029588103 0.38300002 4278728211
0.058755282 0.029665355 0.384 4278729494
0.060002517 0.029665355 0.384 4278268943
0.061409254 0.02974261 0.38500002 4278597908
0.062659733 0.02974261 0.38500002 4278532115
0.064076215 0.029819863 0.38600001 4278400529
0.065329939 0.029819863 0.38600001 4278597654
0.066583671 0.029819863 0.38600001 4278528792
-0.020388143 0.031798538 0.39500001 4284114778
-0.018524772 0.030832509 0.38300002 4279377941
-0.017235668 0.030752007 0.38200003 4279706906
-0.015994933 0.030752007 0.38200003 4279446553
-0.014715571 0.030671503 0.38100001 4279645211
-0.013478083 0.030671503 0.38100001 4279057176
-0.012240593 0.030671503 0.38100001 4278728722
-0.011003105 0.030671503 0.38100001 4278795285
-0.0097399848 0.030591002 0.38000003 4278730005
-0.0085057449 0.030591002 0.38000003 4278598419
-0.0072715036 0.030591002 0.38000003 4278598419
-0.0060213748 0.030510496 0.37900001 4278598419
-0.0047903825 0.030510496 0.37900001 4278466833
-0.0035593901 0.030510496 0.37900001 4278598419
-0.002322254 0.030429995 0.37800002 4278598419
-0.0010945091 0.030429995 0.37800002 4278466833
0.00013323547 0.030429995 0.37800002 4278532626
0.0013609801 0.030429995 0.37800002 4278335247
0.0025887247 0.030429995 0.37800002 4278400529
0.0038164693 0.030429995 0.37800002 4278987797
0.0050442144 0.030429995 0.37800002 4279316762
0.0062719584 0.030429995 0.37800002 4278792720
0.0074997037 0.030429995 0.37800002 4279186711
0.0087274481 0.030429995 0.37800002 4278654732
0.0099551929 0.030429995 0.37800002 4278654218
0.011182938 0.030429995 0.37800002 4278785806
0.012410683 0.030429995 0.37800002 4278720013
0.013638427 0.030429995 0.37800002 4278654218
0.014905499 0.030510496 0.37900001 4278522632
0.016136492 0.030510496 0.37900001 4278720011
0.017367486 0.030510496 0.37900001 4278654220
0.018598478 0.030510496 0.37900001 4278654220
0.019829469 0.030510496 0.37900001 4278522634
0.021060463 0.030510496 0.37900001 4278523148
0.022291455 0.030510496 0.37900001 4278523146
0.023522448 0.030510496 0.37900001 4278856978
0.024818754 0.030591002 0.38000003 4278990099
0.026052997 0.030591002 0.38000003 4278657548
0.027287235 0.030591002 0.38000003 4278523400
0.028521474 0.030591002 0.38000003 4278720011
0.029755717 0.030591002 0.38000003 4279116307
0.030989956 0.030591002 0.38000003 4278790931
0.032224201 0.030591002 0.38000003 4278856724
0.033458438 0.030591002 0.38000003 4278330634
0.034692679 0.030591002 0.38000003 4278857748
0.035926919 0.030591002 0.38000003 4278199564
0.03716116 0.030591002 0.38000003 4279055386
0.03829436 0.030510496 0.37900001 4278199046
0.039525352 0.030510496 0.37900001 4279055127
0.040756345 0.030510496 0.37900001 4278198539
0.041987337 0.030510496 0.37900001 4278395662
0.043332364 0.030591002 0.38000003 4278329097
0.044566605 0.030591002 0.38000003 4278329097
0.045800846 0.030591002 0.38000003 4278856724
0.04715886 0.030671503 0.38100001 4278461966
0.048396349 0.030671503 0.38100001 4278725138
0.049764112 0.030752007 0.38200003 4278922517
0.051004853 0.030752007 0.38200003 4278265611
0.05238235 0.030832509 0.38300002 4278464785
0.053626336 0.030832509 0.38300002 4278858773
0.054870322 0.030832509 0.38300002 4278198023
0.05626082 0.03091301 0.384 4278989845
0.057508048 0.03091301 0.384 4278794004
0.058755282 0.03091301 0.384 4278662931
0.060158778 0.030993514 0.38500002 4278532115
0.061409254 0.030993514 0.38500002 4278334736
0.062822483 0.031074015 0.38600001 4278532115
0.064076215 0.031074015 0.38600001 4278400529
0.065499194 0.031154519 0.38700002 4278728470
0.066756174 0.031154519 0.38700002 4279713316
0.068013154 0.031154519 0.38700002 4284843637
-0.017235668 0.031993162 0.38200003 4284446569
-0.01595306 0.03190941 0.38100001 4279183383
-0.014715571 0.03190941 0.38100001 4279974692
-0.013478083 0.03190941 0.38100001 4279189021
-0.012240593 0.03190941 0.38100001 4278597908
-0.011003105 0.03190941 0.38100001 4278729492
-0.0097399848 0.031825658 0.38000003 4278992664
-0.0085057449 0.031825658 0.38000003 4278664212
-0.0072523677 0.031741906 0.37900001 4278598419
-0.0060213748 0.031741906 0.37900001 4278466833
-0.0047903825 0.031741906 0.37900001 4278466833
-0.0035499986 0.031658158 0.37800002 4278597906
-0.002322254 0.031658158 0.37800002 4278532113
-0.0010945091 0.031658158 0.37800002 4278597906
0.00013323547 0.031658158 0.37800002 4278597906
0.0013609801 0.031658158 0.37800002 4278597906
0.0025887247 0.031658158 0.37800002 4278201353
0.0038164693 0.031658158 0.37800002 4278395660
0.0050442144 0.031658158 0.37800002 4278264841
0.0062719584 0.031658158 0.37800002 4278727441
0.0074997037 0.031658158 0.37800002 4278924820
0.0087274481 0.031658158 0.37800002 4279120920
0.0099551929 0.031658158 0.37800002 4278988310
0.011182938 0.031658158 0.37800002 4279118615
0.012410683 0.031658158 0.37800002 4278789138
0.013674506 0.031741906 0.37900001 4278590476
0.014905499 0.031741906 0.37900001 4278524683
0.016136492 0.031741906 0.37900001 4278392330
0.017367486 0.031741906 0.37900001 4278325769
0.018598478 0.031741906 0.37900001 4278523146
0.019829469 0.031741906 0.37900001 4278391560
0.021060463 0.031741906 0.37900001 4278720013
0.022291455 0.031741906 0.37900001 4278259462
0.023522448 0.031741906 0.37900001 4278988051
0.02475344 0.031741906 0.37900001 4278593804
0.026052997 0.031825658 0.38000003 4279053844
0.027287235 0.031825658 0.38000003 4279381785
0.028521474 0.031825658 0.38000003 4279710238
0.029755717 0.031825658 0.38000003 4279250969
0.030989956 0.031825658 0.38000003 4279055127
0.032224201 0.031825658 0.38000003 4278857748
0.033458438 0.031825658 0.38000003 4278858259
0.034692679 0.031825658 0.38000003 4278989845
0.035926919 0.031825658 0.38000003 4278858773
0.03716116 0.031825658 0.38000003 4278989847
0.03829436 0.031741906 0.37900001 4278989847
0.039525352 0.031741906 0.37900001 4278924568
0.040756345 0.031741906 0.37900001 4278990361
0.042098124 0.031825658 0.38000003 4278989593
0.043332364 0.031825658 0.38000003 4278791701
0.044566605 0.031825658 0.38000003 4278923287
0.045921374 0.03190941 0.38100001 4278196738
0.04715886 0.03190941 0.38100001 4278198280
0.048523374 0.031993162 0.38200003 4279054103
0.049764112 0.031993162 0.38200003 4278330380
0.051138371 0.032076914 0.38300002 4278198282
0.05238235 0.032076914 0.38300002 4278661394
0.053626336 0.032076914 0.38300002 4278924568
0.055013586 0.032160666 0.384 4278195456
0.05626082 0.032160666 0.384 4278858773
0.057508048 0.032160666 0.384 4278596625
0.058908295 0.032244418 0.38500002 4278662931
0.060158778 0.032244418 0.38500002 4278794515
0.061568756 0.03232817 0.38600001 4278532115
0.062822483 0.03232817 0.38600001 4278663701
0.064242221 0.032411922 0.38700002 4278597908
0.065499194 0.032411922 0.38700002 4278728724
0.066756174 0.032411922 0.38700002 4278923541
-0.017235668 0.033234321 0.38200003 4283986272
-0.01595306 0.033147316 0.38100001 4280301610
-0.014715571 0.033147316 0.38100001 4279381535
-0.013478083 0.033147316 0.38100001 4278991131
-0.012240593 0.033147316 0.38100001 4278991642
-0.010974226 0.03306032 0.38000003 4278861080
-0.0097399848 0.03306032 0.38000003 4278861078
-0.0085057449 0.03306032 0.38000003 4278663699
-0.0072523677 0.032973316 0.37900001 4278664212
-0.0060213748 0.032973316 0.37900001 4278663699
-0.0047903825 0.032973316 0.37900001 4278729492
-0.0035499986 0.032886315 0.37800002 4278400529
-0.002322254 0.032886315 0.37800002 4278597908
-0.0010945091 0.032886315 0.37800002 4278532115
0.00013323547 0.032886315 0.37800002 4278532113
0.0013609801 0.032886315 0.37800002 4278531343
0.0025887247 0.032886315 0.37800002 4278728211
0.0038164693 0.032886315 0.37800002 4278858259
0.0050442144 0.032886315 0.37800002 4278792466
0.0062719584 0.032886315 0.37800002 4278727957
0.0074997037 0.032886315 0.37800002 4278727957
0.0087274481 0.032886315 0.37800002 4278793750
0.0099551929 0.032886315 0.37800002 4278596371
0.011212522 0.032973316 0.37900001 4278727957
0.012443515 0.032973316 0.37900001 4278793750
0.013674506 0.032973316 0.37900001 4278990359
0.014905499 0.032973316 0.37900001 4278989845
0.016136492 0.032973316 0.37900001 4279121431
0.017367486 0.032973316 0.37900001 4279055638
0.018598478 0.032973316 0.37900001 4279120918
0.019829469 0.032973316 0.37900001 4279055127
0.021060463 0.032973316 0.37900001 4279252252
0.022291455 0.032973316 0.37900001 4279712033
0.023522448 0.032973316 0.37900001 4279185943
0.02475344 0.032973316 0.37900001 4278922771
0.025984434 0.032973316 0.37900001 4278790672
0.027215425 0.032973316 0.37900001 4278461453
0.028521474 0.03306032 0.38000003 4278196744
0.029755717 0.03306032 0.38000003 4278196228
0.030989956 0.03306032 0.38000003 4278195200
0.032224201 0.03306032 0.38000003 4278194944
0.033458438 0.03306032 0.38000003 4278194944
0.034692679 0.03306032 0.38000003 4278194432
0.035832375 0.032973316 0.37900001 4278195969
0.037063368 0.032973316 0.37900001 4278263304
0.03829436 0.032973316 0.37900001 4278461453
0.039525352 0.032973316 0.37900001 4278988564
0.040756345 0.032973316 0.37900001 4278923541
0.042098124 0.03306032 0.38000003 4279318299
0.043332364 0.03306032 0.38000003 4278989847
0.044566605 0.03306032 0.38000003 4278858775
0.045921374 0.033147316 0.38100001 4278924568
0.04715886 0.033147316 0.38100001 4278727189
0.048523374 0.033234321 0.38200003 4278661396
0.049764112 0.033234321 0.38200003 4278661396
0.051138371 0.033321321 0.38300002 4278989847
0.05238235 0.033321321 0.38300002 4278858773
0.053766351 0.033408321 0.384 4278924568
0.055013586 0.033408321 0.384 4278196998
0.05626082 0.033408321 0.384 4278858773
0.057657812 0.033495322 0.38500002 4278728211
0.058908295 0.033495322 0.38500002 4278794517
0.060315032 0.033582322 0.38600001 4278728722
0.061568756 0.033582322 0.38600001 4278662931
0.062985241 0.033669323 0.38700002 4278597908
0.064242221 0.033669323 0.38700002 4278531091
0.065499194 0.033669323 0.38700002 4278728470
0.066756174 0.033669323 0.38700002 4279251484
-0.01595306 0.034385227 0.38100001 4284249444
-0.014715571 0.034385227 0.38100001 4284052065
-0.013478083 0.034385227 0.38100001 4279053592
-0.012240593 0.034385227 0.38100001 4279252254
-0.010974226 0.034294982 0.38000003 4279188510
-0.0097399848 0.034294982 0.38000003 4279254814
-0.0085057449 0.034294982 0.38000003 4278991642
-0.0072523677 0.034204729 0.37900001 4279189021
-0.0060213748 0.034204729 0.37900001 4279386400
-0.0047903825 0.034204729 0.37900001 4278663447
-0.0035499986 0.03411448 0.37800002 4278860826
-0.002322254 0.03411448 0.37800002 4278795033
-0.0010945091 0.03411448 0.37800002 4278795033
0.00013323547 0.03411448 0.37800002 4278794263
0.0013609801 0.03411448 0.37800002 4278925849
0.0025887247 0.03411448 0.37800002 4278662677
0.0038164693 0.03411448 0.37800002 4278794263
0.0050442144 0.03411448 0.37800002 4278662677
0.0062719584 0.03411448 0.37800002 4278727957
0.0074997037 0.03411448 0.37800002 4278530578
0.0087274481 0.03411448 0.37800002 4278793750
0.0099551929 0.03411448 0.37800002 4278859543
0.011212522 0.034204729 0.37900001 4278793750
0.012443515 0.034204729 0.37900001 4278925336
0.013674506 0.034204729 0.37900001 4278793750
0.014905499 0.034204729 0.37900001 4278727957
0.016136492 0.034204729 0.37900001 4278728211
0.017367486 0.034204729 0.37900001 4278728211
0.018598478 0.034204729 0.37900001 4278728211
0.019829469 0.034204729 0.37900001 4278727957
0.021060463 0.034204729 0.37900001 4278793750
0.022291455 0.034204729 0.37900001 4278859543
0.023522448 0.034204729 0.37900001 4278858773
0.02475344 0.034204729 0.37900001 4278858773
0.025984434 0.034204729 0.37900001 4278924566
0.027215425 0.034204729 0.37900001 4278858773
0.028446417 0.034204729 0.37900001 4278858773
0.029677412 0.034204729 0.37900001 4278990359
0.030908404 0.034204729 0.37900001 4278989845
0.032139398 0.034204729 0.37900001 4278989845
0.033370391 0.034204729 0.37900001 4279055640
0.034601379 0.034204729 0.37900001 4278791955
0.035832375 0.034204729 0.37900001 4279318299
0.037063368 0.034204729 0.37900001 4279054103
0.03829436 0.034204729 0.37900001 4279185691
0.039525352 0.034204729 0.37900001 4279054105
0.040756345 0.034204729 0.37900001 4279119383
0.041987337 0.034204729 0.37900001 4278329097
0.043332364 0.034294982 0.38000003 4278197511
0.044566605 0.034294982 0.38000003 4278195714
0.045800846 0.034294982 0.38000003 4278195200
0.04715886 0.034385227 0.38100001 4278194176
0.048523374 0.034475479 0.38200003 4278194944
0.049764112 0.034475479 0.38200003 4278195200
0.051138371 0.034565728 0.38300002 4278196227
0.05238235 0.034565728 0.38300002 4278197769
0.053766351 0.034655977 0.384 4278329869
0.055013586 0.034655977 0.384 4278527248
0.05626082 0.034655977 0.384 4278530578
0.057657812 0.03474623 0.38500002 4278794004
0.058908295 0.03474623 0.38500002 4278859797
0.060315032 0.034836479 0.38600001 4278794517
0.061728265 0.034926727 0.38700002 4278728724
0.062985241 0.034926727 0.38700002 4278860310
0.064242221 0.034926727 0.38700002 4278728470
0.065499194 0.034926727 0.38700002 4278991129
0.066756174 0.034926727 0.38700002 4283790436
-0.014715571 0.035623137 0.38100001 4284117856
-0.013478083 0.035623137 0.38100001 4284249955
-0.012208466 0.03552964 0.38000003 4284645225
-0.010974226 0.03552964 0.38000003 4284119653
-0.0097399848 0.03552964 0.38000003 4281356608
-0.0085057449 0.03552964 0.38000003 4279975979
-0.0072523677 0.035436139 0.37900001 4278857498
-0.0060213748 0.035436139 0.37900001 4278792216
-0.0047903825 0.035436139 0.37900001 4278924314
-0.0035499986 0.035342641 0.37800002 4278596121
-0.002322254 0.035342641 0.37800002 4279056672
-0.0010945091 0.035342641 0.37800002 4278990879
0.00013323547 0.035342641 0.37800002 4278990879
0.0013609801 0.035342641 0.37800002 4278859291
0.0025887247 0.035342641 0.37800002 4278991131
0.0038164693 0.035342641 0.37800002 4278991131
0.0050442144 0.035342641 0.37800002 4278859545
0.0062719584 0.035342641 0.37800002 4278859797
0.0074997037 0.035342641 0.37800002 4278794004
0.0087274481 0.035342641 0.37800002 4278925590
0.0099815289 0.035436139 0.37900001 4278794004
0.011212522 0.035436139 0.37900001 4279057176
0.012443515 0.035436139 0.37900001 4278794004
0.013674506 0.035436139 0.37900001 4278925590
0.014905499 0.035436139 0.37900001 4278926103
0.016136492 0.035436139 0.37900001 4279123482
0.017367486 0.035436139 0.37900001 4278662931
0.018598478 0.035436139 0.37900001 4278728470
0.019829469 0.035436139 0.37900001 4278794263
0.021060463 0.035436139 0.37900001 4278794263
0.022291455 0.035436139 0.37900001 4278662677
0.023522448 0.035436139 0.37900001 4278662677
0.02475344 0.035436139 0.37900001 4278662677
0.025984434 0.035436139 0.37900001 4278662677
0.027215425 0.035436139 0.37900001 4278662677
0.028446417 0.035436139 0.37900001 4278662677
0.029677412 0.035436139 0.37900001 4278662677
0.030908404 0.035436139 0.37900001 4278728470
0.032139398 0.035436139 0.37900001 4278399505
0.033370391 0.035436139 0.37900001 4278662677
0.034601379 0.035436139 0.37900001 4278662677
0.035832375 0.035436139 0.37900001 4278794263
0.037063368 0.035436139 0.37900001 4278662677
0.03829436 0.035436139 0.37900001 4278728470
0.039525352 0.035436139 0.37900001 4278794263
0.040756345 0.035436139 0.37900001 4278793750
0.041987337 0.035436139 0.37900001 4278727957
0.04321833 0.035436139 0.37900001 4278859543
0.044566605 0.03552964 0.38000003 4278727957
0.045800846 0.03552964 0.38000003 4278924566
0.04715886 0.035623137 0.38100001 4278595601
0.048523374 0.035716638 0.38200003 4279121431
0.049764112 0.035716638 0.38200003 4279121431
0.051138371 0.035810135 0.38300002 4278923539
0.05238235 0.035810135 0.38300002 4279252506
0.053766351 0.035903633 0.384 4279514654
0.055013586 0.035903633 0.384 4279054873
0.05626082 0.035903633 0.384 4278596371
0.057657812 0.035997134 0.38500002 4278859543
0.0590613 0.036090631 0.38600001 4278794263
0.060315032 0.036090631 0.38600001 4278728470
0.061728265 0.036184132 0.38700002 4278728724
0.062985241 0.036184132 0.38700002 4278794517
0.064242221 0.036184132 0.38700002 4278858773
0.065668441 0.036277629 0.38800001 4278988310
-0.014715571 0.036861043 0.38100001 4284248672
-0.013478083 0.036861043 0.38100001 4284249442
-0.012208466 0.036764298 0.38000003 4284315748
-0.010974226 0.036764298 0.38000003 4284513129
-0.0097399848 0.036764298 0.38000003 4284776047
-0.0085057449 0.036764298 0.38000003 4284841840
-0.0072523677 0.036667548 0.37900001 4284841840
-0.0060213748 0.036667548 0.37900001 4284776561
-0.0047903825 0.036667548 0.37900001 4285105526
-0.0035499986 0.036570799 0.37800002 4284908919
-0.002322254 0.036570799 0.37800002 4284974710
-0.0010945091 0.036570799 0.37800002 4284250987
0.00013323547 0.036570799 0.37800002 4283264605
0.0013609801 0.036570799 0.37800002 4282014792
0.0025887247 0.036570799 0.37800002 4280501038
0.0038164693 0.036570799 0.37800002 4279514143
0.0050442144 0.036570799 0.37800002 4278856213
0.0062719584 0.036570799 0.37800002 4278660117
0.0074997037 0.036570799 0.37800002 4278396945
0.0087274481 0.036570799 0.37800002 4278725910
0.0099815289 0.036667548 0.37900001 4278923287
0.011212522 0.036667548 0.37900001 4279186972
0.012443515 0.036667548 0.37900001 4279318558
0.013674506 0.036667548 0.37900001 4278990107
0.014905499 0.036667548 0.37900001 4278859291
0.016136492 0.036667548 0.37900001 4278793498
0.017367486 0.036667548 0.37900001 4278925084
0.018549407 0.036570799 0.37800002 4278991131
0.019777149 0.036570799 0.37800002 4278859545
0.021004895 0.036570799 0.37800002 4278859543
0.022232641 0.036570799 0.37800002 4278925336
0.023522448 0.036667548 0.37900001 4278859543
0.02475344 0.036667548 0.37900001 4278793750
0.025984434 0.036667548 0.37900001 4278860056
0.027215425 0.036667548 0.37900001 4278728470
0.028446417 0.036667548 0.37900001 4278794263
0.029677412 0.036667548 0.37900001 4278794004
0.030908404 0.036667548 0.37900001 4278596625
0.032139398 0.036667548 0.37900001 4278794517
0.033370391 0.036667548 0.37900001 4278662677
0.034601379 0.036667548 0.37900001 4278531091
0.035832375 0.036667548 0.37900001 4278728470
0.037063368 0.036667548 0.37900001 4278794263
0.03829436 0.036667548 0.37900001 4278794263
0.039525352 0.036667548 0.37900001 4278794263
0.040756345 0.036667548 0.37900001 4278794517
0.041987337 0.036667548 0.37900001 4278728724
0.04321833 0.036667548 0.37900001 4278531345
0.044566605 0.036764298 0.38000003 4278728724
0.045800846 0.036764298 0.38000003 4278794263
0.04715886 0.036861043 0.38100001 4278728470
0.048396349 0.036861043 0.38100001 4278662931
0.049764112 0.036957793 0.38200003 4278596625
0.051138371 0.037054539 0.38300002 4278859797
0.05238235 0.037054539 0.38300002 4278859797
0.053626336 0.037054539 0.38300002 4278727187
0.055013586 0.037151288 0.384 4278858773
0.05626082 0.037151288 0.384 4278728470
0.057657812 0.037248038 0.38500002 4278662677
0.0590613 0.037344784 0.38600001 4278662677
0.060315032 0.037344784 0.38600001 4278662677
0.061728265 0.037441533 0.38700002 4278728470
0.062985241 0.037441533 0.38700002 4278860056
0.06440822 0.037538283 0.38800001 4279515424
0.065668441 0.037538283 0.38800001 4283264346
-0.012208466 0.037998956 0.38000003 4284381030
-0.010974226 0.037998956 0.38000003 4284644461
-0.0097399848 0.037998956 0.38000003 4284841840
-0.0085057449 0.037998956 0.38000003 4284972913
0.018549407 0.03779896 0.37800002 4279054105
0.019777149 0.03779896 0.37800002 4278660119
0.021004895 0.03779896 0.37800002 4278528792
0.022232641 0.03779896 0.37800002 4278594839
0.023460384 0.03779896 0.37800002 4278726937
0.02475344 0.037898958 0.37900001 4279121695
0.025984434 0.037898958 0.37900001 4279121695
0.027215425 0.037898958 0.37900001 4279121695
0.028446417 0.037898958 0.37900001 4279121693
0.029677412 0.037898958 0.37900001 4278990361
0.030908404 0.037898958 0.37900001 4279450910
0.032139398 0.037898958 0.37900001 4279056152
0.033370391 0.037898958 0.37900001 4279056154
0.034601379 0.037898958 0.37900001 4279056154
0.035832375 0.037898958 0.37900001 4279056154
0.037063368 0.037898958 0.37900001 4279056152
