# .PCD v0.7 - Point Cloud Data file format
VERSION 0.7
FIELDS x y z rgb
SIZE 4 4 4 4
TYPE F F F U
COUNT 1 1 1 1
WIDTH 875
HEIGHT 1
VIEWPOINT 0 0 0 1 0 0 0
POINTS 875
DATA ascii
0.0035741536 0.031948481 0.354 4278666781
0.0047239466 0.031948481 0.354 4278535195
0.0058737388 0.031948481 0.354 4279126562
0.0070235315 0.031948481 0.354 4279126049
0.0081733242 0.031948481 0.354 4278797597
0.0035741536 0.03309866 0.354 4278666781
0.0047239466 0.03309866 0.354 4279127332
0.0081502357 0.033005163 0.35300002 4278928156
0.0092967805 0.033005163 0.35300002 4278862875
0.0024243612 0.034248844 0.354 4278600988
0.0035741536 0.034248844 0.354 4278600988
0.0047239466 0.034248844 0.354 4278600988
0.0081502357 0.034152094 0.35300002 4278992664
0.0092704445 0.034055348 0.35200003 4278862361
0.010413741 0.034055348 0.35200003 4278797082
0.0024243612 0.035399023 0.354 4278797597
0.0035640574 0.035299029 0.35300002 4278797597
0.0047106021 0.035299029 0.35300002 4278666011
0.0070036915 0.035299029 0.35300002 4279320094
0.0081271483 0.035199031 0.35200003 4279256351
0.0092704445 0.035199031 0.35200003 4278664984
0.012592091 0.034899037 0.34900001 4278991129
0.013686316 0.034799043 0.34800002 4279124252
0.014774044 0.034699045 0.347 4279124763
0.0024175127 0.03644596 0.35300002 4278863390
0.0035640574 0.03644596 0.35300002 4278929183
0.0047106021 0.03644596 0.35300002 4278731804
0.0081271483 0.036342718 0.35200003 4278860826
0.017945932 0.0354135 0.34300002 4278265609
0.019059997 0.0354135 0.34300002 4278661648
0.020115245 0.03531025 0.34200001 4279386654
0.0024175127 0.037592895 0.35300002 4278929181
0.0035640574 0.037592895 0.35300002 4279060769
0.0047106021 0.037592895 0.35300002 4278468632
0.0081271483 0.0374864 0.35200003 4279189791
0.021163998 0.036314949 0.34100002 4278595601
0.024343086 0.03610196 0.33900002 4278464017
0.025369102 0.035995465 0.33800003 4278531345
0.026075404 0.035462983 0.333 4279058457
0.027075436 0.035356492 0.33200002 4278795796
0.028068975 0.035249997 0.33100003 4278796566
0.029056013 0.035143498 0.33000001 4278928152
0.030127851 0.035143498 0.33000001 4278731287
0.03110515 0.035037003 0.32900003 4278731287
0.032075949 0.034930509 0.32800001 4278731800
0.033040255 0.034824014 0.32700002 4279060767
0.03410235 0.034824014 0.32700002 4278863388
0.035056908 0.034717515 0.32600001 4278929181
0.036004975 0.034611024 0.32500002 4279060767
0.037060574 0.034611024 0.32500002 4278797595
0.038116176 0.034611024 0.32500002 4278798365
0.039051246 0.034504525 0.324 4278667292
0.040103596 0.034504525 0.324 4278601499
0.041028924 0.03439803 0.32300001 4278667290
0.042078033 0.03439803 0.32300001 4278601497
0.04299362 0.034291536 0.32200003 4278930462
0.044039473 0.034291536 0.32200003 4278996255
0.04508533 0.034291536 0.32200003 4279325990
0.045987923 0.034185041 0.32100001 4279325990
0.047030531 0.034185041 0.32100001 4279523371
0.0024175127 0.038739827 0.35300002 4278731802
0.0035640574 0.038739827 0.35300002 4278863388
0.0047106021 0.038739827 0.35300002 4278797595
0.0081271483 0.038630083 0.35200003 4279583779
0.010354572 0.038410597 0.35000002 4280366374
0.013646987 0.038081359 0.347 4279115283
0.014731468 0.037971616 0.34600002 4279181076
0.021163998 0.037422892 0.34100002 4279383320
0.022206252 0.037313148 0.34 4279451680
0.023242014 0.037203405 0.33900002 4278925336
0.024271278 0.037093662 0.33800003 4279121947
0.025294045 0.036983915 0.33700001 4278726162
0.030127851 0.036215704 0.33000001 4279186711
0.03110515 0.036105961 0.32900003 4278728211
0.033141293 0.035996214 0.32800001 4278927384
0.03410235 0.03588647 0.32700002 4278862361
0.035056908 0.035776723 0.32600001 4278928154
0.036115758 0.035776723 0.32600001 4278862875
0.037060574 0.03566698 0.32500002 4278797082
0.038116176 0.03566698 0.32500002 4278928668
0.039051246 0.035557233 0.324 4278863388
0.040103596 0.035557233 0.324 4278732572
0.041028924 0.035447489 0.32300001 4278732572
0.042078033 0.035447489 0.32300001 4278798363
0.04299362 0.035337746 0.32200003 4278666261
0.044039473 0.035337746 0.32200003 4278929433
0.04508533 0.035337746 0.32200003 4278863640
0.045987923 0.035228003 0.32100001 4278930203
0.047030531 0.035228003 0.32100001 4279062048
0.048073135 0.035228003 0.32100001 4279391015
0.049115747 0.035228003 0.32100001 4279391785
0.05120096 0.035228003 0.32100001 4285441411
0.052243572 0.035228003 0.32100001 4285176186
0.0035640574 0.039886761 0.35300002 4278797595
0.0047106021 0.039886761 0.35300002 4278797595
0.0058405544 0.03977377 0.35200003 4278196992
0.0069838511 0.03977377 0.35200003 4279516703
0.0081040589 0.039660774 0.35100001 4279189021
0.010354572 0.039547779 0.35000002 4279841311
0.01145854 0.039434783 0.34900001 4279841824
0.013607659 0.039095804 0.34600002 4280235301
0.015763627 0.038869817 0.34400001 4279776031
0.016831869 0.038756825 0.34300002 4278920209
0.017945932 0.038756825 0.34300002 4280235301
0.019004429 0.03864383 0.34200001 4280169508
0.021163998 0.038530838 0.34100002 4279712287
0.022206252 0.038417842 0.34 4279189275
0.023242014 0.03830485 0.33900002 4279058970
0.024271278 0.038191859 0.33800003 4278927384
0.025294045 0.038078863 0.33700001 4279124252
0.026232013 0.037852872 0.33500001 4279124252
0.02723854 0.03773988 0.33400002 4279255068
0.028153773 0.037513893 0.33200002 4279188762
0.031199694 0.037287906 0.33000001 4278726162
0.036115758 0.036835931 0.32600001 4278660880
0.037060574 0.036722939 0.32500002 4278991383
0.038116176 0.036722939 0.32500002 4279124250
0.039051246 0.036609944 0.324 4278993177
0.040103596 0.036609944 0.324 4278797082
0.041028924 0.036496952 0.32300001 4278797082
0.042078033 0.036496952 0.32300001 4278666009
0.04299362 0.036383957 0.32200003 4278797847
0.044039473 0.036383957 0.32200003 4278666261
0.04508533 0.036383957 0.32200003 4278797847
0.045987923 0.036270961 0.32100001 4278863640
0.047030531 0.036270961 0.32100001 4278732824
0.048073135 0.036270961 0.32100001 4278666777
0.049115747 0.036270961 0.32100001 4278995742
0.050158355 0.036270961 0.32100001 4279061535
0.05120096 0.036270961 0.32100001 4279126562
0.052080821 0.036157969 0.32000002 4285178741
0.053120185 0.036157969 0.32000002 4282150980
0.05399029 0.036044974 0.31900001 4279256349
0.055026405 0.036044974 0.31900001 4279716135
0.0035640574 0.041033693 0.35300002 4279059740
0.0047106021 0.041033693 0.35300002 4278599189
0.0069838511 0.040917452 0.35200003 4279449115
0.0081040589 0.040801208 0.35100001 4279451680
0.013607659 0.040219992 0.34600002 4279710238
0.017945932 0.039871268 0.34300002 4279116820
0.019004429 0.03975502 0.34200001 4279315480
0.021163998 0.03963878 0.34100002 4279581984
0.022206252 0.039522536 0.34 4278992666
0.023242014 0.039406296 0.33900002 4278596625
0.026232013 0.038941324 0.33500001 4279189275
0.02723854 0.03882508 0.33400002 4278663701
0.028238574 0.038708836 0.333 4278926103
0.029232109 0.038592596 0.33200002 4279255838
0.030219149 0.038476355 0.33100003 4279190045
0.031199694 0.038360108 0.33000001 4279124252
0.032173742 0.038243867 0.32900003 4279124252
0.03410235 0.038011383 0.32700002 4279385887
0.036115758 0.037895139 0.32600001 4279319324
0.037060574 0.037778895 0.32500002 4278726421
0.042078033 0.037546411 0.32300001 4278398224
0.04299362 0.037430171 0.32200003 4278794517
0.044039473 0.037430171 0.32200003 4279255836
0.04508533 0.037430171 0.32200003 4278796568
0.045987923 0.037313923 0.32100001 4278928152
0.047030531 0.037313923 0.32100001 4278731800
0.048073135 0.037313923 0.32100001 4278797595
0.049115747 0.037313923 0.32100001 4278863386
0.050158355 0.037313923 0.32100001 4278863386
0.051041458 0.037197683 0.32000002 4279060765
0.052080821 0.037197683 0.32000002 4278994459
0.053120185 0.037197683 0.32000002 4278994199
0.05399029 0.037081439 0.31900001 4279257371
0.055026405 0.037081439 0.31900001 4279256347
0.056062516 0.037081439 0.31900001 4279190045
0.0035640574 0.042180628 0.35300002 4278928154
0.0047106021 0.042180628 0.35300002 4278993947
0.0058405544 0.042061135 0.35200003 4278196997
0.0081040589 0.041941643 0.35100001 4279516705
0.017893611 0.040866215 0.34200001 4279973924
0.019004429 0.040866215 0.34200001 4279316762
0.021101933 0.04062723 0.34 4279713570
0.022206252 0.04062723 0.34 4279452445
0.026310319 0.040149264 0.33600003 4279646494
0.027320093 0.040029772 0.33500001 4278858259
0.028323375 0.039910283 0.33400002 4279187224
0.030310445 0.039671298 0.33200002 4278728470
0.032271534 0.039432313 0.33000001 4278530832
0.033242337 0.039312821 0.32900003 4279124252
0.034206636 0.039193328 0.32800001 4279058459
0.035164446 0.03907384 0.32700002 4279190556
0.036115758 0.038954344 0.32600001 4279058970
0.037174605 0.038954344 0.32600001 4279058972
0.038116176 0.038834855 0.32500002 4279058972
0.040103596 0.038715359 0.324 4279386141
0.041028924 0.03859587 0.32300001 4279187738
0.042078033 0.03859587 0.32300001 4279450398
0.046131186 0.038476381 0.32200003 4278859545
0.047030531 0.038356885 0.32100001 4278862361
0.048073135 0.038356885 0.32100001 4278731289
0.049115747 0.038356885 0.32100001 4278731287
0.050158355 0.038356885 0.32100001 4278862873
0.051041458 0.038237397 0.32000002 4278797080
0.052080821 0.038237397 0.32000002 4278731287
0.052954178 0.0381179 0.31900001 4278731541
0.05399029 0.0381179 0.31900001 4278665748
0.055026405 0.0381179 0.31900001 4278994199
0.055886775 0.037998412 0.31800002 4279058970
0.056919642 0.037998412 0.31800002 4279712033
0.0012745686 0.0434503 0.354 4278797082
0.0024243612 0.0434503 0.354 4278862875
0.0035640574 0.043327559 0.35300002 4278993947
0.0047106021 0.043327559 0.35300002 4278795798
0.0081040589 0.043082077 0.35100001 4279320861
0.021101933 0.041731924 0.34 4279976740
0.022206252 0.041731924 0.34 4279715102
0.026310319 0.041240964 0.33600003 4279118103
0.028323375 0.040995482 0.33400002 4279386141
0.030310445 0.040750001 0.33200002 4278529294
0.031294242 0.04062726 0.33100003 4279187738
0.032271534 0.040504515 0.33000001 4278858773
0.033242337 0.040381778 0.32900003 4279188508
0.034206636 0.040259033 0.32800001 4279189275
0.035164446 0.040136296 0.32700002 4278729490
0.036226545 0.040136296 0.32700002 4278927382
0.037174605 0.040013552 0.32600001 4278928152
0.038116176 0.039890811 0.32500002 4278862359
0.039051246 0.03976807 0.324 4278993175
0.040103596 0.03976807 0.324 4278928154
0.041028924 0.039645329 0.32300001 4278796568
0.042078033 0.039645329 0.32300001 4278928154
0.04299362 0.039522592 0.32200003 4279190558
0.044039473 0.039522592 0.32200003 4279124252
0.047030531 0.039399847 0.32100001 4278993179
0.048073135 0.039399847 0.32100001 4278928154
0.049115747 0.039399847 0.32100001 4278862361
0.050002102 0.039277107 0.32000002 4278928152
0.051041458 0.039277107 0.32000002 4278599187
0.052080821 0.039277107 0.32000002 4278862359
0.052954178 0.039154366 0.31900001 4278928152
0.05399029 0.039154366 0.31900001 4278796566
0.054853909 0.039031625 0.31800002 4278795798
0.055886775 0.039031625 0.31800002 4278927386
0.056919642 0.039031625 0.31800002 4278790931
0.057952501 0.039031625 0.31800002 4286026880
0.0012745686 0.044600483 0.354 4279125531
0.0024243612 0.044600483 0.354 4278993945
0.0035640574 0.044474494 0.35300002 4279059738
0.0069838511 0.044348504 0.35200003 4279187478
0.0081040589 0.044222515 0.35100001 4279190041
0.0092177708 0.044096526 0.35000002 4279256088
0.010324988 0.043970533 0.34900001 4279713568
0.011425707 0.043844543 0.34800002 4279646240
0.01251993 0.04371855 0.347 4279052308
0.021101933 0.042836621 0.34 4279779102
0.022140941 0.042710632 0.33900002 4279780897
0.026310319 0.042332664 0.33600003 4279842340
0.027320093 0.042206671 0.33500001 4278792214
0.028323375 0.042080685 0.33400002 4279319324
0.029320156 0.041954692 0.333 4278726673
0.031294242 0.041702714 0.33100003 4279189021
0.032271534 0.041576721 0.33000001 4279188508
0.033242337 0.041450735 0.32900003 4279121947
0.034310929 0.041450735 0.32900003 4278660882
0.036226545 0.041198753 0.32700002 4279253017
0.037174605 0.04107276 0.32600001 4278661394
0.040103596 0.040820781 0.324 4279058457
0.041028924 0.040694792 0.32300001 4278664982
0.042078033 0.040694792 0.32300001 4278796568
0.043127138 0.040694792 0.32300001 4279124763
0.044039473 0.040568803 0.32200003 4279124763
0.04508533 0.040568803 0.32200003 4279516703
0.046131186 0.040568803 0.32200003 4278660115
0.047030531 0.040442813 0.32100001 4279058972
0.048073135 0.040442813 0.32100001 4279059740
0.049115747 0.040442813 0.32100001 4278928154
0.050002102 0.040316824 0.32000002 4278664982
0.051041458 0.040316824 0.32000002 4278796566
0.051918067 0.040190831 0.31900001 4278599187
0.052954178 0.040190831 0.31900001 4278796566
0.053821042 0.040064842 0.31800002 4278533394
0.054853909 0.040064842 0.31800002 4278466835
0.055886775 0.040064842 0.31800002 4278729240
0.056919642 0.040064842 0.31800002 4278593039
0.057952501 0.040064842 0.31800002 4285961087
0.0012745686 0.045750663 0.354 4279058968
0.0024243612 0.045750663 0.354 4278993945
0.0035741536 0.045750663 0.354 4278993945
0.0047106021 0.045621425 0.35300002 4278928152
0.0058571463 0.045621425 0.35300002 4279256347
0.0069838511 0.045492187 0.35200003 4279190043
0.0081040589 0.045362946 0.35100001 4279124248
0.0092177708 0.045233708 0.35000002 4279124502
0.010324988 0.045104466 0.34900001 4279190041
0.011425707 0.044975229 0.34800002 4279124252
0.01251993 0.044845987 0.347 4279124252
0.013568331 0.044587512 0.34500003 4279190045
0.014646315 0.04445827 0.34400001 4279254814
0.015717804 0.044329032 0.34300002 4279450910
0.016782796 0.044199791 0.34200001 4279909412
0.017893611 0.044199791 0.34200001 4278921236
0.021101933 0.043941315 0.34 4279778850
0.022140941 0.043812077 0.33900002 4278989847
0.023242014 0.043812077 0.33900002 4279976742
0.024271278 0.04368284 0.33800003 4279778080
0.025294045 0.043553598 0.33700001 4279778080
0.026310319 0.04342436 0.33600003 4279582498
0.027320093 0.043295119 0.33500001 4279320607
0.028323375 0.043165881 0.33400002 4279320094
0.029320156 0.04303664 0.333 4279319324
0.030310445 0.042907402 0.33200002 4278990359
0.033343375 0.042648923 0.33000001 4279254814
0.03527198 0.042390443 0.32800001 4279448348
0.037174605 0.042131964 0.32600001 4279514654
0.040103596 0.041873489 0.324 4278791953
0.041155949 0.041873489 0.324 4278462988
0.042078033 0.041744251 0.32300001 4278397195
0.043127138 0.041744251 0.32300001 4279386654
0.044039473 0.041615013 0.32200003 4279190043
0.04508533 0.041615013 0.32200003 4279715106
0.046131186 0.041615013 0.32200003 4278726673
0.047030531 0.041485772 0.32100001 4279058972
0.048073135 0.041485772 0.32100001 4278862361
0.048962738 0.041356534 0.32000002 4278731289
0.050002102 0.041356534 0.32000002 4278731289
0.050881952 0.041227292 0.31900001 4278796568
0.051918067 0.041227292 0.31900001 4278664982
0.052954178 0.041227292 0.31900001 4278664980
0.053821042 0.041098054 0.31800002 4278336015
0.054853909 0.041098054 0.31800002 4278597906
0.055886775 0.041098054 0.31800002 4278794517
0.056919642 0.041098054 0.31800002 4279251482
0.05777026 0.040968813 0.317 4285895296
0.0024243612 0.046900846 0.354 4279124250
0.0035741536 0.046900846 0.354 4278927386
0.0047106021 0.04676836 0.35300002 4278927386
0.0058571463 0.04676836 0.35300002 4278796570
0.0069838511 0.046635874 0.35200003 4278862363
0.0081040589 0.046503384 0.35100001 4278928154
0.0092177708 0.046370897 0.35000002 4278862361
0.010324988 0.046238404 0.34900001 4278862361
0.011425707 0.046105918 0.34800002 4278928154
0.01251993 0.045973428 0.347 4278928154
0.013568331 0.045708455 0.34500003 4278796568
0.014646315 0.045575965 0.34400001 4278862361
0.015717804 0.045443479 0.34300002 4278928154
0.016782796 0.045310989 0.34200001 4278928156
0.017841291 0.045178503 0.34100002 4279124765
0.01894886 0.045178503 0.34100002 4279124252
0.019997612 0.045046009 0.34 4279254814
0.021101933 0.045046009 0.34 4279583779
0.022140941 0.044913523 0.33900002 4278991131
0.027320093 0.044383571 0.33500001 4278725390
0.028323375 0.044251084 0.33400002 4279648029
0.029320156 0.044118594 0.333 4279057174
0.030310445 0.043986108 0.33200002 4279189273
0.032271534 0.043721128 0.33000001 4279255068
0.033343375 0.043721128 0.33000001 4278861080
0.03527198 0.043456152 0.32800001 4279385887
0.036226545 0.043323666 0.32700002 4278792468
0.038233455 0.043191176 0.32600001 4278462988
0.039171774 0.04305869 0.32500002 4278660882
0.041155949 0.0429262 0.324 4278791955
0.042078033 0.04279371 0.32300001 4278265611
0.043127138 0.04279371 0.32300001 4278990613
0.044039473 0.042661224 0.32200003 4279190045
0.04508533 0.042661224 0.32200003 4279121945
0.046131186 0.042661224 0.32200003 4278792466
0.047030531 0.042528734 0.32100001 4279124763
0.048073135 0.042528734 0.32100001 4279058970
0.048962738 0.042396247 0.32000002 4278862359
0.050002102 0.042396247 0.32000002 4278796566
0.050881952 0.042263757 0.31900001 4278796566
0.051918067 0.042263757 0.31900001 4278796566
0.052788179 0.042131271 0.31800002 4278927382
0.053821042 0.042131271 0.31800002 4278532624
0.054853909 0.042131271 0.31800002 4278860308
0.055711027 0.041998781 0.317 4279255066
0.056740645 0.041998781 0.317 4278791953
0.05777026 0.041998781 0.317 4285632120
0.0012745686 0.048051026 0.354 4280040987
0.0024243612 0.048051026 0.354 4279778328
0.0035741536 0.048051026 0.354 4279582748
0.0047106021 0.047915291 0.35300002 4279320346
0.0058571463 0.047915291 0.35300002 4279190043
0.0069838511 0.047779553 0.35200003 4279058457
0.0081040589 0.047643814 0.35100001 4278992664
0.0092177708 0.04750808 0.35000002 4278730007
0.010324988 0.047372341 0.34900001 4278599191
0.011425707 0.047236603 0.34800002 4278928156
0.01248385 0.04696513 0.34600002 4278796570
0.013568331 0.046829391 0.34500003 4278664984
0.014646315 0.046693653 0.34400001 4278599189
0.015717804 0.046557918 0.34300002 4278664982
0.016782796 0.04642218 0.34200001 4278533396
0.017841291 0.046286441 0.34100002 4278862361
0.01894886 0.046286441 0.34100002 4278993947
0.019997612 0.046150703 0.34 4278928154
0.021101933 0.046150703 0.34 4278993949
0.022140941 0.046014968 0.33900002 4278993949
0.023173455 0.04587923 0.33800003 4279190558
0.024271278 0.04587923 0.33800003 4279255838
0.025294045 0.045743492 0.33700001 4279255068
0.026310319 0.045607757 0.33600003 4279649313
0.027320093 0.045472018 0.33500001 4279975457
0.028323375 0.04533628 0.33400002 4278790670
0.032271534 0.04479333 0.33000001 4278461966
0.033343375 0.04479333 0.33000001 4278661394
0.03527198 0.044521853 0.32800001 4278795287
0.036226545 0.044386119 0.32700002 4278993179
0.037174605 0.04425038 0.32600001 4279058972
0.038233455 0.04425038 0.32600001 4279058459
0.040103596 0.043978903 0.324 4278991129
0.041155949 0.043978903 0.324 4278859545
0.042078033 0.043843169 0.32300001 4278331917
0.043127138 0.043843169 0.32300001 4278990359
0.044039473 0.043707434 0.32200003 4279124252
0.04508533 0.043707434 0.32200003 4278464015
0.046131186 0.043707434 0.32200003 4278857748
0.047030531 0.043571692 0.32100001 4279124763
0.048073135 0.043571692 0.32100001 4279058970
0.048962738 0.043435957 0.32000002 4278862361
0.050002102 0.043435957 0.32000002 4278796568
0.050881952 0.043300219 0.31900001 4278599187
0.051755317 0.043164484 0.31800002 4278862359
0.052788179 0.043164484 0.31800002 4278730003
0.053821042 0.043164484 0.31800002 4278598419
0.054681409 0.043028742 0.317 4278861078
0.055711027 0.043028742 0.317 4279058457
0.056740645 0.043028742 0.317 4279120918
0.05777026 0.043028742 0.317 4285105778
0.0058571463 0.049062226 0.35300002 4279382291
0.0081040589 0.048784252 0.35100001 4279319062
0.0092177708 0.048645265 0.35000002 4279450650
0.010324988 0.048506279 0.34900001 4279189273
0.011425707 0.048367295 0.34800002 4279124250
0.01248385 0.048089322 0.34600002 4278927386
0.013568331 0.047950335 0.34500003 4278927386
0.014646315 0.047811348 0.34400001 4278927386
0.015717804 0.047672361 0.34300002 4278664984
0.016782796 0.047533374 0.34200001 4278796568
0.017841291 0.047394387 0.34100002 4278796568
0.01894886 0.047394387 0.34100002 4278928154
0.019997612 0.047255401 0.34 4278796568
0.021101933 0.047255401 0.34 4279059740
0.022140941 0.047116414 0.33900002 4278928154
0.023242014 0.047116414 0.33900002 4278928154
0.024271278 0.046977431 0.33800003 4278862363
0.025294045 0.04683844 0.33700001 4278928156
0.026310319 0.046699457 0.33600003 4278796570
0.027320093 0.046560466 0.33500001 4279058972
0.028323375 0.046421483 0.33400002 4279124765
0.029320156 0.046282496 0.333 4279124252
0.030310445 0.046143509 0.33200002 4279124252
0.031294242 0.046004526 0.33100003 4279649572
0.033242337 0.045726553 0.32900003 4279055127
0.038233455 0.045309588 0.32600001 4278858007
0.039171774 0.045170605 0.32500002 4279254303
0.040103596 0.045031615 0.324 4279254814
0.041155949 0.045031615 0.324 4279189021
0.042078033 0.044892631 0.32300001 4278925849
0.043127138 0.044892631 0.32300001 4279189275
0.044039473 0.044753648 0.32200003 4279189273
0.04508533 0.044753648 0.32200003 4278331915
0.045987923 0.044614658 0.32100001 4279252252
0.047030531 0.044614658 0.32100001 4278862363
0.047923379 0.044475675 0.32000002 4278928156
0.048962738 0.044475675 0.32000002 4278928152
0.049845841 0.044336684 0.31900001 4278796566
0.050881952 0.044336684 0.31900001 4278664980
0.051755317 0.044197701 0.31800002 4278796566
0.052788179 0.044197701 0.31800002 4278664980
0.053651791 0.04405871 0.317 4278664980
0.054681409 0.04405871 0.317 4278861080
0.055711027 0.04405871 0.317 4278795287
0.056740645 0.04405871 0.317 4279252765
0.011425707 0.049497984 0.34800002 4279382037
0.01248385 0.049213514 0.34600002 4279581723
0.013568331 0.049071278 0.34500003 4279450650
0.014646315 0.048929039 0.34400001 4278991383
0.015717804 0.048786808 0.34300002 4279123480
0.016782796 0.048644569 0.34200001 4279058457
0.017841291 0.048502333 0.34100002 4279124763
0.01894886 0.048502333 0.34100002 4278927384
0.019997612 0.048360098 0.34 4278928154
0.021101933 0.048360098 0.34 4278928154
0.022140941 0.048217863 0.33900002 4278928154
0.023242014 0.048217863 0.33900002 4278928154
0.024271278 0.048075628 0.33800003 4278993949
0.025294045 0.047933392 0.33700001 4278993949
0.026310319 0.047791157 0.33600003 4278928156
0.027320093 0.047648918 0.33500001 4278993947
0.028323375 0.047506686 0.33400002 4278928154
0.029320156 0.047364447 0.333 4278862363
0.030310445 0.047222216 0.33200002 4278664984
0.031294242 0.04707998 0.33100003 4278928156
0.032271534 0.046937741 0.33000001 4278993949
0.033242337 0.04679551 0.32900003 4279058972
0.034310929 0.04679551 0.32900003 4279124765
0.03527198 0.046653271 0.32800001 4279124252
0.036226545 0.046511035 0.32700002 4279386654
0.03728864 0.046511035 0.32700002 4279845668
0.038233455 0.0463688 0.32600001 4279056152
0.043127138 0.045942094 0.32300001 4278397197
0.044039473 0.045799859 0.32200003 4279187226
0.04508533 0.045799859 0.32200003 4278331150
0.045987923 0.04565762 0.32100001 4279252506
0.047030531 0.04565762 0.32100001 4278796568
0.047923379 0.045515388 0.32000002 4278731289
0.048962738 0.045515388 0.32000002 4278862359
0.049845841 0.045373149 0.31900001 4278664980
0.05072245 0.045230918 0.31800002 4278796566
0.051755317 0.045230918 0.31800002 4278993945
0.052788179 0.045230918 0.31800002 4278795796
0.053651791 0.045088679 0.317 4278730003
0.054681409 0.045088679 0.317 4278597906
0.055711027 0.045088679 0.317 4278926103
0.056740645 0.045088679 0.317 4278528013
0.015717804 0.049901247 0.34300002 4278920972
0.016782796 0.04975576 0.34200001 4279383061
0.017841291 0.049610276 0.34100002 4279647516
0.01894886 0.049610276 0.34100002 4279254555
0.020056428 0.049610276 0.34100002 4279386654
0.021101933 0.049464788 0.34 4279453217
0.022206252 0.049464788 0.34 4279453217
0.023242014 0.049319305 0.33900002 4279321631
0.024271278 0.049173824 0.33800003 4279190304
0.025294045 0.049028337 0.33700001 4278993695
0.026310319 0.048882853 0.33600003 4278927902
0.027320093 0.048737366 0.33500001 4278993695
0.028323375 0.048591882 0.33400002 4278928156
0.029320156 0.048446395 0.333 4278993947
0.030310445 0.048300914 0.33200002 4278993947
0.031294242 0.048155431 0.33100003 4278928154
0.032271534 0.048009943 0.33000001 4278928154
0.033343375 0.048009943 0.33000001 4278664982
0.034310929 0.047864459 0.32900003 4278862361
0.03527198 0.047718972 0.32800001 4278796568
0.036226545 0.047573492 0.32700002 4278928154
0.03728864 0.047573492 0.32700002 4278928154
0.038233455 0.047428004 0.32600001 4278993947
0.039171774 0.047282521 0.32500002 4279058970
0.040227376 0.047282521 0.32500002 4279124252
0.041155949 0.047137033 0.324 4279649059
0.042078033 0.046991549 0.32300001 4279582498
0.043127138 0.046991549 0.32300001 4279186713
0.044039473 0.046846069 0.32200003 4278856978
0.044945311 0.046700582 0.32100001 4278791701
0.045987923 0.046700582 0.32100001 4279648289
0.046884019 0.046555098 0.32000002 4278928154
0.047923379 0.046555098 0.32000002 4278665496
0.04880973 0.046409611 0.31900001 4278862875
0.049845841 0.046409611 0.31900001 4278731289
0.05072245 0.046264127 0.31800002 4278533910
0.051755317 0.046264127 0.31800002 4278664980
0.052622177 0.046118639 0.317 4278730003
0.053651791 0.046118639 0.317 4278664210
0.054681409 0.046118639 0.317 4278860308
0.055711027 0.046118639 0.317 4278925588
0.056740645 0.046118639 0.317 4279381525
0.016782796 0.050866954 0.34200001 4279903506
0.017841291 0.050718222 0.34100002 4279904274
0.01894886 0.050718222 0.34100002 4280434213
0.020056428 0.050718222 0.34100002 4281223989
0.021101933 0.050569486 0.34 4281752388
0.022206252 0.050569486 0.34 4279778598
0.023242014 0.050420754 0.33900002 4279450662
0.024271278 0.050272021 0.33800003 4279911211
0.025294045 0.050123286 0.33700001 4279715113
0.026310319 0.049974553 0.33600003 4279649574
0.027320093 0.049825817 0.33500001 4279584551
0.028323375 0.049677085 0.33400002 4279452965
0.029320156 0.049528349 0.333 4279190306
0.030310445 0.049379617 0.33200002 4279256867
0.031294242 0.049230885 0.33100003 4279059488
0.032271534 0.049082149 0.33000001 4279059488
0.033343375 0.049082149 0.33000001 4278927902
0.034310929 0.048933417 0.32900003 4278927902
0.03527198 0.048784681 0.32800001 4278927902
0.036337327 0.048784681 0.32800001 4279059488
0.03728864 0.048635948 0.32700002 4278993949
0.038233455 0.048487213 0.32600001 4278928156
0.039171774 0.04833848 0.32500002 4278862363
0.040227376 0.04833848 0.32500002 4278862363
0.041155949 0.048189744 0.324 4278862363
0.042078033 0.048041012 0.32300001 4279124765
0.043127138 0.048041012 0.32300001 4279124250
0.044039473 0.04789228 0.32200003 4279190043
0.044945311 0.047743544 0.32100001 4279255066
0.045987923 0.047743544 0.32100001 4279190043
0.046884019 0.047594812 0.32000002 4278928152
0.047773615 0.047446076 0.31900001 4278928152
0.04880973 0.047446076 0.31900001 4278928152
0.049689587 0.047297344 0.31800002 4278796566
0.05072245 0.047297344 0.31800002 4278664980
0.051755317 0.047297344 0.31800002 4278928152
0.052622177 0.047148608 0.317 4278795796
0.053651791 0.047148608 0.317 4278729490
0.054681409 0.047148608 0.317 4278794002
0.055711027 0.047148608 0.317 4279122199
0.056740645 0.047148608 0.317 4281683515
0.017893611 0.051978145 0.34200001 4280296211
0.01894886 0.051826164 0.34100002 4281219366
0.020056428 0.051826164 0.34100002 4282931527
0.021163998 0.051826164 0.34100002 4285763194
0.027320093 0.050914265 0.33500001 4279778598
0.028323375 0.050762285 0.33400002 4279252769
0.029320156 0.050610296 0.333 4279319844
0.030310445 0.050458316 0.33200002 4279451682
0.031294242 0.050306335 0.33100003 4279583781
0.032271534 0.050154351 0.33000001 4279781160
0.033343375 0.050154351 0.33000001 4279649574
0.034310929 0.05000237 0.32900003 4279518758
0.03527198 0.049850386 0.32800001 4279452965
0.036337327 0.049850386 0.32800001 4279256097
0.03728864 0.049698401 0.32700002 4279190558
0.039292302 0.049546417 0.32600001 4279387937
0.040227376 0.049394436 0.32500002 4279190558
0.041155949 0.049242452 0.324 4279124765
0.042078033 0.049090471 0.32300001 4279256351
0.04299362 0.04893849 0.32200003 4279058970
0.043902703 0.048786502 0.32100001 4279058970
0.044945311 0.048786502 0.32100001 4278795798
0.045844659 0.048634522 0.32000002 4278993945
0.046884019 0.048634522 0.32000002 4278993945
0.047773615 0.048482537 0.31900001 4278993945
0.04880973 0.048482537 0.31900001 4278862359
0.049689587 0.048330557 0.31800002 4278664980
0.05072245 0.048330557 0.31800002 4278599187
0.051592559 0.048178572 0.317 4278533394
0.052622177 0.048178572 0.317 4278861078
0.053651791 0.048178572 0.317 4278663699
0.054681409 0.048178572 0.317 4278991383
0.055711027 0.048178572 0.317 4278989847
0.056740645 0.048178572 0.317 4284513129
0.03728864 0.050760861 0.32700002 4279844643
0.038233455 0.050605629 0.32600001 4279910949
0.039292302 0.050605629 0.32600001 4279649061
0.040227376 0.050450396 0.32500002 4279649061
0.041155949 0.050295163 0.324 4279649061
0.042078033 0.050139934 0.32300001 4279517475
0.04299362 0.049984701 0.32200003 4279714852
0.043902703 0.049829468 0.32100001 4279517473
0.044805296 0.049674239 0.32000002 4279255584
0.045844659 0.049674239 0.32000002 4279190558
0.046737507 0.049519002 0.31900001 4279124765
0.047773615 0.049519002 0.31900001 4279058972
0.048656721 0.049363773 0.31800002 4279124763
0.049689587 0.049363773 0.31800002 4278795798
0.05072245 0.049363773 0.31800002 4278927384
0.051592559 0.04920854 0.317 4278992664
0.052622177 0.04920854 0.317 4279255066
0.053651791 0.04920854 0.317 4278991383
0.054681409 0.04920854 0.317 4279186711
0.055711027 0.04920854 0.317 4280501036
0.043902703 0.050872426 0.32100001 4279711774
0.044805296 0.050713949 0.32000002 4279646494
0.045701392 0.050555464 0.31900001 4279581471
0.046737507 0.050555464 0.31900001 4279779363
0.047623854 0.050396986 0.31800002 4279910949
0.048656721 0.050396986 0.31800002 4279450910
0.049689587 0.050396986 0.31800002 4279451680
0.050562941 0.050238501 0.317 4279385887
0.051592559 0.050238501 0.317 4279385887
0.052622177 0.050238501 0.317 4279516189
0.053651791 0.050238501 0.317 4279055638
0.054681409 0.050238501 0.317 4280829233
0.044665277 0.051591929 0.31900001 4285368436
0.045701392 0.051591929 0.31900001 4285434229
0.046590995 0.051430203 0.31800002 4285105264
0.047623854 0.051430203 0.31800002 4284907885
0.048656721 0.051430203 0.31800002 4283986783
0.049689587 0.051430203 0.31800002 4282737230
0.050562941 0.05126847 0.317 4281684542
0.051592559 0.05126847 0.317 4281421370
0.052622177 0.05126847 0.317 4281948484
0.053651791 0.05126847 0.317 4284513129
0.054681409 0.05126847 0.317 4285038960
0.033147782 0.043138631 0.33103111 4294967295
0.033147782 0.043138631 0.33103111 4294901760
0.033147782 0.043138631 0.33153111 4294901760
0.033147782 0.043138631 0.3320311 4294901760
0.033147782 0.043138631 0.33253112 4294901760
0.033147782 0.043138631 0.33303112 4294901760
0.033147782 0.043138631 0.33353111 4294901760
0.033147782 0.043138631 0.33403111 4294901760
0.033147782 0.043138631 0.33453113 4294901760
0.033147782 0.043138631 0.33503112 4294901760
0.033147782 0.043138631 0.33553112 4294901760
0.033147782 0.043138631 0.33603111 4294901760
0.033147782 0.043138631 0.3365311 4294901760
0.033147782 0.043138631 0.33703113 4294901760
0.033147782 0.043138631 0.33753112 4294901760
0.033147782 0.043138631 0.33803111 4294901760
0.033147782 0.043138631 0.33853111 4294901760
0.033147782 0.043138631 0.3390311 4294901760
0.033147782 0.043138631 0.33953112 4294901760
0.033147782 0.043138631 0.34003112 4294901760
0.033147782 0.043138631 0.34053111 4294901760
0.033147782 0.043138631 0.3410311 4294901760
0.033147782 0.043138631 0.34153113 4294901760
0.033147782 0.043138631 0.34203112 4294901760
0.033147782 0.043138631 0.34253111 4294901760
0.033147782 0.043138631 0.34303111 4294901760
0.033147782 0.043138631 0.34353113 4294901760
0.033147782 0.043138631 0.34403113 4294901760
0.033147782 0.043138631 0.34453112 4294901760
0.033147782 0.043138631 0.34503111 4294901760
0.033147782 0.043138631 0.34553111 4294901760
0.033147782 0.043138631 0.34603113 4294901760
0.033147782 0.043138631 0.34653112 4294901760
0.033147782 0.043138631 0.34703112 4294901760
0.033147782 0.043138631 0.34753111 4294901760
0.033147782 0.043138631 0.3480311 4294901760
0.033147782 0.043138631 0.34853113 4294901760
0.033147782 0.043138631 0.34903112 4294901760
0.033147782 0.043138631 0.34953111 4294901760
0.033147782 0.043138631 0.35003111 4294901760
0.033147782 0.043138631 0.35053113 4294901760
0.033147782 0.043138631 0.35103112 4294901760
0.033147782 0.043138631 0.35153112 4294901760
0.033147782 0.043138631 0.35203111 4294901760
0.033147782 0.043138631 0.35253114 4294901760
0.033147782 0.043138631 0.35303113 4294901760
0.033147782 0.043138631 0.35353112 4294901760
0.033147782 0.043138631 0.35403112 4294901760
0.033147782 0.043138631 0.35453111 4294901760
0.033147782 0.043138631 0.35503113 4294901760
0.033147782 0.043138631 0.35553113 4294901760
0.033147782 0.043138631 0.35603112 4294901760
0.033147782 0.043138631 0.35653111 4294901760
0.033147782 0.043138631 0.35703111 4294901760
0.033147782 0.043138631 0.35753113 4294901760
0.033147782 0.043138631 0.35803112 4294901760
0.033147782 0.043138631 0.35853112 4294901760
0.033147782 0.043138631 0.35903111 4294901760
0.033147782 0.043138631 0.3595311 4294901760
0.033147782 0.043138631 0.36003113 4294901760
0.033147782 0.043138631 0.36053112 4294901760
0.033147782 0.043138631 0.36103112 4294901760
0.033147782 0.043138631 0.36153111 4294901760
0.033147782 0.043138631 0.36203113 4294901760
0.033147782 0.043138631 0.36253113 4294901760
0.033147782 0.043138631 0.36303112 4294901760
0.033147782 0.043138631 0.36353111 4294901760
0.033147782 0.043138631 0.36403114 4294901760
0.033147782 0.043138631 0.36453113 4294901760
0.033147782 0.043138631 0.36503112 4294901760
0.033147782 0.043138631 0.36553112 4294901760
0.033147782 0.043138631 0.36603111 4294901760
0.033147782 0.043138631 0.36653113 4294901760
0.033147782 0.043138631 0.36703113 4294901760
0.033147782 0.043138631 0.36753112 4294901760
0.033147782 0.043138631 0.36803111 4294901760
0.033147782 0.043138631 0.36853111 4294901760
0.033147782 0.043138631 0.36903113 4294901760
0.033147782 0.043138631 0.36953112 4294901760
0.033147782 0.043138631 0.37003112 4294901760
0.033147782 0.043138631 0.37053111 4294901760
0.033147782 0.043138631 0.37103114 4294901760
0.033147782 0.043138631 0.37153113 4294901760
0.033147782 0.043138631 0.37203112 4294901760
0.033147782 0.043138631 0.37253112 4294901760
0.033147782 0.043138631 0.37303111 4294901760
0.033147782 0.043138631 0.37353113 4294901760
0.033147782 0.043138631 0.37403113 4294901760
0.033147782 0.043138631 0.37453112 4294901760
0.033147782 0.043138631 0.37503111 4294901760
0.033147782 0.043138631 0.37553114 4294901760
0.033147782 0.043138631 0.37603113 4294901760
0.033147782 0.043138631 0.37653112 4294901760
0.033147782 0.043138631 0.37703112 4294901760
0.033147782 0.043138631 0.37753111 4294901760
0.033147782 0.043138631 0.37803113 4294901760
0.033147782 0.043138631 0.37853113 4294901760
0.033147782 0.043138631 0.37903112 4294901760
0.033147782 0.043138631 0.37953112 4294901760
0.033147782 0.043138631 0.38003114 4294901760
0.033147782 0.043138631 0.38053113 4294901760
0.033147782 0.043138631 0.38103113 4294901760
0.033147782 0.043138631 0.33103111 4278255360
0.033456352 0.043133158 0.3314245 4278255360
0.033764921 0.043127686 0.3318179 4278255360
0.034073491 0.043122213 0.33221129 4278255360
0.03438206 0.043116741 0.33260468 4278255360
0.03469063 0.043111268 0.33299807 4278255360
0.034999199 0.043105796 0.33339146 4278255360
0.035307769 0.043100324 0.33378485 4278255360
0.035616338 0.043094851 0.33417824 4278255360
0.035924908 0.043089379 0.33457163 4278255360
0.036233477 0.043083906 0.33496499 4278255360
0.036542047 0.043078434 0.33535838 4278255360
0.036850616 0.043072961 0.33575177 4278255360
0.037159182 0.043067489 0.33614516 4278255360
0.037467755 0.043062016 0.33653855 4278255360
0.037776321 0.043056544 0.33693194 4278255360
0.038084891 0.043051071 0.33732533 4278255360
0.03839346 0.043045599 0.33771873 4278255360
0.03870203 0.043040127 0.33811212 4278255360
0.039010599 0.043034654 0.33850551 4278255360
0.039319169 0.043029182 0.3388989 4278255360
0.039627738 0.043023709 0.33929229 4278255360
0.039936308 0.043018237 0.33968568 4278255360
0.040244877 0.043012764 0.34007907 4278255360
0.040553447 0.043007292 0.34047246 4278255360
0.040862016 0.043001823 0.34086585 4278255360
0.041170586 0.042996351 0.34125924 4278255360
0.041479155 0.042990878 0.34165263 4278255360
0.041787725 0.042985406 0.34204602 4278255360
0.042096294 0.042979933 0.34243941 4278255360
0.042404864 0.042974461 0.3428328 4278255360
0.042713434 0.042968988 0.34322616 4278255360
0.043022003 0.042963516 0.34361956 4278255360
0.043330573 0.042958044 0.34401295 4278255360
0.043639142 0.042952571 0.34440634 4278255360
0.043947712 0.042947099 0.34479973 4278255360
0.044256281 0.042941626 0.34519312 4278255360
0.044564851 0.042936154 0.34558651 4278255360
0.044873416 0.042930681 0.3459799 4278255360
0.045181986 0.042925209 0.34637329 4278255360
0.045490555 0.042919736 0.34676668 4278255360
0.045799125 0.042914264 0.34716007 4278255360
0.046107695 0.042908791 0.34755346 4278255360
0.046416264 0.042903319 0.34794685 4278255360
0.046724834 0.042897847 0.34834024 4278255360
0.047033403 0.042892374 0.34873363 4278255360
0.047341973 0.042886902 0.34912702 4278255360
0.047650542 0.042881429 0.34952042 4278255360
0.047959112 0.042875957 0.34991381 4278255360
0.048267681 0.042870484 0.3503072 4278255360
0.048576251 0.042865012 0.35070056 4278255360
0.04888482 0.042859539 0.35109395 4278255360
0.04919339 0.042854067 0.35148734 4278255360
0.049501956 0.042848594 0.35188073 4278255360
0.049810529 0.042843122 0.35227412 4278255360
0.050119098 0.04283765 0.35266751 4278255360
0.050427668 0.042832177 0.3530609 4278255360
0.050736234 0.042826705 0.35345429 4278255360
0.051044807 0.042821232 0.35384768 4278255360
0.051353373 0.04281576 0.35424107 4278255360
0.051661946 0.042810287 0.35463446 4278255360
0.051970512 0.042804815 0.35502785 4278255360
0.052279085 0.042799342 0.35542125 4278255360
0.052587651 0.04279387 0.35581464 4278255360
0.052896224 0.042788398 0.35620803 4278255360
0.05320479 0.042782925 0.35660142 4278255360
0.053513363 0.042777453 0.35699481 4278255360
0.053821929 0.04277198 0.3573882 4278255360
0.054130502 0.042766508 0.35778159 4278255360
0.054439068 0.042761035 0.35817498 4278255360
0.054747637 0.042755563 0.35856837 4278255360
0.055056207 0.04275009 0.35896173 4278255360
0.05536478 0.042744618 0.35935512 4278255360
0.055673346 0.042739145 0.35974851 4278255360
0.055981915 0.042733673 0.3601419 4278255360
0.056290485 0.042728201 0.36053529 4278255360
0.056599054 0.042722732 0.36092868 4278255360
0.056907624 0.042717259 0.36132208 4278255360
0.05721619 0.042711787 0.36171547 4278255360
0.057524763 0.042706314 0.36210886 4278255360
0.057833333 0.042700842 0.36250225 4278255360
0.058141902 0.04269537 0.36289564 4278255360
0.058450468 0.042689897 0.36328903 4278255360
0.058759041 0.042684425 0.36368242 4278255360
0.059067607 0.042678952 0.36407581 4278255360
0.05937618 0.04267348 0.3644692 4278255360
0.059684746 0.042668007 0.36486259 4278255360
0.059993319 0.042662535 0.36525598 4278255360
0.060301885 0.042657062 0.36564937 4278255360
0.060610458 0.04265159 0.36604273 4278255360
0.060919024 0.042646118 0.36643612 4278255360
0.061227597 0.042640645 0.36682951 4278255360
0.061536163 0.042635173 0.36722291 4278255360
0.061844736 0.0426297 0.3676163 4278255360
0.062153302 0.042624228 0.36800969 4278255360
0.062461872 0.042618755 0.36840308 4278255360
0.062770441 0.042613283 0.36879647 4278255360
0.063079014 0.04260781 0.36918986 4278255360
0.06338758 0.042602338 0.36958325 4278255360
0.063696146 0.042596865 0.36997664 4278255360
0.064004719 0.042591393 0.37037003 4278255360
