# .PCD v0.7 - Point Cloud Data file format
VERSION 0.7
FIELDS x y z rgb
SIZE 4 4 4 4
TYPE F F F U
COUNT 1 1 1 1
WIDTH 1034
HEIGHT 1
VIEWPOINT 0 0 0 1 0 0 0
POINTS 1034
DATA ascii
-0.018693797 0.021665055 0.48400003 4278599189
-0.017086387 0.021620292 0.48300001 4278797084
-0.015517603 0.021620292 0.48300001 4278402072
-0.013919939 0.021575529 0.48200002 4278731039
-0.012354402 0.021575529 0.48200002 4278336792
-0.010766482 0.021530768 0.48100004 4278665757
-0.009204193 0.021530768 0.48100004 4278928929
-0.0076260157 0.021486005 0.48000002 4278797343
-0.0060669756 0.021486005 0.48000002 4278797343
-0.0044985432 0.021441242 0.47900003 4278994463
-0.0029427505 0.021441242 0.47900003 4278994463
-0.02350663 0.023333644 0.48600003 4279119383
-0.021882981 0.023285633 0.48500001 4279187224
-0.020265831 0.023237621 0.48400003 4278795285
-0.018655173 0.02318961 0.48300001 4278795798
-0.017086387 0.02318961 0.48300001 4278599189
-0.015485475 0.023141598 0.48200002 4278599189
-0.013919939 0.023141598 0.48200002 4278599189
-0.012328771 0.023093587 0.48100004 4278336017
-0.010766482 0.023093587 0.48100004 4278402324
-0.0091850571 0.023045575 0.48000002 4278402324
-0.0076260157 0.023045575 0.48000002 4278533910
-0.0060543362 0.022997564 0.47900003 4278468117
-0.0044985432 0.022997564 0.47900003 4278336531
-0.0029366068 0.022949552 0.47800002 4278468117
-0.0013811664 0.022901541 0.47700003 4278468115
0.00016813047 0.022901541 0.47700003 4278468115
0.0017174273 0.022901541 0.47700003 4278665494
0.0032598756 0.022853527 0.47600001 4278533908
0.0048059244 0.022853527 0.47600001 4278402324
0.0063519734 0.022853527 0.47600001 4279126047
0.0078980215 0.022853527 0.47600001 4278862875
-0.02350663 0.024912708 0.48600003 4279250969
-0.021837862 0.024810188 0.48400003 4279253017
-0.020265831 0.024810188 0.48400003 4278795287
-0.018655173 0.024758926 0.48300001 4278730007
-0.017051013 0.024707666 0.48200002 4278664212
-0.015453348 0.024656406 0.48100004 4278598419
-0.01389106 0.024656406 0.48100004 4278532626
-0.012303138 0.024605144 0.48000002 4278532626
-0.010744099 0.024605144 0.48000002 4278466833
-0.0091659222 0.024553884 0.47900003 4278532626
-0.0076101287 0.024553884 0.47900003 4278532626
-0.0060416963 0.024502622 0.47800002 4278730005
-0.0044891518 0.024502622 0.47800002 4278199040
-0.0029366068 0.024502622 0.47800002 4278794517
-0.0013811664 0.024451362 0.47700003 4278598421
0.00016813047 0.024451362 0.47700003 4278532626
0.0017174273 0.024451362 0.47700003 4278598419
0.0032598756 0.0244001 0.47600001 4278532626
0.0048059244 0.0244001 0.47600001 4278401810
0.0063519734 0.0244001 0.47600001 4278533396
0.0078980215 0.0244001 0.47600001 4278533396
-0.023458261 0.02643726 0.48500001 4278922517
-0.021837862 0.026382752 0.48400003 4278925590
-0.020223958 0.026328241 0.48300001 4278664214
-0.01861655 0.026273731 0.48200002 4278664212
-0.017015638 0.026219223 0.48100004 4278664212
-0.01542122 0.026164712 0.48000002 4278532628
-0.01386218 0.026164712 0.48000002 4278598421
-0.012277507 0.026110204 0.47900003 4278466833
-0.010721715 0.026110204 0.47900003 4278335247
-0.0091467863 0.026055692 0.47800002 4278532626
-0.0075942408 0.026055692 0.47800002 4278335247
-0.0060416963 0.026055692 0.47800002 4278532115
-0.0044797603 0.026001183 0.47700003 4278595089
-0.0029304633 0.026001183 0.47700003 4278595603
-0.0013811664 0.026001183 0.47700003 4278597908
0.00016813047 0.026001183 0.47700003 4278400529
0.0017138268 0.025946673 0.47600001 4278532113
0.0032598756 0.025946673 0.47600001 4278597906
0.0048059244 0.025946673 0.47600001 4278335247
0.0063519734 0.025946673 0.47600001 4278466833
0.0078980215 0.025946673 0.47600001 4278466833
0.009424231 0.025892163 0.47500002 4278598419
0.014111802 0.026001183 0.47700003 4278269454
0.0156611 0.026001183 0.47700003 4278598419
0.017210396 0.026001183 0.47700003 4278466833
0.018759692 0.026001183 0.47700003 4278598419
-0.023458261 0.028013075 0.48500001 4279317527
-0.021792741 0.027897557 0.48300001 4278728211
-0.020182086 0.027839798 0.48200002 4278664212
-0.018577926 0.027782042 0.48100004 4278795798
-0.016980261 0.027724281 0.48000002 4278664212
-0.01542122 0.027724281 0.48000002 4278730007
-0.0138333 0.027666522 0.47900003 4278532628
-0.012251875 0.027608763 0.47800002 4278466835
-0.010699331 0.027608763 0.47800002 4278400529
-0.0091276504 0.027551005 0.47700003 4278532115
-0.0075783534 0.027551005 0.47700003 4278532115
-0.0060290569 0.027551005 0.47700003 4278400529
-0.0044797603 0.027551005 0.47700003 4278199563
-0.0029304633 0.027551005 0.47700003 4278924568
-0.0013782708 0.027493244 0.47600001 4278530580
0.00016777799 0.027493244 0.47600001 4278197248
0.0017138268 0.027493244 0.47600001 4278197509
0.0032598756 0.027493244 0.47600001 4278329867
0.0048059244 0.027493244 0.47600001 4278660115
0.0063519734 0.027493244 0.47600001 4278594576
0.0078980215 0.027493244 0.47600001 4278727187
0.009444071 0.027493244 0.47600001 4278924820
0.01099012 0.027493244 0.47600001 4278991383
0.012536168 0.027493244 0.47600001 4278728211
0.014111802 0.027551005 0.47700003 4278531345
0.0156611 0.027551005 0.47700003 4278531345
0.017210396 0.027551005 0.47700003 4278794517
0.018759692 0.027551005 0.47700003 4278531345
0.020266412 0.027493244 0.47600001 4278532115
0.021812461 0.027493244 0.47600001 4278597906
0.023358511 0.027493244 0.47600001 4278466833
0.024904558 0.027493244 0.47600001 4278269454
0.026450608 0.027493244 0.47600001 4278532626
0.027996656 0.027493244 0.47600001 4278269454
0.029542705 0.027493244 0.47600001 4278532626
0.031088753 0.027493244 0.47600001 4278664212
0.032634802 0.027493244 0.47600001 4278599189
0.03418085 0.027493244 0.47600001 4278796566
0.035801958 0.027551005 0.47700003 4278796566
0.037351254 0.027551005 0.47700003 4278862359
0.03890055 0.027551005 0.47700003 4278928154
0.04044985 0.027551005 0.47700003 4278928154
0.041999146 0.027551005 0.47700003 4279059740
0.043548442 0.027551005 0.47700003 4278993949
0.045192283 0.027608763 0.47800002 4278928416
0.046744827 0.027608763 0.47800002 4278862111
0.048297372 0.027608763 0.47800002 4279255845
-0.023409896 0.029527882 0.48400003 4279251988
-0.021792741 0.029466873 0.48300001 4279056406
-0.020182086 0.029405866 0.48200002 4278598419
-0.018577926 0.029344859 0.48100004 4278730005
-0.016980261 0.02928385 0.48000002 4278730005
-0.015389093 0.029222842 0.47900003 4278664212
-0.013804421 0.029161833 0.47800002 4278598419
-0.012251875 0.029161833 0.47800002 4278598419
-0.010676947 0.029100826 0.47700003 4278466833
-0.0091276504 0.029100826 0.47700003 4278466833
-0.0075783534 0.029100826 0.47700003 4278532113
-0.0060164174 0.029039817 0.47600001 4278859797
-0.0044703684 0.029039817 0.47600001 4278196999
-0.0029243196 0.029039817 0.47600001 4278858007
-0.0013782708 0.029039817 0.47600001 4278461966
0.00016777799 0.029039817 0.47600001 4278458377
0.0017138268 0.029039817 0.47600001 4278392330
0.0032598756 0.029039817 0.47600001 4278523146
0.0048059244 0.029039817 0.47600001 4278588939
0.0063519734 0.029039817 0.47600001 4278589193
0.0078980215 0.029039817 0.47600001 4278392584
0.009444071 0.029039817 0.47600001 4278458377
0.01099012 0.029039817 0.47600001 4278393095
0.012562505 0.029100826 0.47700003 4278262279
0.014111802 0.029100826 0.47700003 4278196480
0.0156611 0.029100826 0.47700003 4278197504
0.017210396 0.029100826 0.47700003 4278197762
0.018759692 0.029100826 0.47700003 4278198790
0.02030899 0.029100826 0.47700003 4278200331
0.021812461 0.029039817 0.47600001 4278464017
0.023358511 0.029039817 0.47600001 4278990359
0.024904558 0.029039817 0.47600001 4278990359
0.026450608 0.029039817 0.47600001 4278859797
0.027996656 0.029039817 0.47600001 4278662931
0.029542705 0.029039817 0.47600001 4278728724
0.031088753 0.029039817 0.47600001 4278400529
0.032634802 0.029039817 0.47600001 4278532115
0.034252662 0.029100826 0.47700003 4278730005
0.035801958 0.029100826 0.47700003 4278466833
0.037351254 0.029100826 0.47700003 4278598419
0.03890055 0.029100826 0.47700003 4278664210
0.04044985 0.029100826 0.47700003 4278730003
0.041999146 0.029100826 0.47700003 4278928152
0.043639734 0.029161833 0.47800002 4278599187
0.045192283 0.029161833 0.47800002 4278533908
0.046744827 0.029161833 0.47800002 4278665496
0.048297372 0.029161833 0.47800002 4278797082
0.049954206 0.029222842 0.47900003 4278862877
0.051509999 0.029222842 0.47900003 4278533658
0.053176578 0.02928385 0.48000002 4278402074
-0.023409896 0.031100448 0.48400003 4279383320
-0.021747623 0.030971935 0.48200002 4279056406
-0.020140216 0.030907677 0.48100004 4278991892
-0.018539302 0.03084342 0.48000002 4278861076
-0.016944887 0.030779164 0.47900003 4278795798
-0.015356964 0.030714905 0.47800002 4278664212
-0.013804421 0.030714905 0.47800002 4278664212
-0.012226244 0.030650649 0.47700003 4278466833
-0.010676947 0.030650649 0.47700003 4278598419
-0.0091085145 0.030586392 0.47600001 4278466833
-0.0075624655 0.030586392 0.47600001 4278663701
-0.0060164174 0.030586392 0.47600001 4279188508
-0.0044703684 0.030586392 0.47600001 4278723855
-0.0029243196 0.030586392 0.47600001 4278989847
-0.0013782708 0.030586392 0.47600001 4278196742
0.00016777799 0.030586392 0.47600001 4278918928
0.0017138268 0.030586392 0.47600001 4278588939
0.0032598756 0.030586392 0.47600001 4279181076
0.0048059244 0.030586392 0.47600001 4278720525
0.0063519734 0.030586392 0.47600001 4278983183
0.0078980215 0.030586392 0.47600001 4278654218
0.009444071 0.030586392 0.47600001 4278785804
0.01099012 0.030586392 0.47600001 4278851597
0.012562505 0.030650649 0.47700003 4278720011
0.014111802 0.030650649 0.47700003 4278263304
0.0156611 0.030650649 0.47700003 4279120920
0.017210396 0.030650649 0.47700003 4279055640
0.018759692 0.030650649 0.47700003 4279121433
0.02030899 0.030650649 0.47700003 4279055640
0.021858286 0.030650649 0.47700003 4279384092
0.023358511 0.030586392 0.47600001 4278857494
0.024904558 0.030586392 0.47600001 4278330380
0.026450608 0.030586392 0.47600001 4278264587
0.027996656 0.030586392 0.47600001 4278196224
0.029542705 0.030586392 0.47600001 4278194432
0.031088753 0.030586392 0.47600001 4278195968
0.032703366 0.030650649 0.47700003 4278198279
0.034252662 0.030650649 0.47700003 4278198536
0.035801958 0.030650649 0.47700003 4278595089
0.037351254 0.030650649 0.47700003 4279055638
0.03890055 0.030650649 0.47700003 4279122199
0.040534649 0.030714905 0.47800002 4278596625
0.042087194 0.030714905 0.47800002 4278794004
0.043639734 0.030714905 0.47800002 4278794517
0.045192283 0.030714905 0.47800002 4278466835
0.04684262 0.030779164 0.47900003 4278466835
0.048398416 0.030779164 0.47900003 4278467605
0.049954206 0.030779164 0.47900003 4278599191
0.051617533 0.03084342 0.48000002 4278862877
0.053176578 0.03084342 0.48000002 4278928416
0.054735616 0.03084342 0.48000002 4278993697
-0.023361526 0.032605506 0.48300001 4279384344
-0.021747623 0.032538 0.48200002 4278991381
-0.020140216 0.032470495 0.48100004 4278729490
-0.018539302 0.032402989 0.48000002 4278795283
-0.016944887 0.032335483 0.47900003 4278795796
-0.015356964 0.032267977 0.47800002 4278664210
-0.013804421 0.032267977 0.47800002 4278466833
-0.012226244 0.032200471 0.47700003 4278532628
-0.010676947 0.032200471 0.47700003 4278466835
-0.0091085145 0.032132965 0.47600001 4278597908
-0.0075624655 0.032132965 0.47600001 4278597908
-0.0060164174 0.032132965 0.47600001 4278859797
-0.0044703684 0.032132965 0.47600001 4278395660
-0.0029243196 0.032132965 0.47600001 4278727189
-0.0013782708 0.032132965 0.47600001 4278195971
0.00016777799 0.032132965 0.47600001 4279510811
0.0017138268 0.032132965 0.47600001 4279183129
0.0032598756 0.032132965 0.47600001 4278327304
0.0048059244 0.032132965 0.47600001 4278984721
0.0063519734 0.032132965 0.47600001 4278458377
0.0078980215 0.032132965 0.47600001 4278327304
0.009444071 0.032132965 0.47600001 4278260998
0.01099012 0.032132965 0.47600001 4278984721
0.012562505 0.032200471 0.47700003 4278655756
0.014111802 0.032200471 0.47700003 4279447580
0.0156611 0.032200471 0.47700003 4278858261
0.017210396 0.032200471 0.47700003 4278397710
0.018759692 0.032200471 0.47700003 4278197506
0.02030899 0.032200471 0.47700003 4278594322
0.021858286 0.032200471 0.47700003 4278661396
0.023407584 0.032200471 0.47700003 4278200845
0.02495688 0.032200471 0.47700003 4278727189
0.026506176 0.032200471 0.47700003 4278989847
0.028055474 0.032200471 0.47700003 4279121433
0.02960477 0.032200471 0.47700003 4278989845
0.031154066 0.032200471 0.47700003 4279187224
0.032703366 0.032200471 0.47700003 4279055638
0.034252662 0.032200471 0.47700003 4279121431
0.035801958 0.032200471 0.47700003 4279055638
0.03742956 0.032267977 0.47800002 4279055127
0.038982101 0.032267977 0.47800002 4278922771
0.040534649 0.032267977 0.47800002 4278264841
0.042087194 0.032267977 0.47800002 4278264587
0.043731034 0.032335483 0.47900003 4278195456
0.045286831 0.032335483 0.47900003 4278195968
0.04684262 0.032335483 0.47900003 4278596371
0.048398416 0.032335483 0.47900003 4278334995
0.050058495 0.032402989 0.48000002 4278532374
0.051617533 0.032402989 0.48000002 4278598167
0.053176578 0.032402989 0.48000002 4278664730
0.054735616 0.032402989 0.48000002 4278796316
0.056411941 0.032470495 0.48100004 4278201614
-0.023361526 0.034174822 0.48300001 4279319064
-0.021747623 0.034104068 0.48200002 4278860310
-0.020140216 0.034033313 0.48100004 4278795285
-0.018539302 0.033962559 0.48000002 4278992664
-0.016944887 0.033891805 0.47900003 4278795798
-0.015356964 0.033821046 0.47800002 4278598419
-0.013804421 0.033821046 0.47800002 4278532626
-0.012226244 0.033750292 0.47700003 4278664212
-0.010676947 0.033750292 0.47700003 4278664212
-0.0091276504 0.033750292 0.47700003 4278532626
-0.0075624655 0.033679534 0.47600001 4278532626
-0.0060164174 0.033679534 0.47600001 4278197248
-0.0044703684 0.033679534 0.47600001 4278197255
-0.0029243196 0.033679534 0.47600001 4279121179
-0.0013782708 0.033679534 0.47600001 4278262281
0.00016777799 0.033679534 0.47600001 4278524170
0.0017138268 0.033679534 0.47600001 4278260744
0.0032598756 0.033679534 0.47600001 4278720525
0.0048059244 0.033679534 0.47600001 4278524170
0.0063519734 0.033679534 0.47600001 4278786572
0.0078980215 0.033679534 0.47600001 4278392330
0.009444071 0.033679534 0.47600001 4279840030
0.01099012 0.033679534 0.47600001 4279907104
0.012562505 0.033750292 0.47700003 4278327302
0.014111802 0.033750292 0.47700003 4279777313
0.0156611 0.033750292 0.47700003 4279121433
0.017210396 0.033750292 0.47700003 4278262279
0.018759692 0.033750292 0.47700003 4278524170
0.02030899 0.033750292 0.47700003 4278328587
0.021858286 0.033750292 0.47700003 4278198539
0.023407584 0.033750292 0.47700003 4279121179
0.02495688 0.033750292 0.47700003 4278198792
0.026506176 0.033750292 0.47700003 4278198279
0.028055474 0.033750292 0.47700003 4279252252
0.02960477 0.033750292 0.47700003 4278660880
0.031154066 0.033750292 0.47700003 4278858259
0.032703366 0.033750292 0.47700003 4278727187
0.034252662 0.033750292 0.47700003 4278727957
0.035877012 0.033821046 0.47800002 4278596371
0.03742956 0.033821046 0.47800002 4278727187
0.038982101 0.033821046 0.47800002 4278858773
0.040534649 0.033821046 0.47800002 4278727187
0.042175245 0.033891805 0.47900003 4279121945
0.043731034 0.033891805 0.47900003 4278924566
0.045286831 0.033891805 0.47900003 4278330382
0.046940412 0.033962559 0.48000002 4279055640
0.048499454 0.033962559 0.48000002 4278597654
0.050058495 0.033962559 0.48000002 4278531861
0.051617533 0.033962559 0.48000002 4278400275
0.053287365 0.034033313 0.48100004 4278663447
0.054849651 0.034033313 0.48100004 4278597654
0.056411941 0.034033313 0.48100004 4278202639
-0.023361526 0.035744138 0.48300001 4279187738
-0.021747623 0.035670135 0.48200002 4278991896
-0.020140216 0.035596132 0.48100004 4278795287
-0.018539302 0.035522126 0.48000002 4278795800
-0.016944887 0.035448123 0.47900003 4278664214
-0.015389093 0.035448123 0.47900003 4278532628
-0.013804421 0.035374116 0.47800002 4278466835
-0.012251875 0.035374116 0.47800002 4278466833
-0.010676947 0.035300113 0.47700003 4278598419
-0.0091276504 0.035300113 0.47700003 4278335247
-0.0075783534 0.035300113 0.47700003 4278597908
-0.0060164174 0.035226107 0.47600001 4278925336
-0.0044703684 0.035226107 0.47600001 4279251736
-0.0029243196 0.035226107 0.47600001 4279187226
-0.0013782708 0.035226107 0.47600001 4278196744
0.00016777799 0.035226107 0.47600001 4278524170
0.0017138268 0.035226107 0.47600001 4278720525
0.0032598756 0.035226107 0.47600001 4278654732
0.0048059244 0.035226107 0.47600001 4278720011
0.0063519734 0.035226107 0.47600001 4278720013
0.0078980215 0.035226107 0.47600001 4278720013
0.009444071 0.035226107 0.47600001 4278654218
0.01099012 0.035226107 0.47600001 4278589193
0.012562505 0.035300113 0.47700003 4278523400
0.014111802 0.035300113 0.47700003 4279908899
0.0156611 0.035300113 0.47700003 4278989847
0.017210396 0.035300113 0.47700003 4278195207
0.018759692 0.035300113 0.47700003 4278654986
0.02030899 0.035300113 0.47700003 4279052310
0.021858286 0.035300113 0.47700003 4278197768
0.023407584 0.035300113 0.47700003 4278858009
0.02495688 0.035300113 0.47700003 4278529042
0.026506176 0.035300113 0.47700003 4278397456
0.028055474 0.035300113 0.47700003 4279187226
0.02960477 0.035300113 0.47700003 4278594576
0.031154066 0.035300113 0.47700003 4278197766
0.032703366 0.035300113 0.47700003 4278198023
0.034324467 0.035374116 0.47800002 4278330380
0.035877012 0.035374116 0.47800002 4278265357
0.03742956 0.035374116 0.47800002 4278265357
0.039063655 0.035448123 0.47900003 4278529296
0.040619452 0.035448123 0.47900003 4278198018
0.042175245 0.035448123 0.47900003 4278661394
0.043822329 0.035522126 0.48000002 4278596371
0.045381371 0.035522126 0.48000002 4278195968
0.046940412 0.035522126 0.48000002 4278858261
0.048499454 0.035522126 0.48000002 4278662677
0.050162785 0.035596132 0.48100004 4278531861
0.051725071 0.035596132 0.48100004 4278597654
0.053287365 0.035596132 0.48100004 4278663447
0.054849651 0.035596132 0.48100004 4278531861
0.056411941 0.035596132 0.48100004 4278333714
-0.030495699 0.038395002 0.49700001 4284774505
-0.02841655 0.037776977 0.48900002 4284381543
-0.026718551 0.03762247 0.48700002 4284184164
-0.023361526 0.037313454 0.48300001 4279254816
-0.021747623 0.037236203 0.48200002 4278925851
-0.020140216 0.037158951 0.48100004 4278927132
-0.018539302 0.037081696 0.48000002 4278598167
-0.016944887 0.037004441 0.47900003 4278795546
-0.015389093 0.037004441 0.47900003 4278334995
-0.013804421 0.036927186 0.47800002 4278334995
-0.012251875 0.036927186 0.47800002 4278664214
-0.010699331 0.036927186 0.47800002 4278598419
-0.0091276504 0.036849935 0.47700003 4278532626
-0.0075783534 0.036849935 0.47700003 4278203150
-0.0060290569 0.036849935 0.47700003 4278200329
-0.0044797603 0.036849935 0.47700003 4278198789
-0.0029304633 0.036849935 0.47700003 4278727441
-0.0013782708 0.03677268 0.47600001 4278990613
0.00016777799 0.03677268 0.47600001 4279779361
0.0017138268 0.03677268 0.47600001 4279647777
0.0032598756 0.03677268 0.47600001 4279252252
0.0048059244 0.03677268 0.47600001 4279382557
0.0063519734 0.03677268 0.47600001 4278789650
0.0078980215 0.03677268 0.47600001 4278787855
0.009444071 0.03677268 0.47600001 4278393097
0.01099012 0.03677268 0.47600001 4278195205
0.012536168 0.03677268 0.47600001 4278194178
0.014111802 0.036849935 0.47700003 4279513371
0.0156611 0.036849935 0.47700003 4278395660
0.017210396 0.036849935 0.47700003 4279184408
0.018759692 0.036849935 0.47700003 4279644445
0.02030899 0.036849935 0.47700003 4279448348
0.021858286 0.036849935 0.47700003 4279448861
0.023407584 0.036849935 0.47700003 4279054873
0.02495688 0.036849935 0.47700003 4279055640
0.026506176 0.036849935 0.47700003 4279187740
0.028055474 0.036849935 0.47700003 4278989847
0.02960477 0.036849935 0.47700003 4278989847
0.031154066 0.036849935 0.47700003 4278595089
0.032703366 0.036849935 0.47700003 4279055127
0.034324467 0.036927186 0.47800002 4279055127
0.035877012 0.036927186 0.47800002 4278198023
0.037507866 0.037004441 0.47900003 4278198537
0.039063655 0.037004441 0.47900003 4278988310
0.040619452 0.037004441 0.47900003 4278988310
0.042263292 0.037081696 0.48000002 4278199820
0.043822329 0.037081696 0.48000002 4279056924
0.045475919 0.037158951 0.48100004 4278196480
0.047038205 0.037158951 0.48100004 4279121431
0.048600499 0.037158951 0.48100004 4278794517
0.050162785 0.037158951 0.48100004 4278662931
0.051832609 0.037236203 0.48200002 4278597654
0.053398147 0.037236203 0.48200002 4278597654
0.054963682 0.037236203 0.48200002 4278597656
0.05652922 0.037236203 0.48200002 4279254562
-0.03043434 0.039929304 0.49600002 4285103470
-0.028590884 0.039607294 0.49200001 4284249444
-0.026773416 0.039285287 0.48800004 4284315237
-0.025085159 0.03912428 0.48600003 4283986272
-0.023409896 0.038963273 0.48400003 4278726423
-0.021747623 0.03880227 0.48200002 4278990109
-0.020140216 0.038721766 0.48100004 4279320355
-0.018539302 0.038641263 0.48000002 4278860828
-0.016980261 0.038641263 0.48000002 4279189793
-0.015389093 0.038560763 0.47900003 4278992414
-0.0138333 0.038560763 0.47900003 4278860826
-0.012251875 0.038480259 0.47800002 4278729240
-0.010699331 0.038480259 0.47800002 4278663447
-0.0091467863 0.038480259 0.47800002 4278729240
-0.0075783534 0.038399756 0.47700003 4278663447
-0.0060290569 0.038399756 0.47700003 4278531861
-0.0044797603 0.038399756 0.47700003 4278925336
-0.0029304633 0.038399756 0.47700003 4278794004
-0.0013811664 0.038399756 0.47700003 4278662931
0.00016813047 0.038399756 0.47700003 4278794517
0.0017174273 0.038399756 0.47700003 4278860310
0.0032598756 0.038319252 0.47600001 4278662931
0.0048059244 0.038319252 0.47600001 4278662931
0.0063519734 0.038319252 0.47600001 4278728470
0.0078980215 0.038319252 0.47600001 4278925336
0.009444071 0.038319252 0.47600001 4278727957
0.01099012 0.038319252 0.47600001 4278924566
0.012536168 0.038319252 0.47600001 4279056152
0.014082218 0.038319252 0.47600001 4279186711
0.015628267 0.038319252 0.47600001 4278923541
0.017174315 0.038319252 0.47600001 4279186713
0.018720362 0.038319252 0.47600001 4279120666
0.020266412 0.038319252 0.47600001 4279383068
0.021812461 0.038319252 0.47600001 4278461966
0.023358511 0.038319252 0.47600001 4278195968
0.024904558 0.038319252 0.47600001 4278195712
0.026506176 0.038399756 0.47700003 4278195456
0.028055474 0.038399756 0.47700003 4278194688
0.02960477 0.038399756 0.47700003 4278196481
0.031154066 0.038399756 0.47700003 4278397197
0.032703366 0.038399756 0.47700003 4278923541
0.034324467 0.038480259 0.47800002 4278857748
0.035877012 0.038480259 0.47800002 4279252506
0.037507866 0.038560763 0.47900003 4278923539
0.039063655 0.038560763 0.47900003 4279120918
0.04070425 0.038641263 0.48000002 4279055125
0.042263292 0.038641263 0.48000002 4279121945
0.043913629 0.038721766 0.48100004 4278595601
0.045475919 0.038721766 0.48100004 4278198794
0.047135998 0.03880227 0.48200002 4278924568
0.048701536 0.03880227 0.48200002 4278860056
0.050267071 0.03880227 0.48200002 4278728470
0.051832609 0.03880227 0.48200002 4278728470
0.053398147 0.03880227 0.48200002 4279255584
0.055077713 0.03888277 0.48300001 4278662679
0.05652922 0.03880227 0.48200002 4278332947
-0.030495699 0.041624609 0.49700001 4284971882
-0.028707108 0.041373357 0.49400002 4284052063
-0.02682828 0.040954597 0.48900002 4284052065
-0.025136774 0.040787093 0.48700002 4284512616
-0.023409896 0.040535841 0.48400003 4284447336
-0.021792741 0.040452085 0.48300001 4285105266
-0.020182086 0.040368337 0.48200002 4283329887
-0.018577926 0.040284585 0.48100004 4281028415
-0.016980261 0.040200833 0.48000002 4279121183
-0.015389093 0.040117081 0.47900003 4278792216
-0.0138333 0.040117081 0.47900003 4278858523
-0.012277507 0.040117081 0.47900003 4279187488
-0.010699331 0.040033329 0.47800002 4279319074
-0.0091467863 0.040033329 0.47800002 4279055902
-0.0075942408 0.040033329 0.47800002 4279056924
-0.0060290569 0.039949577 0.47700003 4278991131
-0.0044797603 0.039949577 0.47700003 4279056922
-0.0029304633 0.039949577 0.47700003 4278925336
-0.0013811664 0.039949577 0.47700003 4278859797
0.00016813047 0.039949577 0.47700003 4278859797
0.0017174273 0.039949577 0.47700003 4278596625
0.0032667241 0.039949577 0.47700003 4278794004
0.0048059244 0.039865825 0.47600001 4278794517
0.0063519734 0.039865825 0.47600001 4278662931
0.0078980215 0.039865825 0.47600001 4278728724
0.009444071 0.039865825 0.47600001 4278926103
0.01099012 0.039865825 0.47600001 4278794517
0.012536168 0.039865825 0.47600001 4278794517
0.014082218 0.039865825 0.47600001 4278925590
0.015628267 0.039865825 0.47600001 4278794004
0.017174315 0.039865825 0.47600001 4278728211
0.018720362 0.039865825 0.47600001 4278794004
0.020266412 0.039865825 0.47600001 4278728211
0.021812461 0.039865825 0.47600001 4278859797
0.023358511 0.039865825 0.47600001 4278990613
0.024904558 0.039865825 0.47600001 4278924820
0.026450608 0.039865825 0.47600001 4278924566
0.027996656 0.039865825 0.47600001 4279055638
0.02960477 0.039949577 0.47700003 4279121431
0.031154066 0.039949577 0.47700003 4279121431
0.032703366 0.039949577 0.47700003 4279252506
0.034324467 0.040033329 0.47800002 4279120920
0.035877012 0.040033329 0.47800002 4278857748
0.037507866 0.040117081 0.47900003 4278462220
0.039063655 0.040117081 0.47900003 4278395914
0.04070425 0.040200833 0.48000002 4278196224
0.042351339 0.040284585 0.48100004 4278194688
0.043913629 0.040284585 0.48100004 4278195200
0.045570463 0.040368337 0.48200002 4278792214
0.047135998 0.040368337 0.48200002 4278859545
0.048802577 0.040452085 0.48300001 4278794265
0.05037136 0.040452085 0.48300001 4278662677
0.051940143 0.040452085 0.48300001 4278728470
0.05350893 0.040452085 0.48300001 4278729240
0.055077713 0.040452085 0.48300001 4278794265
0.0566465 0.040452085 0.48300001 4280041772
-0.030618418 0.043413416 0.49900001 4284971882
-0.028823331 0.043152414 0.49600002 4283985500
-0.026883142 0.042630408 0.49000001 4283986270
-0.025136774 0.042369407 0.48700002 4284315235
-0.023409896 0.042108405 0.48400003 4284381028
-0.021792741 0.042021401 0.48300001 4284447334
-0.020182086 0.041934405 0.48200002 4284644715
-0.018577926 0.041847404 0.48100004 4284710254
-0.016980261 0.0417604 0.48000002 4285105526
-0.01542122 0.0417604 0.48000002 4284843124
-0.0138333 0.0416734 0.47900003 4285039733
-0.012277507 0.0416734 0.47900003 4285237112
-0.010699331 0.041586399 0.47800002 4285172341
-0.0091467863 0.041586399 0.47800002 4284514924
-0.0075942408 0.041586399 0.47800002 4283198812
-0.0060416963 0.041586399 0.47800002 4281093690
-0.0044797603 0.041499399 0.47700003 4279514143
-0.0029304633 0.041499399 0.47700003 4278857494
-0.0013811664 0.041499399 0.47700003 4278397456
0.00016813047 0.041499399 0.47700003 4278529556
0.0017174273 0.041499399 0.47700003 4279252765
0.0032667241 0.041499399 0.47700003 4278989847
0.0048160208 0.041499399 0.47700003 4278990361
0.0063519734 0.041412398 0.47600001 4279188510
0.0078980215 0.041412398 0.47600001 4279056924
0.009444071 0.041412398 0.47600001 4278991129
0.01099012 0.041412398 0.47600001 4278859543
0.012536168 0.041412398 0.47600001 4279188508
0.014082218 0.041412398 0.47600001 4278728211
0.015628267 0.041412398 0.47600001 4278859797
0.017174315 0.041412398 0.47600001 4278859797
0.018720362 0.041412398 0.47600001 4278794517
0.020266412 0.041412398 0.47600001 4278794517
0.021812461 0.041412398 0.47600001 4278794517
0.023358511 0.041412398 0.47600001 4278728724
0.024904558 0.041412398 0.47600001 4278860310
0.026450608 0.041412398 0.47600001 4278728724
0.027996656 0.041412398 0.47600001 4278728724
0.029542705 0.041412398 0.47600001 4278859797
0.031154066 0.041499399 0.47700003 4279254301
0.032703366 0.041499399 0.47700003 4278859543
0.034324467 0.041586399 0.47800002 4278859543
0.035877012 0.041586399 0.47800002 4278793750
0.037507866 0.0416734 0.47900003 4278793750
0.039145209 0.0417604 0.48000002 4279056152
0.04070425 0.0417604 0.48000002 4279056152
0.042351339 0.041847404 0.48100004 4278924568
0.043913629 0.041847404 0.48100004 4278924568
0.045570463 0.041934405 0.48200002 4278990361
0.04723379 0.042021401 0.48300001 4278991131
0.048802577 0.042021401 0.48300001 4278794265
0.05037136 0.042021401 0.48300001 4278860058
0.052047681 0.042108405 0.48400003 4278925851
0.053619716 0.042108405 0.48400003 4278794265
0.055191748 0.042108405 0.48400003 4279121183
0.0566465 0.042021401 0.48300001 4284646258
-0.028997665 0.045034721 0.49900001 4284642917
-0.027486643 0.045215223 0.50100005 4283920479
-0.023409896 0.043680973 0.48400003 4284249442
-0.021792741 0.043590721 0.48300001 4284578407
-0.020182086 0.043500472 0.48200002 4284578409
-0.018577926 0.043410223 0.48100004 4284709741
0.0017174273 0.043049224 0.47700003 4282145865
0.0032667241 0.043049224 0.47700003 4283790436
0.0048160208 0.043049224 0.47700003 4283790690
0.0063519734 0.042958971 0.47600001 4283461723
0.0078980215 0.042958971 0.47600001 4282475341
0.009444071 0.042958971 0.47600001 4281027895
0.01099012 0.042958971 0.47600001 4279646760
0.012536168 0.042958971 0.47600001 4278923291
0.014082218 0.042958971 0.47600001 4278594324
0.015628267 0.042958971 0.47600001 4278923289
0.017174315 0.042958971 0.47600001 4278989595
0.018720362 0.042958971 0.47600001 4279186974
0.020266412 0.042958971 0.47600001 4279252767
0.021812461 0.042958971 0.47600001 4279252767
0.023358511 0.042958971 0.47600001 4279055902
0.024904558 0.042958971 0.47600001 4279121693
0.026450608 0.042958971 0.47600001 4278924314
0.027996656 0.042958971 0.47600001 4278990107
0.029542705 0.042958971 0.47600001 4279055900
0.031154066 0.043049224 0.47700003 4279187740
0.032703366 0.043049224 0.47700003 4279056154
0.034324467 0.043139473 0.47800002 4279516705
0.035877012 0.043139473 0.47800002 4279121947
0.037507866 0.043229725 0.47900003 4279187740
0.039145209 0.043319974 0.48000002 4278991131
0.04070425 0.043319974 0.48000002 4278925338
0.042351339 0.043410223 0.48100004 4278925084
0.044004925 0.043500472 0.48200002 4278991131
0.045570463 0.043500472 0.48200002 4278991131
0.04723379 0.043590721 0.48300001 4278991131
0.048903618 0.043680973 0.48400003 4278727959
0.05047565 0.043680973 0.48400003 4278991131
0.052047681 0.043680973 0.48400003 4279056924
0.053619716 0.043680973 0.48400003 4278991131
0.055191748 0.043680973 0.48400003 4282540882
0.056763783 0.043680973 0.48400003 4284644975
-0.029113891 0.046843026 0.50100005 4284511333
-0.027541505 0.046936523 0.50200003 4283788893
0.020223835 0.044412047 0.47500002 4285238395
0.021766638 0.044412047 0.47500002 4284646258
0.023358511 0.044505544 0.47600001 4284514672
0.024904558 0.044505544 0.47600001 4284119914
0.026450608 0.044505544 0.47600001 4283725410
0.027996656 0.044505544 0.47600001 4282935894
0.029542705 0.044505544 0.47600001 4282277710
0.031154066 0.044599045 0.47700003 4281882952
0.032703366 0.044599045 0.47700003 4281619780
0.034324467 0.044692542 0.47800002 4280698678
0.035877012 0.044692542 0.47800002 4280106541
0.037507866 0.044786043 0.47900003 4279909162
0.039145209 0.044879541 0.48000002 4279449894
0.04070425 0.044879541 0.48000002 4279252515
0.042351339 0.044973042 0.48100004 4279186722
0.044004925 0.045066539 0.48200002 4279318308
0.045665007 0.045160037 0.48300001 4279186974
0.04723379 0.045160037 0.48300001 4279055388
0.048903618 0.045253538 0.48400003 4278923287
0.05047565 0.045253538 0.48400003 4279647010
0.052047681 0.045253538 0.48400003 4281488448
0.053730499 0.045347035 0.48500001 4284974712
0.055305779 0.045347035 0.48500001 4284644975
-0.029172001 0.048567571 0.50200003 4284181598
0.012478685 0.034210287 0.47885305 4294967295
0.012478685 0.034210287 0.47885305 4294901760
0.012516961 0.03371181 0.47886047 4294901760
0.012555235 0.033213332 0.47886792 4294901760
0.012593511 0.032714855 0.47887534 4294901760
0.012631785 0.032216378 0.47888276 4294901760
0.012670061 0.0317179 0.47889021 4294901760
0.012708336 0.031219423 0.47889763 4294901760
0.012746611 0.030720945 0.47890508 4294901760
0.012784886 0.030222468 0.4789125 4294901760
0.012823162 0.029723989 0.47891992 4294901760
0.012861436 0.029225511 0.47892737 4294901760
0.012899712 0.028727034 0.47893479 4294901760
0.012937986 0.028228557 0.47894222 4294901760
0.012976262 0.027730079 0.47894967 4294901760
0.013014537 0.027231602 0.47895709 4294901760
0.013052812 0.026733125 0.47896451 4294901760
0.013091087 0.026234647 0.47897196 4294901760
0.013129363 0.02573617 0.47897938 4294901760
0.013167637 0.025237691 0.4789868 4294901760
0.013205913 0.024739215 0.47899425 4294901760
0.013244187 0.024240736 0.47900167 4294901760
0.013282463 0.02374226 0.47900912 4294901760
0.013320738 0.023243781 0.47901654 4294901760
0.013359013 0.022745304 0.47902396 4294901760
0.013397289 0.022246826 0.47903141 4294901760
0.013435563 0.021748349 0.47903883 4294901760
0.013473839 0.021249872 0.47904626 4294901760
0.013512114 0.020751394 0.47905371 4294901760
0.013550389 0.020252917 0.47906113 4294901760
0.013588664 0.01975444 0.47906855 4294901760
0.01362694 0.019255962 0.479076 4294901760
0.013665214 0.018757485 0.47908342 4294901760
0.01370349 0.018259007 0.47909087 4294901760
0.013741765 0.01776053 0.47909829 4294901760
0.01378004 0.017262053 0.47910571 4294901760
0.013818315 0.016763575 0.47911316 4294901760
0.01385659 0.016265096 0.47912058 4294901760
0.013894865 0.015766621 0.479128 4294901760
0.013933141 0.015268143 0.47913545 4294901760
0.013971415 0.014769666 0.47914287 4294901760
0.014009691 0.014271187 0.4791503 4294901760
0.014047965 0.013772711 0.47915775 4294901760
0.014086241 0.013274234 0.47916517 4294901760
0.014124516 0.012775755 0.47917259 4294901760
0.014162791 0.012277277 0.47918004 4294901760
0.014201066 0.011778802 0.47918746 4294901760
0.014239341 0.011280322 0.47919491 4294901760
0.014277617 0.010781845 0.47920233 4294901760
0.014315892 0.010283368 0.47920975 4294901760
0.014354167 0.0097848903 0.4792172 4294901760
0.014392442 0.009286413 0.47922462 4294901760
0.014430718 0.0087879356 0.47923204 4294901760
0.014468992 0.0082894582 0.47923949 4294901760
0.014507268 0.0077909827 0.47924691 4294901760
0.014545543 0.0072925016 0.47925434 4294901760
0.014583818 0.0067940243 0.47926179 4294901760
0.014622093 0.0062955488 0.47926921 4294901760
0.014660368 0.0057970714 0.47927666 4294901760
0.014698643 0.005298594 0.47928408 4294901760
0.014736919 0.0048001166 0.4792915 4294901760
0.014775193 0.0043016374 0.47929895 4294901760
0.014813469 0.00380316 0.47930637 4294901760
0.014851743 0.0033046827 0.47931379 4294901760
0.014890019 0.0028062053 0.47932124 4294901760
0.014928294 0.0023077279 0.47932866 4294901760
0.014966569 0.0018092506 0.47933608 4294901760
0.015004844 0.0013107732 0.47934353 4294901760
0.015043119 0.00081229582 0.47935095 4294901760
0.015081394 0.00031381845 0.47935838 4294901760
0.01511967 -0.00018465891 0.47936583 4294901760
0.015157945 -0.00068313628 0.47937325 4294901760
0.01519622 -0.0011816137 0.4793807 4294901760
0.015234496 -0.0016800947 0.47938812 4294901760
0.01527277 -0.0021785684 0.47939554 4294901760
0.015311046 -0.0026770458 0.47940299 4294901760
0.015349321 -0.0031755231 0.47941041 4294901760
0.015387596 -0.0036740005 0.47941783 4294901760
0.015425871 -0.0041724779 0.47942528 4294901760
0.015464146 -0.0046709552 0.4794327 4294901760
0.015502421 -0.0051694363 0.47944012 4294901760
0.015540697 -0.0056679137 0.47944757 4294901760
0.015578971 -0.0061663873 0.47945499 4294901760
0.015617247 -0.0066648647 0.47946244 4294901760
0.015655521 -0.0071633421 0.47946987 4294901760
0.015693797 -0.0076618195 0.47947729 4294901760
0.015732072 -0.0081603006 0.47948474 4294901760
0.015770348 -0.0086587779 0.47949216 4294901760
0.015808623 -0.0091572553 0.47949958 4294901760
0.015846897 -0.0096557327 0.47950703 4294901760
0.015885172 -0.010154206 0.47951445 4294901760
0.015923448 -0.010652684 0.47952187 4294901760
0.015961723 -0.011151165 0.47952932 4294901760
0.015999999 -0.011649642 0.47953674 4294901760
0.016038273 -0.01214812 0.47954416 4294901760
0.016076548 -0.012646597 0.47955161 4294901760
0.016114824 -0.013145074 0.47955903 4294901760
0.016153099 -0.013643552 0.47956648 4294901760
0.016191375 -0.014142029 0.47957391 4294901760
0.016229648 -0.014640506 0.47958133 4294901760
0.016267924 -0.015138984 0.47958878 4294901760
0.016306199 -0.015637461 0.4795962 4294901760
0.012478685 0.034210287 0.47885305 4278255360
0.012976928 0.034248281 0.4788354 4278255360
0.01347517 0.034286276 0.47881779 4278255360
0.013973413 0.03432427 0.47880015 4278255360
0.014471656 0.034362264 0.47878253 4278255360
0.014969898 0.034400258 0.47876489 4278255360
0.015468141 0.034438252 0.47874728 4278255360
0.015966384 0.034476247 0.47872964 4278255360
0.016464626 0.034514241 0.47871202 4278255360
0.016962869 0.034552235 0.47869438 4278255360
0.017461112 0.034590229 0.47867677 4278255360
0.017959353 0.034628224 0.47865912 4278255360
0.018457595 0.034666218 0.47864151 4278255360
0.018955838 0.034704212 0.47862387 4278255360
0.019454081 0.034742206 0.47860625 4278255360
0.019952323 0.034780201 0.47858861 4278255360
0.020450566 0.034818195 0.478571 4278255360
0.020948809 0.034856189 0.47855335 4278255360
0.021447051 0.034894183 0.47853574 4278255360
0.021945294 0.034932178 0.4785181 4278255360
0.022443537 0.034970172 0.47850049 4278255360
0.022941779 0.035008166 0.47848284 4278255360
0.023440022 0.03504616 0.47846523 4278255360
0.023938265 0.035084154 0.47844759 4278255360
0.024436507 0.035122149 0.47842997 4278255360
0.02493475 0.035160147 0.47841233 4278255360
0.025432993 0.035198137 0.47839469 4278255360
0.025931235 0.035236135 0.47837707 4278255360
0.026429478 0.035274129 0.47835943 4278255360
0.026927721 0.035312124 0.47834182 4278255360
0.027425963 0.035350118 0.47832417 4278255360
0.027924206 0.035388112 0.47830656 4278255360
0.028422449 0.035426106 0.47828892 4278255360
0.028920691 0.035464101 0.47827131 4278255360
0.029418934 0.035502095 0.47825366 4278255360
0.029917175 0.035540089 0.47823605 4278255360
0.030415419 0.035578083 0.47821841 4278255360
0.030913662 0.035616077 0.47820079 4278255360
0.031411901 0.035654072 0.47818315 4278255360
0.031910144 0.035692066 0.47816554 4278255360
0.03240839 0.03573006 0.47814789 4278255360
0.032906629 0.035768054 0.47813028 4278255360
0.033404872 0.035806049 0.47811264 4278255360
0.033903114 0.035844043 0.47809502 4278255360
0.034401357 0.035882037 0.47807738 4278255360
0.0348996 0.035920031 0.47805977 4278255360
0.035397843 0.035958026 0.47804213 4278255360
0.035896085 0.03599602 0.47802451 4278255360
0.036394328 0.036034014 0.47800687 4278255360
0.036892571 0.036072008 0.47798926 4278255360
0.037390813 0.036110003 0.47797161 4278255360
0.037889056 0.036147997 0.47795397 4278255360
0.038387299 0.036185991 0.47793636 4278255360
0.038885541 0.036223985 0.47791871 4278255360
0.039383784 0.036261979 0.4779011 4278255360
0.039882027 0.036299974 0.47788346 4278255360
0.040380269 0.036337968 0.47786584 4278255360
0.040878512 0.036375962 0.4778482 4278255360
0.041376755 0.036413956 0.47783059 4278255360
0.041874997 0.036451951 0.47781295 4278255360
0.04237324 0.036489945 0.47779533 4278255360
0.042871483 0.036527939 0.47777769 4278255360
0.043369725 0.036565933 0.47776008 4278255360
0.043867968 0.036603928 0.47774243 4278255360
0.044366211 0.036641922 0.47772482 4278255360
0.044864453 0.036679916 0.47770718 4278255360
0.045362696 0.03671791 0.47768956 4278255360
0.045860939 0.036755905 0.47767192 4278255360
0.046359181 0.036793899 0.47765431 4278255360
0.046857424 0.036831893 0.47763667 4278255360
0.047355667 0.036869887 0.47761905 4278255360
0.047853909 0.036907881 0.47760141 4278255360
0.048352152 0.036945879 0.4775838 4278255360
0.048850395 0.03698387 0.47756615 4278255360
0.049348637 0.037021868 0.47754854 4278255360
0.04984688 0.037059858 0.4775309 4278255360
0.050345123 0.037097856 0.47751325 4278255360
0.050843365 0.037135847 0.47749564 4278255360
0.051341608 0.037173845 0.477478 4278255360
0.051839851 0.037211839 0.47746038 4278255360
0.052338094 0.037249833 0.47744274 4278255360
0.052836336 0.037287828 0.47742513 4278255360
0.053334579 0.037325822 0.47740749 4278255360
0.053832822 0.037363816 0.47738987 4278255360
0.054331064 0.03740181 0.47737223 4278255360
0.054829307 0.037439805 0.47735462 4278255360
0.05532755 0.037477799 0.47733697 4278255360
0.055825792 0.037515793 0.47731936 4278255360
0.056324035 0.037553787 0.47730172 4278255360
0.056822278 0.037591781 0.4772841 4278255360
0.05732052 0.037629776 0.47726646 4278255360
0.057818763 0.03766777 0.47724885 4278255360
0.058317006 0.037705764 0.4772312 4278255360
0.058815248 0.037743758 0.47721359 4278255360
0.059313491 0.037781753 0.47719595 4278255360
0.059811734 0.037819747 0.47717834 4278255360
0.060309976 0.037857741 0.47716069 4278255360
0.060808219 0.037895735 0.47714308 4278255360
0.061306462 0.03793373 0.47712544 4278255360
0.061804704 0.037971724 0.47710782 4278255360
0.062302947 0.038009718 0.47709018 4278255360
0.012478685 0.034210287 0.47885305 4278190335
0.012460856 0.034216367 0.47935268 4278190335
0.012443027 0.034222446 0.47985235 4278190335
0.012425197 0.034228526 0.48035198 4278190335
0.012407368 0.034234606 0.48085162 4278190335
0.012389539 0.034240685 0.48135126 4278190335
0.01237171 0.034246765 0.48185092 4278190335
0.012353881 0.034252845 0.48235056 4278190335
0.012336052 0.034258924 0.48285019 4278190335
0.012318223 0.034265004 0.48334986 4278190335
0.012300394 0.034271084 0.4838495 4278190335
0.012282564 0.034277167 0.48434913 4278190335
0.012264735 0.034283247 0.4848488 4278190335
0.012246906 0.034289327 0.48534843 4278190335
0.012229077 0.034295406 0.48584807 4278190335
0.012211247 0.034301486 0.48634773 4278190335
0.012193418 0.034307566 0.48684737 4278190335
0.012175589 0.034313645 0.48734701 4278190335
0.01215776 0.034319725 0.48784664 4278190335
0.012139931 0.034325805 0.48834631 4278190335
0.012122102 0.034331884 0.48884594 4278190335
0.012104273 0.034337964 0.48934558 4278190335
0.012086444 0.034344044 0.48984525 4278190335
0.012068614 0.034350123 0.49034488 4278190335
0.012050785 0.034356203 0.49084452 4278190335
0.012032956 0.034362283 0.49134415 4278190335
0.012015127 0.034368362 0.49184382 4278190335
0.011997297 0.034374442 0.49234346 4278190335
0.011979468 0.034380522 0.49284309 4278190335
0.011961639 0.034386601 0.49334276 4278190335
0.01194381 0.034392685 0.49384239 4278190335
0.01192598 0.034398764 0.49434203 4278190335
0.011908152 0.034404844 0.49484169 4278190335
0.011890323 0.034410924 0.49534133 4278190335
0.011872494 0.034417003 0.49584097 4278190335
0.011854664 0.034423083 0.49634063 4278190335
0.011836835 0.034429163 0.49684027 4278190335
0.011819006 0.034435242 0.4973399 4278190335
0.011801177 0.034441322 0.49783954 4278190335
0.011783347 0.034447402 0.49833921 4278190335
0.011765518 0.034453481 0.49883884 4278190335
0.011747689 0.034459561 0.49933848 4278190335
0.01172986 0.034465641 0.49983814 4278190335
0.011712031 0.03447172 0.50033778 4278190335
0.011694202 0.0344778 0.50083745 4278190335
0.011676373 0.03448388 0.50133705 4278190335
0.011658544 0.034489959 0.50183672 4278190335
0.011640714 0.034496039 0.50233638 4278190335
0.011622885 0.034502119 0.50283599 4278190335
0.011605056 0.034508198 0.50333565 4278190335
0.011587227 0.034514278 0.50383532 4278190335
0.011569398 0.034520362 0.50433493 4278190335
0.011551568 0.034526441 0.50483459 4278190335
0.011533739 0.034532521 0.5053342 4278190335
0.01151591 0.034538601 0.50583386 4278190335
0.011498081 0.03454468 0.50633353 4278190335
0.011480251 0.03455076 0.50683314 4278190335
0.011462423 0.03455684 0.5073328 4278190335
0.011444594 0.034562919 0.50783247 4278190335
0.011426765 0.034568999 0.50833207 4278190335
0.011408935 0.034575079 0.50883174 4278190335
0.011391106 0.034581158 0.50933141 4278190335
0.011373277 0.034587238 0.50983101 4278190335
0.011355448 0.034593318 0.51033068 4278190335
0.011337618 0.034599397 0.51083034 4278190335
0.011319789 0.034605477 0.51132995 4278190335
0.01130196 0.034611557 0.51182961 4278190335
0.011284131 0.034617636 0.51232928 4278190335
0.011266301 0.034623716 0.51282889 4278190335
0.011248473 0.034629796 0.51332855 4278190335
0.011230644 0.034635879 0.51382816 4278190335
0.011212815 0.034641959 0.51432782 4278190335
0.011194985 0.034648038 0.51482749 4278190335
0.011177156 0.034654118 0.5153271 4278190335
0.011159327 0.034660198 0.51582676 4278190335
0.011141498 0.034666277 0.51632643 4278190335
0.011123668 0.034672357 0.51682603 4278190335
0.011105839 0.034678437 0.5173257 4278190335
0.01108801 0.034684516 0.51782537 4278190335
0.011070181 0.034690596 0.51832497 4278190335
0.011052351 0.034696676 0.51882464 4278190335
0.011034522 0.034702756 0.5193243 4278190335
0.011016694 0.034708835 0.51982391 4278190335
0.010998865 0.034714915 0.52032357 4278190335
0.010981035 0.034720995 0.52082324 4278190335
0.010963206 0.034727074 0.52132285 4278190335
0.010945377 0.034733154 0.52182251 4278190335
0.010927548 0.034739234 0.52232218 4278190335
0.010909718 0.034745313 0.52282178 4278190335
0.010891889 0.034751393 0.52332145 4278190335
0.01087406 0.034757473 0.52382112 4278190335
0.010856231 0.034763556 0.52432072 4278190335
0.010838402 0.034769636 0.52482039 4278190335
0.010820572 0.034775715 0.52531999 4278190335
0.010802744 0.034781795 0.52581966 4278190335
0.010784915 0.034787875 0.52631932 4278190335
0.010767085 0.034793954 0.52681893 4278190335
0.010749256 0.034800034 0.5273186 4278190335
0.010731427 0.034806114 0.52781826 4278190335
0.010713598 0.034812193 0.52831787 4278190335
0.010695769 0.034818273 0.52881753 4278190335
0.012478685 0.034210287 0.47885305 4294967295
0.01258566 0.034173809 0.47585517 4294967295
0.012692635 0.034137327 0.4728573 4294967295
0.01279961 0.034100849 0.46985945 4294967295
0.012906585 0.034064371 0.46686158 4294967295
0.01301356 0.034027893 0.4638637 4294967295
0.013120535 0.033991411 0.46086583 4294967295
0.01322751 0.033954933 0.45786795 4294967295
0.013334485 0.033918455 0.45487007 4294967295
0.01344146 0.033881977 0.45187223 4294967295
0.013548435 0.033845495 0.44887435 4294967295
0.01365541 0.033809017 0.44587648 4294967295
0.013762385 0.033772539 0.4428786 4294967295
0.01386936 0.033736058 0.43988073 4294967295
0.013976336 0.03369958 0.43688285 4294967295
0.01408331 0.033663101 0.43388498 4294967295
0.014190285 0.033626623 0.43088713 4294967295
0.01429726 0.033590142 0.42788926 4294967295
0.014404235 0.033553664 0.42489138 4294967295
0.01451121 0.033517186 0.42189351 4294967295
0.014618185 0.033480704 0.41889563 4294967295
0.01472516 0.033444226 0.41589779 4294967295
0.014832135 0.033407748 0.41289991 4294967295
0.014939111 0.03337127 0.40990204 4294967295
0.015046085 0.033334788 0.40690416 4294967295
0.01515306 0.03329831 0.40390629 4294967295
0.015260035 0.033261832 0.40090841 4294967295
0.015367011 0.033225354 0.39791054 4294967295
0.015473985 0.033188872 0.39491269 4294967295
0.01558096 0.033152394 0.39191481 4294967295
0.015687935 0.033115916 0.38891694 4294967295
0.01579491 0.033079434 0.38591906 4294967295
0.015901886 0.033042956 0.38292122 4294967295
0.016008861 0.033006478 0.37992334 4294967295
0.016115835 0.03297 0.37692547 4294967295
0.01622281 0.032933518 0.37392759 4294967295
0.016329786 0.03289704 0.37092972 4294967295
0.016436759 0.032860562 0.36793184 4294967295
0.016543735 0.032824084 0.36493397 4294967295
0.01665071 0.032787602 0.36193612 4294967295
0.016757686 0.032751124 0.35893825 4294967295
0.016864661 0.032714646 0.35594037 4294967295
0.016971635 0.032678165 0.35294253 4294967295
0.01707861 0.032641686 0.34994462 4294967295
0.017185586 0.032605208 0.34694678 4294967295
0.017292559 0.03256873 0.3439489 4294967295
0.017399535 0.032532249 0.34095103 4294967295
0.01750651 0.032495771 0.33795315 4294967295
0.017613485 0.032459293 0.33495528 4294967295
0.017720461 0.032422815 0.3319574 4294967295
0.017827436 0.032386333 0.32895952 4294967295
0.01793441 0.032349855 0.32596168 4294967295
0.018041385 0.032313377 0.3229638 4294967295
0.018148361 0.032276895 0.31996596 4294967295
0.018255336 0.032240417 0.31696805 4294967295
0.01836231 0.032203939 0.31397018 4294967295
