# .PCD v0.7 - Point Cloud Data file format
VERSION 0.7
FIELDS x y z rgb
SIZE 4 4 4 4
TYPE F F F U
COUNT 1 1 1 1
WIDTH 1077
HEIGHT 1
VIEWPOINT 0 0 0 1 0 0 0
POINTS 1077
DATA ascii
0.065059885 0.022939794 0.35700002 4279837459
0.06603393 0.022875536 0.35600001 4279446035
0.067001484 0.022811281 0.35500002 4279647262
0.068154521 0.022811281 0.35500002 4279582496
0.053913798 0.024302242 0.36000001 4280101403
0.055083081 0.024302242 0.36000001 4279969815
0.056252364 0.024302242 0.36000001 4280101401
0.060929481 0.024302242 0.36000001 4280298010
0.062098764 0.024302242 0.36000001 4279639569
0.063092306 0.024234736 0.35900003 4279836948
0.064079344 0.024167228 0.35800001 4279968532
0.065059885 0.024099724 0.35700002 4279968532
0.06603393 0.024032217 0.35600001 4279380242
0.067190222 0.024032217 0.35600001 4279252758
0.068154521 0.023964711 0.35500002 4279516957
0.069307566 0.023964711 0.35500002 4279911715
0.053913798 0.025471918 0.36000001 4280363805
0.055083081 0.025471918 0.36000001 4280363807
0.057581145 0.025542675 0.36100003 4283787869
0.058753677 0.025542675 0.36100003 4283919709
0.060929481 0.025471918 0.36000001 4279837461
0.062098764 0.025471918 0.36000001 4279573776
0.063092306 0.025401164 0.35900003 4279836948
0.064079344 0.025330408 0.35800001 4279968534
0.065059885 0.025259653 0.35700002 4279902739
0.06603393 0.025188897 0.35600001 4279513109
0.067190222 0.025188897 0.35600001 4279056406
0.068154521 0.025118142 0.35500002 4279386654
0.069307566 0.025118142 0.35500002 4279584033
0.051431976 0.026567591 0.35900003 4278852615
0.052598011 0.026567591 0.35900003 4280363544
0.053913798 0.026641594 0.36000001 4280363292
0.055083081 0.026641594 0.36000001 4280430368
0.056252364 0.026641594 0.36000001 4283918426
0.057581145 0.026715601 0.36100003 4283787869
0.058753677 0.026715601 0.36100003 4283787869
0.059926208 0.026715601 0.36100003 4283919455
0.061098732 0.026715601 0.36100003 4279772953
0.062271263 0.026715601 0.36100003 4279836178
0.063443795 0.026715601 0.36100003 4279967764
0.064616323 0.026715601 0.36100003 4279968532
0.06578885 0.026715601 0.36100003 4279771666
0.064550027 0.025753543 0.34800002 4279250451
0.065680332 0.025753543 0.34800002 4279121685
0.052598011 0.027734019 0.35900003 4280297497
0.053913798 0.027811272 0.36000001 4280363292
0.055083081 0.027811272 0.36000001 4279772186
0.056252364 0.027811272 0.36000001 4284050528
0.057581145 0.027888525 0.36100003 4283919455
0.058753677 0.027888525 0.36100003 4283985248
0.059926208 0.027888525 0.36100003 4283787869
0.061098732 0.027888525 0.36100003 4282799945
0.062271263 0.027888525 0.36100003 4279967762
0.063443795 0.027888525 0.36100003 4280099348
0.064616323 0.027888525 0.36100003 4280099348
0.06578885 0.027888525 0.36100003 4279902993
0.064550027 0.02688423 0.34800002 4279513623
0.065680332 0.02688423 0.34800002 4279187478
0.06681063 0.02688423 0.34800002 4278926101
0.067940935 0.02688423 0.34800002 4279189273
0.069071248 0.02688423 0.34800002 4279452445
0.063419722 0.028014917 0.34800002 4279772690
0.064550027 0.028014917 0.34800002 4279514906
0.065680332 0.028014917 0.34800002 4279122197
0.06681063 0.028014917 0.34800002 4278860308
0.067940935 0.028014917 0.34800002 4278926101
0.069071248 0.028014917 0.34800002 4279190045
0.070201546 0.028014917 0.34800002 4279452193
0.06246841 0.029229354 0.34900001 4279640850
0.063601956 0.029229354 0.34900001 4279641877
0.064735509 0.029229354 0.34900001 4279580186
0.065869063 0.029229354 0.34900001 4279121685
0.06681063 0.029145604 0.34800002 4278794517
0.067940935 0.029145604 0.34800002 4278729494
0.069071248 0.029145604 0.34800002 4279058459
0.070201546 0.029145604 0.34800002 4279058459
0.071331851 0.029145604 0.34800002 4278991896
0.072462156 0.029145604 0.34800002 4279649059
0.073592462 0.029145604 0.34800002 4280437039
0.074722767 0.029145604 0.34800002 4282738515
0.06246841 0.030363292 0.34900001 4279706645
0.063601956 0.030363292 0.34900001 4279840028
0.064735509 0.030363292 0.34900001 4280238116
0.065869063 0.030363292 0.34900001 4279449367
0.067002617 0.030363292 0.34900001 4278860310
0.068136171 0.030363292 0.34900001 4278794517
0.069269724 0.030363292 0.34900001 4279058457
0.07040327 0.030363292 0.34900001 4280176938
0.071536824 0.030363292 0.34900001 4278662929
0.072670378 0.030363292 0.34900001 4278992666
0.073592462 0.030276291 0.34800002 4278795287
0.074722767 0.030276291 0.34800002 4279255068
0.075853072 0.030276291 0.34800002 4279648543
0.076762155 0.030189289 0.347 4279911201
0.077889211 0.030189289 0.347 4279384344
0.062647402 0.031587481 0.35000002 4279772949
0.063784197 0.031587481 0.35000002 4280236067
0.064920999 0.031587481 0.35000002 4279514393
0.066057809 0.031587481 0.35000002 4279581469
0.067194603 0.031587481 0.35000002 4278727441
0.068331406 0.031587481 0.35000002 4278991383
0.069269724 0.031497229 0.34900001 4279124250
0.07040327 0.031497229 0.34900001 4278597904
0.071536824 0.031497229 0.34900001 4281689405
0.072670378 0.031497229 0.34900001 4279452445
0.073803931 0.031497229 0.34900001 4279123480
0.074937485 0.031497229 0.34900001 4278991894
0.075853072 0.03140698 0.34800002 4278991894
0.076762155 0.031316731 0.347 4278860308
0.077889211 0.031316731 0.347 4278860308
0.078560852 0.031136231 0.34500003 4278662929
0.07921949 0.030955732 0.34300002 4278991894
0.080333553 0.030955732 0.34300002 4279123480
0.081210159 0.030865481 0.34200001 4279516957
0.063005388 0.032911666 0.35200003 4279511574
0.063966438 0.032818165 0.35100001 4280368934
0.065106489 0.032818165 0.35100001 4279712539
0.066246539 0.032818165 0.35100001 4279779102
0.067386582 0.032818165 0.35100001 4279056406
0.068526633 0.032818165 0.35100001 4279845922
0.069468208 0.032724667 0.35000002 4279255838
0.070605002 0.032724667 0.35000002 4278729494
0.071741804 0.032724667 0.35000002 4278992662
0.072878607 0.032724667 0.35000002 4278861076
0.074015409 0.032724667 0.35000002 4278861076
0.074937485 0.032631166 0.34900001 4278795283
0.075853072 0.032537669 0.34800002 4278729490
0.076983377 0.032537669 0.34800002 4278663697
0.077889211 0.032444168 0.347 4278597906
0.078560852 0.032257173 0.34500003 4278597908
0.079450443 0.032163672 0.34400001 4278729492
0.080333553 0.032070175 0.34300002 4278729492
0.081210159 0.031976674 0.34200001 4278926101
0.082080275 0.031883176 0.34100002 4278860308
0.082943879 0.031789675 0.34 4278926101
0.084048204 0.031789675 0.34 4278794515
0.084902078 0.031696178 0.33900002 4278860308
0.086003147 0.031696178 0.33900002 4278794515
0.087104224 0.031696178 0.33900002 4279057174
0.0882053 0.031696178 0.33900002 4278991383
0.089306369 0.031696178 0.33900002 4279320094
0.090674132 0.031789675 0.34 4278925336
0.09177845 0.031789675 0.34 4279385117
0.09315595 0.031883176 0.34100002 4279648289
0.094263524 0.031883176 0.34100002 4279318810
0.09565077 0.031976674 0.34200001 4279778848
0.096761592 0.031976674 0.34200001 4280042022
0.097872406 0.031976674 0.34200001 4280305194
0.062389322 0.034345593 0.35500002 4279116305
0.063184381 0.034152094 0.35300002 4279578650
0.064330921 0.034152094 0.35300002 4279974176
0.065477468 0.034152094 0.35300002 4279712539
0.066435277 0.034055348 0.35200003 4279581723
0.067578569 0.034055348 0.35200003 4279187992
0.068721868 0.034055348 0.35200003 4279320348
0.069865167 0.034055348 0.35200003 4278991896
0.070806727 0.033958599 0.35100001 4279255068
0.071946777 0.033958599 0.35100001 4279386654
0.073086828 0.033958599 0.35100001 4279188762
0.074015409 0.033861853 0.35000002 4278728209
0.075152203 0.033861853 0.35000002 4278728722
0.076071039 0.033765104 0.34900001 4278531343
0.076983377 0.033668354 0.34800002 4278662931
0.077889211 0.033571605 0.347 4278794517
0.078788556 0.033474859 0.34600002 4278728724
0.079450443 0.033281364 0.34400001 4278728722
0.080333553 0.033184614 0.34300002 4278794515
0.081210159 0.033087865 0.34200001 4278860308
0.082080275 0.032991119 0.34100002 4278728722
0.083187841 0.032991119 0.34100002 4278860308
0.084048204 0.032894369 0.34 4278729492
0.085152522 0.032894369 0.34 4278729492
0.086256839 0.032894369 0.34 4278795285
0.087104224 0.032797623 0.33900002 4278597906
0.088465489 0.032894369 0.34 4278663699
0.089569807 0.032894369 0.34 4278597654
0.090674132 0.032894369 0.34 4278795033
0.092048392 0.032991119 0.34100002 4278662931
0.09315595 0.032991119 0.34100002 4278728724
0.094263524 0.032991119 0.34100002 4278860310
0.09565077 0.033087865 0.34200001 4278465039
0.096761592 0.033087865 0.34200001 4278991383
0.097872406 0.033087865 0.34200001 4278991383
0.098983228 0.033087865 0.34200001 4279187992
0.062565066 0.035599019 0.35600001 4279116818
0.063363373 0.035399023 0.354 4279382039
0.064513162 0.035399023 0.354 4279777565
0.06566295 0.035399023 0.354 4279778848
0.066812746 0.035399023 0.354 4279451164
0.067770556 0.035299029 0.35300002 4279320348
0.068917103 0.035299029 0.35300002 4279386141
0.070063643 0.035299029 0.35300002 4279255068
0.071210191 0.035299029 0.35300002 4279583779
0.072151758 0.035199031 0.35200003 4279780899
0.073295057 0.035199031 0.35200003 4279517727
0.074226879 0.035099033 0.35100001 4279254555
0.075152203 0.034999039 0.35000002 4279320346
0.076289006 0.034999039 0.35000002 4279188760
0.077204593 0.034899037 0.34900001 4278991381
0.078113675 0.034799043 0.34800002 4278991383
0.078788556 0.034599047 0.34600002 4279188762
0.079681411 0.034499053 0.34500003 4278925590
0.080567755 0.034399055 0.34400001 4278925590
0.081447616 0.034299057 0.34300002 4278859795
0.082320973 0.034199059 0.34200001 4278728209
0.083431788 0.034199059 0.34200001 4278859795
0.084295407 0.034099061 0.34100002 4278596623
0.085402973 0.034099061 0.34100002 4278728209
0.086256839 0.033999063 0.34 4278794515
0.087361164 0.033999063 0.34 4278794515
0.088465489 0.033999063 0.34 4278860308
0.089569807 0.033999063 0.34 4278597908
0.090674132 0.033999063 0.34 4278663701
0.092048392 0.034099061 0.34100002 4278728211
0.09315595 0.034099061 0.34100002 4278794004
0.094539955 0.034199059 0.34200001 4278728722
0.09565077 0.034199059 0.34200001 4278860308
0.096761592 0.034199059 0.34200001 4278926101
0.097872406 0.034199059 0.34200001 4278794515
0.098983228 0.034199059 0.34200001 4278860308
0.099801362 0.034099061 0.34100002 4278860308
0.062565066 0.0367557 0.35600001 4280695850
0.063721359 0.0367557 0.35600001 4279973662
0.064695403 0.036652453 0.35500002 4279580186
0.065848447 0.036652453 0.35500002 4279647516
0.067001484 0.036652453 0.35500002 4279451164
0.068154521 0.036652453 0.35500002 4279057176
0.069112331 0.036549207 0.354 4279189275
0.070262127 0.036549207 0.354 4279451934
0.071411915 0.036549207 0.354 4279846692
0.072356731 0.03644596 0.35300002 4279780899
0.073503278 0.03644596 0.35300002 4279516957
0.074438356 0.036342718 0.35200003 4279385371
0.075366922 0.036239468 0.35100001 4279254555
0.076289006 0.036136225 0.35000002 4278859027
0.077204593 0.036032975 0.34900001 4279319578
0.078113675 0.035929732 0.34800002 4279385371
0.079016268 0.035826482 0.347 4279122199
0.079912372 0.035723239 0.34600002 4279187990
0.080801971 0.035619993 0.34500003 4279187990
0.081685066 0.035516743 0.34400001 4279056404
0.082561679 0.0354135 0.34300002 4279187990
0.083431788 0.03531025 0.34200001 4279187990
0.084542602 0.03531025 0.34200001 4279319576
0.085402973 0.035207007 0.34100002 4279319576
0.086510539 0.035207007 0.34100002 4278991381
0.087618113 0.035207007 0.34100002 4278794002
0.088725686 0.035207007 0.34100002 4278859795
0.089833252 0.035207007 0.34100002 4278794002
0.090940826 0.035207007 0.34100002 4278530830
0.092048392 0.035207007 0.34100002 4278530830
0.093429133 0.03531025 0.34200001 4278596623
0.094539955 0.03531025 0.34200001 4278728209
0.09565077 0.03531025 0.34200001 4278794002
0.09704452 0.0354135 0.34300002 4278991894
0.09815859 0.0354135 0.34300002 4278991894
0.098983228 0.03531025 0.34200001 4278991894
0.10009404 0.03531025 0.34200001 4278926101
0.10976949 0.035207007 0.34100002 4278924816
0.1112022 0.03531025 0.34200001 4278990611
0.11231302 0.03531025 0.34200001 4278924818
0.06274081 0.038018879 0.35700002 4283722330
0.063900352 0.038018879 0.35700002 4279974174
0.065059885 0.038018879 0.35700002 4279974944
0.06603393 0.03791238 0.35600001 4279648029
0.067190222 0.03791238 0.35600001 4279648029
0.068346508 0.03791238 0.35600001 4279386141
0.069502793 0.03791238 0.35600001 4279451934
0.07046061 0.037805885 0.35500002 4279517727
0.071613647 0.037805885 0.35500002 4279978278
0.072561711 0.03769939 0.354 4279649313
0.0737115 0.03769939 0.354 4279582750
0.074649826 0.037592895 0.35300002 4279385371
0.075581647 0.0374864 0.35200003 4279451164
0.076506972 0.037379902 0.35100001 4279319578
0.077425815 0.037273411 0.35000002 4279516957
0.078338139 0.037166912 0.34900001 4279319578
0.079243988 0.037060417 0.34800002 4279187992
0.080143325 0.036953922 0.347 4279187990
0.081036173 0.036847427 0.34600002 4279056404
0.081922531 0.036740933 0.34500003 4278593804
0.082802385 0.036634434 0.34400001 4278922771
0.083919697 0.036634434 0.34400001 4278594574
0.084789813 0.036527943 0.34300002 4279581723
0.085653417 0.036421444 0.34200001 4279516443
0.086764239 0.036421444 0.34200001 4279122199
0.087875053 0.036421444 0.34200001 4279187990
0.088985875 0.036421444 0.34200001 4279319576
0.09009669 0.036421444 0.34200001 4279057174
0.091207512 0.036421444 0.34200001 4279188760
0.092318326 0.036421444 0.34200001 4279057174
0.093429133 0.036421444 0.34200001 4279254553
0.094816387 0.036527943 0.34300002 4279056404
0.095930457 0.036527943 0.34300002 4279122197
0.09704452 0.036527943 0.34300002 4279056404
0.09815859 0.036527943 0.34300002 4278924818
0.099851504 0.036740933 0.34500003 4278728209
0.10097206 0.036740933 0.34500003 4278794002
0.11170091 0.036953922 0.347 4278990609
0.11282796 0.036953922 0.347 4278859793
0.11395502 0.036953922 0.347 4278794000
0.062098764 0.039508041 0.36000001 4284380006
0.063092306 0.039398298 0.35900003 4285037936
0.064079344 0.039288551 0.35800001 4280302627
0.065242119 0.039288551 0.35800001 4279909918
0.066219419 0.039178807 0.35700002 4279713822
0.067378961 0.039178807 0.35700002 4279713822
0.068538494 0.039178807 0.35700002 4279386141
0.069502793 0.03906906 0.35600001 4279320348
0.070659086 0.03906906 0.35600001 4279846692
0.071815372 0.03906906 0.35600001 4279846692
0.072766684 0.038959317 0.35500002 4279715106
0.0737115 0.03884957 0.354 4279386141
0.074649826 0.038739827 0.35300002 4279385371
0.075581647 0.038630083 0.35200003 4279319578
0.076506972 0.038520336 0.35100001 4279516443
0.077425815 0.038410597 0.35000002 4279450650
0.078338139 0.038300849 0.34900001 4279582236
0.079243988 0.038191106 0.34800002 4279450650
0.080143325 0.038081359 0.347 4279450650
0.081036173 0.037971616 0.34600002 4279187478
0.082159981 0.037971616 0.34600002 4279251223
0.083043091 0.037861872 0.34500003 4279381785
0.084163651 0.037861872 0.34500003 4279646492
0.085037008 0.037752125 0.34400001 4279318551
0.086154319 0.037752125 0.34400001 4279318551
0.087017938 0.037642382 0.34300002 4279384344
0.088132001 0.037642382 0.34300002 4279581723
0.089246072 0.037642382 0.34300002 4279318551
0.090360135 0.037642382 0.34300002 4279319578
0.091474198 0.037642382 0.34300002 4279385371
0.092588268 0.037642382 0.34300002 4279122197
0.093702324 0.037642382 0.34300002 4279187476
0.094816387 0.037642382 0.34300002 4279253269
0.09621013 0.037752125 0.34400001 4279253269
0.097327448 0.037752125 0.34400001 4279253269
0.09844476 0.037752125 0.34400001 4279187990
0.099851504 0.037861872 0.34500003 4279319576
0.10097206 0.037861872 0.34500003 4279319576
0.10209262 0.037861872 0.34500003 4279187990
0.10351235 0.037971616 0.34600002 4279056404
0.10463616 0.037971616 0.34600002 4279385369
0.10575996 0.037971616 0.34600002 4279187990
0.10688378 0.037971616 0.34600002 4278859027
0.10800759 0.037971616 0.34600002 4278990613
0.10913139 0.037971616 0.34600002 4278859025
0.1102552 0.037971616 0.34600002 4278859025
0.11137901 0.037971616 0.34600002 4278990611
0.11250281 0.037971616 0.34600002 4279056404
0.11362663 0.037971616 0.34600002 4279056404
0.11475044 0.037971616 0.34600002 4279385369
0.11587424 0.037971616 0.34600002 4279187990
0.12712426 0.037642382 0.34300002 4279056404
0.12823834 0.037642382 0.34300002 4279122197
0.12935241 0.037642382 0.34300002 4278990097
0.13046646 0.037642382 0.34300002 4279779615
0.13269459 0.037642382 0.34300002 4279909918
0.13380866 0.037642382 0.34300002 4280173090
0.062271263 0.040790711 0.36100003 4284577385
0.063092306 0.040564723 0.35900003 4284380006
0.064258337 0.040564723 0.35900003 4281881146
0.065242119 0.040451728 0.35800001 4279909918
0.066404909 0.040451728 0.35800001 4279582750
0.067567699 0.040451728 0.35800001 4279385371
0.068538494 0.040338736 0.35700002 4279582750
0.069698036 0.040338736 0.35700002 4279648543
0.07085757 0.040338736 0.35700002 4279780899
0.071815372 0.040225741 0.35600001 4279715106
0.072971664 0.040225741 0.35600001 4279451934
0.073919728 0.040112749 0.35500002 4279386141
0.074861296 0.039999753 0.354 4279254555
0.075796366 0.039886761 0.35300002 4279451934
0.076724946 0.03977377 0.35200003 4279056406
0.077647023 0.039660774 0.35100001 4279319324
0.07856261 0.039547779 0.35000002 4279319324
0.079471692 0.039434783 0.34900001 4279187992
0.080374293 0.039321791 0.34800002 4279253271
0.081270382 0.039208796 0.347 4279055379
0.082397439 0.039208796 0.347 4278721545
0.083283797 0.039095804 0.34600002 4279053074
0.084407598 0.039095804 0.34600002 4279515160
0.085284211 0.038982812 0.34500003 4279515160
0.086404771 0.038982812 0.34500003 4278590724
0.087271631 0.038869817 0.34400001 4278721029
0.088388942 0.038869817 0.34400001 4279049994
0.089506261 0.038869817 0.34400001 4278721545
0.090623572 0.038869817 0.34400001 4278195970
0.091740884 0.038869817 0.34400001 4278854668
0.092858203 0.038869817 0.34400001 4279052560
0.093975507 0.038869817 0.34400001 4279184660
0.095092818 0.038869817 0.34400001 4279513623
0.09621013 0.038869817 0.34400001 4279514393
0.097327448 0.038869817 0.34400001 4279186711
0.098730944 0.038982812 0.34500003 4279318297
0.099851504 0.038982812 0.34500003 4279450648
0.10097206 0.038982812 0.34500003 4279515928
0.10238854 0.039095804 0.34600002 4279647514
0.10351235 0.039095804 0.34600002 4279515928
0.10463616 0.039095804 0.34600002 4279581721
0.10575996 0.039095804 0.34600002 4279515928
0.10688378 0.039095804 0.34600002 4279582234
0.10800759 0.039095804 0.34600002 4279450648
0.10913139 0.039095804 0.34600002 4279451162
0.1102552 0.039095804 0.34600002 4279319576
0.11137901 0.039095804 0.34600002 4279056404
0.11250281 0.039095804 0.34600002 4279319576
0.11362663 0.039095804 0.34600002 4279187990
0.11475044 0.039095804 0.34600002 4278924818
0.11587424 0.039095804 0.34600002 4279055890
0.12266801 0.038756825 0.34300002 4279188760
0.12378207 0.038756825 0.34300002 4279188758
0.12489614 0.038756825 0.34300002 4278728207
0.12601019 0.038756825 0.34300002 4278925588
0.12712426 0.038756825 0.34300002 4278991381
0.12823834 0.038756825 0.34300002 4278727441
0.12935241 0.038756825 0.34300002 4278859027
0.13046646 0.038756825 0.34300002 4278728211
0.13158052 0.038756825 0.34300002 4278990613
0.13269459 0.038756825 0.34300002 4278924820
0.13380866 0.038756825 0.34300002 4279187992
0.13492273 0.038756825 0.34300002 4279516955
0.13603678 0.038756825 0.34300002 4279319062
0.13715084 0.038756825 0.34300002 4279778330
0.13826491 0.038756825 0.34300002 4279975709
0.13937898 0.038756825 0.34300002 4279975711
0.14049304 0.038756825 0.34300002 4279843358
0.062271263 0.041963637 0.36100003 4284577385
0.063268043 0.041847393 0.36000001 4284511846
0.064258337 0.041731153 0.35900003 4284511846
0.065424368 0.041731153 0.35900003 4279710236
0.066404909 0.041614905 0.35800001 4279713568
0.067567699 0.041614905 0.35800001 4279779615
0.068538494 0.041498665 0.35700002 4279582750
0.069698036 0.041498665 0.35700002 4279977508
0.07085757 0.041498665 0.35700002 4280240680
0.072017103 0.041498665 0.35700002 4279845922
0.072971664 0.041382421 0.35600001 4279451164
0.073919728 0.041266181 0.35500002 4279516957
0.074861296 0.041149933 0.354 4279451164
0.075796366 0.041033693 0.35300002 4279451164
0.076724946 0.040917452 0.35200003 4279451164
0.077647023 0.040801208 0.35100001 4279516957
0.07856261 0.040684965 0.35000002 4279451164
0.079471692 0.040568721 0.34900001 4279319578
0.080605246 0.040568721 0.34900001 4279319064
0.081504591 0.04045248 0.34800002 4278395914
0.082634896 0.04045248 0.34800002 4279379988
0.083524495 0.040336236 0.347 4279580188
0.084651552 0.040336236 0.347 4279252504
0.085531406 0.040219992 0.34600002 4278394628
0.086655214 0.040219992 0.34600002 4278983435
0.08752533 0.040103752 0.34500003 4279575572
0.08864589 0.040103752 0.34500003 4279048715
0.089766458 0.040103752 0.34500003 4278917129
0.090887018 0.040103752 0.34500003 4278983435
0.092007577 0.040103752 0.34500003 4278983435
0.093128145 0.040103752 0.34500003 4278983435
0.094248697 0.040103752 0.34500003 4278983435
0.095369257 0.040103752 0.34500003 4278983435
0.096489817 0.040103752 0.34500003 4278852363
0.097610384 0.040103752 0.34500003 4278655754
0.098730944 0.040103752 0.34500003 4278458375
0.10014093 0.040219992 0.34600002 4278656265
0.10126472 0.040219992 0.34600002 4278723082
0.10238854 0.040219992 0.34600002 4279317014
0.10351235 0.040219992 0.34600002 4279448600
0.10463616 0.040219992 0.34600002 4279317014
0.10575996 0.040219992 0.34600002 4279580186
0.10688378 0.040219992 0.34600002 4279449113
0.10800759 0.040219992 0.34600002 4279646492
0.10913139 0.040219992 0.34600002 4279121172
0.1102552 0.040219992 0.34600002 4279384344
0.11137901 0.040219992 0.34600002 4279384344
0.11250281 0.040219992 0.34600002 4279319062
0.11362663 0.040219992 0.34600002 4279516441
0.11475044 0.040219992 0.34600002 4279450648
0.11587424 0.040219992 0.34600002 4279516441
0.11665991 0.040103752 0.34500003 4279186963
0.12155395 0.039871268 0.34300002 4279121683
0.12266801 0.039871268 0.34300002 4278990097
0.12378207 0.039871268 0.34300002 4278727439
0.12489614 0.039871268 0.34300002 4278924818
0.12601019 0.039871268 0.34300002 4279056404
0.12712426 0.039871268 0.34300002 4279319574
0.12823834 0.039871268 0.34300002 4279187990
0.12935241 0.039871268 0.34300002 4279056406
0.13046646 0.039871268 0.34300002 4278925590
0.13196413 0.039987508 0.34400001 4279188762
0.13269459 0.039871268 0.34300002 4279056406
0.13380866 0.039871268 0.34300002 4278990613
0.13492273 0.039871268 0.34300002 4279122197
0.13603678 0.039871268 0.34300002 4278990097
0.13715084 0.039871268 0.34300002 4279055377
0.13866802 0.039987508 0.34400001 4279186963
0.13978532 0.039987508 0.34400001 4279055379
0.14090264 0.039987508 0.34400001 4279055379
0.14201996 0.039987508 0.34400001 4279515930
0.14313726 0.039987508 0.34400001 4279976481
0.062271263 0.043136563 0.36100003 4284511592
0.063268043 0.043017067 0.36000001 4284380006
0.064258337 0.042897578 0.35900003 4284248674
0.065242119 0.042778086 0.35800001 4284446053
0.066404909 0.042778086 0.35800001 4280039201
0.067378961 0.042658594 0.35700002 4280172838
0.068538494 0.042658594 0.35700002 4279779361
0.069698036 0.042658594 0.35700002 4280108840
0.07085757 0.042658594 0.35700002 4280109094
0.071815372 0.042539101 0.35600001 4279648543
0.072971664 0.042539101 0.35600001 4279582750
0.073919728 0.042419609 0.35500002 4279451164
0.074861296 0.042300116 0.354 4279582750
0.075796366 0.042180628 0.35300002 4279451164
0.076724946 0.042061135 0.35200003 4279451164
0.077647023 0.041941643 0.35100001 4279451164
0.07856261 0.04182215 0.35000002 4279451164
0.079699412 0.04182215 0.35000002 4279319578
0.080605246 0.041702658 0.34900001 4279514906
0.0817388 0.041702658 0.34900001 4278722828
0.082634896 0.041583166 0.34800002 4280038942
0.083765201 0.041583166 0.34800002 4279646494
0.084651552 0.041463673 0.347 4279711774
0.085778609 0.041463673 0.347 4278853385
0.086905658 0.041463673 0.347 4279444502
0.087779023 0.041344184 0.34600002 4279313684
0.088902831 0.041344184 0.34600002 4279707672
0.090026647 0.041344184 0.34600002 4279115535
0.091150455 0.041344184 0.34600002 4279707672
0.092274264 0.041344184 0.34600002 4279444500
0.093398072 0.041344184 0.34600002 4279115535
0.094521873 0.041344184 0.34600002 4280562981
0.095645688 0.041344184 0.34600002 4279970844
0.096769497 0.041344184 0.34600002 4279312916
0.097893305 0.041344184 0.34600002 4279246609
0.099017113 0.041344184 0.34600002 4278917644
0.10014093 0.041344184 0.34600002 4279180301
0.10126472 0.041344184 0.34600002 4279180816
0.10268445 0.041463673 0.347 4279645211
0.10381151 0.041463673 0.347 4279974174
0.10493857 0.041463673 0.347 4280303909
0.10606562 0.041463673 0.347 4279973660
0.10688378 0.041344184 0.34600002 4278592007
0.10800759 0.041344184 0.34600002 4278592009
0.10913139 0.041344184 0.34600002 4278986254
0.1102552 0.041344184 0.34600002 4278525703
0.11137901 0.041344184 0.34600002 4278789902
0.11250281 0.041344184 0.34600002 4279250453
0.11362663 0.041344184 0.34600002 4279120918
0.11475044 0.041344184 0.34600002 4279055125
0.11587424 0.041344184 0.34600002 4279252756
0.11665991 0.041224692 0.34500003 4279186963
0.11778047 0.041224692 0.34500003 4279646744
0.11890103 0.041224692 0.34500003 4279384342
0.1200216 0.041224692 0.34500003 4279581721
0.12155395 0.040985707 0.34300002 4279647514
0.12266801 0.040985707 0.34300002 4279384342
0.12378207 0.040985707 0.34300002 4279186963
0.12489614 0.040985707 0.34300002 4279318549
0.12637757 0.0411052 0.34400001 4279515930
0.12749489 0.0411052 0.34400001 4279252756
0.12861221 0.0411052 0.34400001 4279186963
0.12972951 0.0411052 0.34400001 4279055379
0.13084681 0.0411052 0.34400001 4279187478
0.13196413 0.0411052 0.34400001 4279121685
0.13308145 0.0411052 0.34400001 4279121685
0.13419876 0.0411052 0.34400001 4279187478
0.13531607 0.0411052 0.34400001 4279121683
0.13643339 0.0411052 0.34400001 4279450648
0.1375507 0.0411052 0.34400001 4279516441
0.13866802 0.0411052 0.34400001 4279187476
0.13978532 0.0411052 0.34400001 4279384342
0.14090264 0.0411052 0.34400001 4279186963
0.14201996 0.0411052 0.34400001 4279186963
0.14313726 0.0411052 0.34400001 4279121170
0.14467393 0.041224692 0.34500003 4280105500
0.063268043 0.044186745 0.36000001 4284380006
0.064258337 0.044064008 0.35900003 4284182627
0.065242119 0.043941263 0.35800001 4284117088
0.066219419 0.043818522 0.35700002 4283591514
0.067378961 0.043818522 0.35700002 4282078273
0.068346508 0.043695781 0.35600001 4280435243
0.069502793 0.043695781 0.35600001 4280436780
0.070659086 0.043695781 0.35600001 4280174119
0.071815372 0.043695781 0.35600001 4279976740
0.072766684 0.043573041 0.35500002 4279648289
0.0737115 0.0434503 0.354 4279582496
0.074861296 0.0434503 0.354 4279516703
0.075796366 0.043327559 0.35300002 4279516703
0.076724946 0.043204818 0.35200003 4279516957
0.077647023 0.043082077 0.35100001 4279385371
0.078787073 0.043082077 0.35100001 4279385371
0.079699412 0.042959336 0.35000002 4279450396
0.080836214 0.042959336 0.35000002 4279777313
0.0817388 0.042836595 0.34900001 4279447580
0.082872353 0.042836595 0.34900001 4279843360
0.083765201 0.042713854 0.34800002 4279581471
0.084895507 0.042713854 0.34800002 4278921234
0.086025812 0.042713854 0.34800002 4278853133
0.086905658 0.04259111 0.347 4279180816
0.088032715 0.04259111 0.347 4279180303
0.089159779 0.04259111 0.347 4279180816
0.090286836 0.04259111 0.347 4279246609
0.091413893 0.04259111 0.347 4279444502
0.092274264 0.042468373 0.34600002 4278983437
0.093398072 0.042468373 0.34600002 4280628260
0.094795056 0.04259111 0.347 4278852363
0.095922112 0.04259111 0.347 4279049744
0.097049169 0.04259111 0.347 4279707674
0.098176233 0.04259111 0.347 4279774235
0.09930329 0.04259111 0.347 4279049740
0.10043035 0.04259111 0.347 4279311887
0.1015574 0.04259111 0.347 4279774237
0.10268445 0.04259111 0.347 4279777565
0.10381151 0.04259111 0.347 4279843871
0.10493857 0.04259111 0.347 4279251223
0.10606562 0.04259111 0.347 4278921488
0.10719269 0.04259111 0.347 4279183633
0.10831974 0.04259111 0.347 4279578902
0.10913139 0.042468373 0.34600002 4280105246
0.1102552 0.042468373 0.34600002 4279973660
0.11137901 0.042468373 0.34600002 4279842588
0.11250281 0.042468373 0.34600002 4280039967
0.11362663 0.042468373 0.34600002 4279710488
0.11475044 0.042468373 0.34600002 4279842074
0.11587424 0.042468373 0.34600002 4279513109
0.11699805 0.042468373 0.34600002 4278920972
0.11778047 0.042345632 0.34500003 4278394628
0.11890103 0.042345632 0.34500003 4278855179
0.1200216 0.042345632 0.34500003 4279250191
0.12114216 0.042345632 0.34500003 4279250705
0.12190833 0.042222891 0.34400001 4279250705
0.12302563 0.042222891 0.34400001 4279448084
0.12414294 0.042222891 0.34400001 4279645463
0.12526026 0.042222891 0.34400001 4279514647
0.12637757 0.042222891 0.34400001 4279515160
0.12749489 0.042222891 0.34400001 4279449367
0.12861221 0.042222891 0.34400001 4279515158
0.12972951 0.042222891 0.34400001 4279449365
0.13084681 0.042222891 0.34400001 4279581721
0.13196413 0.042222891 0.34400001 4279384342
0.13308145 0.042222891 0.34400001 4279384342
0.13419876 0.042222891 0.34400001 4279384342
0.13531607 0.042222891 0.34400001 4279384342
0.13643339 0.042222891 0.34400001 4279186963
0.1375507 0.042222891 0.34400001 4279121170
0.13866802 0.042222891 0.34400001 4278792718
0.13978532 0.042222891 0.34400001 4279187476
0.14090264 0.042222891 0.34400001 4279253269
0.14201996 0.042222891 0.34400001 4278990097
0.14313726 0.042222891 0.34400001 4278858511
0.14467393 0.042345632 0.34500003 4279251986
0.064079344 0.045104444 0.35800001 4284248420
0.065059885 0.044978455 0.35700002 4283985248
0.06603393 0.044852462 0.35600001 4283919455
0.067190222 0.044852462 0.35600001 4283985248
0.068154521 0.044726476 0.35500002 4284381030
0.069307566 0.044726476 0.35500002 4284117858
0.07046061 0.044726476 0.35500002 4281486649
0.071613647 0.044726476 0.35500002 4280172071
0.072766684 0.044726476 0.35500002 4279252252
0.0737115 0.044600483 0.354 4279647264
0.074649826 0.044474494 0.35300002 4279976742
0.075581647 0.044348504 0.35200003 4279648291
0.076724946 0.044348504 0.35200003 4279582496
0.077647023 0.044222515 0.35100001 4279450910
0.078787073 0.044222515 0.35100001 4279516703
0.079699412 0.044096526 0.35000002 4279384090
0.080836214 0.044096526 0.35000002 4279317016
0.0817388 0.043970533 0.34900001 4279317016
0.082872353 0.043970533 0.34900001 4279777567
0.084005907 0.043970533 0.34900001 4279647262
0.084895507 0.043844543 0.34800002 4279646492
0.086025812 0.043844543 0.34800002 4279909153
0.08715611 0.043844543 0.34800002 4279379990
0.088286422 0.043844543 0.34800002 4279050512
0.089159779 0.04371855 0.347 4278392584
0.090286836 0.04371855 0.347 4278654986
0.091413893 0.04371855 0.347 4279246609
0.09254095 0.04371855 0.347 4279048717
0.093668006 0.04371855 0.347 4278982922
0.094795056 0.04371855 0.347 4278982922
0.095922112 0.04371855 0.347 4278983435
0.097049169 0.04371855 0.347 4279180816
0.098176233 0.04371855 0.347 4279312400
0.09930329 0.04371855 0.347 4279311887
0.10043035 0.04371855 0.347 4278917129
0.1015574 0.04371855 0.347 4280104735
0.10268445 0.04371855 0.347 4280039453
0.10381151 0.04371855 0.347 4278855179
0.10493857 0.04371855 0.347 4278721549
0.10606562 0.04371855 0.347 4279049744
0.10719269 0.04371855 0.347 4279115535
0.10831974 0.04371855 0.347 4279445783
0.10944679 0.04371855 0.347 4279118099
0.1102552 0.043592565 0.34600002 4279710490
0.11137901 0.043592565 0.34600002 4279447832
0.11250281 0.043592565 0.34600002 4278987281
0.11362663 0.043592565 0.34600002 4280105762
0.11475044 0.043592565 0.34600002 4279382039
0.11587424 0.043592565 0.34600002 4278987279
0.11699805 0.043592565 0.34600002 4279579416
0.11812185 0.043592565 0.34600002 4279908635
0.11924567 0.043592565 0.34600002 4279908381
0.1200216 0.043466575 0.34500003 4279908381
0.12114216 0.043466575 0.34500003 4279579416
0.12226272 0.043466575 0.34500003 4279579416
0.12338327 0.043466575 0.34500003 4279908381
0.12450383 0.043466575 0.34500003 4279381523
0.12562439 0.043466575 0.34500003 4279052560
0.12674496 0.043466575 0.34500003 4278394630
0.12786552 0.043466575 0.34500003 4278657802
0.12898608 0.043466575 0.34500003 4278657800
0.13010664 0.043466575 0.34500003 4278657800
0.1312272 0.043466575 0.34500003 4279711002
0.13234776 0.043466575 0.34500003 4279513623
0.13346832 0.043466575 0.34500003 4279514393
0.13419876 0.043340582 0.34400001 4279449367
0.13531607 0.043340582 0.34400001 4279515158
0.13643339 0.043340582 0.34400001 4279646742
0.1375507 0.043340582 0.34400001 4279383570
0.13866802 0.043340582 0.34400001 4279449363
0.13978532 0.043340582 0.34400001 4279515156
0.14090264 0.043340582 0.34400001 4279449363
0.14201996 0.043340582 0.34400001 4279383572
0.14355338 0.043466575 0.34500003 4279186193
0.14467393 0.043466575 0.34500003 4279317777
0.064877644 0.046009142 0.35600001 4284182627
0.065848447 0.045879904 0.35500002 4283787358
0.067001484 0.045879904 0.35500002 4284248422
0.067962535 0.045750663 0.354 4284380008
0.069112331 0.045750663 0.354 4284445801
0.070262127 0.045750663 0.354 4284578155
0.071411915 0.045750663 0.354 4284841840
0.072561711 0.045750663 0.354 4284842094
0.073503278 0.045621425 0.35300002 4285105266
0.074649826 0.045621425 0.35300002 4284842608
0.075581647 0.045492187 0.35200003 4284382053
0.076506972 0.045362946 0.35100001 4282804045
0.077647023 0.045362946 0.35100001 4281225013
0.078787073 0.045362946 0.35100001 4279974692
0.079699412 0.045233708 0.35000002 4279711004
0.080836214 0.045233708 0.35000002 4279842588
0.081973009 0.045233708 0.35000002 4280040737
0.082872353 0.045104466 0.34900001 4279909151
0.084005907 0.045104466 0.34900001 4280172323
0.085139453 0.045104466 0.34900001 4279974944
0.086025812 0.044975229 0.34800002 4279975457
0.08715611 0.044975229 0.34800002 4279843871
0.088286422 0.044975229 0.34800002 4279843871
0.089416727 0.044975229 0.34800002 4279778080
0.090547033 0.044975229 0.34800002 4279975459
0.091413893 0.044845987 0.347 4280303141
0.09254095 0.044845987 0.347 4279973408
0.093668006 0.044845987 0.347 4280301860
0.094795056 0.044845987 0.347 4280301860
0.096198551 0.044975229 0.34800002 4279511574
0.097328857 0.044975229 0.34800002 4279182096
0.098459162 0.044975229 0.34800002 4278720775
0.099589467 0.044975229 0.34800002 4278786570
0.10071978 0.044975229 0.34800002 4280301344
0.10185007 0.044975229 0.34800002 4280105246
0.10298038 0.044975229 0.34800002 4279710488
0.10411069 0.044975229 0.34800002 4280104735
0.10493857 0.044845987 0.347 4279247119
0.10606562 0.044845987 0.347 4279180814
0.10719269 0.044845987 0.347 4279313684
0.10831974 0.044845987 0.347 4280104481
0.10944679 0.044845987 0.347 4279184146
0.11057385 0.044845987 0.347 4279382039
0.11170091 0.044845987 0.347 4279118867
0.11282796 0.044845987 0.347 4279447832
0.11362663 0.044716749 0.34600002 4279381525
0.11475044 0.044716749 0.34600002 4280039453
0.11587424 0.044716749 0.34600002 4280039453
0.11699805 0.044716749 0.34600002 4279117838
0.11812185 0.044716749 0.34600002 4279381010
0.11924567 0.044716749 0.34600002 4279775768
0.12036948 0.044716749 0.34600002 4278986254
0.12149329 0.044716749 0.34600002 4280038942
0.12226272 0.044587512 0.34500003 4279709975
0.12338327 0.044587512 0.34500003 4280105246
0.12450383 0.044587512 0.34500003 4279842074
0.12562439 0.044587512 0.34500003 4279579416
0.12674496 0.044587512 0.34500003 4279908381
0.12786552 0.044587512 0.34500003 4279645209
0.12935995 0.044716749 0.34600002 4280303139
0.13010664 0.044587512 0.34500003 4279711002
0.1312272 0.044587512 0.34500003 4280105246
0.13234776 0.044587512 0.34500003 4279842074
0.13346832 0.044587512 0.34500003 4279511828
0.13458888 0.044587512 0.34500003 4279511828
0.13570945 0.044587512 0.34500003 4279712026
0.13643339 0.04445827 0.34400001 4279777817
0.1375507 0.04445827 0.34400001 4279777817
0.13866802 0.04445827 0.34400001 4279514645
0.13978532 0.04445827 0.34400001 4279580438
0.14090264 0.04445827 0.34400001 4279712024
0.14201996 0.04445827 0.34400001 4279909403
0.14355338 0.044587512 0.34500003 4279909401
0.14467393 0.044587512 0.34500003 4280171289
0.06566295 0.046900846 0.354 4283392347
0.066812746 0.046900846 0.354 4284445288
0.067770556 0.04676836 0.35300002 4284511081
0.068917103 0.04676836 0.35300002 4284511594
0.070063643 0.04676836 0.35300002 4284840559
0.071411915 0.046900846 0.354 4284709743
0.072356731 0.04676836 0.35300002 4284775536
0.073295057 0.046635874 0.35200003 4284709743
0.074438356 0.046635874 0.35200003 4284775536
0.075581647 0.046635874 0.35200003 4284775534
0.076506972 0.046503384 0.35100001 4284776301
0.077647023 0.046503384 0.35100001 4284710254
0.07856261 0.046370897 0.35000002 4284841327
0.079699412 0.046370897 0.35000002 4284907120
0.080836214 0.046370897 0.35000002 4285302645
0.081973009 0.046370897 0.35000002 4285302645
0.083109811 0.046370897 0.35000002 4285631356
0.084005907 0.046238404 0.34900001 4284907887
0.085139453 0.046238404 0.34900001 4282934357
0.086273007 0.046238404 0.34900001 4281158716
0.08715611 0.046105918 0.34800002 4279579166
0.088286422 0.046105918 0.34800002 4279644959
0.089416727 0.046105918 0.34800002 4279711520
0.090547033 0.046105918 0.34800002 4279974946
0.091677338 0.046105918 0.34800002 4280303139
0.092807643 0.046105918 0.34800002 4280303139
0.093937948 0.046105918 0.34800002 4280040991
0.095068246 0.046105918 0.34800002 4279975198
0.096198551 0.046105918 0.34800002 4280040991
0.097328857 0.046105918 0.34800002 4279975198
0.098459162 0.046105918 0.34800002 4279777565
0.099589467 0.046105918 0.34800002 4279974944
0.10071978 0.046105918 0.34800002 4279974174
0.10185007 0.046105918 0.34800002 4279843358
0.10298038 0.046105918 0.34800002 4279448602
0.10411069 0.046105918 0.34800002 4279382809
0.10524099 0.046105918 0.34800002 4279249939
0.10606562 0.045973428 0.347 4278657289
0.10719269 0.045973428 0.347 4278723082
0.10831974 0.045973428 0.347 4278262531
0.10944679 0.045973428 0.347 4279446805
0.11057385 0.045973428 0.347 4279578391
0.11170091 0.045973428 0.347 4279710490
0.11282796 0.045973428 0.347 4280039455
0.11395502 0.045973428 0.347 4279842074
0.11508209 0.045973428 0.347 4279381523
0.11620913 0.045973428 0.347 4279644695
0.11699805 0.045840941 0.34600002 4280039453
0.11812185 0.045840941 0.34600002 4279446803
0.11924567 0.045840941 0.34600002 4279183631
0.12036948 0.045840941 0.34600002 4279840793
0.12149329 0.045840941 0.34600002 4279445781
0.1226171 0.045840941 0.34600002 4279971864
0.1237409 0.045840941 0.34600002 4279642899
0.1248647 0.045840941 0.34600002 4280104735
0.12598851 0.045840941 0.34600002 4279315219
0.12711233 0.045840941 0.34600002 4279577619
0.12823614 0.045840941 0.34600002 4279840791
0.12935995 0.045840941 0.34600002 4279183631
0.13048376 0.045840941 0.34600002 4279775768
0.13160756 0.045840941 0.34600002 4280105246
0.13273136 0.045840941 0.34600002 4279579416
0.13385518 0.045840941 0.34600002 4279313682
0.13458888 0.045708455 0.34500003 4279840539
0.13570945 0.045708455 0.34500003 4279580188
0.13683 0.045708455 0.34500003 4279843612
0.1375507 0.045575965 0.34400001 4279777817
0.13866802 0.045575965 0.34400001 4279514645
0.13978532 0.045575965 0.34400001 4279580440
0.14090264 0.045575965 0.34400001 4279909405
0.14201996 0.045575965 0.34400001 4279975198
0.14313726 0.045575965 0.34400001 4280040219
0.14467393 0.045708455 0.34500003 4280959009
0.067770556 0.047915291 0.35300002 4284708973
0.068917103 0.047915291 0.35300002 4284840559
0.070063643 0.047915291 0.35300002 4284840559
0.071411915 0.048051026 0.354 4284972145
0.072561711 0.048051026 0.354 4284775536
0.073295057 0.047779553 0.35200003 4284972915
0.074438356 0.047779553 0.35200003 4285301110
0.075366922 0.047643814 0.35100001 4285169524
0.076506972 0.047643814 0.35100001 4285236085
0.077647023 0.047643814 0.35100001 4285170292
0.07856261 0.04750808 0.35000002 4285169522
0.079699412 0.04750808 0.35000002 4285169522
0.080836214 0.04750808 0.35000002 4285169522
0.081973009 0.04750808 0.35000002 4285103729
0.083109811 0.04750808 0.35000002 4285038706
0.084246613 0.04750808 0.35000002 4285038706
0.085383408 0.04750808 0.35000002 4284972913
0.086273007 0.047372341 0.34900001 4285170292
0.08715611 0.047236603 0.34800002 4284972913
0.088286422 0.047236603 0.34800002 4285367671
0.089416727 0.047236603 0.34800002 4285171321
0.090547033 0.047236603 0.34800002 4285434493
0.091677338 0.047236603 0.34800002 4285696890
0.092807643 0.047236603 0.34800002 4284578409
0.093937948 0.047236603 0.34800002 4282539853
0.095068246 0.047236603 0.34800002 4280895026
0.096198551 0.047236603 0.34800002 4279842336
0.097328857 0.047236603 0.34800002 4279973922
0.098459162 0.047236603 0.34800002 4279382809
0.099589467 0.047236603 0.34800002 4280040739
0.10071978 0.047236603 0.34800002 4280238116
0.10185007 0.047236603 0.34800002 4280040737
0.10298038 0.047236603 0.34800002 4280040737
0.10411069 0.047236603 0.34800002 4279909151
0.10524099 0.047236603 0.34800002 4279843358
0.10606562 0.047100864 0.347 4279909151
0.10719269 0.047100864 0.347 4279974944
0.10831974 0.047100864 0.347 4279778078
0.10944679 0.047100864 0.347 4279974944
0.11057385 0.047100864 0.347 4280105760
0.11170091 0.047100864 0.347 4279973660
0.11282796 0.047100864 0.347 4280039453
0.11395502 0.047100864 0.347 4279315730
0.11508209 0.047100864 0.347 4278920459
0.11620913 0.047100864 0.347 4278657289
0.11733619 0.047100864 0.347 4278986254
0.11846325 0.047100864 0.347 4279183631
0.1195903 0.047100864 0.347 4279578389
0.12071736 0.047100864 0.347 4279907102
0.12184442 0.047100864 0.347 4279841309
0.12297148 0.047100864 0.347 4279842076
0.12409852 0.047100864 0.347 4279644184
0.12522559 0.047100864 0.347 4280302114
0.12635264 0.047100864 0.347 4279841561
0.1274797 0.047100864 0.347 4279578389
0.12860675 0.047100864 0.347 4279578389
0.12973382 0.047100864 0.347 4279315219
0.13086088 0.047100864 0.347 4279973660
0.13160756 0.04696513 0.34600002 4280039453
0.13273136 0.04696513 0.34600002 4279249426
0.13385518 0.04696513 0.34600002 4279709207
0.13497899 0.04696513 0.34600002 4280105248
0.13570945 0.046829391 0.34500003 4279646494
0.13683 0.046829391 0.34500003 4279646492
0.13795055 0.046829391 0.34500003 4279515158
0.13866802 0.046693653 0.34400001 4279646744
0.13978532 0.046693653 0.34400001 4279712537
0.14090264 0.046693653 0.34400001 4279778330
0.14201996 0.046693653 0.34400001 4279843610
0.14313726 0.046693653 0.34400001 4280303393
0.14467393 0.046829391 0.34500003 4280300831
0.097328857 0.048367295 0.34800002 4285367155
0.098459162 0.048367295 0.34800002 4285959292
0.099589467 0.048367295 0.34800002 4285893499
0.10071978 0.048367295 0.34800002 4285302645
0.10185007 0.048367295 0.34800002 4284513643
0.10298038 0.048367295 0.34800002 4282342210
0.10411069 0.048367295 0.34800002 4280696870
0.10524099 0.048367295 0.34800002 4280039453
0.1063713 0.048367295 0.34800002 4279513371
0.10719269 0.048228305 0.347 4279974692
0.10831974 0.048228305 0.347 4279843360
0.10944679 0.048228305 0.347 4280171807
0.11057385 0.048228305 0.347 4280171805
0.11170091 0.048228305 0.347 4280040221
0.11282796 0.048228305 0.347 4280171807
0.11395502 0.048228305 0.347 4280106014
0.11508209 0.048228305 0.347 4280040219
0.11620913 0.048228305 0.347 4280106014
0.11733619 0.048228305 0.347 4279974428
0.11846325 0.048228305 0.347 4280040221
0.1195903 0.048228305 0.347 4280106014
0.12071736 0.048228305 0.347 4279776281
0.12184442 0.048228305 0.347 4280038940
0.12297148 0.048228305 0.347 4279709977
0.12409852 0.048228305 0.347 4279578391
0.12522559 0.048228305 0.347 4279117840
0.12635264 0.048228305 0.347 4278723082
0.1274797 0.048228305 0.347 4278525703
0.12860675 0.048228305 0.347 4279315219
0.12973382 0.048228305 0.347 4279578904
0.13086088 0.048228305 0.347 4279513625
0.13198793 0.048228305 0.347 4279842076
0.13311498 0.048228305 0.347 4279117070
0.13385518 0.048089322 0.34600002 4279973914
0.13497899 0.048089322 0.34600002 4279908635
0.1361028 0.048089322 0.34600002 4279646746
0.13683 0.047950335 0.34500003 4279712539
0.13795055 0.047950335 0.34500003 4279646746
0.13907112 0.047950335 0.34500003 4279515160
0.13978532 0.047811348 0.34400001 4279778330
0.14090264 0.047811348 0.34400001 4279778328
0.14201996 0.047811348 0.34400001 4280171807
0.14313726 0.047811348 0.34400001 4282143546
0.12071736 0.049355745 0.347 4280170010
0.12184442 0.049355745 0.347 4280236319
0.12297148 0.049355745 0.347 4280302112
0.12409852 0.049355745 0.347 4280302112
0.12522559 0.049355745 0.347 4280367905
0.12635264 0.049355745 0.347 4280236319
0.12784709 0.049497984 0.34800002 4280302112
0.12860675 0.049355745 0.347 4280170526
0.12973382 0.049355745 0.347 4280236319
0.13086088 0.049355745 0.347 4279907354
0.13198793 0.049355745 0.347 4280236832
0.13311498 0.049355745 0.347 4280171039
0.13424204 0.049355745 0.347 4280040221
0.13497899 0.049213514 0.34600002 4279974428
0.1361028 0.049213514 0.34600002 4280040221
0.13722661 0.049213514 0.34600002 4279842842
0.13795055 0.049071278 0.34500003 4279974428
0.13907112 0.049071278 0.34500003 4280171807
0.14019169 0.049071278 0.34500003 4279909405
0.14090264 0.048929039 0.34400001 4280237086
0.14201996 0.048929039 0.34400001 4284115793
0.12071736 0.050483182 0.347 4285498224
0.12219556 0.05062867 0.34800002 4285498739
0.12332587 0.05062867 0.34800002 4285302130
0.12445617 0.05062867 0.34800002 4285762163
0.12558647 0.05062867 0.34800002 4285564271
0.12671678 0.05062867 0.34800002 4285169513
0.12784709 0.05062867 0.34800002 4284248409
0.12897739 0.05062867 0.34800002 4282866758
0.1301077 0.05062867 0.34800002 4282274880
0.131238 0.05062867 0.34800002 4281156399
0.13198793 0.050483182 0.347 4281617204
0.13311498 0.050483182 0.347 4280433182
0.13424204 0.050483182 0.347 4279906838
0.13536909 0.050483182 0.347 4280235803
0.13649616 0.050483182 0.347 4280301594
0.13722661 0.050337698 0.34600002 4280367389
0.13835041 0.050337698 0.34600002 4279972631
0.13907112 0.050192215 0.34500003 4280498462
0.14019169 0.050192215 0.34500003 4283786838
0.14090264 0.050046727 0.34400001 4286352251
0.14201996 0.050046727 0.34400001 4286286197
0.12219556 0.051759358 0.34800002 4285563251
0.12332587 0.051759358 0.34800002 4285497458
0.12445617 0.051759358 0.34800002 4285629044
0.12558647 0.051759358 0.34800002 4285628528
0.12671678 0.051759358 0.34800002 4285891700
0.12784709 0.051759358 0.34800002 4285694321
0.12897739 0.051759358 0.34800002 4285694321
0.1301077 0.051759358 0.34800002 4285760114
0.131238 0.051759358 0.34800002 4285694321
0.1323683 0.051759358 0.34800002 4285760114
0.13311498 0.051610623 0.347 4285891702
0.13424204 0.051610623 0.347 4285629044
0.13536909 0.051610623 0.347 4285300079
0.13649616 0.051610623 0.347 4285629044
0.13762322 0.051610623 0.347 4285958777
0.13835041 0.05146189 0.34600002 4285629812
0.13947421 0.05146189 0.34600002 4285629812
0.14019169 0.051313158 0.34500003 4286154872
0.14131224 0.051313158 0.34500003 4286154872
0.13424204 0.052738059 0.347 4285957495
0.13536909 0.052738059 0.347 4285957495
0.13649616 0.052738059 0.347 4285957495
0.13762322 0.052738059 0.347 4286220667
0.13835041 0.052586075 0.34600002 4286089081
0.13947421 0.052586075 0.34600002 4286286460
0.14059803 0.052586075 0.34600002 4286286460
0.096488811 0.03996668 0.34826121 4294967295
0.096488811 0.03996668 0.34826121 4294901760
0.096488811 0.03996668 0.3487612 4294901760
0.096488811 0.03996668 0.34926119 4294901760
0.096488811 0.03996668 0.34976122 4294901760
0.096488811 0.03996668 0.35026121 4294901760
0.096488811 0.03996668 0.3507612 4294901760
0.096488811 0.03996668 0.3512612 4294901760
0.096488811 0.03996668 0.35176122 4294901760
0.096488811 0.03996668 0.35226122 4294901760
0.096488811 0.03996668 0.35276121 4294901760
0.096488811 0.03996668 0.3532612 4294901760
0.096488811 0.03996668 0.3537612 4294901760
0.096488811 0.03996668 0.35426122 4294901760
0.096488811 0.03996668 0.35476121 4294901760
0.096488811 0.03996668 0.35526121 4294901760
0.096488811 0.03996668 0.3557612 4294901760
0.096488811 0.03996668 0.35626119 4294901760
0.096488811 0.03996668 0.35676122 4294901760
0.096488811 0.03996668 0.35726121 4294901760
0.096488811 0.03996668 0.3577612 4294901760
0.096488811 0.03996668 0.3582612 4294901760
0.096488811 0.03996668 0.35876122 4294901760
