# .PCD v0.7 - Point Cloud Data file format
VERSION 0.7
FIELDS x y z rgb
SIZE 4 4 4 4
TYPE F F F U
COUNT 1 1 1 1
WIDTH 1008
HEIGHT 1
VIEWPOINT 0 0 0 1 0 0 0
POINTS 1008
DATA ascii
0.009928856 -0.013747321 0.377 4287840560
0.011153352 -0.013747321 0.377 4287840562
0.01237785 -0.013747321 0.377 4287972153
0.013638427 -0.013783786 0.37800002 4285745721
0.00012971072 -0.012223467 0.36800003 4287405451
0.0013321763 -0.012289898 0.37 4286668627
0.0025476338 -0.01235633 0.37200001 4286992454
0.0037760835 -0.012422762 0.37400001 4287250735
0.0050041811 -0.012455978 0.37500003 4287250222
0.0062387735 -0.012489194 0.37600002 4287315245
0.0074600223 -0.012489194 0.37600002 4287446577
0.0087043596 -0.01252241 0.377 4287051046
0.009928856 -0.01252241 0.377 4287116069
0.011153352 -0.01252241 0.377 4291592558
0.012410683 -0.012555626 0.37800002 4286987561
0.013638427 -0.012555626 0.37800002 4287906358
-0.0057512871 -0.010847996 0.36200002 4287015828
-0.004575511 -0.010847996 0.36200002 4286949265
-0.0034091256 -0.010877962 0.36300001 4287867539
-0.0022362445 -0.01090793 0.36400002 4286878332
-0.0010568673 -0.010937897 0.36500001 4287265899
0.00012935825 -0.01099783 0.36700001 4286932823
0.0013285758 -0.011057764 0.36900002 4287912009
0.0025339369 -0.011087731 0.37 4287447860
0.003765987 -0.011177632 0.37300003 4287511854
0.0049908361 -0.011207598 0.37400001 4287709233
0.0062221815 -0.011237565 0.37500003 4286722856
0.0074600223 -0.011267532 0.37600002 4286722086
0.0087043596 -0.011297498 0.377 4286788131
0.009928856 -0.011297498 0.377 4287314216
0.011182938 -0.011327466 0.37800002 4287380009
0.012410683 -0.011327466 0.37800002 4289884250
0.013638427 -0.011327466 0.37800002 4286855210
0.014866171 -0.011327466 0.37800002 4288170300
-0.0069079287 -0.0096451044 0.36100003 4286555279
-0.0057512871 -0.0096718213 0.36200002 4287469188
-0.004575511 -0.0096718213 0.36200002 4285881681
-0.0034091256 -0.009698539 0.36300001 4286202168
-0.0022301008 -0.009698539 0.36300001 4286464563
-0.0010539718 -0.0097252568 0.36400002 4287584071
0.00012900577 -0.0097786924 0.36600003 4287254333
0.0013249754 -0.009832128 0.36800003 4287053356
0.0025270884 -0.0098588457 0.36900002 4287183659
0.0037558903 -0.0099389981 0.37200001 4286005559
0.0049908361 -0.0099924337 0.37400001 4289172101
0.0062221815 -0.010019152 0.37500003 4288585102
0.0074600223 -0.010045869 0.37600002 4286477666
0.0087043596 -0.010072587 0.377 4285014294
0.009928856 -0.010072587 0.377 4286263840
0.011182938 -0.010099305 0.37800002 4286590495
0.012410683 -0.010099305 0.37800002 4286919715
0.013638427 -0.010099305 0.37800002 4287840815
0.014866171 -0.010099305 0.37800002 4288038196
0.016093915 -0.010099305 0.37800002 4284958001
-0.0080580739 -0.0084487088 0.36000001 4286818451
-0.0069079287 -0.0084721772 0.36100003 4287014545
-0.0057353997 -0.0084721772 0.36100003 4285680705
-0.0045628715 -0.0084721772 0.36100003 4286728250
-0.0033997342 -0.0084956456 0.36200002 4287380784
-0.0022301008 -0.008519114 0.36300001 4287379757
-0.0010510762 -0.008519114 0.36300001 4287708204
0.00012865329 -0.0085660517 0.36500001 4287708202
0.0013177744 -0.0085895211 0.36600003 4288037937
0.0025133914 -0.0086129894 0.36700001 4289816662
0.0037558903 -0.0087303324 0.37200001 4288058756
0.0049774921 -0.0087538008 0.37300003 4287011976
0.0062221815 -0.0088007385 0.37500003 4286881162
0.0074600223 -0.0088242069 0.37600002 4287735699
0.0087043596 -0.0088476753 0.377 4283179540
0.0099551929 -0.0088711446 0.37800002 4285280289
0.011182938 -0.0088711446 0.37800002 4286263327
0.012410683 -0.0088711446 0.37800002 4286262557
0.013674506 -0.0088946121 0.37900001 4287051303
0.014866171 -0.0088711446 0.37800002 4288169530
0.016093915 -0.0088711446 0.37800002 4285153332
-0.0080580739 -0.0072790319 0.36000001 4286621072
-0.0068887929 -0.0072790319 0.36000001 4283786324
-0.0057353997 -0.0072992519 0.36100003 4286794557
-0.0045628715 -0.0072992519 0.36100003 4286790959
-0.0033903427 -0.0072992519 0.36100003 4287380268
-0.0022239573 -0.0073194713 0.36200002 4287314216
-0.0010481807 -0.0073194713 0.36200002 4287904300
0.00012794834 -0.0073396903 0.36300001 4287838507
0.0013105734 -0.0073599103 0.36400002 4288167472
0.0024996945 -0.0073801298 0.36500001 4287773484
0.0037558903 -0.0075216666 0.37200001 4286665026
0.0049774921 -0.0075418861 0.37300003 4288716940
0.0062221815 -0.0075823255 0.37500003 4286882187
0.0074798628 -0.007622764 0.377 4287144847
0.0087274481 -0.0076429839 0.37800002 4283182622
0.0099551929 -0.0076429839 0.37800002 4286070834
0.011212522 -0.0076632029 0.37900001 4287448635
0.012443515 -0.0076632029 0.37900001 4286131487
0.013674506 -0.0076632029 0.37900001 4286459682
0.014905499 -0.0076632029 0.37900001 4286262051
0.016093915 -0.0076429839 0.37800002 4284761404
-0.0080580739 -0.006109355 0.36000001 4287473814
-0.0068887929 -0.006109355 0.36000001 4283450936
-0.0057195118 -0.006109355 0.36000001 4286135598
-0.0045502316 -0.006109355 0.36000001 4286659114
-0.0033903427 -0.0061263256 0.36100003 4286854692
-0.0022178141 -0.0061263256 0.36100003 4287182628
-0.0010481807 -0.0061432957 0.36200002 4287576103
0.00012759588 -0.0061432957 0.36200002 4288299826
0.0013069729 -0.0061602662 0.36300001 4290805102
0.0024859975 -0.0061602662 0.36300001 4287249718
0.0037558903 -0.0063129999 0.37200001 4287708206
0.0049774921 -0.0063299704 0.37300003 4287976521
0.0062221815 -0.0063639116 0.37500003 4287593581
0.0074798628 -0.0063978522 0.377 4285484093
0.0087274481 -0.0064148228 0.37800002 4287119665
0.0099815289 -0.0064317929 0.37900001 4288105531
0.011212522 -0.0064317929 0.37900001 4288301368
0.012476347 -0.0064487639 0.38000003 4286657831
0.013710587 -0.0064487639 0.38000003 4286461742
0.014905499 -0.0064317929 0.37900001 4285674281
-0.0092017232 -0.0049259574 0.35900003 4286818451
-0.0080356905 -0.0049259574 0.35900003 4287733391
-0.0068696574 -0.0049259574 0.35900003 4284432950
-0.0057195118 -0.0049396786 0.36000001 4285542432
-0.0045502316 -0.0049396786 0.36000001 4286132254
-0.003380951 -0.0049396786 0.36000001 4286591520
-0.0022116704 -0.0049396786 0.36000001 4286722336
-0.0010452853 -0.0049533998 0.36100003 4287181860
0.0001272434 -0.0049533998 0.36100003 4287247653
0.0013033724 -0.0049671209 0.36200002 4287117614
0.002479149 -0.0049671209 0.36200002 4291594364
0.0036347327 -0.0049396786 0.36000001 4287314475
0.0049774921 -0.0051180557 0.37300003 4288037171
0.0062221815 -0.0051454986 0.37500003 4287248682
0.0074997037 -0.0051866625 0.37800002 4287511597
0.0087505365 -0.0052003837 0.37900001 4287906612
0.010007866 -0.0052141049 0.38000003 4286853924
0.011271691 -0.0052278261 0.38100001 4286000155
0.01250918 -0.0052278261 0.38100001 4286198820
0.013746668 -0.0052278261 0.38100001 4285281318
0.014905499 -0.0052003837 0.37900001 4289825666
-0.0091760904 -0.003749057 0.35800001 4286752658
-0.0080356905 -0.0037595294 0.35900003 4284901210
-0.0068696574 -0.0037595294 0.35900003 4284694323
-0.0057036243 -0.0037595294 0.35900003 4285477152
-0.0045375922 -0.0037595294 0.35900003 4285606937
-0.0033715598 -0.0037595294 0.35900003 4286000155
-0.0022116704 -0.0037700015 0.36000001 4286459936
-0.0010423897 -0.0037700015 0.36000001 4286590493
0.00012689093 -0.0037700015 0.36000001 4286589723
0.0012997721 -0.003780474 0.36100003 4286852384
0.0024723008 -0.003780474 0.36100003 4287576368
0.0036347327 -0.0037700015 0.36000001 4288037169
0.0049774921 -0.0039061406 0.37300003 4288497718
0.0062055886 -0.0039166128 0.37400001 4287313444
0.0075195436 -0.0039689736 0.37900001 4288431927
0.0087736258 -0.0039794459 0.38000003 4285013521
0.010034202 -0.0039899182 0.38100001 4284751892
0.011301276 -0.0040003904 0.38200003 4284885531
0.012542013 -0.0040003904 0.38200003 4284754972
0.013782749 -0.0040003904 0.38200003 4285217326
-0.010338875 -0.0025858786 0.35800001 4286818449
-0.0091760904 -0.0025858786 0.35800001 4286555279
-0.0080133062 -0.0025858786 0.35800001 4282925621
-0.0068505215 -0.0025858786 0.35800001 4284627501
-0.0056877369 -0.0025858786 0.35800001 4284819738
-0.0045375922 -0.0025931017 0.35900003 4285080087
-0.0033715598 -0.0025931017 0.35900003 4285605658
-0.0022055269 -0.0025931017 0.35900003 4285539865
-0.0010423897 -0.0026003248 0.36000001 4286130717
0.00012689093 -0.0026003248 0.36000001 4286590498
0.0012961716 -0.0026003248 0.36000001 4286918690
0.0024723008 -0.0026075481 0.36100003 4287116069
0.0036347327 -0.0026003248 0.36000001 4287706919
0.0049641472 -0.0026870023 0.37200001 4288562998
0.0061889961 -0.0026942254 0.37300003 4287380011
0.007559225 -0.0027520105 0.38100001 4285933338
0.0088198027 -0.0027592336 0.38200003 4284293907
0.010086875 -0.0027664567 0.38300002 4283768081
0.01133086 -0.0027664567 0.38300002 4284031253
0.012574845 -0.0027664567 0.38300002 4284558365
0.013854909 -0.0027736798 0.384 4284888615
-0.011469533 -0.0014187261 0.35700002 4286686861
-0.010309996 -0.0014187261 0.35700002 4286621068
-0.0091760904 -0.0014227 0.35800001 4286489484
-0.0080133062 -0.0014227 0.35800001 4282923563
-0.0068505215 -0.0014227 0.35800001 4284758572
-0.0056877369 -0.0014227 0.35800001 4284951324
-0.0045249527 -0.0014227 0.35800001 4285672994
-0.0033715598 -0.0014266741 0.35900003 4285014294
-0.0022055269 -0.0014266741 0.35900003 4284948501
-0.0010394942 -0.0014266741 0.35900003 4285474588
0.00012689093 -0.0014306481 0.36000001 4285540381
0.0012961716 -0.0014306481 0.36000001 4286591268
0.0024723008 -0.0014346222 0.36100003 4286788131
0.0036448294 -0.0014346222 0.36100003 4286984479
0.0048173582 -0.0014346222 0.36100003 4287576103
0.0061889961 -0.0014823105 0.37300003 4286591268
0.0075790659 -0.0015180766 0.38200003 4285145880
0.0088428911 -0.0015220506 0.38300002 4287396465
0.010113211 -0.0015260245 0.384 4285950048
0.011360444 -0.0015260245 0.384 4283704087
0.01264051 -0.0015299987 0.38500002 4284164122
0.01389099 -0.0015299987 0.38500002 4283835927
0.015180798 -0.0015339727 0.38600001 4285480752
0.016434528 -0.0015339727 0.38600001 4287730045
-0.011469533 -0.00025879653 0.35700002 4284972647
-0.010309996 -0.00025879653 0.35700002 4286685578
-0.0091504594 -0.00025879653 0.35700002 4287605910
-0.0079909237 -0.00025879653 0.35700002 4283906345
-0.0068313861 -0.00025879653 0.35700002 4284691749
-0.0056718495 -0.00025879653 0.35700002 4285344799
-0.0045249527 -0.00025952145 0.35800001 4285409822
-0.0033621681 -0.00025952145 0.35800001 4284226318
-0.0022055269 -0.00026024636 0.35900003 4284226322
-0.0010394942 -0.00026024636 0.35900003 4284686873
0.00012689093 -0.00026097128 0.36000001 4285081627
0.0012997721 -0.0002616962 0.36100003 4285476637
0.0024723008 -0.0002616962 0.36100003 4285869855
0.0036448294 -0.0002616962 0.36100003 4286198047
0.0048173582 -0.0002616962 0.36100003 4286198047
0.0061889961 -0.00027039525 0.37300003 4286132772
0.0075989058 -0.00027764443 0.38300002 4285083427
0.0088659786 -0.00027836935 0.384 4287998871
0.010139548 -0.0002790943 0.38500002 4288591780
0.011390029 -0.0002790943 0.38500002 4282586381
0.012673343 -0.00027981919 0.38600001 4283835157
0.013927069 -0.00027981919 0.38600001 4284296991
0.015220128 -0.00028054413 0.38700002 4284494370
0.016477104 -0.00028054413 0.38700002 4284497196
-0.011469533 0.000901133 0.35700002 4282601269
-0.010309996 0.000901133 0.35700002 4282403377
-0.0091248276 0.00089860882 0.35600001 4282598959
-0.0079685394 0.00089860882 0.35600001 4284561708
-0.0068313861 0.000901133 0.35700002 4285018918
-0.0056718495 0.000901133 0.35700002 4285475099
-0.0045249527 0.00090365717 0.35800001 4286067236
-0.0033621681 0.00090365717 0.35800001 4284161812
-0.0022055269 0.00090618141 0.35900003 4284359450
-0.0010423897 0.00090870552 0.36000001 4284425497
0.00012689093 0.00090870552 0.36000001 4285346597
0.0012997721 0.00091122976 0.36100003 4285150754
0.002479149 0.00091375393 0.36200002 4285413156
0.0036549256 0.00091375393 0.36200002 4285873193
0.0048307027 0.00091375393 0.36200002 4285215263
0.0060064788 0.00091375393 0.36200002 4285082912
0.0075989058 0.00096676173 0.38300002 4290024842
0.0088659786 0.0009692859 0.384 4286818449
0.010139548 0.00097181014 0.38500002 4287213718
0.011419613 0.00097433425 0.38600001 4283316524
0.012673343 0.00097433425 0.38600001 4283639323
0.013963151 0.00097685843 0.38700002 4284560161
0.015220128 0.00097685843 0.38700002 4284560675
0.016477104 0.00097685843 0.38700002 4285676078
0.017734082 0.00097685843 0.38700002 4286333494
-0.011437405 0.0020552892 0.35600001 4282469420
-0.010281117 0.0020552892 0.35600001 4283322934
-0.0091248276 0.0020552892 0.35600001 4282200349
-0.0079685394 0.0020552892 0.35600001 4284626470
-0.0068122507 0.0020552892 0.35600001 4285347111
-0.0056559616 0.0020552892 0.35600001 4285935393
-0.0045249527 0.0020668358 0.35800001 4285540635
-0.0033621681 0.0020668358 0.35800001 4284233513
-0.0022055269 0.002072609 0.35900003 4282984991
-0.0010423897 0.0020783823 0.36000001 4283375124
0.0001272434 0.0020841558 0.36100003 4284032023
0.0013033724 0.0020899288 0.36200002 4284360216
0.0024859975 0.0020957021 0.36300001 4285083939
0.0036751186 0.0021014756 0.36400002 4285151017
0.0048440467 0.0020957021 0.36300001 4282256902
0.0062719584 0.0021823014 0.37800002 4281012493
0.0075989058 0.0022111679 0.38300002 4289047968
0.0088890679 0.0022227145 0.38500002 4287147416
0.010165884 0.0022284877 0.38600001 4287147416
0.011419613 0.0022284877 0.38600001 4285623902
0.012706175 0.002234261 0.38700002 4283509790
0.013963151 0.002234261 0.38700002 4284165917
0.015259456 0.0022400343 0.38800001 4284429089
0.016519681 0.0022400343 0.38800001 4286135598
0.017734082 0.002234261 0.38700002 4287447862
-0.011437405 0.0032119695 0.35600001 4283587383
-0.010281117 0.0032119695 0.35600001 4281938715
-0.0090991966 0.0032029471 0.35500002 4283250211
-0.007946156 0.0032029471 0.35500002 4285019429
-0.0068122507 0.0032119695 0.35600001 4285477152
-0.0056559616 0.0032119695 0.35600001 4286526758
-0.0045249527 0.0032300141 0.35800001 4286989876
-0.0033621681 0.0032300141 0.35800001 4287471498
-0.0022116704 0.003248059 0.36000001 4287406734
-0.0010452853 0.0032570816 0.36100003 4283975481
0.00012759588 0.0032661038 0.36200002 4283903778
0.0013069729 0.003275126 0.36300001 4284490777
0.002492846 0.0032841486 0.36400002 4285017632
0.0036953117 0.0033021935 0.36600003 4283179542
0.0048573916 0.0032841486 0.36400002 4282328092
0.0062885508 0.0034194842 0.37900001 4282532921
0.0075989058 0.0034555739 0.38300002 4280824358
0.0088890679 0.0034736188 0.38500002 4287475609
0.010165884 0.003482641 0.38600001 4287344025
0.011449198 0.0034916636 0.38700002 4288126864
0.012739007 0.0035006858 0.38800001 4282722332
0.013999231 0.0035006858 0.38800001 4283836440
0.015298785 0.0035097084 0.38900003 4284625443
0.016562259 0.0035097084 0.38900003 4285542691
-0.0090991966 0.0043563787 0.35500002 4283907110
-0.007946156 0.0043563787 0.35500002 4285215009
-0.0067931153 0.0043563787 0.35500002 4285673246
-0.0056559616 0.0043686498 0.35600001 4286593321
-0.0045249527 0.0043931929 0.35800001 4290022266
-0.0033621681 0.0043931929 0.35800001 4287139451
-0.0022116704 0.0044177361 0.36000001 4284173628
-0.0010481807 0.0044422788 0.36200002 4283970600
0.00012794834 0.0044545503 0.36300001 4283575583
0.0013105734 0.0044668219 0.36400002 4285608484
0.002506543 0.004491365 0.36600003 4286531123
0.0037155047 0.0045159082 0.36800003 4282325775
0.0050308695 0.0046263509 0.377 4282661682
0.0062885508 0.0046508941 0.37900001 4283192393
0.0075790659 0.0046877088 0.38200003 4279902741
0.0088890679 0.0047245231 0.38500002 4288001442
0.010165884 0.0047367946 0.38600001 4287344025
0.011449198 0.0047490662 0.38700002 4288918176
0.012739007 0.0047613373 0.38800001 4282724385
0.014035312 0.0047736093 0.38900003 4283967259
0.015298785 0.0047736093 0.38900003 4284163868
0.016604833 0.0047858804 0.39000002 4285871656
-0.011405277 0.0055098101 0.35500002 4281215757
-0.010252237 0.0055098101 0.35500002 4282001939
-0.0090991966 0.0055098101 0.35500002 4284300071
-0.007946156 0.0055098101 0.35500002 4285411105
-0.0067931153 0.0055098101 0.35500002 4286001184
-0.0056559616 0.0055253301 0.35600001 4286069287
-0.0045249527 0.0055563715 0.35800001 4289234808
-0.0033621681 0.0055563715 0.35800001 4285088050
-0.0022116704 0.005587413 0.36000001 4285481265
-0.0010481807 0.005618454 0.36200002 4284230944
0.00012830083 0.0056494954 0.36400002 4284428064
0.0013141739 0.0056650154 0.36500001 4285345051
0.0025202399 0.0057115778 0.36800003 4286267951
0.0037356974 0.0057426183 0.37 4280881929
0.0050175255 0.0058357422 0.37600002 4280427547
0.0062885508 0.0058823037 0.37900001 4278914824
0.0075790659 0.0059288661 0.38200003 4282336060
0.0088890679 0.0059754276 0.38500002 4287474326
0.010192221 0.006006469 0.38700002 4287212437
0.011478783 0.006021989 0.38800001 4288720797
0.01277184 0.00603751 0.38900003 4281736207
0.014071392 0.0060530305 0.39000002 4283900437
0.015338113 0.0060530305 0.39000002 4284360988
0.016647412 0.0060685514 0.39100003 4285279521
0.017963205 0.0060840719 0.39200002 4286658085
0.019236421 0.0060840719 0.39200002 4285802522
0.020509636 0.0060840719 0.39200002 4287909188
-0.012558319 0.0066632414 0.35500002 4281678361
-0.011405277 0.0066632414 0.35500002 4281677337
-0.010252237 0.0066632414 0.35500002 4283645991
-0.0090991966 0.0066632414 0.35500002 4284693031
-0.007946156 0.0066632414 0.35500002 4285804062
-0.0067931153 0.0066632414 0.35500002 4286000668
-0.0056559616 0.0066820108 0.35600001 4285739039
-0.0045249527 0.0067195501 0.35800001 4285676074
-0.0033715598 0.00673832 0.35900003 4285676846
-0.0022116704 0.0067570894 0.36000001 4284755744
-0.0010481807 0.0067946292 0.36200002 4284689953
0.00012830083 0.0068321684 0.36400002 4284952351
0.0013177744 0.0068697082 0.36600003 4286002983
0.0025202399 0.0069072475 0.36800003 4284162839
0.0037457941 0.0069635562 0.37100002 4286022775
0.0050175255 0.0070574046 0.37600002 4283129426
0.0062719584 0.0070949444 0.37800002 4282140218
0.007559225 0.0071512531 0.38100001 4280824358
0.0088890679 0.0072263321 0.38500002 4287011978
0.010192221 0.0072638714 0.38700002 4287212439
0.011508367 0.0073014111 0.38900003 4284507731
0.012804672 0.0073201805 0.39000002 4283247131
0.014107473 0.0073389504 0.39100003 4283965460
0.015377442 0.0073389504 0.39100003 4284886560
0.016689988 0.0073577198 0.39200002 4285477668
0.017963205 0.0073577198 0.39200002 4286066982
0.019236421 0.0073577198 0.39200002 4286526247
0.020561956 0.0073764892 0.39300001 4286921264
-0.012558319 0.0078166723 0.35500002 4280756489
-0.011405277 0.0078166723 0.35500002 4280426757
-0.010252237 0.0078166723 0.35500002 4282458379
-0.0090991966 0.0078166723 0.35500002 4284888863
-0.0079685394 0.0078386907 0.35600001 4285934621
-0.0068122507 0.0078386907 0.35600001 4286459682
-0.0056559616 0.0078386907 0.35600001 4286068258
-0.0045249527 0.0078827282 0.35800001 4285148439
-0.0033715598 0.0079047475 0.35900003 4285281570
-0.0022116704 0.0079267658 0.36000001 4284163607
-0.0010481807 0.0079708034 0.36200002 4284360216
0.00012830083 0.0080148419 0.36400002 4285280289
0.0013177744 0.0080588795 0.36600003 4286399024
0.0025270884 0.0081249354 0.36900002 4286536781
0.0037558903 0.0081909914 0.37200001 4285761659
0.0050041811 0.0082570482 0.37500003 4281945152
0.0062719584 0.0083231041 0.37800002 4282798914
0.0075393845 0.0083671426 0.38000003 4283522639
0.0089121563 0.0084992545 0.38600001 4286091648
0.010218557 0.0085432921 0.38800001 4287542174
0.011537951 0.0085873296 0.39000002 4282397217
0.012837506 0.0086093489 0.39100003 4283640345
0.014143554 0.0086313672 0.39200002 4284360984
0.01541677 0.0086313672 0.39200002 4284886558
0.016689988 0.0086313672 0.39200002 4285279519
0.018009027 0.0086533865 0.39300001 4285936936
0.019285493 0.0086533865 0.39300001 4285871656
0.020561956 0.0086533865 0.39300001 4285284148
-0.013749982 0.0089953709 0.35600001 4281414419
-0.012593693 0.0089953709 0.35600001 4280558091
-0.011405277 0.0089701032 0.35500002 4280425222
-0.010252237 0.0089701032 0.35500002 4284889640
-0.0091248276 0.0089953709 0.35600001 4285216547
-0.0079685394 0.0089953709 0.35600001 4286132000
-0.0068122507 0.0089953709 0.35600001 4287579700
-0.0056718495 0.0090206396 0.35700002 4285212949
-0.0045249527 0.0090459064 0.35800001 4285148955
-0.0033715598 0.009071175 0.35900003 4284887845
-0.0022116704 0.0090964427 0.36000001 4284229915
-0.0010481807 0.0091469781 0.36200002 4284754460
0.00012830083 0.0091975145 0.36400002 4285147933
0.0013177744 0.0092480499 0.36600003 4285743404
0.0025270884 0.009323854 0.36900002 4284566841
0.0037457941 0.0093743894 0.37100002 4282008117
0.0049908361 0.0094501935 0.37400001 4283521871
0.0062387735 0.0095007289 0.37600002 4283851602
0.0074997037 0.0095512653 0.37800002 4281811249
0.0089583332 0.0098039433 0.38800001 4284971882
0.010271231 0.0098544797 0.39000002 4288131742
0.011567537 0.0098797483 0.39100003 4282787094
0.012870338 0.0099050151 0.39200002 4283967511
0.014143554 0.0099050151 0.39200002 4284819738
0.015456098 0.0099302828 0.39300001 4285017117
0.016732562 0.0099302828 0.39300001 4285674016
0.018009027 0.0099302828 0.39300001 4286069289
0.019285493 0.0099302828 0.39300001 4283580208
-0.013749982 0.010152051 0.35600001 4280821517
-0.012593693 0.010152051 0.35600001 4280754702
-0.011437405 0.010152051 0.35600001 4280490503
-0.010281117 0.010152051 0.35600001 4284756255
-0.0091248276 0.010152051 0.35600001 4285477922
-0.0079685394 0.010152051 0.35600001 4286526245
-0.0068122507 0.010152051 0.35600001 4287579700
-0.0056718495 0.010180569 0.35700002 4284621330
-0.0045249527 0.010209085 0.35800001 4286333492
-0.0033715598 0.010237603 0.35900003 4285744437
-0.0022116704 0.01026612 0.36000001 4284099099
-0.0010481807 0.010323154 0.36200002 4284820767
0.00012830083 0.010380188 0.36400002 4285346082
0.0013177744 0.010437222 0.36600003 4283771159
0.0025270884 0.010522773 0.36900002 4282000662
0.0037457941 0.010579807 0.37100002 4281413413
0.0049774921 0.010636841 0.37300003 4291876299
0.0062221815 0.010693875 0.37500003 4283520813
0.0074798628 0.010750908 0.377 4283387176
0.0089814216 0.011093114 0.38900003 4281219105
0.010297568 0.011150148 0.39100003 4284376145
0.01159712 0.011178664 0.39200002 4283705884
0.01290317 0.011207181 0.39300001 4284360216
0.014179633 0.011207181 0.39300001 4284422927
0.015495427 0.011235698 0.39400002 4285409822
0.016775141 0.011235698 0.39400002 4286069289
0.018009027 0.011207181 0.39300001 4287786846
-0.014906271 0.011308732 0.35600001 4282795818
-0.013749982 0.011308732 0.35600001 4280953103
-0.012593693 0.011308732 0.35600001 4280952081
-0.011437405 0.011308732 0.35600001 4282133014
-0.010281117 0.011308732 0.35600001 4285215775
-0.0091248276 0.011308732 0.35600001 4286068004
-0.0079685394 0.011308732 0.35600001 4286985510
-0.0068122507 0.011308732 0.35600001 4286788901
-0.0056718495 0.011340499 0.35700002 4284622359
-0.0045249527 0.011372264 0.35800001 4286006326
-0.0033715598 0.011404031 0.35900003 4284889642
-0.0022116704 0.011435797 0.36000001 4283968540
-0.0010452853 0.011467564 0.36100003 4284821537
0.00012830083 0.011562862 0.36400002 4285215263
0.0013177744 0.011626394 0.36600003 4283443479
0.0025270884 0.011721692 0.36900002 4282461729
0.0037457941 0.011785224 0.37100002 4281937699
0.0049774921 0.011848757 0.37300003 4285952867
0.0062055886 0.011880523 0.37400001 4283913768
0.0074401824 0.011912289 0.37500003 4286478918
0.0089814216 0.012357014 0.38900003 4282400799
0.010323904 0.012452313 0.39200002 4282004254
0.011626705 0.012484078 0.39300001 4283705114
0.012936003 0.012515845 0.39400002 4284951837
0.014215714 0.012515845 0.39400002 4285475099
0.015495427 0.012515845 0.39400002 4285804064
0.016775141 0.012515845 0.39400002 4285084709
-0.014906271 0.012465413 0.35600001 4281216788
-0.013749982 0.012465413 0.35600001 4280624651
-0.012593693 0.012465413 0.35600001 4281016847
-0.011437405 0.012465413 0.35600001 4284301614
-0.010281117 0.012465413 0.35600001 4285674016
-0.0091248276 0.012465413 0.35600001 4286000668
-0.0079685394 0.012465413 0.35600001 4287774769
-0.0068313861 0.012500429 0.35700002 4287906612
-0.0056718495 0.012500429 0.35700002 4284949007
-0.0045249527 0.012535443 0.35800001 4285676076
-0.0033715598 0.012570458 0.35900003 4283969310
-0.0022116704 0.012605473 0.36000001 4283507989
-0.0010452853 0.012640489 0.36100003 4284820505
0.00012830083 0.012745535 0.36400002 4285346849
0.0013177744 0.012815565 0.36600003 4283378977
0.0025270884 0.012920611 0.36900002 4281739548
0.0037356974 0.012955626 0.37 4281542423
0.0049641472 0.013025655 0.37200001 4283978559
0.0061889961 0.013060671 0.37300003 4280952585
0.0074203415 0.013095686 0.37400001 4282727965
0.0089814216 0.013620915 0.38900003 4282202648
0.010323904 0.013725961 0.39200002 4281279499
0.01165629 0.01379599 0.39400002 4284098845
0.012968834 0.013831005 0.39500001 4285213726
0.014251795 0.013831005 0.39500001 4285935393
0.015534755 0.013831005 0.39500001 4285803037
0.016817717 0.013831005 0.39500001 4285020974
-0.014906271 0.013622093 0.35600001 4281678109
-0.013749982 0.013622093 0.35600001 4281019409
-0.012593693 0.013622093 0.35600001 4281277451
-0.011437405 0.013622093 0.35600001 4285153584
-0.010281117 0.013622093 0.35600001 4286331176
-0.0091248276 0.013622093 0.35600001 4286854694
-0.0079685394 0.013622093 0.35600001 4291065446
-0.0068313861 0.013660357 0.35700002 4287906612
-0.0056718495 0.013660357 0.35700002 4287641126
-0.0045249527 0.013698622 0.35800001 4287312931
-0.0033715598 0.013736886 0.35900003 4286460452
-0.0022116704 0.01377515 0.36000001 4285738271
-0.0010452853 0.013813416 0.36100003 4285673246
0.00012865329 0.013966472 0.36500001 4286133797
0.0013213749 0.014043001 0.36700001 4282655254
0.0025270884 0.014119529 0.36900002 4281936668
0.0037356974 0.014157793 0.37 4281410322
0.0049641472 0.014234321 0.37200001 4283517747
0.0061889961 0.014272586 0.37300003 4281610513
0.0074203415 0.014310851 0.37400001 4283123239
0.0089814216 0.014884816 0.38900003 4280755206
0.010455586 0.015190929 0.39700001 4281343236
0.011685873 0.015114401 0.39500001 4285017117
0.013001667 0.015152666 0.39600003 4285935393
0.014251795 0.015114401 0.39500001 4286131489
0.015534755 0.015114401 0.39500001 4286328868
0.016817717 0.015114401 0.39500001 4286143307
-0.01606256 0.014778772 0.35600001 4281942308
-0.014906271 0.014778772 0.35600001 4282007331
-0.013749982 0.014778772 0.35600001 4281678366
-0.012593693 0.014778772 0.35600001 4281867275
-0.011437405 0.014778772 0.35600001 4285283884
-0.010281117 0.014778772 0.35600001 4286395426
-0.0091248276 0.014778772 0.35600001 4287446061
-0.0079685394 0.014778772 0.35600001 4287642411
-0.0068313861 0.014820287 0.35700002 4287443747
-0.0056718495 0.014820287 0.35700002 4287969064
-0.0045249527 0.0148618 0.35800001 4288100650
-0.0033621681 0.0148618 0.35800001 4288299828
-0.0022055269 0.014903313 0.35900003 4288234035
-0.0010452853 0.014986341 0.36100003 4288432697
0.00012865329 0.015152394 0.36500001 4286987050
0.0013213749 0.01523542 0.36700001 4282392084
0.0025270884 0.015318448 0.36900002 4282134047
0.0037457941 0.015401474 0.37100002 4283846462
0.0049508028 0.015401474 0.37100002 4283980612
0.0061724037 0.015442987 0.37200001 4283124522
0.0078568328 0.016439309 0.39600003 4284177210
0.0091661299 0.016480822 0.39700001 4281805332
0.010455586 0.016480822 0.39700001 4282127619
0.011715459 0.016439309 0.39600003 4285739809
0.013001667 0.016439309 0.39600003 4286263840
0.014287875 0.016439309 0.39600003 4286459166
0.015574085 0.016439309 0.39600003 4286722338
0.016860293 0.016439309 0.39600003 4288909954
-0.01606256 0.015935453 0.35600001 4281811240
-0.014906271 0.015935453 0.35600001 4281810470
-0.013749982 0.015935453 0.35600001 4281810470
-0.012593693 0.015935453 0.35600001 4283708196
-0.011437405 0.015935453 0.35600001 4285414187
-0.010281117 0.015935453 0.35600001 4286328868
-0.0091248276 0.015935453 0.35600001 4286853670
-0.0079685394 0.015935453 0.35600001 4287181349
-0.0068313861 0.015980216 0.35700002 4287706923
-0.0056718495 0.015980216 0.35700002 4288100909
-0.0045249527 0.016024979 0.35800001 4292773750
-0.0033621681 0.016024979 0.35800001 4290741612
-0.0022055269 0.016069742 0.35900003 4287906355
-0.0010423897 0.016114503 0.36000001 4288167472
0.00012935825 0.016427841 0.36700001 4287840817
0.0013249754 0.016472604 0.36800003 4281932303
0.0025339369 0.016562128 0.37 4282135076
0.0037457941 0.016606892 0.37100002 4281083933
0.0049508028 0.016606892 0.37100002 4284901464
0.0065540308 0.017681191 0.39500001 4281874984
0.0078568328 0.017725954 0.39600003 4287861631
0.0091661299 0.017770715 0.39700001 4282525205
0.010455586 0.017770715 0.39700001 4283768851
0.011715459 0.017725954 0.39600003 4286131487
0.013001667 0.017725954 0.39600003 4286787874
0.014287875 0.017725954 0.39600003 4287116069
0.015574085 0.017725954 0.39600003 4287117866
0.016860293 0.017725954 0.39600003 4288781968
-0.01606256 0.017092135 0.35600001 4283591510
-0.014906271 0.017092135 0.35600001 4282075704
-0.013749982 0.017092135 0.35600001 4280825124
-0.012593693 0.017092135 0.35600001 4284497712
-0.011437405 0.017092135 0.35600001 4285018918
-0.010281117 0.017092135 0.35600001 4286066979
-0.0091248276 0.017092135 0.35600001 4286460454
-0.0079909237 0.017140146 0.35700002 4286787620
-0.0068313861 0.017140146 0.35700002 4286787104
-0.0056718495 0.017140146 0.35700002 4287377956
-0.0045249527 0.017188158 0.35800001 4287772714
-0.0033621681 0.017188158 0.35800001 4288698706
-0.0022055269 0.017236169 0.35900003 4290609272
-0.0010394942 0.017236169 0.35900003 4288036656
0.00012971072 0.017668275 0.36800003 4288037169
0.0013285758 0.017716285 0.36900002 4281339396
0.0025407854 0.01781231 0.37100002 4280357897
0.0037558903 0.017860319 0.37200001 4280886556
0.0049641472 0.017860319 0.37200001 4282925621
0.0065374384 0.018916577 0.39400002 4283643432
0.0078369919 0.018964587 0.39500001 4288444776
0.0091430414 0.0190126 0.39600003 4283899413
0.01042925 0.0190126 0.39600003 4286265131
0.011715459 0.0190126 0.39600003 4286919206
0.013001667 0.0190126 0.39600003 4287050274
0.014287875 0.0190126 0.39600003 4287116067
0.015574085 0.0190126 0.39600003 4286526245
-0.014906271 0.018248815 0.35600001 4287146646
-0.013749982 0.018248815 0.35600001 4287869086
-0.012593693 0.018248815 0.35600001 4282788127
-0.011437405 0.018248815 0.35600001 4284559398
-0.010281117 0.018248815 0.35600001 4285606428
-0.0091248276 0.018248815 0.35600001 4285539352
-0.0079909237 0.018300075 0.35700002 4286261787
-0.0068313861 0.018300075 0.35700002 4286524959
-0.0056718495 0.018300075 0.35700002 4286918690
-0.0045249527 0.018351335 0.35800001 4287050276
-0.0033621681 0.018351335 0.35800001 4287311659
-0.0022055269 0.018402597 0.35900003 4288103228
-0.0010394942 0.018402597 0.35900003 4287378726
0.00012971072 0.018863944 0.36800003 4287906355
0.0013285758 0.018915204 0.36900002 4283837218
0.0025407854 0.019017726 0.37100002 4281146646
0.0037558903 0.019068986 0.37200001 4280822305
0.0051910039 0.019940419 0.38900003 4282005289
0.0065042535 0.020094201 0.39200002 4286662457
0.0077973106 0.020145461 0.39300001 4287317301
0.0090968646 0.020196723 0.39400002 4289552984
0.010402913 0.020247983 0.39500001 4286855212
0.011685873 0.020247983 0.39500001 4287181608
0.012968834 0.020247983 0.39500001 4287445032
0.014251795 0.020247983 0.39500001 4287314218
0.015574085 0.020299245 0.39600003 4287383612
-0.014906271 0.019405494 0.35600001 4287014806
-0.013749982 0.019405494 0.35600001 4287341974
-0.012593693 0.019405494 0.35600001 4283118891
-0.011437405 0.019405494 0.35600001 4283968804
-0.010281117 0.019405494 0.35600001 4285147674
-0.0091504594 0.019460006 0.35700002 4285474842
-0.0079909237 0.019460006 0.35700002 4285670936
-0.0068313861 0.019460006 0.35700002 4285670166
-0.0056877369 0.019514514 0.35800001 4286589725
-0.0045249527 0.019514514 0.35800001 4286787104
-0.0033715598 0.019569024 0.35900003 4287114786
-0.0022055269 0.019569024 0.35900003 4288233267
-0.0010423897 0.019623535 0.36000001 4288036656
0.00012971072 0.020059614 0.36800003 4288235575
0.0013285758 0.020114122 0.36900002 4283506710
0.0025407854 0.020223143 0.37100002 4281933849
0.0037558903 0.020277651 0.37200001 4281805861
0.005177659 0.021149809 0.38800001 4284957245
0.006487661 0.021313339 0.39100003 4286922795
0.0077774702 0.021367848 0.39200002 4288432952
0.0090737753 0.021422358 0.39300001 4290671204
0.010376576 0.021476869 0.39400002 4287774515
0.01165629 0.021476869 0.39400002 4287707693
0.012936003 0.021476869 0.39400002 4287707693
0.014251795 0.021531377 0.39500001 4287775542
-0.014906271 0.020562174 0.35600001 4287211926
-0.013749982 0.020562174 0.35600001 4287736986
-0.012593693 0.020562174 0.35600001 4283119153
-0.011437405 0.020562174 0.35600001 4283576358
-0.010309996 0.020619934 0.35700002 4285017630
-0.0091504594 0.020619934 0.35700002 4284753175
-0.0079909237 0.020619934 0.35700002 4285804580
-0.0068505215 0.020677693 0.35800001 4285277466
-0.0056877369 0.020677693 0.35800001 4285341973
-0.0045375922 0.020735452 0.35900003 4286328098
-0.0033715598 0.020735452 0.35900003 4286590495
-0.0022116704 0.020793211 0.36000001 4286721311
-0.0010452853 0.020850971 0.36100003 4286720796
0.00012935825 0.021197524 0.36700001 4287051046
0.0013285758 0.021313041 0.36900002 4284299831
0.0025407854 0.021428559 0.37100002 4281342482
0.0038972411 0.022294942 0.38600001 4283444258
0.005177659 0.02241046 0.38800001 4285478185
0.0064544762 0.02246822 0.38900003 4287314216
0.0077576302 0.022583738 0.39100003 4287708202
0.0090506868 0.022641497 0.39200002 4292910210
0.010350239 0.022699254 0.39300001 4287775026
0.011626705 0.022699254 0.39300001 4287774774
0.012936003 0.022757014 0.39400002 4287578163
0.014215714 0.022757014 0.39400002 4287519565
-0.014906271 0.021718854 0.35600001 4287211926
-0.013749982 0.021718854 0.35600001 4288001442
-0.012629069 0.021779863 0.35700002 4282528553
-0.011469533 0.021779863 0.35700002 4283446055
-0.010309996 0.021779863 0.35700002 4284164122
-0.0091504594 0.021779863 0.35700002 4284228632
-0.0080133062 0.02184087 0.35800001 4284424982
-0.0068505215 0.02184087 0.35800001 4284292626
-0.0057036243 0.021901879 0.35900003 4284422927
-0.0045375922 0.021901879 0.35900003 4285672994
-0.003380951 0.021962887 0.36000001 4285869600
-0.0022178141 0.022023896 0.36100003 4286461735
-0.0010481807 0.022084903 0.36200002 4286921516
0.00012900577 0.022328936 0.36600003 4285935650
0.0013213749 0.022389943 0.36700001 4289834915
0.0026298154 0.023427079 0.384 4283718733
0.0038972411 0.023549095 0.38600001 4284298023
0.0051643145 0.023610104 0.38700002 4285346597
0.0064544762 0.02373212 0.38900003 4288037689
0.0077377893 0.023793127 0.39000002 4288498238
0.0090275994 0.023854136 0.39100003 4288368701
0.010323904 0.023915144 0.39200002 4292975494
0.01159712 0.023915144 0.39200002 4294964186
0.01290317 0.023976151 0.39300001 4291996569
0.014179633 0.023976151 0.39300001 4287254592
-0.014906271 0.022875536 0.35600001 4287146646
-0.013788607 0.022939794 0.35700002 4287804576
-0.012629069 0.022939794 0.35700002 4282923309
-0.011469533 0.022939794 0.35700002 4283906093
-0.010338875 0.023004051 0.35800001 4284231712
-0.0091760904 0.023004051 0.35800001 4284033306
-0.0080133062 0.023004051 0.35800001 4284164122
-0.0068696574 0.023068309 0.35900003 4284624160
-0.0057195118 0.023132564 0.36000001 4284623390
-0.0045502316 0.023132564 0.36000001 4285741871
-0.0033903427 0.023196824 0.36100003 4285939248
-0.0022239573 0.02326108 0.36200002 4285872939
-0.0010510762 0.023325335 0.36300001 4286267438
0.00012900577 0.023518108 0.36600003 4285346336
0.0013213749 0.023582365 0.36700001 4289573794
0.0026298154 0.024674736 0.384 4288591780
0.0038972411 0.024803249 0.38600001 4283844159
0.0051643145 0.024867509 0.38700002 4285150763
0.0064378832 0.024931764 0.38800001 4288237117
0.0077179489 0.024996022 0.38900003 4287773999
0.00900451 0.025060279 0.39000002 4288430642
0.010297568 0.025124537 0.39100003 4288102449
0.01159712 0.025188792 0.39200002 4289817437
0.012870338 0.025188792 0.39200002 4288104509
0.014179633 0.02525305 0.39300001 4288235068
0.015456098 0.02525305 0.39300001 4286792247
-0.01382723 0.024167228 0.35800001 4287278232
-0.012664445 0.024167228 0.35800001 4286351738
-0.01150166 0.024167228 0.35800001 4283119407
-0.010367756 0.024234736 0.35900003 4284693292
-0.0092017232 0.024234736 0.35900003 4284035103
-0.0080356905 0.024234736 0.35900003 4284560677
-0.0068887929 0.024302242 0.36000001 4284757542
-0.0057353997 0.024369748 0.36100003 4284823335
-0.0045628715 0.024369748 0.36100003 4284889128
-0.0033997342 0.024437254 0.36200002 4285152046
-0.0022301008 0.02450476 0.36300001 4284953638
-0.0010539718 0.024572266 0.36400002 4284820253
0.00012900577 0.02470728 0.36600003 4286399285
0.0013213749 0.024774784 0.36700001 4289507226
0.0026298154 0.02592239 0.384 4287802775
0.0038972411 0.026057404 0.38600001 4288460194
0.0051643145 0.02612491 0.38700002 4283189563
0.0064378832 0.026192416 0.38800001 4287446831
0.0077179489 0.026259923 0.38900003 4288232493
0.00900451 0.026327427 0.39000002 4288364076
0.010297568 0.026394935 0.39100003 4288824627
0.011567537 0.026394935 0.39100003 4288495919
0.012870338 0.026462441 0.39200002 4288759607
0.014179633 0.026529947 0.39300001 4288234548
0.015456098 0.026529947 0.39300001 4287709233
-0.01382723 0.025330408 0.35800001 4287607197
-0.012699821 0.025401164 0.35900003 4287540891
-0.011533787 0.025401164 0.35900003 4284048213
-0.010396635 0.025471918 0.36000001 4284760116
-0.0092273541 0.025471918 0.36000001 4284561708
-0.0080804573 0.025542675 0.36100003 4285153584
-0.0069079287 0.025542675 0.36100003 4284232482
-0.0057512871 0.025613429 0.36200002 4287200108
-0.004575511 0.025613429 0.36200002 4288190862
-0.0034091256 0.025684183 0.36300001 4288782999
-0.0022362445 0.02575494 0.36400002 4284236602
-0.0010568673 0.025825694 0.36500001 4284494116
0.00012900577 0.025896451 0.36600003 4285479982
0.0013213749 0.025967205 0.36700001 4287529582
0.0026366641 0.027240802 0.38500002 4287933332
0.0038972411 0.027311556 0.38600001 4287671189
0.0051643145 0.027382312 0.38700002 4288188800
0.0064378832 0.027453067 0.38800001 4288102710
0.0077179489 0.027523823 0.38900003 4288364079
0.00900451 0.027594578 0.39000002 4288494892
0.010271231 0.027594578 0.39000002 4288429099
0.011567537 0.027665334 0.39100003 4288561451
0.012870338 0.027736088 0.39200002 4288298536
0.014143554 0.027736088 0.39200002 4288365101
0.01541677 0.027736088 0.39200002 4287840558
-0.013865854 0.026567591 0.35900003 4287672990
-0.012735196 0.026641594 0.36000001 4287672736
-0.011565915 0.026641594 0.36000001 4288592295
-0.010425515 0.026715601 0.36100003 4284038710
-0.0092529859 0.026715601 0.36100003 4284694325
-0.0081028407 0.026789604 0.36200002 4284693033
-0.0069270642 0.026789604 0.36200002 4283508759
-0.0057671745 0.026863607 0.36300001 4289969068
-0.0046007899 0.026937613 0.36400002 4288000670
-0.0034185173 0.026937613 0.36400002 4288658088
-0.002242388 0.027011616 0.36500001 4283915342
-0.0010597629 0.027085623 0.36600003 4283508253
0.00012935825 0.027159626 0.36700001 4284493605
0.0013213749 0.027159626 0.36700001 4284693033
0.002650361 0.028639715 0.38700002 4290357398
0.0039073378 0.028639715 0.38700002 4287982944
0.005177659 0.028713718 0.38800001 4287118645
0.0064378832 0.028713718 0.38800001 4287642161
0.0077179489 0.028787725 0.38900003 4288891967
0.00900451 0.028861728 0.39000002 4288494892
0.010271231 0.028861728 0.39000002 4288495662
0.011567537 0.028935732 0.39100003 4288101931
0.012837506 0.028935732 0.39100003 4287312161
0.014143554 0.029009737 0.39200002 4287377956
0.01541677 0.029009737 0.39200002 4286920487
-0.013865854 0.027734019 0.35900003 4287804322
-0.012770572 0.027888525 0.36100003 4287870115
-0.01163017 0.027965778 0.36200002 4287935395
-0.010454394 0.027965778 0.36200002 4285359195
-0.0093042487 0.028043032 0.36300001 4284103985
-0.0081252242 0.028043032 0.36300001 4284626986
-0.0069461991 0.028043032 0.36300001 4284888874
-0.005783062 0.028120287 0.36400002 4289308825
-0.0046134293 0.028197538 0.36500001 4288197022
-0.0034279088 0.028197538 0.36500001 4287935395
-0.0022485317 0.028274793 0.36600003 4287802012
-0.0010597629 0.028274793 0.36600003 4285750613
0.00012935825 0.028352046 0.36700001 4284560171
0.0013249754 0.028429301 0.36800003 4286267186
0.002650361 0.029897118 0.38700002 4287120442
0.0039174343 0.029974369 0.38800001 4288037944
0.005177659 0.029974369 0.38800001 4288432702
0.0064544762 0.030051624 0.38900003 4289022529
0.0077179489 0.030051624 0.38900003 4288428845
0.0089814216 0.030051624 0.38900003 4288494890
0.010271231 0.030128878 0.39000002 4288233517
0.011567537 0.030206133 0.39100003 4286919206
0.012837506 0.030206133 0.39100003 4286853672
0.014143554 0.030283384 0.39200002 4286790448
0.01541677 0.030283384 0.39200002 4285744185
-0.012770572 0.029061452 0.36100003 4287606943
-0.011662297 0.029222455 0.36300001 4288067494
-0.010483273 0.029222455 0.36300001 4289510315
-0.0093298806 0.029302958 0.36400002 4283975229
-0.0081476076 0.029302958 0.36400002 4284363046
-0.0069844704 0.02938346 0.36500001 4285283634
-0.0057989494 0.02938346 0.36500001 4284368442
-0.0046134293 0.02938346 0.36500001 4288655004
-0.0034373004 0.029463964 0.36600003 4288000672
-0.0022546751 0.029544465 0.36700001 4287804063
-0.0010626584 0.029544465 0.36700001 4287010183
0.00012971072 0.029624971 0.36800003 4282989104
0.0013249754 0.029624971 0.36800003 4285280293
0.0026092702 0.030671503 0.38100001 4286593323
0.0039174343 0.031235021 0.38800001 4288563513
0.005177659 0.031235021 0.38800001 4288892478
0.0064378832 0.031235021 0.38800001 4288561460
0.0077179489 0.031315524 0.38900003 4288429617
0.0089814216 0.031315524 0.38900003 4287969321
0.010271231 0.031396028 0.39000002 4286788901
0.011537951 0.031396028 0.39000002 4286200110
0.012837506 0.031476531 0.39100003 4285740074
0.014143554 0.031557031 0.39200002 4284301366
-0.011694426 0.030485632 0.36400002 4288067494
-0.010512154 0.030485632 0.36400002 4288329383
-0.0093555115 0.030569382 0.36500001 4283059008
-0.008169991 0.030569382 0.36500001 4284627249
-0.0069844704 0.030569382 0.36500001 4284692011
-0.0058148373 0.030653136 0.36600003 4284625191
-0.0046260692 0.030653136 0.36600003 4290094746
-0.0034466919 0.030736886 0.36700001 4287738268
-0.0022546751 0.030736886 0.36700001 4287540891
-0.001065554 0.03082064 0.36800003 4288000672
0.00012971072 0.03082064 0.36800003 4288719768
0.0013285758 0.03090439 0.36900002 4284556316
0.0025339369 0.03098814 0.37 4286460713
0.0038366623 0.031825658 0.38000003 4288497718
0.005177659 0.032495674 0.38800001 4288299826
0.0064378832 0.032495674 0.38800001 4288102449
0.0077179489 0.032579426 0.38900003 4287840562
0.0089814216 0.032579426 0.38900003 4285807664
0.010271231 0.032663178 0.39000002 4285020201
0.011537951 0.032663178 0.39000002 4284694327
0.012837506 0.03274693 0.39100003 4286343523
-0.011726553 0.031755306 0.36500001 4288067494
-0.010541032 0.031755306 0.36500001 4287870115
-0.0093811434 0.031842306 0.36600003 4286485382
-0.0081923753 0.031842306 0.36600003 4284233263
-0.0070036063 0.031842306 0.36600003 4283968034
-0.0058307247 0.031929307 0.36700001 4285216043
-0.0046387082 0.031929307 0.36700001 4285677107
-0.0034466919 0.031929307 0.36700001 4289309595
-0.0022608186 0.032016307 0.36800003 4289114526
-0.001065554 0.032016307 0.36800003 4289044622
0.0001300632 0.032103308 0.36900002 4285022775
0.0013321763 0.032190308 0.37 4286989624
0.0025407854 0.032277312 0.37100002 4289423701
0.0037558903 0.032364309 0.37200001 4288563002
0.005177659 0.033756323 0.38800001 4288167474
0.0064378832 0.033756323 0.38800001 4289360232
0.0077179489 0.033843327 0.38900003 4288978316
0.0089814216 0.033843327 0.38900003 4288588952
0.010244895 0.033843327 0.38900003 4287867026
0.011537951 0.033930324 0.39000002 4287079570
-0.011726553 0.03294123 0.36500001 4288067494
-0.010569912 0.033031482 0.36600003 4288067494
-0.0093811434 0.033031482 0.36600003 4289053106
-0.0082147587 0.033121731 0.36700001 4284366392
-0.0070227417 0.033121731 0.36700001 4284496431
-0.0058307247 0.033121731 0.36700001 4285742900
-0.0046513481 0.03321198 0.36800003 4285807150
-0.0034560836 0.03321198 0.36800003 4285081890
-0.0022608186 0.03321198 0.36800003 4284622111
-0.0010684495 0.033302229 0.36900002 4285542182
0.00013041566 0.033392478 0.37 4286066984
0.0013321763 0.033392478 0.37 4286787368
0.0025407854 0.03348273 0.37100002 4290076500
0.003765987 0.033663232 0.37300003 4288234037
0.0050041811 0.03384373 0.37500003 4291195235
0.0062553659 0.034024227 0.377 4286469192
-0.010598792 0.034314148 0.36700001 4288067494
-0.0094067743 0.034314148 0.36700001 4288791217
-0.0082147587 0.034314148 0.36700001 4283185200
-0.0070227417 0.034314148 0.36700001 4284365358
-0.0058466126 0.034407649 0.36800003 4285217839
-0.0046513481 0.034407649 0.36800003 4285019431
-0.0034560836 0.034407649 0.36800003 4285476389
-0.0022669621 0.034501147 0.36900002 4285344033
-0.0010684495 0.034501147 0.36900002 4285738017
0.00013041566 0.034594648 0.37 4286263334
0.0013357768 0.034688145 0.37100002 4287050794
0.0025476338 0.034781646 0.37200001 4288036404
0.0037558903 0.034781646 0.37200001 4287706923
0.0049908361 0.034968644 0.37400001 4287115556
-0.010598792 0.035506569 0.36700001 4288067496
-0.0094067743 0.035506569 0.36700001 4287935908
-0.0082371421 0.035603318 0.36800003 4284700751
-0.0070418776 0.035603318 0.36800003 4284365874
-0.0058466126 0.035603318 0.36800003 4284823849
-0.0046513481 0.035603318 0.36800003 4284757027
-0.0034654748 0.035700068 0.36900002 4284622361
-0.0022669621 0.035700068 0.36900002 4284753177
-0.0010684495 0.035700068 0.36900002 4285279008
0.00013041566 0.035796814 0.37 4286199338
0.0013357768 0.035893563 0.37100002 4286264358
0.0025407854 0.035893563 0.37100002 4286263588
0.0037558903 0.035990309 0.37200001 4286722086
0.0049774921 0.036087058 0.37300003 4287184690
-0.010598792 0.03669899 0.36700001 4288067496
-0.0094324071 0.036798988 0.36800003 4287935910
-0.0082371421 0.036798988 0.36800003 4286612087
-0.0070418776 0.036798988 0.36800003 4284367159
-0.0058466126 0.036798988 0.36800003 4284626988
-0.0046639876 0.036898986 0.36900002 4284363046
-0.0034654748 0.036898986 0.36900002 4284032282
-0.0022669621 0.036898986 0.36900002 4284360734
-0.0010713449 0.03699898 0.37 4284754724
0.00013041566 0.03699898 0.37 4285477933
0.0013357768 0.037098981 0.37100002 4285543724
0.0025407854 0.037098981 0.37100002 4286333494
0.0037558903 0.037198976 0.37200001 4286333490
0.0049774921 0.037298974 0.37300003 4285479982
-0.0094324071 0.037994657 0.36800003 4288198569
-0.0082371421 0.037994657 0.36800003 4289248940
-0.0070418776 0.037994657 0.36800003 4283384375
-0.0058624996 0.038097903 0.36900002 4284824628
-0.0046639876 0.038097903 0.36900002 4284955699
-0.0034654748 0.038097903 0.36900002 4284626988
-0.0022669621 0.038097903 0.36900002 4285153332
-0.0010713449 0.03820115 0.37 4285218355
0.00013041566 0.03820115 0.37 4285284148
0.0013357768 0.038304396 0.37100002 4285480759
0.0025407854 0.038304396 0.37100002 4285809724
0.0037558903 0.038407642 0.37200001 4285094478
-0.0094324071 0.03919033 0.36800003 4288264875
-0.0082595255 0.039296821 0.36900002 4288264360
-0.0070610126 0.039296821 0.36900002 4286616455
-0.0058624996 0.039296821 0.36900002 4284106048
-0.0046639876 0.039296821 0.36900002 4284038712
-0.0034654748 0.039296821 0.36900002 4284432952
-0.0022669621 0.039296821 0.36900002 4284564025
-0.0010713449 0.039403316 0.37 4284234806
0.00013041566 0.039403316 0.37 4284499261
0.0013357768 0.039509814 0.37100002 4285029200
0.0025407854 0.039509814 0.37100002 4287072638
-0.0082595255 0.040495742 0.36900002 4288330155
-0.0070610126 0.040495742 0.36900002 4288198567
-0.0058624996 0.040495742 0.36900002 4288263590
-0.0046639876 0.040495742 0.36900002 4288395430
-0.0034654748 0.040495742 0.36900002 4288197024
-0.0022669621 0.040495742 0.36900002 4288131231
-0.0010713449 0.040605485 0.37 4287999645
0.00013041566 0.040605485 0.37 4287604887
0.0019523799 0.013642175 0.37415144 4294967295
0.0019523799 0.013642175 0.37415144 4294901760
0.0019523799 0.013642175 0.37465143 4294901760
0.0019523799 0.013642175 0.37515143 4294901760
