# .PCD v0.7 - Point Cloud Data file format
VERSION 0.7
FIELDS x y z rgb
SIZE 4 4 4 4
TYPE F F F U
COUNT 1 1 1 1
WIDTH 1070
HEIGHT 1
VIEWPOINT 0 0 0 1 0 0 0
POINTS 1070
DATA ascii
0.06284868 0.072436847 0.27600002 4280042783
0.063745126 0.072436847 0.27600002 4280240162
0.064407364 0.072174393 0.27500001 4280108576
0.065063111 0.071911946 0.27400002 4279052560
0.065712355 0.071649484 0.273 4280038172
0.066599056 0.071649484 0.273 4279774998
0.067238562 0.071387038 0.27200001 4278658052
0.067871571 0.071124591 0.27100003 4279713820
0.068498082 0.070862129 0.27000001 4279320346
0.069118105 0.070599683 0.26900002 4279320859
0.06999182 0.070599683 0.26900002 4279452445
0.070602082 0.070337228 0.26800001 4279715104
0.071205862 0.070074782 0.26700002 4279516955
0.07207308 0.070074782 0.26700002 4279843610
0.072667107 0.06981232 0.266 4278460673
0.073531076 0.06981232 0.266 4278854666
0.074115366 0.069549873 0.26500002 4279054607
0.074976087 0.069549873 0.26500002 4279386389
0.075550631 0.069287419 0.264 4279255316
0.076408103 0.069287419 0.264 4278993427
0.076972902 0.069024965 0.26300001 4279257369
0.077827126 0.069024965 0.26300001 4279453978
0.07868135 0.069024965 0.26300001 4279651357
0.079233162 0.068762518 0.26200002 4280963624
0.080084138 0.068762518 0.26200002 4284120405
0.080935121 0.068762518 0.26200002 4287805848
0.081786096 0.068762518 0.26200002 4280175657
0.082637064 0.068762518 0.26200002 4279782432
0.083169378 0.068500064 0.26100001 4279716385
0.084017113 0.068500064 0.26100001 4280897579
0.08486484 0.068500064 0.26100001 4282670660
0.055250823 0.075193517 0.28300002 4280634409
0.055971522 0.074927807 0.28200001 4280306469
0.056887455 0.074927807 0.28200001 4280241446
0.057598419 0.074662112 0.28100002 4280176166
0.058302883 0.074396402 0.28 4280044580
0.059212323 0.074396402 0.28 4280110373
0.059907045 0.074130706 0.27900001 4280307241
0.06059527 0.073865011 0.27800003 4280239912
0.061498217 0.073865011 0.27800003 4279843873
0.06217669 0.073599301 0.27700001 4278197249
0.06284868 0.073333606 0.27600002 4279842840
0.063514166 0.073067896 0.27500001 4279582746
0.064407364 0.073067896 0.27500001 4279780125
0.065063111 0.072802201 0.27400002 4279976479
0.065712355 0.072536491 0.273 4280369954
0.066599056 0.072536491 0.273 4279117070
0.067238562 0.072270796 0.27200001 4279907608
0.067871571 0.072005101 0.27100003 4278921740
0.068498082 0.07173939 0.27000001 4279317527
0.069375046 0.07173939 0.27000001 4278660621
0.06999182 0.071473695 0.26900002 4279582234
0.070602082 0.071207985 0.26800001 4279451930
0.071205862 0.07094229 0.26700002 4279517723
0.07207308 0.07094229 0.26700002 4279517723
0.072667107 0.070676588 0.266 4279582746
0.073531076 0.070676588 0.266 4279843612
0.074115366 0.070410885 0.26500002 4278920974
0.074976087 0.070410885 0.26500002 4278593545
0.075550631 0.070145182 0.264 4279451160
0.076408103 0.070145182 0.264 4279058707
0.077265568 0.070145182 0.264 4279388439
0.077827126 0.06987948 0.26300001 4279388439
0.07868135 0.06987948 0.26300001 4279256853
0.079535574 0.06987948 0.26300001 4279650328
0.080084138 0.069613785 0.26200002 4279978526
0.080935121 0.069613785 0.26200002 4279912994
0.081786096 0.069613785 0.26200002 4280769588
0.082637064 0.069613785 0.26200002 4279717670
0.083169378 0.069348082 0.26100001 4279585566
0.084017113 0.069348082 0.26100001 4279781660
0.08486484 0.069348082 0.26100001 4280963372
0.055971522 0.075844057 0.28200001 4281685046
0.056685731 0.075575113 0.28100002 4280634411
0.057598419 0.075575113 0.28100002 4280110375
0.058302883 0.075306155 0.28 4280241959
0.059212323 0.075306155 0.28 4280110373
0.059907045 0.075037211 0.27900001 4280110373
0.06059527 0.07476826 0.27800003 4280176166
0.061276998 0.074499309 0.27700001 4280109862
0.06217669 0.074499309 0.27700001 4280239653
0.06284868 0.074230358 0.27600002 4279250451
0.063514166 0.073961407 0.27500001 4278920972
0.064407364 0.073961407 0.27500001 4280039707
0.065063111 0.073692456 0.27400002 4279911197
0.065712355 0.073423505 0.273 4280240164
0.066599056 0.073423505 0.273 4279713055
0.067238562 0.073154554 0.27200001 4279975711
0.067871571 0.07288561 0.27100003 4278198017
0.068498082 0.072616652 0.27000001 4280304161
0.069375046 0.072616652 0.27000001 4279975196
0.06999182 0.072347708 0.26900002 4278856713
0.070602082 0.07207875 0.26800001 4279450898
0.071472548 0.07207875 0.26800001 4279516693
0.07207308 0.071809806 0.26700002 4279254805
0.072667107 0.071540847 0.266 4279386904
0.073531076 0.071540847 0.266 4279451930
0.074395046 0.071540847 0.266 4279451160
0.074976087 0.071271904 0.26500002 4278855179
0.075836807 0.071271904 0.26500002 4279579156
0.076408103 0.071002945 0.264 4279386902
0.077265568 0.071002945 0.264 4279321363
0.07812304 0.071002945 0.264 4279256340
0.07868135 0.070734002 0.26300001 4279190547
0.079535574 0.070734002 0.26300001 4279256086
0.080084138 0.070465051 0.26200002 4279453465
0.080935121 0.070465051 0.26200002 4279453978
0.081786096 0.070465051 0.26200002 4279388957
0.082321651 0.0701961 0.26100001 4279389984
0.083169378 0.0701961 0.26100001 4279388957
0.084017113 0.0701961 0.26100001 4279453719
0.08486484 0.0701961 0.26100001 4279715867
0.056685731 0.076488107 0.28100002 4282144066
0.057598419 0.076488107 0.28100002 4280370469
0.058302883 0.076215908 0.28 4280700715
0.059212323 0.076215908 0.28 4280503848
0.059907045 0.075943708 0.27900001 4280109860
0.060813237 0.075943708 0.27900001 4280044580
0.061276998 0.075399309 0.27700001 4280241959
0.06217669 0.075399309 0.27700001 4280438055
0.06284868 0.07512711 0.27600002 4280043297
0.063514166 0.07485491 0.27500001 4280437032
0.064173155 0.074582711 0.27400002 4279842590
0.065063111 0.074582711 0.27400002 4278263044
0.065712355 0.074310511 0.273 4279579416
0.066599056 0.074310511 0.273 4279976992
0.067238562 0.074038312 0.27200001 4279911197
0.067871571 0.073766112 0.27100003 4279909914
0.068498082 0.073493913 0.27000001 4279251475
0.069375046 0.073493913 0.27000001 4279579156
0.06999182 0.073221713 0.26900002 4279644947
0.070602082 0.072949514 0.26800001 4278329088
0.071472548 0.072949514 0.26800001 4279579416
0.07207308 0.072677314 0.26700002 4278923021
0.07294029 0.072677314 0.26700002 4279320344
0.073531076 0.072405107 0.266 4279189271
0.074395046 0.072405107 0.266 4279320344
0.074976087 0.072132915 0.26500002 4278526728
0.075836807 0.072132915 0.26500002 4279381012
0.076697528 0.072132915 0.26500002 4279385621
0.077265568 0.071860708 0.264 4279254803
0.07812304 0.071860708 0.264 4279584281
0.07868135 0.071588516 0.26300001 4279321109
0.079535574 0.071588516 0.26300001 4279255316
0.080389798 0.071588516 0.26300001 4279386902
0.080935121 0.071316317 0.26200002 4279519258
0.081786096 0.071316317 0.26200002 4279256599
0.082321651 0.07104411 0.26100001 4279059990
0.083169378 0.07104411 0.26100001 4279257369
0.084017113 0.07104411 0.26100001 4279388957
0.08486484 0.07104411 0.26100001 4279125015
0.085384175 0.070771918 0.26000002 4280369436
0.059000853 0.076850213 0.27900001 4281092905
0.059907045 0.076850213 0.27900001 4280634407
0.060813237 0.076850213 0.27900001 4280110373
0.061276998 0.07629931 0.27700001 4279913766
0.06217669 0.07629931 0.27700001 4279846690
0.063076392 0.07629931 0.27700001 4280109860
0.063514166 0.075748414 0.27500001 4280241446
0.064173155 0.075472966 0.27400002 4280307239
0.065063111 0.075472966 0.27400002 4280108067
0.065712355 0.075197518 0.273 4279908383
0.066355109 0.07492207 0.27200001 4278394628
0.067238562 0.07492207 0.27200001 4279250703
0.067871571 0.074646622 0.27100003 4280042270
0.068498082 0.074371174 0.27000001 4280108063
0.069375046 0.074371174 0.27000001 4279909916
0.06999182 0.074095726 0.26900002 4279975709
0.070602082 0.073820271 0.26800001 4278987531
0.071472548 0.073820271 0.26800001 4279513625
0.07207308 0.07354483 0.26700002 4279053842
0.07294029 0.07354483 0.26700002 4279581721
0.073531076 0.073269375 0.266 4279517723
0.074395046 0.073269375 0.266 4279320344
0.075259015 0.073269375 0.266 4278987281
0.075836807 0.072993927 0.26500002 4279578904
0.076697528 0.072993927 0.26500002 4279647766
0.077558242 0.072993927 0.26500002 4279582998
0.07812304 0.072718471 0.264 4279123730
0.078980513 0.072718471 0.264 4279255316
0.079535574 0.072443031 0.26300001 4279058709
0.080389798 0.072443031 0.26300001 4279190293
0.080935121 0.072167583 0.26200002 4279190293
0.081786096 0.072167583 0.26200002 4278992914
0.082321651 0.071892127 0.26100001 4279190293
0.083169378 0.071892127 0.26100001 4279452695
0.084017113 0.071892127 0.26100001 4279321109
0.08486484 0.071892127 0.26100001 4279255316
0.085384175 0.071616687 0.26000002 4279843862
0.061727762 0.07664191 0.27500001 4280240680
0.062393252 0.076363213 0.27400002 4280240680
0.063283205 0.076363213 0.27400002 4279912481
0.064173155 0.076363213 0.27400002 4280110627
0.065063111 0.076363213 0.27400002 4279978274
0.065712355 0.076084509 0.273 4280437541
0.066355109 0.075805821 0.27200001 4280764714
0.067238562 0.075805821 0.27200001 4279579416
0.067871571 0.075527124 0.27100003 4278460675
0.068498082 0.07524842 0.27000001 4280434463
0.069375046 0.07524842 0.27000001 4279779098
0.06999182 0.074969731 0.26900002 4279779098
0.070865527 0.074969731 0.26900002 4279646746
0.071472548 0.074691027 0.26800001 4278988049
0.072343014 0.074691027 0.26800001 4278921488
0.07294029 0.074412331 0.26700002 4279647516
0.073807508 0.074412331 0.26700002 4279386652
0.074395046 0.074133627 0.266 4279123480
0.075259015 0.074133627 0.266 4278723595
0.076122984 0.074133627 0.266 4279645209
0.076697528 0.073854931 0.26500002 4279779863
0.077558242 0.073854931 0.26500002 4279648791
0.07812304 0.073576234 0.264 4279386389
0.078980513 0.073576234 0.264 4279517975
0.079535574 0.073297538 0.26300001 4279254805
0.080389798 0.073297538 0.26300001 4279255318
0.080935121 0.073018841 0.26200002 4279584283
0.081786096 0.073018841 0.26200002 4279452697
0.082321651 0.072740138 0.26100001 4279452695
0.083169378 0.072740138 0.26100001 4279452182
0.084017113 0.072740138 0.26100001 4279189012
0.08486484 0.072740138 0.26100001 4279319574
0.062393252 0.077253468 0.27400002 4280962093
0.063283205 0.077253468 0.27400002 4280240162
0.064173155 0.077253468 0.27400002 4280240930
0.064825647 0.076971523 0.273 4280241700
0.065712355 0.076971523 0.273 4280306469
0.066355109 0.076689579 0.27200001 4280043297
0.066991366 0.076407634 0.27100003 4279977506
0.067871571 0.076407634 0.27100003 4280369956
0.068498082 0.076125681 0.27000001 4279381262
0.069375046 0.076125681 0.27000001 4279314701
0.06999182 0.075843737 0.26900002 4279579154
0.070865527 0.075843737 0.26900002 4279515926
0.071472548 0.075561784 0.26800001 4279844891
0.072343014 0.075561784 0.26800001 4279515928
0.07294029 0.075279839 0.26700002 4279647512
0.073807508 0.075279839 0.26700002 4279517977
0.074674726 0.075279839 0.26700002 4279451160
0.075259015 0.074997894 0.266 4278920459
0.076122984 0.074997894 0.266 4279908635
0.076986954 0.074997894 0.266 4279451930
0.077558242 0.07471595 0.26500002 4279452184
0.078418963 0.07471595 0.26500002 4279649563
0.078980513 0.074433997 0.264 4279320596
0.079837985 0.074433997 0.264 4279386389
0.080389798 0.074152052 0.26300001 4279452182
0.081244029 0.074152052 0.26300001 4279517977
0.081786096 0.073870108 0.26200002 4279780895
0.082637064 0.073870108 0.26200002 4279912735
0.083169378 0.073588155 0.26100001 4279452182
0.084017113 0.073588155 0.26100001 4279451160
0.08486484 0.073588155 0.26100001 4279187990
0.063283205 0.078143731 0.27400002 4281288491
0.064173155 0.078143731 0.27400002 4281092391
0.064825647 0.07785853 0.273 4280568868
0.065712355 0.07785853 0.273 4280568614
0.066355109 0.077573337 0.27200001 4279977504
0.066991366 0.077288143 0.27100003 4279977504
0.067871571 0.077288143 0.27100003 4280240676
0.068498082 0.077002943 0.27000001 4280174369
0.069375046 0.077002943 0.27000001 4280434725
0.06999182 0.076717749 0.26900002 4279184144
0.070865527 0.076717749 0.26900002 4278789127
0.071472548 0.076432548 0.26800001 4279250191
0.072343014 0.076432548 0.26800001 4279516439
0.07294029 0.076147355 0.26700002 4279648793
0.073807508 0.076147355 0.26700002 4279648793
0.074674726 0.076147355 0.26700002 4279516439
0.075541943 0.076147355 0.26700002 4278854668
0.076122984 0.075862154 0.266 4279843358
0.076986954 0.075862154 0.266 4279517725
0.077850915 0.075862154 0.266 4279715102
0.078418963 0.075576961 0.26500002 4279517977
0.079279691 0.075576961 0.26500002 4279320598
0.079837985 0.07529176 0.264 4279452184
0.080389798 0.075006567 0.26300001 4279386391
0.081244029 0.075006567 0.26300001 4279649563
0.081786096 0.074721374 0.26200002 4279912735
0.082637064 0.074721374 0.26200002 4280043297
0.083169378 0.074436173 0.26100001 4279780379
0.084017113 0.074436173 0.26100001 4279780379
0.08486484 0.074436173 0.26100001 4279450900
0.085712567 0.074436173 0.26100001 4279711252
0.065581232 0.083072215 0.28800002 4287470734
0.066516653 0.083072215 0.28800002 4287470734
0.067452073 0.083072215 0.28800002 4285958009
0.065063111 0.079033986 0.27400002 4281814068
0.065953061 0.079033986 0.27400002 4280893731
0.066355109 0.078457095 0.27200001 4280765477
0.066991366 0.078168653 0.27100003 4280239903
0.067621119 0.077880204 0.27000001 4279977244
0.068498082 0.077880204 0.27000001 4280108828
0.069118105 0.077591762 0.26900002 4280174623
0.06999182 0.077591762 0.26900002 4280174369
0.070602082 0.077303305 0.26800001 4280500254
0.071472548 0.077303305 0.26800001 4279051527
0.072343014 0.077303305 0.26800001 4279117322
0.07294029 0.077014871 0.26700002 4279381775
0.073807508 0.077014871 0.26700002 4279845145
0.074674726 0.077014871 0.26700002 4279515158
0.075541943 0.077014871 0.26700002 4278789900
0.076122984 0.076726414 0.266 4279713309
0.076986954 0.076726414 0.266 4279517725
0.077850915 0.076726414 0.266 4279517725
0.078418963 0.076437972 0.26500002 4279451930
0.079279691 0.076437972 0.26500002 4279386137
0.079837985 0.076149523 0.264 4279517723
0.080695465 0.076149523 0.264 4279452184
0.081244029 0.075861081 0.26300001 4279649563
0.082098253 0.075861081 0.26300001 4279846172
0.082637064 0.07557264 0.26200002 4280109344
0.08348804 0.07557264 0.26200002 4279977758
0.084017113 0.07528419 0.26100001 4279779865
0.08486484 0.07528419 0.26100001 4279845145
0.085712567 0.07528419 0.26100001 4279579920
0.064645804 0.084007949 0.28800002 4287338894
0.065581232 0.084007949 0.28800002 4287535760
0.066285692 0.083716251 0.287 4287339148
0.067217864 0.083716251 0.287 4287339148
0.068387501 0.084007949 0.28800002 4287668113
0.069322929 0.084007949 0.28800002 4287141769
0.070258349 0.084007949 0.28800002 4282472250
0.066991366 0.079049148 0.27100003 4280762913
0.067621119 0.07875745 0.27000001 4280830757
0.068498082 0.07875745 0.27000001 4280436512
0.069118105 0.07846576 0.26900002 4280240930
0.06999182 0.07846576 0.26900002 4280043297
0.070602082 0.078174062 0.26800001 4280109344
0.071472548 0.078174062 0.26800001 4279846172
0.072343014 0.078174062 0.26800001 4280171291
0.07294029 0.077882372 0.26700002 4279315984
0.073807508 0.077882372 0.26700002 4278920713
0.074674726 0.077882372 0.26700002 4279050764
0.075541943 0.077882372 0.26700002 4279578902
0.076409161 0.077882372 0.26700002 4279976479
0.076986954 0.077590674 0.266 4279255066
0.077850915 0.077590674 0.266 4279255834
0.078714885 0.077590674 0.266 4279255834
0.079279691 0.077298984 0.26500002 4279190041
0.080140412 0.077298984 0.26500002 4279256088
0.080695465 0.077007286 0.264 4279321111
0.081244029 0.076715589 0.26300001 4279452697
0.082098253 0.076715589 0.26300001 4279912735
0.082637064 0.076423898 0.26200002 4279978528
0.08348804 0.076423898 0.26200002 4279780379
0.084339023 0.076423898 0.26200002 4279647766
0.08486484 0.076132201 0.26100001 4279779352
0.085712567 0.076132201 0.26100001 4279580690
0.063710384 0.084943697 0.28800002 4287470480
0.064421333 0.084648743 0.287 4287404428
0.065353513 0.084648743 0.287 4287667600
0.066285692 0.084648743 0.287 4287601807
0.067217864 0.084648743 0.287 4287536014
0.068150043 0.084648743 0.287 4287536014
0.068841517 0.084353805 0.28600001 4287404428
0.070258349 0.084943697 0.28800002 4287207560
0.071193777 0.084943697 0.28800002 4287405451
0.067621119 0.079634711 0.27000001 4283195721
0.068498082 0.079634711 0.27000001 4281158188
0.069118105 0.079339772 0.26900002 4280764712
0.06999182 0.079339772 0.26900002 4280370467
0.070602082 0.079044826 0.26800001 4280043297
0.071472548 0.079044826 0.26800001 4280043297
0.072343014 0.079044826 0.26800001 4280043037
0.07294029 0.07874988 0.26700002 4279977244
0.073807508 0.07874988 0.26700002 4280108067
0.074674726 0.07874988 0.26700002 4279777819
0.075541943 0.07874988 0.26700002 4279844893
0.076409161 0.07874988 0.26700002 4279976990
0.076986954 0.078454934 0.266 4279452184
0.077850915 0.078454934 0.266 4279256088
0.078714885 0.078454934 0.266 4279321881
0.079279691 0.078159995 0.26500002 4279124502
0.080140412 0.078159995 0.26500002 4279386904
0.080695465 0.077865049 0.264 4279386391
0.081552938 0.077865049 0.264 4279649561
0.082098253 0.077570111 0.26300001 4279912733
0.08295247 0.077570111 0.26300001 4280109344
0.08348804 0.077275164 0.26200002 4279780379
0.084339023 0.077275164 0.26200002 4279714072
0.085189998 0.077275164 0.26200002 4279582486
0.085712567 0.076980218 0.26100001 4279648279
0.063489161 0.085581243 0.287 4287339148
0.064421333 0.085581243 0.287 4287733393
0.065353513 0.085581243 0.287 4287404428
0.066285692 0.085581243 0.287 4287536014
0.067217864 0.085581243 0.287 4287601807
0.067912586 0.085283048 0.28600001 4287404428
0.068841517 0.085283048 0.28600001 4287338635
0.070258349 0.085879438 0.28800002 4287272842
0.071193777 0.085879438 0.28800002 4287141256
0.072129197 0.085879438 0.28800002 4286681216
0.073064625 0.085879438 0.28800002 4286615421
0.069118105 0.080213785 0.26900002 4284248409
0.069731623 0.079915583 0.26800001 4281683249
0.070602082 0.079915583 0.26800001 4280896296
0.071472548 0.079915583 0.26800001 4280305442
0.07207308 0.079617396 0.26700002 4280305442
0.07294029 0.079617396 0.26700002 4280174369
0.073807508 0.079617396 0.26700002 4279911711
0.074674726 0.079617396 0.26700002 4280043297
0.075541943 0.079617396 0.26700002 4279648539
0.076409161 0.079617396 0.26700002 4279846172
0.076986954 0.079319201 0.266 4279452184
0.077850915 0.079319201 0.266 4279650076
0.078714885 0.079319201 0.266 4279321111
0.079279691 0.079021007 0.26500002 4279321111
0.080140412 0.079021007 0.26500002 4279452184
0.080695465 0.078722812 0.264 4279517977
0.081552938 0.078722812 0.264 4279649563
0.082098253 0.078424625 0.26300001 4280175907
0.08295247 0.078424625 0.26300001 4280108576
0.08348804 0.078126438 0.26200002 4280173856
0.084339023 0.078126438 0.26200002 4279977244
0.085189998 0.078126438 0.26200002 4279779865
0.086040974 0.078126438 0.26200002 4279516439
0.063489161 0.086513735 0.287 4287404174
0.064421333 0.086513735 0.287 4287601807
0.065353513 0.086513735 0.287 4287536014
0.066054732 0.086212292 0.28600001 4287733393
0.066983655 0.086212292 0.28600001 4287601807
0.067912586 0.086212292 0.28600001 4287404428
0.068841517 0.086212292 0.28600001 4287404428
0.069526494 0.085910857 0.28500003 4287338381
0.070452176 0.085910857 0.28500003 4287075209
0.072129197 0.086815178 0.28800002 4286812291
0.073064625 0.086815178 0.28800002 4286811519
0.074000046 0.086815178 0.28800002 4286350968
0.069731623 0.080786347 0.26800001 4286548347
0.070602082 0.080786347 0.26800001 4285759851
0.071205862 0.080484904 0.26700002 4281287206
0.07207308 0.080484904 0.26700002 4281027112
0.07294029 0.080484904 0.26700002 4280633124
0.073807508 0.080484904 0.26700002 4280240164
0.074674726 0.080484904 0.26700002 4280043299
0.075541943 0.080484904 0.26700002 4279911711
0.076409161 0.080484904 0.26700002 4279846172
0.076986954 0.080183461 0.266 4279650076
0.077850915 0.080183461 0.266 4279452697
0.078714885 0.080183461 0.266 4279255064
0.079279691 0.079882026 0.26500002 4279386650
0.080140412 0.079882026 0.26500002 4279452443
0.081001133 0.079882026 0.26500002 4279584029
0.081552938 0.079580575 0.264 4279649563
0.08241041 0.079580575 0.264 4280438307
0.08295247 0.07927914 0.26300001 4280174623
0.083806694 0.07927914 0.26300001 4280042270
0.084339023 0.078977704 0.26200002 4280436258
0.085189998 0.078977704 0.26200002 4280042270
0.086040974 0.078977704 0.26200002 4279581719
0.064421333 0.08744622 0.287 4287404174
0.065125801 0.087141536 0.28600001 4287338381
0.066054732 0.087141536 0.28600001 4287404428
0.066983655 0.087141536 0.28600001 4287404428
0.067675136 0.086836845 0.28500003 4287601807
0.068600819 0.086836845 0.28500003 4287536014
0.069526494 0.086836845 0.28500003 4287338635
0.070452176 0.086836845 0.28500003 4287141256
0.072129197 0.087750912 0.28800002 4286812291
0.073064625 0.087750912 0.28800002 4286614142
0.074000046 0.087750912 0.28800002 4286482554
0.074935474 0.087750912 0.28800002 4286416761
0.070338644 0.081352413 0.26700002 4286022003
0.071205862 0.081352413 0.26700002 4285562220
0.07207308 0.081352413 0.26700002 4285694319
0.07294029 0.081352413 0.26700002 4282208058
0.073807508 0.081352413 0.26700002 4281091882
0.074674726 0.081352413 0.26700002 4281092393
0.075259015 0.081047714 0.266 4280437030
0.076122984 0.081047714 0.266 4280174369
0.076986954 0.081047714 0.266 4279846172
0.077850915 0.081047714 0.266 4279517977
0.078714885 0.081047714 0.266 4279517977
0.079279691 0.08074303 0.26500002 4279715356
0.080140412 0.08074303 0.26500002 4279386137
0.081001133 0.08074303 0.26500002 4279451930
0.081552938 0.080438331 0.264 4279715102
0.08241041 0.080438331 0.264 4280175653
0.08295247 0.080133647 0.26300001 4280108063
0.083806694 0.080133647 0.26300001 4280107293
0.084660918 0.080133647 0.26300001 4280173086
0.085189998 0.079828963 0.26200002 4279844121
0.086040974 0.079828963 0.26200002 4280170780
0.06419687 0.08807078 0.28600001 4287536014
0.065125801 0.08807078 0.28600001 4287404428
0.066054732 0.08807078 0.28600001 4287667600
0.066983655 0.08807078 0.28600001 4287404428
0.067675136 0.08776284 0.28500003 4287667600
0.068600819 0.08776284 0.28500003 4287536014
0.069526494 0.08776284 0.28500003 4287601807
0.070204973 0.0874549 0.28400001 4287207049
0.072129197 0.08868666 0.28800002 4287075463
0.073064625 0.08868666 0.28800002 4286745728
0.074000046 0.08868666 0.28800002 4286548347
0.074935474 0.08868666 0.28800002 4286350968
0.070338644 0.082219921 0.26700002 4286285175
0.071205862 0.082219921 0.26700002 4285956210
0.07207308 0.082219921 0.26700002 4285824624
0.07294029 0.082219921 0.26700002 4285561452
0.073531076 0.081911981 0.266 4285496427
0.074395046 0.081911981 0.266 4283654475
0.075259015 0.081911981 0.266 4281222696
0.076122984 0.081911981 0.266 4280829735
0.076986954 0.081911981 0.266 4280370465
0.077850915 0.081911981 0.266 4280108317
0.078714885 0.081911981 0.266 4280437280
0.079279691 0.081604041 0.26500002 4280043037
0.080140412 0.081604041 0.26500002 4280043551
0.081001133 0.081604041 0.26500002 4279911711
0.081552938 0.081296101 0.264 4280240676
0.08241041 0.081296101 0.264 4280503848
0.08295247 0.080988161 0.26300001 4280174110
0.083806694 0.080988161 0.26300001 4280107547
0.084660918 0.080988161 0.26300001 4279712789
0.085189998 0.080680229 0.26200002 4279514643
0.086040974 0.080680229 0.26200002 4280299545
0.067675136 0.088688836 0.28500003 4287470480
0.068600819 0.088688836 0.28500003 4287601807
0.069526494 0.088688836 0.28500003 4287272842
0.070452176 0.088688836 0.28500003 4287207049
0.072129197 0.089622401 0.28800002 4286746498
0.073064625 0.089622401 0.28800002 4286745728
0.074000046 0.089622401 0.28800002 4286547834
0.074935474 0.089622401 0.28800002 4286416248
0.075870901 0.089622401 0.28800002 4286022003
0.071205862 0.083087437 0.26700002 4286022003
0.071803145 0.082776241 0.266 4285956210
0.072667107 0.082776241 0.266 4285693038
0.073531076 0.082776241 0.266 4285495659
0.074395046 0.082776241 0.266 4285561452
0.075259015 0.082776241 0.266 4285036391
0.076122984 0.082776241 0.266 4284708708
0.076986954 0.082776241 0.266 4281485357
0.077850915 0.082776241 0.266 4281552429
0.078418963 0.08246506 0.26500002 4281224743
0.079279691 0.08246506 0.26500002 4280305696
0.080140412 0.08246506 0.26500002 4280372002
0.080695465 0.082153864 0.264 4280569381
0.081552938 0.082153864 0.264 4280634661
0.08241041 0.082153864 0.264 4280700200
0.08295247 0.081842676 0.26300001 4280108063
0.083806694 0.081842676 0.26300001 4279779100
0.084660918 0.081842676 0.26300001 4279580438
0.085189998 0.081531495 0.26200002 4279842326
0.086040974 0.081531495 0.26200002 4285035106
0.071803145 0.083640508 0.266 4285956208
0.072667107 0.083640508 0.266 4285693036
0.073531076 0.083640508 0.266 4285824624
0.074395046 0.083640508 0.266 4285561452
0.075259015 0.083640508 0.266 4285561452
0.076122984 0.083640508 0.266 4285429866
0.076986954 0.083640508 0.266 4285365095
0.077558242 0.083326072 0.26500002 4285956714
0.078418963 0.083326072 0.26500002 4282931517
0.079279691 0.083326072 0.26500002 4281748527
0.080140412 0.083326072 0.26500002 4281157673
0.080695465 0.083011627 0.264 4280763426
0.081552938 0.083011627 0.264 4280961319
0.082098253 0.08269719 0.26300001 4280435745
0.08295247 0.08269719 0.26300001 4280107295
0.083806694 0.08269719 0.26300001 4279580438
0.084339023 0.082382761 0.26200002 4280235288
0.085189998 0.082382761 0.26200002 4283392070
0.086040974 0.082382761 0.26200002 4285232487
0.076986954 0.084504768 0.266 4285429351
0.077558242 0.084187083 0.26500002 4285495144
0.078418963 0.084187083 0.26500002 4285428835
0.079279691 0.084187083 0.26500002 4285692005
0.079837985 0.08386939 0.264 4284574807
0.080695465 0.08386939 0.264 4282141749
0.081552938 0.08386939 0.264 4281023268
0.082098253 0.083551712 0.26300001 4280695587
0.08295247 0.083551712 0.26300001 4280037911
0.083806694 0.083551712 0.26300001 4281812523
0.084339023 0.083234027 0.26200002 4284904796
0.085189998 0.083234027 0.26200002 4284904542
0.086040974 0.083234027 0.26200002 4285627497
0.077558242 0.085048094 0.26500002 4285495144
0.078418963 0.085048094 0.26500002 4285560167
0.078980513 0.084727146 0.264 4285296995
0.079837985 0.084727146 0.264 4285428581
0.080695465 0.084727146 0.264 4285166433
0.081244029 0.084406219 0.26300001 4284772188
0.082098253 0.084406219 0.26300001 4284706395
0.08295247 0.084406219 0.26300001 4284838751
0.08348804 0.084085286 0.26200002 4285101153
0.084339023 0.084085286 0.26200002 4285035358
0.085189998 0.084085286 0.26200002 4285364325
0.086040974 0.084085286 0.26200002 4285626984
0.078980513 0.085584916 0.264 4285362790
0.079837985 0.085584916 0.264 4285625960
0.080695465 0.085584916 0.264 4285428581
0.081244029 0.085260734 0.26300001 4285362788
0.082098253 0.085260734 0.26300001 4285231972
0.082637064 0.084936552 0.26200002 4285231972
0.08348804 0.084936552 0.26200002 4285495144
0.084339023 0.084936552 0.26200002 4285560169
0.085189998 0.084936552 0.26200002 4285560169
0.086040974 0.084936552 0.26200002 4285757548
0.082637064 0.085787818 0.26200002 4285493604
0.08348804 0.085787818 0.26200002 4285822569
0.084339023 0.085787818 0.26200002 4285822571
0.085189998 0.085787818 0.26200002 4285756778
0.086040974 0.085787818 0.26200002 4285954157
0.032433733 0.047266677 0.31100002 4279915815
0.033443861 0.047266677 0.31100002 4280376618
0.034453992 0.047266677 0.31100002 4279389723
0.031423606 0.048277151 0.31100002 4280441393
0.032433733 0.048277151 0.31100002 4279390754
0.033443861 0.048277151 0.31100002 4279653924
0.034343205 0.048121914 0.31 4279719717
0.030315682 0.049129136 0.31 4281551927
0.031322565 0.049129136 0.31 4279587879
0.032329444 0.049129136 0.31 4279194910
0.033336323 0.049129136 0.31 4279129629
0.034343205 0.049129136 0.31 4279129631
0.035350084 0.049129136 0.31 4279457828
0.036356967 0.049129136 0.31 4279654437
0.030315682 0.050136358 0.31 4282342208
0.031322565 0.050136358 0.31 4279323678
0.032329444 0.050136358 0.31 4279259420
0.033336323 0.050136358 0.31 4278932252
0.034343205 0.050136358 0.31 4278931998
0.035350084 0.050136358 0.31 4279129377
0.036239687 0.049974632 0.30900002 4279063584
0.037243318 0.049974632 0.30900002 4279326242
0.038246952 0.049974632 0.30900002 4279719717
0.030315682 0.051143575 0.31 4282210363
0.031322565 0.051143575 0.31 4279323164
0.032329444 0.051143575 0.31 4279324189
0.033336323 0.051143575 0.31 4279194140
0.034343205 0.051143575 0.31 4279063070
0.035236053 0.050978601 0.30900002 4279129377
0.036239687 0.050978601 0.30900002 4279063584
0.037122793 0.050813623 0.30800003 4279195170
0.038123176 0.050813623 0.30800003 4279195170
0.038996533 0.050648641 0.30700001 4279392037
0.030315682 0.052150801 0.31 4282407740
0.031322565 0.052150801 0.31 4279584799
0.032329444 0.052150801 0.31 4279520543
0.033336323 0.052150801 0.31 4279258398
0.034232423 0.051982574 0.30900002 4279126812
0.035236053 0.051982574 0.30900002 4279194658
0.036122408 0.051814348 0.30800003 4278931486
0.037122793 0.051814348 0.30800003 4279063070
0.037999395 0.051646117 0.30700001 4278997277
0.038996533 0.051646117 0.30700001 4279457828
0.0398634 0.05147789 0.30600002 4279457830
0.030315682 0.053158019 0.31 4282407738
0.031322565 0.053158019 0.31 4279979557
0.032329444 0.053158019 0.31 4279783461
0.033228789 0.052986544 0.30900002 4280310319
0.034232423 0.052986544 0.30900002 4279455264
0.035122022 0.052815069 0.30800003 4278995996
0.036122408 0.052815069 0.30800003 4279061789
0.037002262 0.05264359 0.30700001 4279128095
0.037999395 0.05264359 0.30700001 4279062300
0.038869511 0.052472115 0.30600002 4279194656
0.0398634 0.052472115 0.30600002 4279194656
0.040723767 0.052300632 0.30500001 4279326244
0.041577637 0.052129157 0.30400002 4279063586
0.042565033 0.052129157 0.30400002 4279260451
0.030315682 0.054165244 0.31 4282013493
0.031322565 0.054165244 0.31 4279782178
0.032225154 0.053990521 0.30900002 4279783461
0.033228789 0.053990521 0.30900002 4279717668
0.03412164 0.053815793 0.30800003 4279652389
0.035122022 0.053815793 0.30800003 4279258144
0.036005124 0.053641066 0.30700001 4279126558
0.037002262 0.053641066 0.30700001 4279192605
0.037875623 0.053466342 0.30600002 4279061019
0.038742483 0.053291611 0.30500001 4279061789
0.039733123 0.053291611 0.30500001 4279062302
0.040590249 0.053116888 0.30400002 4279260197
0.041577637 0.053116888 0.30400002 4279391783
0.042425014 0.052942157 0.303 4279260197
0.043409158 0.052942157 0.303 4279457830
0.044246793 0.052767433 0.30200002 4279522853
0.031221524 0.054994494 0.30900002 4279980070
0.032225154 0.054994494 0.30900002 4280111656
0.033121254 0.054816522 0.30800003 4279783461
0.03412164 0.054816522 0.30800003 4279717668
0.035007987 0.054638542 0.30700001 4279323424
0.035887845 0.054460566 0.30600002 4279323424
0.036881734 0.054460566 0.30600002 4279126045
0.037751842 0.054282591 0.30500001 4278928666
0.038742483 0.054282591 0.30500001 4279126558
0.039602853 0.054104615 0.30400002 4278798363
0.040456723 0.053926639 0.303 4278996255
0.041440867 0.053926639 0.303 4278865693
0.042425014 0.053926639 0.303 4279194658
0.043265894 0.053748664 0.30200002 4279063072
0.044246793 0.053748664 0.30200002 4279588646
0.045077927 0.053570691 0.30100003 4278996509
0.046055578 0.053570691 0.30100003 4279588646
0.031221524 0.055998463 0.30900002 4280110373
0.032225154 0.055998463 0.30900002 4279980070
0.033121254 0.055817243 0.30800003 4279980070
0.034010854 0.055636015 0.30700001 4279455010
0.034893956 0.055454791 0.30600002 4279323424
0.035887845 0.055454791 0.30600002 4279257631
0.036761202 0.055273563 0.30500001 4279389217
0.03762807 0.055092342 0.30400002 4279323424
0.038615461 0.055092342 0.30400002 4278665494
0.03947258 0.054911114 0.303 4279191838
0.040456723 0.054911114 0.303 4278928666
0.0413041 0.05472989 0.30200002 4279126812
0.042284999 0.05472989 0.30200002 4278996509
0.043265894 0.05472989 0.30200002 4279193888
0.044100281 0.05454867 0.30100003 4278996509
0.045077927 0.05454867 0.30100003 4279193888
0.046055578 0.05454867 0.30100003 4279325474
0.046876971 0.054367442 0.30000001 4279522853
0.047851365 0.054367442 0.30000001 4279522853
0.031221524 0.05700244 0.30900002 4280044580
0.032120869 0.056817967 0.30800003 4280177449
0.033013713 0.056633491 0.30700001 4279849254
0.034010854 0.056633491 0.30700001 4279586596
0.034779921 0.056264542 0.30500001 4279323424
0.035770565 0.056264542 0.30500001 4279520289
0.036640678 0.056080069 0.30400002 4279454496
0.037504289 0.055895593 0.303 4279454496
0.038488433 0.055895593 0.303 4279257117
0.039342307 0.05571112 0.30200002 4278729490
0.040323205 0.05571112 0.30200002 4278860306
0.0413041 0.05571112 0.30200002 4279454496
0.042144984 0.055526651 0.30100003 4278929949
0.043122634 0.055526651 0.30100003 4278995742
0.044100281 0.055526651 0.30100003 4278733337
0.044928163 0.055342171 0.30000001 4278930716
0.045902565 0.055342171 0.30000001 4278931486
0.046876971 0.055342171 0.30000001 4278997279
0.047851365 0.055342171 0.30000001 4279260451
0.032120869 0.057818688 0.30800003 4279914531
0.032906178 0.057443243 0.30600002 4279652389
0.033900067 0.057443243 0.30600002 4279586596
0.03466589 0.057067793 0.30400002 4279783975
0.035536002 0.056880068 0.303 4279520289
0.036520146 0.056880068 0.303 4279388703
0.037380517 0.056692347 0.30200002 4279322910
0.038361412 0.056692347 0.30200002 4279387933
0.041167334 0.056504626 0.30100003 4279057176
0.042144984 0.056504626 0.30100003 4278798367
0.042979367 0.056316901 0.30000001 4278798365
0.043953769 0.056316901 0.30000001 4278666777
0.044928163 0.056316901 0.30000001 4278798617
0.045902565 0.056316901 0.30000001 4278995996
0.046720713 0.05612918 0.29900002 4279128095
0.047691863 0.05612918 0.29900002 4278931486
0.048663016 0.05612918 0.29900002 4278997279
0.049251329 0.054627392 0.29100001 4279720748
0.050024007 0.054439671 0.29000002 4279392037
0.050965928 0.054439671 0.29000002 4279588646
0.051907849 0.054439671 0.29000002 4280047912
0.032016579 0.05862844 0.30700001 4280111397
0.03279864 0.058246493 0.30500001 4279717668
0.033678498 0.058055524 0.30400002 4279849254
0.034551855 0.057864547 0.303 4279586082
0.035536002 0.057864547 0.303 4279520289
0.036399618 0.057673577 0.30200002 4279257117
0.037380517 0.057673577 0.30200002 4279322910
0.038234387 0.057482608 0.30100003 4279388703
0.039212037 0.057482608 0.30100003 4278991896
0.041030563 0.057291634 0.30000001 4278990359
0.042004965 0.057291634 0.30000001 4279257119
0.042979367 0.057291634 0.30000001 4279257631
0.043953769 0.057291634 0.30000001 4278994459
0.044778407 0.057100665 0.29900002 4278929179
0.04574956 0.057100665 0.29900002 4278798617
0.046564456 0.056909688 0.29800001 4278732824
0.047532357 0.056909688 0.29800001 4278734107
0.048663016 0.057100665 0.29900002 4279063072
0.049251329 0.055572882 0.29100001 4278997279
0.050024007 0.055381913 0.29000002 4279194658
0.050965928 0.055381913 0.29000002 4279655209
0.051907849 0.055381913 0.29000002 4279522851
0.052667525 0.055190939 0.289 4279391267
0.032691106 0.059043247 0.30400002 4279783461
0.033567712 0.058849026 0.303 4279717668
0.034437824 0.058654804 0.30200002 4279520289
0.035418723 0.058654804 0.30200002 4279388703
0.036279093 0.058460586 0.30100003 4279257117
0.03725674 0.058460586 0.30100003 4279257117
0.038234387 0.058460586 0.30100003 4279257117
0.039212037 0.058460586 0.30100003 4278991894
0.040056165 0.05826636 0.30000001 4279713822
0.041030563 0.05826636 0.30000001 4279584033
0.042004965 0.05826636 0.30000001 4279257119
0.042836104 0.058072142 0.29900002 4279059740
0.043807257 0.058072142 0.29900002 4279125533
0.044778407 0.058072142 0.29900002 4279059738
0.045596547 0.057877917 0.29800001 4278863127
0.046564456 0.057877917 0.29800001 4278929433
0.047372855 0.057683699 0.29700002 4278929433
0.048500262 0.057877917 0.29800001 4278929433
0.048472166 0.056712594 0.29200003 4278798617
0.049251329 0.056518372 0.29100001 4279062302
0.050024007 0.05632415 0.29000002 4278930716
0.050965928 0.05632415 0.29000002 4279325474
0.051907849 0.05632415 0.29000002 4279392037
0.052667525 0.056129929 0.289 4279260965
0.053606197 0.056129929 0.289 4279392037
0.03247603 0.059636038 0.30200002 4279716898
0.033456929 0.059636038 0.30200002 4279717668
0.034437824 0.059636038 0.30200002 4279520289
0.035301443 0.059438568 0.30100003 4279322910
0.036279093 0.059438568 0.30100003 4279454498
0.03725674 0.059438568 0.30100003 4279059740
0.038107362 0.059241094 0.30000001 4279124763
0.041030563 0.059241094 0.30000001 4279451934
0.04186495 0.059043627 0.29900002 4278928156
0.042836104 0.059043627 0.29900002 4278730007
0.043660741 0.058846153 0.29800001 4279321631
0.044628642 0.058846153 0.29800001 4279190554
0.045443542 0.058648687 0.29700002 4278994199
0.046408199 0.058648687 0.29700002 4279125783
0.047213346 0.058451213 0.296 4279059990
0.047686499 0.057858802 0.29300001 4278928918
0.048472166 0.057661336 0.29200003 4278797847
0.049251329 0.057463862 0.29100001 4278798617
0.050024007 0.057266392 0.29000002 4278930203
0.050965928 0.057266392 0.29000002 4278995996
0.051728852 0.057068918 0.289 4279062302
0.052667525 0.057068918 0.289 4278602521
0.053606197 0.057068918 0.289 4279326244
0.054356135 0.056871451 0.28800002 4279392037
0.05529156 0.056871451 0.28800002 4279588646
0.03247603 0.060617261 0.30200002 4280045863
0.033346146 0.060416546 0.30100003 4279716898
0.034323793 0.060416546 0.30100003 4279585312
0.035301443 0.060416546 0.30100003 4279125531
0.036279093 0.060416546 0.30100003 4279257117
0.03713296 0.060215823 0.30000001 4279257117
0.038107362 0.060215823 0.30000001 4279387935
0.040893797 0.060015105 0.29900002 4279451164
0.04186495 0.060015105 0.29900002 4279386141
0.045443542 0.059613667 0.29700002 4279584031
0.046251941 0.059412945 0.296 4279058970
0.047053844 0.059212226 0.29500002 4278796566
0.047686499 0.058810785 0.29300001 4278796566
0.048472166 0.05861007 0.29200003 4278797080
0.049251329 0.058409348 0.29100001 4278928666
0.050024007 0.058208629 0.29000002 4278994459
0.050965928 0.058208629 0.29000002 4278928666
0.051728852 0.058007907 0.289 4278798363
0.052667525 0.058007907 0.289 4279061789
0.053420711 0.057807192 0.28800002 4279259168
0.054356135 0.057807192 0.28800002 4279259168
0.05529156 0.057807192 0.28800002 4279391267
0.056031749 0.05760647 0.287 4279522853
0.056963924 0.05760647 0.287 4279522853
0.0578961 0.05760647 0.287 4279588646
0.032368496 0.061394528 0.30100003 4279914531
0.033346146 0.061394528 0.30100003 4279783461
0.034323793 0.061394528 0.30100003 4279322912
0.035301443 0.061394528 0.30100003 4278928154
0.036279093 0.061394528 0.30100003 4279126045
0.03713296 0.061190557 0.30000001 4278994459
0.038107362 0.061190557 0.30000001 4279059738
0.040056165 0.061190557 0.30000001 4279778332
0.040893797 0.06098659 0.29900002 4279451930
0.04186495 0.06098659 0.29900002 4279582236
0.046894338 0.059966743 0.294 4279124252
0.047686499 0.059762776 0.29300001 4279190558
0.048472166 0.059558809 0.29200003 4278927384
0.049251329 0.059354838 0.29100001 4279059738
0.050024007 0.059150871 0.29000002 4278993945
0.050965928 0.059150871 0.29000002 4278928920
0.051728852 0.0589469 0.289 4278666261
0.052667525 0.0589469 0.289 4278863386
0.053420711 0.058742933 0.28800002 4279061535
0.054356135 0.058742933 0.28800002 4279258914
0.05529156 0.058742933 0.28800002 4279259168
0.056031749 0.058538962 0.287 4279259168
0.056963924 0.058538962 0.287 4279391267
0.0578961 0.058538962 0.287 4279785771
0.032368496 0.062372506 0.30100003 4279455264
0.033346146 0.062372506 0.30100003 4279323937
0.034323793 0.062372506 0.30100003 4278929181
0.035301443 0.062372506 0.30100003 4278929181
0.036279093 0.062372506 0.30100003 4279126047
0.03713296 0.062165283 0.30000001 4279126045
0.038107362 0.062165283 0.30000001 4279059738
0.04186495 0.061958067 0.29900002 4279515160
0.048306163 0.060300324 0.29100001 4279188762
0.049251329 0.060300324 0.29100001 4279058455
0.050024007 0.060093109 0.29000002 4278862359
0.05079018 0.059885889 0.289 4278928406
0.051728852 0.059885889 0.289 4279059992
0.052667525 0.059885889 0.289 4278994713
0.053420711 0.059678674 0.28800002 4278732054
0.054356135 0.059678674 0.28800002 4279061019
0.05529156 0.059678674 0.28800002 4279192605
0.056226984 0.059678674 0.28800002 4279258396
0.056963924 0.059471451 0.287 4279127580
0.0578961 0.059471451 0.287 4279325472
0.058828276 0.059471451 0.287 4279391013
0.034209762 0.06314002 0.30000001 4278929181
0.035301443 0.063350484 0.30100003 4279060767
0.036279093 0.063350484 0.30100003 4278994461
0.03713296 0.06314002 0.30000001 4278994461
0.038107362 0.06314002 0.30000001 4279189273
0.040893797 0.062929556 0.29900002 4279386650
0.050024007 0.06103535 0.29000002 4279057172
0.05079018 0.060824882 0.289 4279190295
0.051728852 0.060824882 0.289 4279256601
0.052667525 0.060824882 0.289 4279190808
0.053420711 0.060614418 0.28800002 4278994199
0.054356135 0.060614418 0.28800002 4278862613
0.05529156 0.060614418 0.28800002 4279125785
0.056226984 0.060614418 0.28800002 4279125785
0.057162408 0.060614418 0.28800002 4278863640
0.0578961 0.060403947 0.287 4279258398
0.058828276 0.060403947 0.287 4279193375
0.035301443 0.064328469 0.30100003 4279126045
0.036279093 0.064328469 0.30100003 4279257119
0.03725674 0.064328469 0.30100003 4279322912
0.040056165 0.064114749 0.30000001 4279317268
0.051728852 0.061763875 0.289 4279188760
0.052485283 0.061550159 0.28800002 4279189271
0.053420711 0.061550159 0.28800002 4279387933
0.054356135 0.061550159 0.28800002 4279387933
0.05529156 0.061550159 0.28800002 4279190554
0.056226984 0.061550159 0.28800002 4278928152
0.057162408 0.061550159 0.28800002 4279125531
0.0578961 0.061336439 0.287 4279323164
0.058828276 0.061336439 0.287 4279192092
0.036279093 0.065306447 0.30100003 4279454496
0.03725674 0.065306447 0.30100003 4279322910
0.038107362 0.065089479 0.30000001 4279649309
0.039081763 0.065089479 0.30000001 4279119889
0.053420711 0.0624859 0.28800002 4279190045
0.054356135 0.0624859 0.28800002 4279124761
0.05529156 0.0624859 0.28800002 4279190554
0.056226984 0.0624859 0.28800002 4279124761
0.057162408 0.0624859 0.28800002 4279058968
0.058097832 0.0624859 0.28800002 4279059992
0.059033256 0.0624859 0.28800002 4279059992
0.036279093 0.066284426 0.30100003 4279323164
0.03725674 0.066284426 0.30100003 4279454496
0.038234387 0.066284426 0.30100003 4279055890
0.056226984 0.063421644 0.28800002 4279386137
0.057162408 0.063421644 0.28800002 4279321627
0.058097832 0.063421644 0.28800002 4279190295
0.059033256 0.063421644 0.28800002 4278993429
0.03725674 0.067262404 0.30100003 4279388187
0.039081763 0.067038938 0.30000001 4279581723
0.040056165 0.067038938 0.30000001 4279185941
0.058097832 0.064357385 0.28800002 4279517723
0.059033256 0.064357385 0.28800002 4279190295
0.040189687 0.071174324 0.30100003 4279645459
0.042004965 0.071912594 0.30000001 4280172323
0.043807257 0.072644368 0.29900002 4279975711
0.060274146 0.0693352 0.28155237 4294967295
0.060274146 0.0693352 0.28155237 4294901760
0.060384553 0.068856835 0.2814576 4294901760
0.060494956 0.068378471 0.28136286 4294901760
0.060605362 0.067900106 0.28126809 4294901760
0.060715768 0.067421742 0.28117335 4294901760
0.060826171 0.066943385 0.28107858 4294901760
0.060936578 0.06646502 0.28098384 4294901760
0.06104698 0.065986656 0.28088906 4294901760
0.061157387 0.065508291 0.28079432 4294901760
0.061267793 0.065029927 0.28069955 4294901760
0.061378196 0.064551562 0.28060481 4294901760
0.061488602 0.064073198 0.28051004 4294901760
0.061599009 0.063594833 0.2804153 4294901760
0.061709411 0.063116468 0.28032053 4294901760
0.061819818 0.062638111 0.28022578 4294901760
0.061930224 0.062159743 0.28013101 4294901760
0.062040627 0.061681382 0.28003627 4294901760
0.062151033 0.061203018 0.2799415 4294901760
0.06226144 0.060724653 0.27984676 4294901760
0.062371843 0.060246289 0.27975199 4294901760
0.062482249 0.059767924 0.27965724 4294901760
0.062592655 0.059289563 0.27956247 4294901760
0.062703058 0.058811199 0.27946773 4294901760
0.062813461 0.058332834 0.27937296 4294901760
0.062923871 0.05785447 0.27927822 4294901760
0.063034274 0.057376109 0.27918345 4294901760
0.063144676 0.056897745 0.27908868 4294901760
0.063255087 0.05641938 0.27899393 4294901760
0.063365489 0.055941015 0.27889916 4294901760
0.063475892 0.055462651 0.27880442 4294901760
0.063586302 0.054984286 0.27870965 4294901760
0.063696705 0.054505926 0.27861491 4294901760
0.063807108 0.054027561 0.27852014 4294901760
0.063917518 0.053549197 0.2784254 4294901760
0.06402792 0.053070836 0.27833062 4294901760
0.064138323 0.052592471 0.27823588 4294901760
0.064248733 0.052114107 0.27814111 4294901760
0.064359136 0.051635742 0.27804637 4294901760
0.064469539 0.051157378 0.2779516 4294901760
0.064579941 0.050679017 0.27785686 4294901760
0.064690351 0.050200649 0.27776209 4294901760
0.064800754 0.049722288 0.27766734 4294901760
0.064911157 0.049243927 0.27757257 4294901760
0.065021567 0.048765562 0.27747783 4294901760
0.06513197 0.048287198 0.27738306 4294901760
0.065242372 0.047808833 0.27728832 4294901760
0.065352783 0.047330469 0.27719355 4294901760
0.065463185 0.046852104 0.2770988 4294901760
0.065573588 0.04637374 0.27700403 4294901760
0.065683998 0.045895375 0.27690929 4294901760
0.065794401 0.045417015 0.27681452 4294901760
0.065904804 0.044938654 0.27671975 4294901760
0.066015214 0.044460289 0.27662501 4294901760
0.066125616 0.043981925 0.27653024 4294901760
0.066236019 0.04350356 0.27643549 4294901760
0.066346429 0.043025196 0.27634072 4294901760
0.066456832 0.042546831 0.27624598 4294901760
0.066567235 0.042068467 0.27615121 4294901760
0.066677645 0.041590106 0.27605647 4294901760
0.066788048 0.041111745 0.2759617 4294901760
0.06689845 0.040633377 0.27586696 4294901760
0.06700886 0.040155012 0.27577218 4294901760
0.067119263 0.039676651 0.27567744 4294901760
0.067229666 0.039198287 0.27558267 4294901760
0.067340069 0.038719922 0.27548793 4294901760
0.067450479 0.038241558 0.27539316 4294901760
0.067560881 0.037763193 0.27529842 4294901760
0.067671284 0.037284832 0.27520365 4294901760
0.067781694 0.036806468 0.2751089 4294901760
0.067892097 0.036328103 0.27501413 4294901760
0.0680025 0.035849743 0.27491939 4294901760
0.06811291 0.035371378 0.27482462 4294901760
0.068223312 0.03489301 0.27472988 4294901760
0.068333715 0.034414649 0.27463511 4294901760
0.068444125 0.033936284 0.27454036 4294901760
0.068554528 0.03345792 0.27444559 4294901760
0.068664931 0.032979559 0.27435082 4294901760
0.068775341 0.032501195 0.27425608 4294901760
0.068885744 0.032022834 0.27416131 4294901760
0.068996146 0.031544466 0.27406657 4294901760
0.069106556 0.031066101 0.2739718 4294901760
0.069216959 0.03058774 0.27387705 4294901760
0.069327362 0.030109376 0.27378228 4294901760
0.069437772 0.029631011 0.27368754 4294901760
0.069548175 0.02915265 0.27359277 4294901760
0.069658577 0.028674282 0.27349803 4294901760
0.06976898 0.028195921 0.27340326 4294901760
0.06987939 0.027717557 0.27330852 4294901760
0.069989793 0.027239192 0.27321374 4294901760
0.070100203 0.026760831 0.273119 4294901760
0.070210606 0.026282467 0.27302423 4294901760
0.070321009 0.025804102 0.27292949 4294901760
0.070431411 0.025325738 0.27283472 4294901760
0.070541821 0.024847373 0.27273998 4294901760
0.070652224 0.024369013 0.27264521 4294901760
0.070762627 0.023890648 0.27255046 4294901760
0.070873037 0.023412284 0.27245569 4294901760
0.07098344 0.022933919 0.27236095 4294901760
0.071093842 0.022455554 0.27226618 4294901760
0.071204253 0.021977194 0.27217144 4294901760
0.071314655 0.021498829 0.27207667 4294901760
0.060274146 0.0693352 0.28155237 4278255360
0.060618594 0.069480471 0.28122035 4278255360
0.060963042 0.069625743 0.28088829 4278255360
0.061307494 0.069771014 0.28055626 4278255360
0.061651941 0.069916286 0.2802242 4278255360
0.061996389 0.07006155 0.27989218 4278255360
0.062340837 0.070206821 0.27956012 4278255360
0.062685288 0.070352092 0.27922809 4278255360
0.063029736 0.070497364 0.27889603 4278255360
0.063374184 0.070642635 0.27856401 4278255360
0.063718632 0.070787907 0.27823195 4278255360
0.06406308 0.070933178 0.27789992 4278255360
0.064407527 0.071078449 0.27756786 4278255360
0.064751975 0.071223713 0.27723584 4278255360
0.065096423 0.071368985 0.27690378 4278255360
