# .PCD v0.7 - Point Cloud Data file format
VERSION 0.7
FIELDS x y z rgb
SIZE 4 4 4 4
TYPE F F F U
COUNT 1 1 1 1
WIDTH 1086
HEIGHT 1
VIEWPOINT 0 0 0 1 0 0 0
POINTS 1086
DATA ascii
0.11192866 0.085147984 0.30200002 4282661154
0.11328342 0.085429929 0.303 4284239142
0.11426757 0.085429929 0.303 4283449628
0.11525171 0.085429929 0.303 4282726945
0.11661947 0.085711882 0.30400002 4281017874
0.11760686 0.085711882 0.30400002 4280755481
0.11859426 0.085711882 0.30400002 4278715904
0.11997501 0.085993826 0.30500001 4285758316
0.12096565 0.085993826 0.30500001 4286152304
0.12195628 0.085993826 0.30500001 4285955697
0.12335004 0.086275779 0.30600002 4286087283
0.12475027 0.086557716 0.30700001 4285889906
0.12574741 0.086557716 0.30700001 4281147931
0.12674455 0.086557716 0.30700001 4282913038
0.12815779 0.086839668 0.30800003 4283044106
0.12915818 0.086839668 0.30800003 4283175176
0.13015856 0.086839668 0.30800003 4283437835
0.13115893 0.086839668 0.30800003 4284029202
0.13215932 0.086839668 0.30800003 4285017380
0.13315971 0.086839668 0.30800003 4286150246
0.1341601 0.086839668 0.30800003 4286020972
0.13516049 0.086839668 0.30800003 4285889132
0.13571878 0.086557716 0.30700001 4286086513
0.13627058 0.086275779 0.30600002 4286019950
0.13726448 0.086275779 0.30600002 4286020720
0.13780653 0.085993826 0.30500001 4285823341
0.13879718 0.085993826 0.30500001 4285889134
0.086248539 0.08498843 0.29800001 4285161038
0.086923771 0.084703237 0.29700002 4282195475
0.087888427 0.084703237 0.29700002 4282192906
0.088553913 0.084418036 0.296 4282258186
0.089515321 0.084418036 0.296 4282454795
0.090171069 0.084132843 0.29500002 4282454795
0.091129236 0.084132843 0.29500002 4282389002
0.091775231 0.083847642 0.294 4282454795
0.092730135 0.083847642 0.294 4282914573
0.093685046 0.083847642 0.294 4282914573
0.094318062 0.083562449 0.29300001 4283242253
0.095269725 0.083562449 0.29300001 4283439886
0.096549787 0.083847642 0.294 4283504909
0.099162951 0.085273631 0.29900002 4283570188
0.1001341 0.085273631 0.29900002 4283635214
0.1014434 0.085558824 0.30000001 4282387205
0.10275919 0.085844025 0.30100003 4279962885
0.10373684 0.085844025 0.30100003 4281347618
0.10506238 0.086129218 0.30200002 4284837214
0.10604327 0.086129218 0.30200002 4280033305
0.10702417 0.086129218 0.30200002 4280887071
0.10800506 0.086129218 0.30200002 4280821278
0.10898596 0.086129218 0.30200002 4280164114
0.10996686 0.086129218 0.30200002 4282400560
0.11094776 0.086129218 0.30200002 4281147411
0.11192866 0.086129218 0.30200002 4281936918
0.11290955 0.086129218 0.30200002 4283120399
0.11389045 0.086129218 0.30200002 4285620529
0.11525171 0.086414412 0.303 4281606920
0.11623584 0.086414412 0.303 4280688394
0.11721999 0.086414412 0.303 4280557843
0.11820414 0.086414412 0.303 4279701510
0.11958165 0.086699612 0.30400002 4286217581
0.12056905 0.086699612 0.30400002 4286218097
0.12155643 0.086699612 0.30400002 4286021492
0.12294693 0.086984806 0.30500001 4286087285
0.12475027 0.087555192 0.30700001 4286152056
0.12574741 0.087555192 0.30700001 4280816661
0.12674455 0.087555192 0.30700001 4283372557
0.12774169 0.087555192 0.30700001 4283306249
0.12915818 0.087840393 0.30800003 4283437065
0.13015856 0.087840393 0.30800003 4283634444
0.13115893 0.087840393 0.30800003 4284225298
0.13215932 0.087840393 0.30800003 4284685849
0.13315971 0.087840393 0.30800003 4285284148
0.1341601 0.087840393 0.30800003 4286805350
0.13516049 0.087840393 0.30800003 4286019691
0.13571878 0.087555192 0.30700001 4286086513
0.1367159 0.087555192 0.30700001 4286020720
0.13726448 0.087270007 0.30600002 4285889134
0.13780653 0.086984806 0.30500001 4286020720
0.13879718 0.086984806 0.30500001 4285823341
0.13978782 0.086984806 0.30500001 4285889134
0.1403169 0.086699612 0.30400002 4285823341
0.086248539 0.085956663 0.29800001 4287202684
0.086923771 0.085668221 0.29700002 4281670164
0.087888427 0.085668221 0.29700002 4282258699
0.088853084 0.085668221 0.29700002 4282390285
0.089515321 0.085379772 0.296 4282258699
0.090476729 0.085379772 0.296 4281797637
0.091129236 0.08509133 0.29500002 4283971884
0.092087395 0.08509133 0.29500002 4282523670
0.092730135 0.084802881 0.294 4282455567
0.093685046 0.084802881 0.294 4282717967
0.094639964 0.084802881 0.294 4282913801
0.095594876 0.084802881 0.294 4282848008
0.096549787 0.084802881 0.294 4283111180
0.09783636 0.08509133 0.29500002 4283702034
0.10046899 0.086533554 0.30000001 4283373069
0.1014434 0.086533554 0.30000001 4281929221
0.10275919 0.086822003 0.30100003 4279766276
0.10373684 0.086822003 0.30100003 4279768075
0.10506238 0.087110445 0.30200002 4280295704
0.10604327 0.087110445 0.30200002 4280492313
0.10702417 0.087110445 0.30200002 4281479206
0.10800506 0.087110445 0.30200002 4280755483
0.10898596 0.087110445 0.30200002 4282138161
0.10996686 0.087110445 0.30200002 4281677864
0.11094776 0.087110445 0.30200002 4280622605
0.11192866 0.087110445 0.30200002 4280818950
0.11290955 0.087110445 0.30200002 4281213443
0.11389045 0.087110445 0.30200002 4281344513
0.11487134 0.087110445 0.30200002 4281278468
0.11585224 0.087110445 0.30200002 4280753927
0.11683314 0.087110445 0.30200002 4280359946
0.11820414 0.087398887 0.303 4282926137
0.11918829 0.087398887 0.303 4286480499
0.12017243 0.087398887 0.303 4286087285
0.12115657 0.087398887 0.303 4286022005
0.12254383 0.087687336 0.30400002 4285890419
0.12475027 0.088552669 0.30700001 4286874752
0.12574741 0.088552669 0.30700001 4282194205
0.12674455 0.088552669 0.30700001 4283699726
0.12774169 0.088552669 0.30700001 4283633931
0.12915818 0.088841125 0.30800003 4283502345
0.13015856 0.088841125 0.30800003 4283831310
0.13115893 0.088841125 0.30800003 4284158735
0.13215932 0.088841125 0.30800003 4285013017
0.13315971 0.088841125 0.30800003 4285340951
0.1341601 0.088841125 0.30800003 4285741357
0.13516049 0.088841125 0.30800003 4286216554
0.13616087 0.088841125 0.30800003 4286283120
0.1367159 0.088552669 0.30700001 4285889132
0.13726448 0.088264227 0.30600002 4286020720
0.13825837 0.088264227 0.30600002 4285889134
0.13879718 0.087975778 0.30500001 4285889136
0.13978782 0.087975778 0.30500001 4286020722
0.14077847 0.087975778 0.30500001 4286021492
0.086923771 0.086633198 0.29700002 4281540121
0.087888427 0.086633198 0.29700002 4282390285
0.088853084 0.086633198 0.29700002 4282324492
0.089515321 0.0863415 0.296 4282192906
0.090476729 0.0863415 0.296 4283246879
0.091129236 0.08604981 0.29500002 4286546289
0.092087395 0.08604981 0.29500002 4286480753
0.093045548 0.08604981 0.29500002 4286281064
0.094003707 0.08604981 0.29500002 4282001437
0.094961874 0.08604981 0.29500002 4282785045
0.095920034 0.08604981 0.29500002 4282454795
0.096878193 0.08604981 0.29500002 4282913801
0.098168001 0.0863415 0.296 4283569934
0.10046899 0.087508276 0.30000001 4284692781
0.1014434 0.087508276 0.30000001 4281342734
0.10275919 0.087799981 0.30100003 4279700999
0.10408148 0.088091671 0.30200002 4280164116
0.10506238 0.088091671 0.30200002 4280624669
0.10604327 0.088091671 0.30200002 4280756001
0.10702417 0.088091671 0.30200002 4281545769
0.10800506 0.088091671 0.30200002 4280755481
0.10898596 0.088091671 0.30200002 4280623895
0.10996686 0.088091671 0.30200002 4281545767
0.11094776 0.088091671 0.30200002 4281610263
0.11192866 0.088091671 0.30200002 4281346314
0.11290955 0.088091671 0.30200002 4280752642
0.11389045 0.088091671 0.30200002 4281081607
0.11487134 0.088091671 0.30200002 4281017611
0.11585224 0.088091671 0.30200002 4280557575
0.11683314 0.088091671 0.30200002 4280293899
0.11781403 0.088091671 0.30200002 4287006070
0.11879493 0.088091671 0.30200002 4286283892
0.11977582 0.088091671 0.30200002 4286350457
0.12075672 0.088091671 0.30200002 4286153078
0.12214071 0.088383362 0.303 4286087285
0.12475027 0.089550138 0.30700001 4286408807
0.12574741 0.089550138 0.30700001 4283636770
0.12674455 0.089550138 0.30700001 4283897103
0.12774169 0.089550138 0.30700001 4283765517
0.12915818 0.089841835 0.30800003 4283765517
0.13015856 0.089841835 0.30800003 4284027919
0.13115893 0.089841835 0.30800003 4284421650
0.13215932 0.089841835 0.30800003 4285209367
0.13359204 0.090133525 0.30900002 4285734680
0.13459568 0.090133525 0.30900002 4285932316
0.13516049 0.089841835 0.30800003 4286869344
0.13616087 0.089841835 0.30800003 4286085736
0.1367159 0.089550138 0.30700001 4286020720
0.13771304 0.089550138 0.30700001 4286086513
0.13825837 0.089258447 0.30600002 4286152308
0.13925226 0.089258447 0.30600002 4286020722
0.13978782 0.08896675 0.30500001 4285955699
0.14077847 0.08896675 0.30500001 4285889906
0.1417691 0.08896675 0.30500001 4285758320
0.088853084 0.087598182 0.29700002 4282390287
0.089515321 0.087303236 0.296 4282717967
0.090476729 0.087303236 0.296 4283444770
0.091438144 0.087303236 0.296 4286218869
0.092087395 0.087008297 0.29500002 4286350457
0.093045548 0.087008297 0.29500002 4286416250
0.094003707 0.087008297 0.29500002 4287073410
0.094961874 0.087008297 0.29500002 4282261016
0.095920034 0.087008297 0.29500002 4282258703
0.097206593 0.087303236 0.296 4282914573
0.098499656 0.087598182 0.29700002 4283964179
0.1001341 0.088188075 0.29900002 4287987825
0.1014434 0.088483013 0.30000001 4285821031
0.10275919 0.088777959 0.30100003 4279503368
0.10408148 0.089072898 0.30200002 4279241992
0.10506238 0.089072898 0.30200002 4279900949
0.10604327 0.089072898 0.30200002 4278979590
0.10702417 0.089072898 0.30200002 4281414185
0.10800506 0.089072898 0.30200002 4280492309
0.10898596 0.089072898 0.30200002 4280755481
0.10996686 0.089072898 0.30200002 4282532662
0.11094776 0.089072898 0.30200002 4281084952
0.11192866 0.089072898 0.30200002 4282530590
0.11290955 0.089072898 0.30200002 4283713831
0.11389045 0.089072898 0.30200002 4281345031
0.11487134 0.089072898 0.30200002 4280886027
0.11585224 0.089072898 0.30200002 4280688907
0.11683314 0.089072898 0.30200002 4279110400
0.11781403 0.089072898 0.30200002 4286349167
0.11879493 0.089072898 0.30200002 4286348913
0.11977582 0.089072898 0.30200002 4286283894
0.12075672 0.089072898 0.30200002 4286086515
0.12173761 0.089072898 0.30200002 4286086515
0.12475027 0.090547614 0.30700001 4282652957
0.12574741 0.090547614 0.30700001 4283766552
0.12674455 0.090547614 0.30700001 4283830794
0.12774169 0.090547614 0.30700001 4284093196
0.12915818 0.090842567 0.30800003 4284158989
0.13015856 0.090842567 0.30800003 4284487954
0.13115893 0.090842567 0.30800003 4284946965
0.13215932 0.090842567 0.30800003 4285669148
0.13359204 0.091137506 0.30900002 4285997336
0.13459568 0.091137506 0.30900002 4285997336
0.13516049 0.090842567 0.30800003 4283703317
0.13616087 0.090842567 0.30800003 4286345828
0.1367159 0.090547614 0.30700001 4285889136
0.13771304 0.090547614 0.30700001 4285757296
0.13871019 0.090547614 0.30700001 4286086515
0.13925226 0.090252675 0.30600002 4285692527
0.14024615 0.090252675 0.30600002 4285889652
0.14077847 0.089957729 0.30500001 4285889652
0.1417691 0.089957729 0.30500001 4285626734
0.091438144 0.088264972 0.296 4286547834
0.092399552 0.088264972 0.296 4286547834
0.093360953 0.088264972 0.296 4286482043
0.094322361 0.088264972 0.296 4286810754
0.095283769 0.088264972 0.296 4281604632
0.096245185 0.088264972 0.296 4282194453
0.097534999 0.088563167 0.29700002 4282914573
0.098499656 0.088563167 0.29700002 4284030487
0.1001341 0.089159556 0.29900002 4287595127
0.1014434 0.089457743 0.30000001 4287138429
0.10275919 0.089755945 0.30100003 4278911744
0.10408148 0.090054132 0.30200002 4280755231
0.10506238 0.090054132 0.30200002 4281348395
0.10604327 0.090054132 0.30200002 4279242762
0.10737855 0.090352319 0.303 4281348390
0.10836269 0.090352319 0.303 4281216802
0.10934684 0.090352319 0.303 4280558102
0.11033098 0.090352319 0.303 4281742376
0.11131513 0.090352319 0.303 4280953114
0.11192866 0.090054132 0.30200002 4280492563
0.11290955 0.090054132 0.30200002 4281608466
0.11389045 0.090054132 0.30200002 4282529568
0.11487134 0.090054132 0.30200002 4280885775
0.11585224 0.090054132 0.30200002 4279964421
0.11644627 0.089755945 0.30100003 4285362015
0.11742392 0.089755945 0.30100003 4286086765
0.11840157 0.089755945 0.30100003 4286021488
0.11937922 0.089755945 0.30100003 4286218099
0.12035687 0.089755945 0.30100003 4286218101
0.12173761 0.090054132 0.30200002 4287138181
0.12475027 0.09154509 0.30700001 4283768097
0.12574741 0.09154509 0.30700001 4283896851
0.12674455 0.09154509 0.30700001 4284289546
0.12774169 0.09154509 0.30700001 4284487695
0.12915818 0.091843292 0.30800003 4284290316
0.13015856 0.091843292 0.30800003 4284553488
0.13115893 0.091843292 0.30800003 4284683793
0.13215932 0.091843292 0.30800003 4291725450
0.13359204 0.092141479 0.30900002 4285602844
0.13459568 0.092141479 0.30900002 4286128668
0.13516049 0.091843292 0.30800003 4284817435
0.13616087 0.091843292 0.30800003 4287525739
0.13716124 0.091843292 0.30800003 4285888882
0.13771304 0.09154509 0.30700001 4285888882
0.13871019 0.09154509 0.30700001 4286152308
0.13970733 0.09154509 0.30700001 4286020722
0.14024615 0.091246903 0.30600002 4286020722
0.14170159 0.09154509 0.30700001 4286020722
0.14269873 0.09154509 0.30700001 4285889906
0.092399552 0.089226708 0.296 4286416761
0.093360953 0.089226708 0.296 4286548347
0.094322361 0.089226708 0.296 4286810754
0.095283769 0.089226708 0.296 4281276951
0.096245185 0.089226708 0.296 4281997076
0.097534999 0.089528158 0.29700002 4283045389
0.098831296 0.089829594 0.29800001 4283898901
0.1001341 0.090131037 0.29900002 4287267446
0.1014434 0.09043248 0.30000001 4286811004
0.10275919 0.090733923 0.30100003 4280162330
0.10408148 0.091035359 0.30200002 4279834129
0.10506238 0.091035359 0.30200002 4281743153
0.10639441 0.091336802 0.303 4279374350
0.10737855 0.091336802 0.303 4279834381
0.10836269 0.091336802 0.303 4281545769
0.10934684 0.091336802 0.303 4281611562
0.11033098 0.091336802 0.303 4280624665
0.11131513 0.091336802 0.303 4283124799
0.11229927 0.091336802 0.303 4280756253
0.11290955 0.091035359 0.30200002 4280821015
0.11389045 0.091035359 0.30200002 4280623634
0.11487134 0.091035359 0.30200002 4279767305
0.11585224 0.091035359 0.30200002 4279570694
0.11683314 0.091035359 0.30200002 4286086763
0.11742392 0.090733923 0.30100003 4286152558
0.11840157 0.090733923 0.30100003 4286021490
0.11937922 0.090733923 0.30100003 4286021492
0.12035687 0.090733923 0.30100003 4286217849
0.12173761 0.091035359 0.30200002 4282266162
0.12475027 0.092542566 0.30700001 4284489503
0.12574741 0.092542566 0.30700001 4284224271
0.12674455 0.092542566 0.30700001 4284420621
0.12774169 0.092542566 0.30700001 4284354828
0.12915818 0.092844017 0.30800003 4284421134
0.13015856 0.092844017 0.30800003 4284618513
0.13115893 0.092844017 0.30800003 4285142802
0.13215932 0.092844017 0.30800003 4284616460
0.13359204 0.093145452 0.30900002 4285866275
0.13459568 0.093145452 0.30900002 4285997856
0.13516049 0.092844017 0.30800003 4285014044
0.13616087 0.092844017 0.30800003 4288050280
0.13716124 0.092844017 0.30800003 4285954157
0.13771304 0.092542566 0.30700001 4286019698
0.13871019 0.092542566 0.30700001 4286019698
0.13970733 0.092542566 0.30700001 4286085234
0.14070447 0.092542566 0.30700001 4285889136
0.14170159 0.092542566 0.30700001 4286020722
0.14269873 0.092542566 0.30700001 4286152308
0.092399552 0.090188436 0.296 4286482041
0.093360953 0.090188436 0.296 4286482043
0.094322361 0.090188436 0.296 4286810754
0.095283769 0.090188436 0.296 4281473816
0.096570343 0.090493135 0.29700002 4282390805
0.097534999 0.090493135 0.29700002 4283307794
0.098831296 0.090797819 0.29800001 4283833108
0.1001341 0.091102518 0.29900002 4287661950
0.1014434 0.091407202 0.30000001 4286350457
0.10275919 0.091711894 0.30100003 4282927172
0.10408148 0.092016585 0.30200002 4279504651
0.10506238 0.092016585 0.30200002 4279112457
0.10639441 0.092321269 0.303 4280625694
0.10737855 0.092321269 0.303 4279440393
0.10836269 0.092321269 0.303 4278979842
0.10934684 0.092321269 0.303 4280427547
0.11033098 0.092321269 0.303 4280230168
0.11131513 0.092321269 0.303 4279110660
0.11229927 0.092321269 0.303 4279965454
0.11328342 0.092321269 0.303 4280031758
0.11389045 0.092016585 0.30200002 4279636489
0.11487134 0.092016585 0.30200002 4278913280
0.11585224 0.092016585 0.30200002 4286349167
0.11683314 0.092016585 0.30200002 4286087535
0.11742392 0.091711894 0.30100003 4286086511
0.11840157 0.091711894 0.30100003 4286218101
0.11937922 0.091711894 0.30100003 4286152308
0.12035687 0.091711894 0.30100003 4287333248
0.12173761 0.092016585 0.30200002 4283114280
0.12475027 0.093540035 0.30700001 4284553238
0.12574741 0.093540035 0.30700001 4284552720
0.12674455 0.093540035 0.30700001 4284617230
0.12774169 0.093540035 0.30700001 4284748816
0.12915818 0.093844734 0.30800003 4284683793
0.13015856 0.093844734 0.30800003 4284749584
0.13115893 0.093844734 0.30800003 4284683791
0.13215932 0.093844734 0.30800003 4285406744
0.13359204 0.094149418 0.30900002 4285669146
0.13459568 0.094149418 0.30900002 4285866525
0.13516049 0.093844734 0.30800003 4285014814
0.13616087 0.093844734 0.30800003 4287984489
0.1367159 0.093540035 0.30700001 4286217070
0.13771304 0.093540035 0.30700001 4286283122
0.13871019 0.093540035 0.30700001 4285953905
0.13970733 0.093540035 0.30700001 4286019700
0.14070447 0.093540035 0.30700001 4285757298
0.14170159 0.093540035 0.30700001 4286020468
0.14269873 0.093540035 0.30700001 4286020468
0.093676366 0.091458119 0.29700002 4286415996
0.094641022 0.091458119 0.29700002 4286087546
0.095605679 0.091458119 0.29700002 4282855467
0.096570343 0.091458119 0.29700002 4282325525
0.097863391 0.091766052 0.29800001 4283110928
0.098831296 0.091766052 0.29800001 4283635216
0.1001341 0.092073999 0.29900002 4287596157
0.1014434 0.092381932 0.30000001 4286482041
0.10275919 0.092689879 0.30100003 4286942855
0.10408148 0.092997812 0.30200002 4278782470
0.10541026 0.093305752 0.303 4280690719
0.10639441 0.093305752 0.303 4279507213
0.10737855 0.093305752 0.303 4279177480
0.10872033 0.093613699 0.30400002 4280888098
0.10970772 0.093613699 0.30400002 4278848004
0.11033098 0.093305752 0.303 4278979590
0.11131513 0.093305752 0.303 4278979844
0.11229927 0.093305752 0.303 4280492313
0.11328342 0.093305752 0.303 4279044354
0.11389045 0.092997812 0.30200002 4279372295
0.11487134 0.092997812 0.30200002 4285362020
0.11585224 0.092997812 0.30200002 4285823341
0.11683314 0.092997812 0.30200002 4286152306
0.11742392 0.092689879 0.30100003 4286086513
0.11840157 0.092689879 0.30100003 4286218871
0.11937922 0.092689879 0.30100003 4286087285
0.12035687 0.092689879 0.30100003 4284694335
0.12173761 0.092997812 0.30200002 4284291872
0.12475027 0.094537511 0.30700001 4284749845
0.12574741 0.094537511 0.30700001 4284815377
0.12674455 0.094537511 0.30700001 4284880398
0.12774169 0.094537511 0.30700001 4284814605
0.12915818 0.094845459 0.30800003 4284879628
0.13015856 0.094845459 0.30800003 4284748814
0.13115893 0.094845459 0.30800003 4284552718
0.13215932 0.094845459 0.30800003 4284618511
0.13359204 0.095153391 0.30900002 4284749584
0.13459568 0.095153391 0.30900002 4285209367
0.13516049 0.094845459 0.30800003 4283702036
0.13571878 0.094537511 0.30700001 4287330411
0.1367159 0.094537511 0.30700001 4286217329
0.13771304 0.094537511 0.30700001 4286019950
0.13871019 0.094537511 0.30700001 4285954159
0.13970733 0.094537511 0.30700001 4286283124
0.14070447 0.094537511 0.30700001 4286086515
0.14170159 0.094537511 0.30700001 4286020722
0.14269873 0.094537511 0.30700001 4286020722
0.088184342 0.092734285 0.29800001 4282653207
0.089152247 0.092734285 0.29800001 4282718741
0.090120159 0.092734285 0.29800001 4283307794
0.091088064 0.092734285 0.29800001 4283111700
0.092711717 0.092423104 0.29700002 4286482556
0.093676366 0.092423104 0.29700002 4286350716
0.094641022 0.092423104 0.29700002 4286350716
0.095605679 0.092423104 0.29700002 4283317045
0.096570343 0.092423104 0.29700002 4282391318
0.097863391 0.092734285 0.29800001 4282980114
0.098831296 0.092734285 0.29800001 4284556577
0.1001341 0.093045481 0.29900002 4287331953
0.1014434 0.093356669 0.30000001 4286547316
0.10275919 0.093667857 0.30100003 4286350718
0.10408148 0.093979046 0.30200002 4284178266
0.10541026 0.094290234 0.303 4280031758
0.10639441 0.094290234 0.303 4279571977
0.10737855 0.094290234 0.303 4280230168
0.10872033 0.094601423 0.30400002 4279966996
0.10970772 0.094601423 0.30400002 4279045637
0.11069512 0.094601423 0.30400002 4282532664
0.11131513 0.094290234 0.303 4282269492
0.11229927 0.094290234 0.303 4279374602
0.11290955 0.093979046 0.30200002 4281016347
0.11389045 0.093979046 0.30200002 4284504403
0.11487134 0.093979046 0.30200002 4285889906
0.11585224 0.093979046 0.30200002 4286021238
0.11644627 0.093667857 0.30100003 4286218101
0.11742392 0.093667857 0.30100003 4286152308
0.11840157 0.093667857 0.30100003 4286283124
0.11937922 0.093667857 0.30100003 4286808439
0.12035687 0.093667857 0.30100003 4284949804
0.12173761 0.093979046 0.30200002 4285012765
0.12475027 0.095534988 0.30700001 4284881172
0.12574741 0.095534988 0.30700001 4284683791
0.12674455 0.095534988 0.30700001 4284945675
0.12774169 0.095534988 0.30700001 4285077261
0.12915818 0.095846184 0.30800003 4285077007
0.13015856 0.095846184 0.30800003 4284880400
0.13115893 0.095846184 0.30800003 4284224528
0.13215932 0.095846184 0.30800003 4284488470
0.13359204 0.096157365 0.30900002 4284685849
0.13459568 0.096157365 0.30900002 4284685079
0.13559932 0.096157365 0.30900002 4284367925
0.13571878 0.095534988 0.30700001 4286151013
0.1367159 0.095534988 0.30700001 4285955697
0.13771304 0.095534988 0.30700001 4285889904
0.13871019 0.095534988 0.30700001 4285691757
0.13970733 0.095534988 0.30700001 4286086515
0.14070447 0.095534988 0.30700001 4286020722
0.14170159 0.095534988 0.30700001 4286020722
0.14269873 0.095534988 0.30700001 4286086515
0.086537972 0.094016962 0.29900002 4286417279
0.087509118 0.094016962 0.29900002 4284637272
0.088184342 0.093702525 0.29800001 4282784793
0.089152247 0.093702525 0.29800001 4282783760
0.090120159 0.093702525 0.29800001 4283372817
0.091088064 0.093702525 0.29800001 4283241231
0.092055969 0.093702525 0.29800001 4287401346
0.093023874 0.093702525 0.29800001 4286547836
0.093676366 0.093388088 0.29700002 4286548349
0.094641022 0.093388088 0.29700002 4286350970
0.095605679 0.093388088 0.29700002 4284897364
0.096570343 0.093388088 0.29700002 4282062869
0.097534999 0.093388088 0.29700002 4282782737
0.098831296 0.093702525 0.29800001 4284031001
0.1001341 0.094016962 0.29900002 4287659887
0.1014434 0.094331399 0.30000001 4286743925
0.1024178 0.094331399 0.30000001 4286482043
0.10373684 0.094645843 0.30100003 4286152824
0.10506238 0.09496028 0.30200002 4283717197
0.10639441 0.095274709 0.303 4279504905
0.10773294 0.095589153 0.30400002 4280295704
0.10872033 0.095589153 0.30400002 4279966739
0.10970772 0.095589153 0.30400002 4279373832
0.11033098 0.095274709 0.303 4278650112
0.11131513 0.095274709 0.303 4279438860
0.11229927 0.095274709 0.303 4279503370
0.11290955 0.09496028 0.30200002 4283310624
0.11389045 0.09496028 0.30200002 4286407260
0.11487134 0.09496028 0.30200002 4286020722
0.11546862 0.094645843 0.30100003 4286021238
0.11644627 0.094645843 0.30100003 4286086515
0.11742392 0.094645843 0.30100003 4286283124
0.11840157 0.094645843 0.30100003 4286413683
0.11937922 0.094645843 0.30100003 4283116075
0.12035687 0.094645843 0.30100003 4284817183
0.12173761 0.09496028 0.30200002 4284882201
0.12475027 0.096532464 0.30700001 4285078549
0.12574741 0.096532464 0.30700001 4284880398
0.12674455 0.096532464 0.30700001 4285143054
0.12774169 0.096532464 0.30700001 4285340433
0.12915818 0.096846908 0.30800003 4284880400
0.13015856 0.096846908 0.30800003 4284487700
0.13115893 0.096846908 0.30800003 4283964440
0.13215932 0.096846908 0.30800003 4283834138
0.13359204 0.097161345 0.30900002 4284031517
0.13459568 0.097161345 0.30900002 4283969321
0.13559932 0.097161345 0.30900002 4286085220
0.13660294 0.097161345 0.30900002 4286020200
0.13760658 0.097161345 0.30900002 4285692273
0.1386102 0.097161345 0.30900002 4285692273
0.13961384 0.097161345 0.30900002 4285758320
0.14061747 0.097161345 0.30900002 4286021492
0.14162111 0.097161345 0.30900002 4286021492
0.14262474 0.097161345 0.30900002 4286153078
0.14362836 0.097161345 0.30900002 4286283894
0.086537972 0.09498845 0.29900002 4286614658
0.087509118 0.09498845 0.29900002 4284175954
0.088480271 0.09498845 0.29900002 4282522393
0.089152247 0.094670758 0.29800001 4282783762
0.090120159 0.094670758 0.29800001 4283570450
0.091088064 0.094670758 0.29800001 4284358937
0.092055969 0.094670758 0.29800001 4287662717
0.093023874 0.094670758 0.29800001 4286547836
0.093676366 0.094353072 0.29700002 4286285947
0.094641022 0.094353072 0.29700002 4286220154
0.095605679 0.094353072 0.29700002 4286808957
0.096570343 0.094353072 0.29700002 4281604117
0.097534999 0.094353072 0.29700002 4282717455
0.098831296 0.094670758 0.29800001 4283702806
0.099799193 0.094670758 0.29800001 4285221953
0.10110525 0.09498845 0.29900002 4286940277
0.1024178 0.095306136 0.30000001 4286482041
0.10373684 0.095623821 0.30100003 4286613629
0.10506238 0.095941506 0.30200002 4286481019
0.10639441 0.096259192 0.303 4281216806
0.10737855 0.096259192 0.303 4280422155
0.10872033 0.096576884 0.30400002 4279830788
0.10970772 0.096576884 0.30400002 4279699715
0.11033098 0.096259192 0.303 4280093190
0.11131513 0.096259192 0.303 4282390037
0.11229927 0.096259192 0.303 4283503893
0.11290955 0.095941506 0.30200002 4283831573
0.11389045 0.095941506 0.30200002 4286007621
0.11449097 0.095623821 0.30100003 4285889134
0.11546862 0.095623821 0.30100003 4286021492
0.11644627 0.095623821 0.30100003 4286021492
0.11742392 0.095623821 0.30100003 4286087285
0.11840157 0.095623821 0.30100003 4284233272
0.11937922 0.095623821 0.30100003 4284555046
0.12035687 0.095623821 0.30100003 4285341982
0.12173761 0.095941506 0.30200002 4284946711
0.12475027 0.09752994 0.30700001 4285077781
0.12574741 0.09752994 0.30700001 4285208595
0.12674455 0.09752994 0.30700001 4285405717
0.12774169 0.09752994 0.30700001 4285340181
0.12915818 0.097847633 0.30800003 4284359191
0.13015856 0.097847633 0.30800003 4283703319
0.13115893 0.097847633 0.30800003 4282849041
0.13215932 0.097847633 0.30800003 4283245594
0.13359204 0.098165318 0.30900002 4286278232
0.13459568 0.098165318 0.30900002 4285953121
0.13559932 0.098165318 0.30900002 4286020202
0.13660294 0.098165318 0.30900002 4286217329
0.13760658 0.098165318 0.30900002 4286086515
0.1386102 0.098165318 0.30900002 4285889136
0.13961384 0.098165318 0.30900002 4285889906
0.14061747 0.098165318 0.30900002 4285955699
0.14162111 0.098165318 0.30900002 4286021238
0.14262474 0.098165318 0.30900002 4285955445
0.14362836 0.098165318 0.30900002 4286481789
0.086537972 0.095959924 0.29900002 4286417279
0.087509118 0.095959924 0.29900002 4283254852
0.088480271 0.095959924 0.29900002 4282390807
0.089152247 0.095638983 0.29800001 4282717971
0.090120159 0.095638983 0.29800001 4283571218
0.091088064 0.095638983 0.29800001 4284095249
0.092055969 0.095638983 0.29800001 4287131748
0.093023874 0.095638983 0.29800001 4286547066
0.093676366 0.095318049 0.29700002 4286219900
0.094641022 0.095318049 0.29700002 4286154109
0.095605679 0.095318049 0.29700002 4286350205
0.096570343 0.095318049 0.29700002 4280687896
0.097534999 0.095318049 0.29700002 4282389004
0.098499656 0.095318049 0.29700002 4283767829
0.099799193 0.095638983 0.29800001 4283245335
0.10110525 0.095959924 0.29900002 4286938481
0.1020764 0.095959924 0.29900002 4286547834
0.1033922 0.096280858 0.30000001 4286613629
0.10506238 0.096922733 0.30200002 4286350457
0.10639441 0.097243659 0.303 4284571995
0.10737855 0.097243659 0.303 4282063639
0.10836269 0.097243659 0.303 4281996301
0.10934684 0.097243659 0.303 4283110669
0.11033098 0.097243659 0.303 4283437837
0.11131513 0.097243659 0.303 4284093714
0.11192866 0.096922733 0.30200002 4284356116
0.11290955 0.096922733 0.30200002 4284487443
0.11351334 0.096601799 0.30100003 4283635216
0.11449097 0.096601799 0.30100003 4286019948
0.11546862 0.096601799 0.30100003 4285889904
0.11644627 0.096601799 0.30100003 4286019952
0.11742392 0.096601799 0.30100003 4284106052
0.11840157 0.096601799 0.30100003 4285015084
0.11937922 0.096601799 0.30100003 4285342500
0.12035687 0.096601799 0.30100003 4285078810
0.12173761 0.096922733 0.30200002 4285144090
0.12475027 0.098527409 0.30700001 4285405722
0.12574741 0.098527409 0.30700001 4285274133
0.12674455 0.098527409 0.30700001 4285537562
0.12774169 0.098527409 0.30700001 4287056198
0.12915818 0.09884835 0.30800003 4286675559
0.13015856 0.09884835 0.30800003 4286346594
0.13115893 0.09884835 0.30800003 4285952867
0.13215932 0.09884835 0.30800003 4286084453
0.13359204 0.099169284 0.30900002 4285954409
0.13459568 0.099169284 0.30900002 4286019948
0.13559932 0.099169284 0.30900002 4286217327
0.13660294 0.099169284 0.30900002 4286151536
0.13760658 0.099169284 0.30900002 4286086515
0.1386102 0.099169284 0.30900002 4285889906
0.13961384 0.099169284 0.30900002 4286021492
0.14061747 0.099169284 0.30900002 4285955445
0.14162111 0.099169284 0.30900002 4286021238
0.14262474 0.099169284 0.30900002 4286350203
0.14362836 0.099169284 0.30900002 4286810754
0.086537972 0.096931405 0.29900002 4286351486
0.087509118 0.096931405 0.29900002 4282860094
0.088480271 0.096931405 0.29900002 4282850073
0.089152247 0.096607216 0.29800001 4282914836
0.090120159 0.096607216 0.29800001 4283504657
0.091088064 0.096607216 0.29800001 4284160529
0.092055969 0.096607216 0.29800001 4285410857
0.092711717 0.096283033 0.29700002 4287389020
0.093676366 0.096283033 0.29700002 4286743675
0.094641022 0.096283033 0.29700002 4286415996
0.095605679 0.096283033 0.29700002 4286350203
0.096570343 0.096283033 0.29700002 4284636505
0.097534999 0.096283033 0.29700002 4282585869
0.098499656 0.096283033 0.29700002 4283438864
0.099464305 0.096283033 0.29700002 4283965208
0.10076711 0.096607216 0.29800001 4288250745
0.10173501 0.096607216 0.29800001 4286547836
0.10304756 0.096931405 0.29900002 4286350203
0.10506238 0.097903959 0.30200002 4286481789
0.10639441 0.098228142 0.303 4287138949
0.10737855 0.098228142 0.303 4282589983
0.10836269 0.098228142 0.303 4282914832
0.10934684 0.098228142 0.303 4284027149
0.11033098 0.098228142 0.303 4284421134
0.11290955 0.097903959 0.30200002 4284946965
0.11351334 0.097579777 0.30100003 4285014041
0.11449097 0.097579777 0.30100003 4286609002
0.085566819 0.097902894 0.29900002 4286483072
0.086537972 0.097902894 0.29900002 4286219900
0.087509118 0.097902894 0.29900002 4282266928
0.088480271 0.097902894 0.29900002 4283177495
0.089451425 0.097902894 0.29900002 4283308307
0.090120159 0.097575448 0.29800001 4283701522
0.091088064 0.097575448 0.29800001 4284291091
0.092055969 0.097575448 0.29800001 4284618259
0.092711717 0.097248018 0.29700002 4284684054
0.093676366 0.097248018 0.29700002 4283831058
0.094641022 0.097248018 0.29700002 4284821037
0.095605679 0.097248018 0.29700002 4284955197
0.096245185 0.09692058 0.296 4285018425
0.097206593 0.09692058 0.296 4283833622
0.098168001 0.09692058 0.296 4284160527
0.099464305 0.097248018 0.29700002 4284948248
0.10042896 0.097248018 0.29700002 4287124042
0.10139362 0.097248018 0.29700002 4286349687
0.10270292 0.097575448 0.29800001 4286415996
0.10332294 0.097248018 0.29700002 4286481789
0.10639441 0.099212624 0.303 4286152824
0.10737855 0.099212624 0.303 4282459943
0.10836269 0.099212624 0.303 4282980629
0.10934684 0.099212624 0.303 4284224271
0.11033098 0.099212624 0.303 4284354574
0.085852988 0.099205054 0.30000001 4286417279
0.086537972 0.098874375 0.29900002 4286415998
0.087509118 0.098874375 0.29900002 4282134574
0.088480271 0.098874375 0.29900002 4283111702
0.089451425 0.098874375 0.29900002 4283307796
0.090120159 0.098543689 0.29800001 4283898386
0.091088064 0.098543689 0.29800001 4284356368
0.092055969 0.098543689 0.29800001 4284617746
0.092711717 0.09821301 0.29700002 4284946711
0.093676366 0.09821301 0.29700002 4285011734
0.094641022 0.09821301 0.29700002 4285537308
0.095283769 0.097882316 0.296 4285736742
0.096245185 0.097882316 0.296 4287120192
0.097206593 0.097882316 0.296 4286790452
0.098168001 0.097882316 0.296 4287118132
0.099129401 0.097882316 0.296 4285275156
0.10009081 0.097882316 0.296 4285276439
0.10139362 0.09821301 0.29700002 4286736738
0.10235828 0.09821301 0.29700002 4286873721
0.10297504 0.097882316 0.296 4286087031
0.10639441 0.1001971 0.303 4286087031
0.10737855 0.1001971 0.303 4286673523
0.10836269 0.1001971 0.303 4282982174
0.10934684 0.1001971 0.303 4284553493
0.11033098 0.1001971 0.303 4284880148
0.085852988 0.10017978 0.30000001 4286417281
0.086537972 0.099845849 0.29900002 4286546812
0.087509118 0.099845849 0.29900002 4281606177
0.088480271 0.099845849 0.29900002 4283178006
0.089451425 0.099845849 0.29900002 4283373587
0.090120159 0.099511914 0.29800001 4283831823
0.091088064 0.099511914 0.29800001 4284291345
0.092055969 0.099511914 0.29800001 4284750099
0.092711717 0.099177986 0.29700002 4284684306
0.093676366 0.099177986 0.29700002 4285011988
0.094322361 0.098844044 0.296 4285405974
0.095283769 0.098844044 0.296 4285866270
0.096245185 0.098844044 0.296 4289156693
0.097206593 0.098844044 0.296 4285604389
0.098168001 0.098844044 0.296 4286062879
0.099129401 0.098844044 0.296 4285995801
0.10009081 0.098844044 0.296 4285733912
0.10105222 0.098844044 0.296 4285344803
0.10201363 0.098844044 0.296 4286466371
0.10297504 0.098844044 0.296 4286539877
0.10393645 0.098844044 0.296 4286543732
0.10737855 0.10118157 0.303 4286346355
0.10836269 0.10118157 0.303 4282063900
0.10934684 0.10118157 0.303 4285014044
0.11033098 0.10118157 0.303 4285405976
0.085852988 0.10115451 0.30000001 4286483074
0.086537972 0.10081733 0.29900002 4286809216
0.087509118 0.10081733 0.29900002 4281737763
0.088480271 0.10081733 0.29900002 4283308309
0.089451425 0.10081733 0.29900002 4283439634
0.090120159 0.10048015 0.29800001 4283898901
0.091088064 0.10048015 0.29800001 4284094997
0.092055969 0.10048015 0.29800001 4284356368
0.092711717 0.10014297 0.29700002 4284487695
0.093676366 0.10014297 0.29700002 4284683791
0.094322361 0.09980578 0.296 4285142802
0.095283769 0.09980578 0.296 4285404947
0.095920034 0.099468604 0.29500002 4285995799
0.096878193 0.099468604 0.29500002 4291594116
0.09783636 0.099468604 0.29500002 4285671465
0.098794512 0.099468604 0.29500002 4286126619
0.099752672 0.099468604 0.29500002 4285864215
0.10071083 0.099468604 0.29500002 4285537303
0.10201363 0.09980578 0.296 4285537303
0.10297504 0.09980578 0.296 4285274906
0.10393645 0.09980578 0.296 4285144353
0.10737855 0.10216605 0.303 4284423976
0.10836269 0.10216605 0.303 4285145898
0.10934684 0.10216605 0.303 4285142550
0.11033098 0.10216605 0.303 4285732629
0.085852988 0.10212924 0.30000001 4286614660
0.086537972 0.10178882 0.29900002 4286546814
0.087509118 0.10178882 0.29900002 4281737763
0.088480271 0.10178882 0.29900002 4283111700
0.089451425 0.10178882 0.29900002 4283505686
0.090120159 0.10144838 0.29800001 4283308048
0.091088064 0.10144838 0.29800001 4283833108
0.09174706 0.10110795 0.29700002 4284094997
0.092711717 0.10110795 0.29700002 4283962126
0.093360953 0.10076752 0.296 4284618000
0.094322361 0.10076752 0.296 4284880400
0.094961874 0.10042709 0.29500002 4285405715
0.095920034 0.10042709 0.29500002 4285536531
0.096878193 0.10042709 0.29500002 4285668637
0.09783636 0.10042709 0.29500002 4287247674
0.098459609 0.10008665 0.294 4286260256
0.09941452 0.10008665 0.294 4286389789
0.10071083 0.10042709 0.29500002 4285601813
0.101669 0.10042709 0.29500002 4285404947
0.10297504 0.10076752 0.296 4285471510
0.10393645 0.10076752 0.296 4285668889
0.10737855 0.10315053 0.303 4285668891
0.10836269 0.10315053 0.303 4285734684
0.10934684 0.10315053 0.303 4285865498
0.11033098 0.10315053 0.303 4285602326
0.085852988 0.10310397 0.30000001 4286614660
0.086537972 0.1027603 0.29900002 4286613637
0.087509118 0.1027603 0.29900002 4282200367
0.088480271 0.1027603 0.29900002 4282980375
0.089451425 0.1027603 0.29900002 4283111702
0.090120159 0.10241661 0.29800001 4283242516
0.091088064 0.10241661 0.29800001 4283307794
0.09174706 0.10207294 0.29700002 4283635729
0.092711717 0.10207294 0.29700002 4283831823
0.093360953 0.10172925 0.296 4284224525
0.094322361 0.10172925 0.296 4284421134
0.094961874 0.10138558 0.29500002 4285077007
0.095920034 0.10138558 0.29500002 4285274129
0.096549787 0.10104189 0.294 4285536531
0.097504705 0.10104189 0.294 4285799705
0.098459609 0.10104189 0.294 4289750888
0.09941452 0.10104189 0.294 4284815127
0.10036944 0.10104189 0.294 4285339154
0.101669 0.10138558 0.29500002 4285207568
0.10297504 0.10172925 0.296 4285404947
0.10393645 0.10172925 0.296 4285404947
0.10737855 0.10413501 0.303 4285668119
0.10836269 0.10413501 0.303 4285799705
0.10934684 0.10413501 0.303 4285602324
0.11033098 0.10413501 0.303 4285668117
0.086537972 0.10373178 0.29900002 4286285695
0.087509118 0.10373178 0.29900002 4285165161
0.088480271 0.10373178 0.29900002 4283048737
0.089152247 0.10338485 0.29800001 4282849303
0.090120159 0.10338485 0.29800001 4282717457
0.091088064 0.10338485 0.29800001 4282849041
0.09174706 0.10303792 0.29700002 4283110669
0.092711717 0.10303792 0.29700002 4283109899
0.093360953 0.10269099 0.296 4283765771
0.094003707 0.10234407 0.29500002 4284028171
0.094961874 0.10234407 0.29500002 4284487693
0.095594876 0.10199713 0.294 4284815888
0.096549787 0.10199713 0.294 4285340179
0.097504705 0.10199713 0.294 4285405715
0.098124713 0.10165021 0.29300001 4286066480
0.099076383 0.10165021 0.29300001 4285079330
0.10002805 0.10165021 0.29300001 4284945941
0.101669 0.10234407 0.29500002 4284617746
0.10297504 0.10269099 0.296 4285079834
0.10393645 0.10269099 0.296 4285210137
0.10737855 0.10511949 0.303 4285471510
0.10836269 0.10511949 0.303 4285799705
0.10934684 0.10511949 0.303 4286259741
0.11033098 0.10511949 0.303 4288430910
0.087509118 0.10470325 0.29900002 4286613890
0.088480271 0.10470325 0.29900002 4283645237
0.089152247 0.10435308 0.29800001 4282521621
0.090120159 0.10435308 0.29800001 4282455569
0.090782404 0.1040029 0.29700002 4282586385
0.09174706 0.1040029 0.29700002 4282914832
0.092399552 0.10365272 0.296 4282914319
0.093360953 0.10365272 0.296 4282913290
0.094003707 0.10330255 0.29500002 4283503628
0.094639964 0.10295236 0.294 4284291343
0.095594876 0.10295236 0.294 4284619538
0.096549787 0.10295236 0.294 4284881683
0.097173057 0.10260218 0.29300001 4285079062
0.098124713 0.10260218 0.29300001 4284882712
0.099076383 0.10260218 0.29300001 4284816665
0.10002805 0.10260218 0.29300001 4285474340
0.10097972 0.10260218 0.29300001 4288770923
0.10297504 0.10365272 0.296 4286148449
0.10393645 0.10365272 0.296 4283249446
0.10737855 0.10610396 0.303 4284554263
0.10836269 0.10610396 0.303 4285209113
0.10934684 0.10610396 0.303 4285273363
0.11033098 0.10610396 0.303 4285668119
0.087509118 0.10567474 0.29900002 4286613888
0.088480271 0.10567474 0.29900002 4287401346
0.089152247 0.10532131 0.29800001 4282726191
0.090120159 0.10532131 0.29800001 4282457365
0.090782404 0.10496788 0.29700002 4282521875
0.09174706 0.10496788 0.29700002 4282455567
0.092399552 0.10461445 0.296 4282718739
0.093360953 0.10461445 0.296 4282849293
0.094003707 0.10426103 0.29500002 4283308559
0.094639964 0.1039076 0.294 4283701520
0.095594876 0.1039076 0.294 4283964179
0.096221395 0.10355417 0.29300001 4284094482
0.097173057 0.10355417 0.29300001 4284555033
0.098124713 0.10355417 0.29300001 4284948505
0.099076383 0.10355417 0.29300001 4284816919
0.10002805 0.10355417 0.29300001 4285350972
0.10097972 0.10355417 0.29300001 4286543207
0.10297504 0.10461445 0.296 4286020720
0.10393645 0.10461445 0.296 4285823341
0.10737855 0.10708845 0.303 4286411883
0.10836269 0.10708845 0.303 4285749841
0.10934684 0.10708845 0.303 4284295974
0.11033098 0.10708845 0.303 4284032802
0.089152247 0.10628954 0.29800001 4286809984
0.090120159 0.10628954 0.29800001 4284963925
0.090782404 0.10593287 0.29700002 4283973432
0.09174706 0.10593287 0.29700002 4283115555
0.092399552 0.10557619 0.296 4282523158
0.093045548 0.10521952 0.29500002 4282849807
0.094003707 0.10521952 0.29500002 4283046672
0.094639964 0.10486283 0.294 4282980879
0.095594876 0.10486283 0.294 4283243538
0.096221395 0.10450616 0.29300001 4283637013
0.097173057 0.10450616 0.29300001 4283900185
0.098124713 0.10450616 0.29300001 4284163357
0.099076383 0.10450616 0.29300001 4285281838
0.10002805 0.10450616 0.29300001 4281929225
0.10097972 0.10450616 0.29300001 4282786592
0.10297504 0.10557619 0.296 4283118643
0.10393645 0.10557619 0.296 4282263594
0.10737855 0.10807292 0.303 4281870121
0.10836269 0.10807292 0.303 4282330670
0.10934684 0.10807292 0.303 4282658602
0.11033098 0.10807292 0.303 4283513397
0.091438144 0.10653792 0.296 4286743675
0.092399552 0.10653792 0.296 4286084714
0.093360953 0.10653792 0.296 4283185452
0.092399552 0.10749965 0.296 4286284923
0.093360953 0.10749965 0.296 4286285177
0.11137933 0.085899696 0.30152094 4294967295
0.11137933 0.085899696 0.30152094 4294901760
0.11137933 0.085899696 0.30202094 4294901760
0.11137933 0.085899696 0.30252093 4294901760
0.11137933 0.085899696 0.30302095 4294901760
0.11137933 0.085899696 0.30352095 4294901760
0.11137933 0.085899696 0.30402094 4294901760
0.11137933 0.085899696 0.30452093 4294901760
0.11137933 0.085899696 0.30502096 4294901760
0.11137933 0.085899696 0.30552095 4294901760
0.11137933 0.085899696 0.30602095 4294901760
0.11137933 0.085899696 0.30652094 4294901760
0.11137933 0.085899696 0.30702093 4294901760
0.11137933 0.085899696 0.30752096 4294901760
0.11137933 0.085899696 0.30802095 4294901760
0.11137933 0.085899696 0.30852094 4294901760
0.11137933 0.085899696 0.30902094 4294901760
0.11137933 0.085899696 0.30952096 4294901760
0.11137933 0.085899696 0.31002095 4294901760
0.11137933 0.085899696 0.31052095 4294901760
0.11137933 0.085899696 0.31102094 4294901760
0.11137933 0.085899696 0.31152093 4294901760
0.11137933 0.085899696 0.31202096 4294901760
0.11137933 0.085899696 0.31252095 4294901760
0.11137933 0.085899696 0.31302094 4294901760
0.11137933 0.085899696 0.31352094 4294901760
0.11137933 0.085899696 0.31402093 4294901760
0.11137933 0.085899696 0.31452096 4294901760
0.11137933 0.085899696 0.31502095 4294901760
0.11137933 0.085899696 0.31552094 4294901760
0.11137933 0.085899696 0.31602094 4294901760
0.11137933 0.085899696 0.31652096 4294901760
0.11137933 0.085899696 0.31702095 4294901760
0.11137933 0.085899696 0.31752095 4294901760
0.11137933 0.085899696 0.31802094 4294901760
0.11137933 0.085899696 0.31852096 4294901760
0.11137933 0.085899696 0.31902096 4294901760
0.11137933 0.085899696 0.31952095 4294901760
0.11137933 0.085899696 0.32002094 4294901760
0.11137933 0.085899696 0.32052094 4294901760
0.11137933 0.085899696 0.32102096 4294901760
0.11137933 0.085899696 0.32152095 4294901760
0.11137933 0.085899696 0.32202095 4294901760
0.11137933 0.085899696 0.32252094 4294901760
0.11137933 0.085899696 0.32302094 4294901760
0.11137933 0.085899696 0.32352096 4294901760
0.11137933 0.085899696 0.32402095 4294901760
0.11137933 0.085899696 0.32452095 4294901760
0.11137933 0.085899696 0.32502094 4294901760
0.11137933 0.085899696 0.32552096 4294901760
0.11137933 0.085899696 0.32602096 4294901760
0.11137933 0.085899696 0.32652095 4294901760
0.11137933 0.085899696 0.32702094 4294901760
0.11137933 0.085899696 0.32752094 4294901760
0.11137933 0.085899696 0.32802096 4294901760
0.11137933 0.085899696 0.32852095 4294901760
0.11137933 0.085899696 0.32902095 4294901760
0.11137933 0.085899696 0.32952094 4294901760
0.11137933 0.085899696 0.33002096 4294901760
0.11137933 0.085899696 0.33052096 4294901760
0.11137933 0.085899696 0.33102095 4294901760
0.11137933 0.085899696 0.33152094 4294901760
0.11137933 0.085899696 0.33202094 4294901760
0.11137933 0.085899696 0.33252096 4294901760
0.11137933 0.085899696 0.33302096 4294901760
0.11137933 0.085899696 0.33352095 4294901760
0.11137933 0.085899696 0.33402094 4294901760
0.11137933 0.085899696 0.33452097 4294901760
0.11137933 0.085899696 0.33502096 4294901760
0.11137933 0.085899696 0.33552095 4294901760
0.11137933 0.085899696 0.33602095 4294901760
0.11137933 0.085899696 0.33652094 4294901760
0.11137933 0.085899696 0.33702096 4294901760
0.11137933 0.085899696 0.33752096 4294901760
0.11137933 0.085899696 0.33802095 4294901760
0.11137933 0.085899696 0.33852094 4294901760
0.11137933 0.085899696 0.33902097 4294901760
0.11137933 0.085899696 0.33952096 4294901760
0.11137933 0.085899696 0.34002095 4294901760
0.11137933 0.085899696 0.34052095 4294901760
0.11137933 0.085899696 0.34102094 4294901760
0.11137933 0.085899696 0.34152097 4294901760
0.11137933 0.085899696 0.34202096 4294901760
0.11137933 0.085899696 0.34252095 4294901760
0.11137933 0.085899696 0.34302095 4294901760
0.11137933 0.085899696 0.34352094 4294901760
0.11137933 0.085899696 0.34402096 4294901760
0.11137933 0.085899696 0.34452096 4294901760
0.11137933 0.085899696 0.34502095 4294901760
0.11137933 0.085899696 0.34552094 4294901760
0.11137933 0.085899696 0.34602094 4294901760
0.11137933 0.085899696 0.34652096 4294901760
0.11137933 0.085899696 0.34702095 4294901760
0.11137933 0.085899696 0.34752095 4294901760
0.11137933 0.085899696 0.34802097 4294901760
0.11137933 0.085899696 0.34852096 4294901760
0.11137933 0.085899696 0.34902096 4294901760
0.11137933 0.085899696 0.34952095 4294901760
0.11137933 0.085899696 0.35002095 4294901760
0.11137933 0.085899696 0.35052097 4294901760
0.11137933 0.085899696 0.35102096 4294901760
0.11137933 0.085899696 0.35152096 4294901760
0.11137933 0.085899696 0.30152094 4278255360
0.11121476 0.085860528 0.30199146 4278255360
0.11105019 0.08582136 0.30246198 4278255360
0.11088561 0.0857822 0.30293247 4278255360
0.11072104 0.085743032 0.30340299 4278255360
0.11055647 0.085703865 0.30387351 4278255360
0.11039189 0.085664697 0.30434403 4278255360
0.11022732 0.085625529 0.30481452 4278255360
0.11006275 0.085586362 0.30528504 4278255360
0.10989818 0.085547201 0.30575556 4278255360
0.1097336 0.085508034 0.30622607 4278255360
0.10956903 0.085468866 0.30669656 4278255360
0.10940446 0.085429698 0.30716708 4278255360
0.10923988 0.085390531 0.3076376 4278255360
0.10907531 0.08535137 0.30810812 4278255360
0.10891074 0.085312203 0.30857864 4278255360
0.10874616 0.085273035 0.30904913 4278255360
0.1085816 0.085233867 0.30951965 4278255360
0.10841702 0.085194699 0.30999017 4278255360
0.10825244 0.085155532 0.31046069 4278255360
0.10808787 0.085116372 0.31093118 4278255360
0.1079233 0.085077204 0.3114017 4278255360
0.10775873 0.085038036 0.31187221 4278255360
0.10759415 0.084998868 0.31234273 4278255360
0.10742958 0.084959701 0.31281322 4278255360
0.10726501 0.08492054 0.31328374 4278255360
0.10710043 0.084881373 0.31375426 4278255360
0.10693586 0.084842205 0.31422478 4278255360
0.10677129 0.084803037 0.3146953 4278255360
0.10660671 0.08476387 0.31516579 4278255360
0.10644215 0.084724702 0.31563631 4278255360
0.10627757 0.084685542 0.31610683 4278255360
0.106113 0.084646374 0.31657735 4278255360
0.10594843 0.084607206 0.31704783 4278255360
0.10578385 0.084568039 0.31751835 4278255360
0.10561928 0.084528871 0.31798887 4278255360
0.10545471 0.084489703 0.31845939 4278255360
0.10529013 0.084450543 0.31892991 4278255360
0.10512556 0.084411375 0.3194004 4278255360
0.10496099 0.084372208 0.31987092 4278255360
0.10479642 0.08433304 0.32034144 4278255360
0.10463184 0.084293872 0.32081196 4278255360
0.10446727 0.084254712 0.32128245 4278255360
0.1043027 0.084215544 0.32175297 4278255360
0.10413812 0.084176376 0.32222348 4278255360
0.10397355 0.084137209 0.322694 4278255360
0.10380898 0.084098041 0.32316449 4278255360
0.1036444 0.084058873 0.32363501 4278255360
0.10347983 0.084019713 0.32410553 4278255360
0.10331526 0.083980545 0.32457605 4278255360
0.10315068 0.083941378 0.32504654 4278255360
0.10298611 0.08390221 0.32551706 4278255360
0.10282154 0.083863042 0.32598758 4278255360
0.10265697 0.083823882 0.3264581 4278255360
0.10249239 0.083784714 0.32692862 4278255360
0.10232782 0.083745547 0.3273991 4278255360
0.10216325 0.083706379 0.32786962 4278255360
0.10199867 0.083667211 0.32834014 4278255360
0.1018341 0.083628044 0.32881066 4278255360
0.10166953 0.083588883 0.32928115 4278255360
0.10150495 0.083549716 0.32975167 4278255360
