# .PCD v0.7 - Point Cloud Data file format
VERSION 0.7
FIELDS x y z rgb
SIZE 4 4 4 4
TYPE F F F U
COUNT 1 1 1 1
WIDTH 667
HEIGHT 1
VIEWPOINT 0 0 0 1 0 0 0
POINTS 667
DATA ascii
-0.059312679 0.010899303 0.49500003 4281286704
-0.059312679 0.012507609 0.49500003 4281615671
-0.055870499 0.012457073 0.49300003 4281222196
-0.054269236 0.012457073 0.49300003 4281287989
-0.052561138 0.012431805 0.49200001 4281353780
-0.049365103 0.012431805 0.49200001 4279582498
-0.047767084 0.012431805 0.49200001 4279849004
-0.046262912 0.012457073 0.49300003 4279260199
-0.044752236 0.01248234 0.49400002 4278931748
-0.043235067 0.012507609 0.49500003 4279063847
-0.0417955 0.012558145 0.49700001 4282484572
-0.059192851 0.014087398 0.49400002 4281155636
-0.057588339 0.014087398 0.49400002 4280958257
-0.055870499 0.014058881 0.49300003 4280037409
-0.054269236 0.014058881 0.49300003 4281419062
-0.052561138 0.014030363 0.49200001 4281221683
-0.047767084 0.014030363 0.49200001 4279386654
-0.046262912 0.014058881 0.49300003 4279390502
-0.044752236 0.014087398 0.49400002 4279456808
-0.04332241 0.014144432 0.49600002 4279063845
-0.041879594 0.014201466 0.49800003 4278933542
-0.040504631 0.014287017 0.50100005 4279460656
-0.03911018 0.014372568 0.50400001 4279394863
-0.03754754 0.014401084 0.505 4279592242
-0.036049508 0.014458119 0.50700003 4279658035
-0.034402769 0.014458119 0.50700003 4279329070
-0.032820642 0.014486636 0.50800002 4279263793
-0.031170655 0.014486636 0.50800002 4278671656
-0.02952067 0.014486636 0.50800002 4279526965
-0.027925549 0.014515152 0.509 4279000621
-0.026272316 0.014515152 0.509 4279592758
-0.024619082 0.014515152 0.509 4279591476
-0.023010971 0.01454367 0.51000005 4280117820
-0.021354491 0.01454367 0.51000005 4280050744
-0.059192851 0.015692456 0.49400002 4280892464
-0.057471767 0.015660688 0.49300003 4281353015
-0.055870499 0.015660688 0.49300003 4280761132
-0.054159153 0.015628923 0.49200001 4280826923
-0.052561138 0.015628923 0.49200001 4281154604
-0.047767084 0.015628923 0.49200001 4279846438
-0.046262912 0.015660688 0.49300003 4279322912
-0.044752236 0.015692456 0.49400002 4279126047
-0.04332241 0.015755987 0.49600002 4279129125
-0.041879594 0.01581952 0.49800003 4279195431
-0.040504631 0.015914818 0.50100005 4278473761
-0.039032582 0.015978349 0.50300002 4278802726
-0.03754754 0.01604188 0.505 4279525679
-0.035978403 0.016073648 0.50600004 4279064869
-0.034402769 0.016105415 0.50700003 4278934566
-0.032756034 0.016105415 0.50700003 4278868773
-0.031170655 0.016137181 0.50800002 4278934566
-0.02952067 0.016137181 0.50800002 4279000359
-0.027870687 0.016137181 0.50800002 4278737701
-0.026272316 0.016168946 0.509 4278803494
-0.024619082 0.016168946 0.509 4278868773
-0.023010971 0.016200714 0.51000005 4278934566
-0.021354491 0.016200714 0.51000005 4278737187
-0.019698011 0.016200714 0.51000005 4279263277
-0.018076904 0.016232479 0.51100004 4279263277
-0.016417174 0.016232479 0.51100004 4279460656
-0.014757446 0.016232479 0.51100004 4279394863
-0.013123348 0.016264245 0.51200002 4279788851
-0.011460371 0.016264245 0.51200002 4279855418
-0.0098165292 0.01629601 0.51300001 4279985980
-0.0081661912 0.016327776 0.514 4280115518
-0.060674299 0.017262496 0.49300003 4280957741
-0.059192851 0.01729751 0.49400002 4280891694
-0.057471767 0.017262496 0.49300003 4280891694
-0.055870499 0.017262496 0.49300003 4280891948
-0.054159153 0.01722748 0.49200001 4280826153
-0.052561138 0.01722748 0.49200001 4281023016
-0.050963119 0.01722748 0.49200001 4281286954
-0.049365103 0.01722748 0.49200001 4279844641
-0.047767084 0.01722748 0.49200001 4279846951
-0.046262912 0.017262496 0.49300003 4279322912
-0.044752236 0.01729751 0.49400002 4279586598
-0.04332241 0.017367542 0.49600002 4279456808
-0.041879594 0.017437572 0.49800003 4279194918
-0.040504631 0.017542619 0.50100005 4278867749
-0.039032582 0.017612647 0.50300002 4279130921
-0.037473191 0.017647663 0.50400001 4278933542
-0.035907295 0.017682677 0.505 4279328300
-0.034334917 0.017717695 0.50600004 4278999076
-0.032756034 0.017752709 0.50700003 4278867488
-0.031109296 0.017752709 0.50700003 4278208022
-0.029462559 0.017752709 0.50700003 4278800160
-0.027870687 0.017787723 0.50800002 4279130921
-0.026272316 0.017822739 0.509 4278604577
-0.024619082 0.017822739 0.509 4278802980
-0.023010971 0.017857755 0.51000005 4279131945
-0.021354491 0.017857755 0.51000005 4278671394
-0.019813878 0.0179628 0.51300001 4279131945
-0.018112279 0.017927784 0.51200002 4278934566
-0.016449302 0.017927784 0.51200002 4278868773
-0.014786325 0.017927784 0.51200002 4279000873
-0.013148979 0.0179628 0.51300001 4278671908
-0.011505138 0.017997814 0.514 4278671654
-0.009854801 0.018032832 0.51500005 4278803242
-0.008197967 0.018067846 0.51600003 4278868783
-0.0065599177 0.018172892 0.51900005 4279460406
-0.0048929877 0.018242922 0.52100003 4279393582
-0.0032130654 0.018312952 0.523 4279590961
-0.0015201517 0.018382983 0.52500004 4280576323
0.00018540173 0.018417997 0.52600002 4280640065
-0.060674299 0.018864304 0.49300003 4280958511
-0.059192851 0.018902566 0.49400002 4280562731
-0.057471767 0.018864304 0.49300003 4280431145
-0.055870499 0.018864304 0.49300003 4280496936
-0.054159153 0.018826038 0.49200001 4280826155
-0.052561138 0.018826038 0.49200001 4281088811
-0.050963119 0.018826038 0.49200001 4280957737
-0.049365103 0.018826038 0.49200001 4279713057
-0.047767084 0.018826038 0.49200001 4279846951
-0.046262912 0.018864304 0.49300003 4279257635
-0.044752236 0.018902566 0.49400002 4279389734
-0.04332241 0.018979095 0.49600002 4279457578
-0.041879594 0.019055625 0.49800003 4279194920
-0.040423781 0.019132152 0.5 4278998822
-0.038954984 0.019208683 0.50200003 4279196201
-0.037473191 0.019285209 0.50400001 4279196201
-0.035907295 0.019323474 0.505 4278867236
-0.034267057 0.019323474 0.505 4278998822
-0.032691427 0.01936174 0.50600004 4279195685
-0.031109296 0.019400004 0.50700003 4278206483
-0.029462559 0.019400004 0.50700003 4279260201
-0.027870687 0.019438267 0.50800002 4279062820
-0.026220702 0.019438267 0.50800002 4279720748
-0.024619082 0.019476531 0.509 4279260711
-0.023010971 0.019514797 0.51000005 4279392297
-0.021396363 0.019553062 0.51100004 4279129892
-0.019813878 0.019629588 0.51300001 4279458857
-0.018147655 0.019629588 0.51300001 4279129892
-0.016481429 0.019629588 0.51300001 4278999076
-0.014844083 0.019667853 0.514 4278933796
-0.013200243 0.019706119 0.51500005 4278670624
-0.011549906 0.019744383 0.51600003 4278801956
-0.0098930718 0.019782646 0.51700002 4278999335
-0.0082456302 0.019859176 0.51900005 4279065128
-0.006597836 0.019973967 0.52200001 4278999335
-0.0049211625 0.020050498 0.52400005 4279130921
-0.0032314961 0.020127025 0.52600002 4278867751
-0.0015259427 0.020165289 0.52700001 4278802728
0.00018645918 0.020241819 0.52900004 4278671142
0.0019190541 0.020394877 0.53300005 4279855418
-0.060797367 0.020507623 0.49400002 4280760878
-0.059192851 0.020507623 0.49400002 4280957741
-0.057588339 0.020507623 0.49400002 4280891948
-0.055870499 0.02046611 0.49300003 4280891948
-0.054269236 0.02046611 0.49300003 4280891946
-0.052561138 0.020424597 0.49200001 4281286704
-0.050963119 0.020424597 0.49200001 4281419058
-0.049365103 0.020424597 0.49200001 4279911461
-0.047864176 0.02046611 0.49300003 4279255584
-0.046262912 0.02046611 0.49300003 4279061539
-0.044752236 0.020507623 0.49400002 4279193638
-0.04332241 0.02059065 0.49600002 4279260199
-0.041879594 0.020673677 0.49800003 4279194920
-0.040423781 0.020756703 0.5 4279129638
-0.038954984 0.02083973 0.50200003 4279590189
-0.037398838 0.020881243 0.50300002 4279327787
-0.035836194 0.020922758 0.50400001 4279064615
-0.034267057 0.02096427 0.505 4278998822
-0.032691427 0.021005785 0.50600004 4278998822
-0.031047937 0.021005785 0.50600004 4278200320
-0.029462559 0.021047298 0.50700003 4279521320
-0.027870687 0.021088811 0.50800002 4278200332
-0.026220702 0.021088811 0.50800002 4278331663
-0.024667453 0.02117184 0.51000005 4278198539
-0.02305609 0.021213353 0.51100004 4278593556
-0.021438234 0.021254865 0.51200002 4278331404
-0.019813878 0.021296378 0.51300001 4278199044
-0.018183028 0.021337891 0.514 4280375348
-0.016545685 0.021379406 0.51500005 4278200581
-0.014901844 0.021420918 0.51600003 4278202125
-0.013251506 0.021462431 0.51700002 4278533658
-0.011594673 0.021503944 0.51800001 4279653676
-0.0099504786 0.021586973 0.52000004 4279325224
-0.0082932925 0.021669999 0.52200001 4279523371
-0.0066231154 0.021753026 0.52400005 4279326506
-0.0049399454 0.021836052 0.52600002 4279721777
-0.003243783 0.021919077 0.528 4279327019
-0.0015346293 0.022002107 0.53000003 4278669089
0.00018751658 0.022085132 0.53200001 4278998824
0.0019262549 0.022209672 0.53500003 4278473765
0.0036913299 0.022375727 0.53900003 4279197486
0.0054420028 0.022375727 0.53900003 4279654959
-0.060797367 0.022112679 0.49400002 4281353015
-0.059192851 0.022112679 0.49400002 4280826925
-0.057588339 0.022112679 0.49400002 4281682234
-0.055983827 0.022112679 0.49400002 4281024304
-0.054269236 0.022067918 0.49300003 4280892718
-0.052667972 0.022067918 0.49300003 4281353780
-0.04946544 0.022067918 0.49300003 4279583781
-0.047864176 0.022067918 0.49300003 4279388453
-0.046356749 0.022112679 0.49400002 4278666781
-0.044842832 0.022157442 0.49500003 4279325222
-0.04332241 0.022202205 0.49600002 4279391785
-0.041879594 0.022291729 0.49800003 4279260711
-0.040423781 0.022381254 0.5 4278734880
-0.038877383 0.022426018 0.50100005 4279459373
-0.037398838 0.022515543 0.50300002 4279327787
-0.035836194 0.022560304 0.50400001 4279064615
-0.034267057 0.022605065 0.505 4278933029
-0.032626819 0.022605065 0.505 4279261224
-0.031047937 0.02264983 0.50600004 4278202120
-0.029462559 0.022694593 0.50700003 4280310836
-0.027870687 0.022739355 0.50800002 4278331665
-0.026272316 0.022784116 0.509 4278723859
-0.024667453 0.022828881 0.51000005 4278460173
-0.02305609 0.022873642 0.51100004 4278591759
-0.021480104 0.022963166 0.51300001 4278722832
-0.019852502 0.023007929 0.514 4278920211
-0.018218406 0.023052692 0.51500005 4279914029
-0.016609939 0.023142217 0.51700002 4279718447
-0.014959602 0.02318698 0.51800001 4279718445
-0.01330277 0.023231743 0.51900005 4279981617
-0.011661824 0.023321267 0.52100003 4279981617
-0.0099887494 0.023366028 0.52200001 4280244276
-0.0083250673 0.023455556 0.52400005 4279783725
-0.0066610333 0.023589842 0.52700001 4279652139
-0.0049681198 0.023679368 0.52900004 4278862625
-0.0032622137 0.023768893 0.53100002 4278598939
-0.0015433159 0.023858419 0.53300005 4278203667
0.00018857402 0.023947943 0.53500003 4278199555
0.0019334558 0.024037465 0.537 4278735400
0.0036913299 0.024126993 0.53900003 4278670374
0.0054520988 0.024171755 0.54000002 4279523373
0.0072193649 0.024216516 0.54100001 4286689425
-0.06092044 0.02376575 0.49500003 4281221429
-0.059312679 0.02376575 0.49500003 4280958770
-0.057704918 0.02376575 0.49500003 4281419321
-0.055983827 0.023717737 0.49400002 4281287476
-0.054379314 0.023717737 0.49400002 4281155890
-0.052667972 0.023669727 0.49300003 4281025583
-0.051066704 0.023669727 0.49300003 4279843106
-0.04946544 0.023669727 0.49300003 4279649572
-0.047864176 0.023669727 0.49300003 4279716648
-0.046356749 0.023717737 0.49400002 4279390504
-0.044842832 0.02376575 0.49500003 4279127330
-0.04332241 0.02381376 0.49600002 4279325992
-0.041879594 0.023909785 0.49800003 4279326506
-0.040342934 0.023957795 0.49900001 4279261224
-0.038877383 0.024053819 0.50100005 4279590189
-0.037324488 0.024101831 0.50200003 4279130408
-0.035765093 0.024149843 0.50300002 4279064615
-0.034199201 0.024197852 0.50400001 4278867236
-0.032626819 0.024245864 0.505 4280050740
-0.031047937 0.024293877 0.50600004 4278731291
-0.029462559 0.024341889 0.50700003 4279849258
-0.027870687 0.0243899 0.50800002 4280700213
-0.026272316 0.02443791 0.509 4278265359
-0.024667453 0.024485925 0.51000005 4278922004
-0.023101209 0.024581946 0.51200002 4279053590
-0.021521976 0.024677968 0.514 4278461457
-0.019891128 0.024725983 0.51500005 4278197771
-0.018289156 0.024822004 0.51700002 4279979820
-0.016642066 0.024870016 0.51800001 4278201868
-0.015017362 0.024966041 0.52000004 4278795294
-0.013354031 0.025014052 0.52100003 4278202896
-0.01170659 0.025110073 0.523 4279192101
-0.010027021 0.025158087 0.52400005 4278204175
-0.0083568422 0.02525411 0.52600002 4279456808
-0.0066863131 0.025398144 0.52900004 4279325992
-0.0049869027 0.025494168 0.53100002 4279260201
-0.0032745011 0.025590193 0.53300005 4279260201
-0.0015491069 0.025686214 0.53500003 4279456810
0.00018892648 0.025734225 0.53600001 4278337046
0.0019370564 0.02583025 0.53800005 4279392301
0.0036981781 0.025926271 0.54000002 4278867240
0.0054621953 0.025974283 0.54100001 4279194922
0.0072193649 0.025974283 0.54100001 4286953367
-0.059312679 0.025374055 0.49500003 4281154866
-0.055983827 0.025322793 0.49400002 4281813820
-0.054379314 0.025322793 0.49400002 4281616441
-0.052774802 0.025322793 0.49400002 4281551927
-0.04946544 0.025271533 0.49300003 4279715365
-0.047961261 0.025322793 0.49400002 4279585316
-0.046356749 0.025322793 0.49400002 4279192353
-0.044842832 0.025374055 0.49500003 4279193636
-0.04332241 0.025425315 0.49600002 4279325992
-0.041879594 0.025527837 0.49800003 4279392297
-0.040342934 0.025579097 0.49900001 4279392297
-0.038877383 0.02568162 0.50100005 4279524396
-0.037324488 0.02573288 0.50200003 4279064615
-0.035765093 0.02578414 0.50300002 4279064615
-0.034199201 0.0258354 0.50400001 4278933029
-0.032626819 0.02588666 0.505 4279919154
-0.031047937 0.025937922 0.50600004 4279849772
-0.029462559 0.025989184 0.50700003 4278467351
-0.027870687 0.026040444 0.50800002 4278988314
-0.026272316 0.026091704 0.509 4279777317
-0.024715818 0.026194226 0.51100004 4278198026
-0.023146328 0.026296746 0.51300001 4278460685
-0.021521976 0.026348006 0.514 4281554237
-0.01992975 0.02645053 0.51600003 4278196992
-0.018324532 0.02655305 0.51800001 4280307502
-0.016674194 0.026604313 0.51900005 4278464533
-0.015046241 0.026706833 0.52100003 4278727705
-0.013379663 0.026758093 0.52200001 4280375350
-0.011728975 0.026860617 0.52400005 4278993695
-0.010065292 0.026963137 0.52600002 4279257121
-0.0083886171 0.027065657 0.528 4278599191
-0.0066989521 0.027168179 0.53000003 4278599191
-0.0050056861 0.027321963 0.53300005 4279191842
-0.003286788 0.027424483 0.53500003 4278665498
-0.0015520024 0.027475743 0.53600001 4278995746
0.00018963145 0.027578266 0.53800005 4278203917
0.0019406568 0.027629526 0.53900003 4279325994
0.0036981781 0.027680786 0.54000002 4279129127
0.0054621953 0.027732046 0.54100001 4279325994
0.0072193649 0.027732046 0.54100001 4286624148
-0.049565777 0.026927849 0.49400002 4279716137
-0.047961261 0.026927849 0.49400002 4279585062
-0.046356749 0.026927849 0.49400002 4279258148
-0.044842832 0.02698236 0.49500003 4279456295
-0.04332241 0.02703687 0.49600002 4279391783
-0.041879594 0.027145889 0.49800003 4280050227
-0.040342934 0.027200399 0.49900001 4279523883
-0.038877383 0.02730942 0.50100005 4279523883
-0.037324488 0.027363928 0.50200003 4278998822
-0.035765093 0.027418438 0.50300002 4278670370
-0.034199201 0.027472947 0.50400001 4278933542
-0.032626819 0.027527457 0.505 4279129640
-0.031047937 0.027581969 0.50600004 4279784238
-0.029462559 0.027636478 0.50700003 4278202896
-0.027870687 0.027690986 0.50800002 4278855961
-0.026323933 0.027800009 0.51000005 4279052058
-0.024715818 0.027854517 0.51100004 4279117336
-0.023146328 0.027963536 0.51300001 4278985750
-0.021563848 0.028072556 0.51500005 4278854418
-0.019968374 0.028181575 0.51700002 4279053590
-0.018359909 0.028290598 0.51900005 4280242479
-0.016706323 0.028345106 0.52000004 4278201104
-0.01507512 0.028454125 0.52200001 4280176688
-0.013405294 0.028508633 0.523 4279323174
-0.011751357 0.028617654 0.52500004 4279126308
-0.010084427 0.028726673 0.52700001 4278666011
-0.0084045054 0.028835695 0.52900004 4279652393
-0.0067115915 0.028944712 0.53100002 4280047151
-0.0050150775 0.029108243 0.53400004 4278204433
-0.0032929312 0.029217262 0.53600001 4278467605
-0.0015548979 0.02927177 0.537 4279784492
0.00018998391 0.029380793 0.53900003 4278203661
0.0019442573 0.029435301 0.54000002 4279260199
0.0036981781 0.029435301 0.54000002 4279063334
0.0054621953 0.02948981 0.54100001 4279521838
-0.047961261 0.028532906 0.49400002 4279388455
-0.046450593 0.028590666 0.49500003 4279521320
-0.044842832 0.028590666 0.49500003 4279587883
-0.04332241 0.028648423 0.49600002 4279391785
-0.041879594 0.028763942 0.49800003 4279260713
-0.040342934 0.028821699 0.49900001 4279458605
-0.038877383 0.028937221 0.50100005 4279524398
-0.037324488 0.028994977 0.50200003 4279130410
-0.035765093 0.029052736 0.50300002 4278999337
-0.034199201 0.029110495 0.50400001 4279196203
-0.032626819 0.029168252 0.505 4278404892
-0.031047937 0.029226014 0.50600004 4279456556
-0.029462559 0.029283771 0.50700003 4279457326
-0.027870687 0.02934153 0.50800002 4279783727
-0.026323933 0.029457049 0.51000005 4280308533
-0.024764186 0.029572567 0.51200002 4280175151
-0.023191446 0.029688083 0.514 4279714600
-0.021605721 0.029803602 0.51600003 4279516451
-0.019968374 0.029861361 0.51700002 4279846440
-0.018359909 0.02997688 0.51900005 4278202897
-0.01673845 0.030092398 0.52100003 4278200842
-0.01507512 0.030150155 0.52200001 4278199303
-0.013430927 0.030265674 0.52400005 4278198018
-0.011773741 0.030381192 0.52600002 4278199302
-0.010103562 0.030496707 0.528 4278202643
-0.0084203929 0.030612227 0.53000003 4278203156
-0.0067242309 0.030727744 0.53200001 4278598939
-0.0050150775 0.030843263 0.53400004 4279256867
-0.0032929312 0.030958779 0.53600001 4279388453
-0.0015577936 0.0310743 0.53800005 4280375862
0.00018998391 0.031132057 0.53900003 4279126308
0.0019442573 0.031189816 0.54000002 4279391785
0.0037050266 0.031247575 0.54100001 4279457578
0.0054621953 0.031247575 0.54100001 4279387951
-0.04332241 0.030259978 0.49600002 4279654959
-0.0417955 0.030320985 0.49700001 4279655473
-0.040342934 0.030443002 0.49900001 4279524400
-0.038799781 0.030504009 0.5 4279196205
-0.037324488 0.030626027 0.50200003 4279196205
-0.035765093 0.030687034 0.50300002 4279064619
-0.034199201 0.030748041 0.50400001 4279130158
-0.032626819 0.030809049 0.505 4279063595
-0.031047937 0.03087006 0.50600004 4279325994
-0.029462559 0.030931067 0.50700003 4279129127
-0.027870687 0.030992074 0.50800002 4279326506
-0.026323933 0.031114092 0.51000005 4279326506
-0.024764186 0.031236107 0.51200002 4279391783
-0.023191446 0.031358119 0.514 4279391783
-0.021605721 0.031480137 0.51600003 4279654185
-0.020006998 0.031602152 0.51800001 4279522599
-0.018359909 0.031663164 0.51900005 4279391785
-0.01673845 0.031785179 0.52100003 4279325992
-0.015104 0.031907193 0.523 4279720752
-0.013456558 0.032029212 0.52500004 4279654189
-0.011773741 0.032090217 0.52600002 4279785775
-0.010103562 0.032212231 0.528 4279719469
-0.0084362803 0.032395259 0.53100002 4279653676
-0.0067368713 0.032517277 0.53300005 4279521836
-0.005024469 0.032639291 0.53500003 4280311352
-0.0032990747 0.032761306 0.537 4280507961
-0.0015577936 0.032822315 0.53800005 4280442938
0.00018998391 0.032883324 0.53900003 4279522349
0.0019442573 0.032944329 0.54000002 4279654957
0.0037050266 0.033005338 0.54100001 4279523371
-0.04332241 0.031871535 0.49600002 4280244026
-0.0417955 0.031935789 0.49700001 4280507711
-0.040342934 0.032064304 0.49900001 4280245822
-0.038799781 0.032128561 0.5 4279654453
-0.037250139 0.032192823 0.50100005 4279786039
-0.035765093 0.032321334 0.50300002 4279523121
-0.034199201 0.032385591 0.50400001 4279654707
-0.032626819 0.032449845 0.505 4279523121
-0.030986575 0.032449845 0.505 4279720500
-0.029462559 0.032578364 0.50700003 4279523119
-0.027870687 0.032642618 0.50800002 4279392047
-0.026323933 0.032771137 0.51000005 4279523633
-0.024764186 0.032899648 0.51200002 4279523371
-0.023191446 0.033028159 0.514 4279457578
-0.021605721 0.033156678 0.51600003 4279260713
-0.020006998 0.033285189 0.51800001 4279326506
-0.018395284 0.033413704 0.52000004 4279326508
-0.01673845 0.033477962 0.52100003 4279392301
-0.015104 0.033606477 0.523 4279260715
-0.013456558 0.033734992 0.52500004 4279326508
-0.011796124 0.033863503 0.52700001 4279260715
-0.010122699 0.033992022 0.52900004 4279392301
-0.0084362803 0.034120534 0.53100002 4279326508
-0.0067368713 0.034249049 0.53300005 4279260715
-0.005024469 0.034377564 0.53500003 4279721266
-0.0032990747 0.034506075 0.537 4279392301
-0.0015577936 0.034570336 0.53800005 4279523373
0.00019033639 0.034698848 0.54000002 4279457580
0.0019442573 0.034698848 0.54000002 4279588142
0.0037050266 0.034763105 0.54100001 4280308533
-0.038799781 0.033753112 0.5 4285898376
-0.037250139 0.033820622 0.50100005 4284187758
-0.035693988 0.033888128 0.50200003 4283135586
-0.030986575 0.034090642 0.505 4281557321
-0.029462559 0.034225658 0.50700003 4280963897
-0.027870687 0.034293164 0.50800002 4280702262
-0.026323933 0.034428179 0.51000005 4279913516
-0.024764186 0.034563188 0.51200002 4280176949
-0.023191446 0.034698199 0.514 4280308535
-0.021605721 0.034833215 0.51600003 4280309817
-0.020006998 0.034968223 0.51800001 4279915059
-0.018395284 0.035103239 0.52000004 4280046899
-0.01673845 0.035170745 0.52100003 4280244278
-0.015104 0.035305757 0.523 4280046645
-0.013456558 0.035440769 0.52500004 4279651887
-0.011796124 0.035575781 0.52700001 4279191336
-0.010122699 0.035710797 0.52900004 4280046645
-0.0084362803 0.035845805 0.53100002 4279717168
-0.0067368713 0.035980821 0.53300005 4279914549
-0.005024469 0.036115833 0.53500003 4280374328
-0.0032990747 0.036250841 0.537 4280440121
-0.0015606891 0.036385857 0.53900003 4281623884
0.00019033639 0.036453363 0.54000002 4283202146
0.0019442573 0.036453363 0.54000002 4286357898
-0.02709087 0.02407603 0.51105398 4294967295
-0.02709087 0.02407603 0.51105398 4294901760
-0.02709087 0.02407603 0.511554 4294901760
-0.02709087 0.02407603 0.51205397 4294901760
-0.02709087 0.02407603 0.51255399 4294901760
-0.02709087 0.02407603 0.51305395 4294901760
-0.02709087 0.02407603 0.51355398 4294901760
-0.02709087 0.02407603 0.514054 4294901760
-0.02709087 0.02407603 0.51455396 4294901760
-0.02709087 0.02407603 0.51505399 4294901760
-0.02709087 0.02407603 0.51555395 4294901760
-0.02709087 0.02407603 0.51605397 4294901760
-0.02709087 0.02407603 0.516554 4294901760
-0.02709087 0.02407603 0.51705396 4294901760
-0.02709087 0.02407603 0.51755399 4294901760
-0.02709087 0.02407603 0.51805401 4294901760
-0.02709087 0.02407603 0.51855397 4294901760
-0.02709087 0.02407603 0.519054 4294901760
-0.02709087 0.02407603 0.51955396 4294901760
-0.02709087 0.02407603 0.52005398 4294901760
-0.02709087 0.02407603 0.52055401 4294901760
-0.02709087 0.02407603 0.52105397 4294901760
-0.02709087 0.02407603 0.52155399 4294901760
-0.02709087 0.02407603 0.52205396 4294901760
-0.02709087 0.02407603 0.52255398 4294901760
-0.02709087 0.02407603 0.523054 4294901760
-0.02709087 0.02407603 0.52355397 4294901760
-0.02709087 0.02407603 0.52405399 4294901760
-0.02709087 0.02407603 0.52455395 4294901760
-0.02709087 0.02407603 0.52505398 4294901760
-0.02709087 0.02407603 0.525554 4294901760
-0.02709087 0.02407603 0.52605397 4294901760
-0.02709087 0.02407603 0.52655399 4294901760
-0.02709087 0.02407603 0.52705395 4294901760
-0.02709087 0.02407603 0.52755398 4294901760
-0.02709087 0.02407603 0.528054 4294901760
-0.02709087 0.02407603 0.52855396 4294901760
-0.02709087 0.02407603 0.52905399 4294901760
-0.02709087 0.02407603 0.52955401 4294901760
-0.02709087 0.02407603 0.53005397 4294901760
-0.02709087 0.02407603 0.530554 4294901760
-0.02709087 0.02407603 0.53105396 4294901760
-0.02709087 0.02407603 0.53155398 4294901760
-0.02709087 0.02407603 0.53205401 4294901760
-0.02709087 0.02407603 0.53255397 4294901760
-0.02709087 0.02407603 0.53305399 4294901760
-0.02709087 0.02407603 0.53355396 4294901760
-0.02709087 0.02407603 0.53405398 4294901760
-0.02709087 0.02407603 0.534554 4294901760
-0.02709087 0.02407603 0.53505397 4294901760
-0.02709087 0.02407603 0.53555399 4294901760
-0.02709087 0.02407603 0.53605402 4294901760
-0.02709087 0.02407603 0.53655398 4294901760
-0.02709087 0.02407603 0.537054 4294901760
-0.02709087 0.02407603 0.53755397 4294901760
-0.02709087 0.02407603 0.53805399 4294901760
-0.02709087 0.02407603 0.53855401 4294901760
-0.02709087 0.02407603 0.53905398 4294901760
-0.02709087 0.02407603 0.539554 4294901760
-0.02709087 0.02407603 0.54005396 4294901760
-0.02709087 0.02407603 0.54055399 4294901760
-0.02709087 0.02407603 0.54105401 4294901760
-0.02709087 0.02407603 0.54155397 4294901760
-0.02709087 0.02407603 0.542054 4294901760
-0.02709087 0.02407603 0.54255396 4294901760
-0.02709087 0.02407603 0.54305398 4294901760
-0.02709087 0.02407603 0.54355401 4294901760
-0.02709087 0.02407603 0.54405397 4294901760
-0.02709087 0.02407603 0.544554 4294901760
-0.02709087 0.02407603 0.54505396 4294901760
-0.02709087 0.02407603 0.54555398 4294901760
-0.02709087 0.02407603 0.54605401 4294901760
-0.02709087 0.02407603 0.54655397 4294901760
-0.02709087 0.02407603 0.54705399 4294901760
-0.02709087 0.02407603 0.54755402 4294901760
-0.02709087 0.02407603 0.54805398 4294901760
-0.02709087 0.02407603 0.548554 4294901760
-0.02709087 0.02407603 0.54905397 4294901760
-0.02709087 0.02407603 0.54955399 4294901760
-0.02709087 0.02407603 0.55005401 4294901760
-0.02709087 0.02407603 0.55055398 4294901760
-0.02709087 0.02407603 0.551054 4294901760
-0.02709087 0.02407603 0.55155396 4294901760
-0.02709087 0.02407603 0.55205399 4294901760
-0.02709087 0.02407603 0.55255401 4294901760
-0.02709087 0.02407603 0.55305398 4294901760
-0.02709087 0.02407603 0.553554 4294901760
-0.02709087 0.02407603 0.55405402 4294901760
-0.02709087 0.02407603 0.55455399 4294901760
-0.02709087 0.02407603 0.55505401 4294901760
-0.02709087 0.02407603 0.55555397 4294901760
-0.02709087 0.02407603 0.556054 4294901760
-0.02709087 0.02407603 0.55655402 4294901760
-0.02709087 0.02407603 0.55705398 4294901760
-0.02709087 0.02407603 0.55755401 4294901760
-0.02709087 0.02407603 0.55805397 4294901760
-0.02709087 0.02407603 0.55855399 4294901760
-0.02709087 0.02407603 0.55905402 4294901760
-0.02709087 0.02407603 0.55955398 4294901760
-0.02709087 0.02407603 0.560054 4294901760
-0.02709087 0.02407603 0.56055397 4294901760
-0.02709087 0.02407603 0.56105399 4294901760
-0.02709087 0.02407603 0.51105398 4278255360
-0.027388539 0.024040906 0.51145416 4278255360
-0.027686208 0.024005782 0.51185435 4278255360
-0.027983878 0.023970656 0.5122546 4278255360
-0.028281545 0.023935532 0.51265478 4278255360
-0.028579215 0.023900408 0.51305497 4278255360
-0.028876884 0.023865284 0.51345515 4278255360
-0.029174553 0.023830159 0.5138554 4278255360
-0.029472223 0.023795035 0.51425558 4278255360
-0.029769892 0.023759911 0.51465577 4278255360
-0.030067559 0.023724787 0.51505595 4278255360
-0.030365229 0.023689661 0.5154562 4278255360
-0.030662898 0.023654537 0.51585639 4278255360
-0.030960567 0.023619413 0.51625657 4278255360
-0.031258237 0.023584289 0.51665676 4278255360
-0.031555906 0.023549166 0.51705694 4278255360
-0.031853575 0.02351404 0.51745719 4278255360
-0.032151245 0.023478916 0.51785737 4278255360
-0.032448914 0.023443792 0.51825756 4278255360
-0.032746583 0.023408668 0.51865774 4278255360
-0.033044249 0.023373542 0.51905799 4278255360
-0.033341918 0.023338418 0.51945817 4278255360
-0.033639587 0.023303295 0.51985836 4278255360
-0.033937257 0.023268171 0.52025855 4278255360
-0.034234926 0.023233045 0.52065879 4278255360
-0.034532595 0.023197921 0.52105898 4278255360
-0.034830265 0.023162797 0.52145916 4278255360
-0.035127934 0.023127673 0.52185935 4278255360
-0.035425603 0.023092549 0.52225953 4278255360
-0.035723269 0.023057424 0.52265978 4278255360
-0.036020942 0.0230223 0.52305996 4278255360
-0.036318608 0.022987176 0.52346015 4278255360
-0.036616281 0.022952052 0.52386034 4278255360
-0.036913946 0.022916926 0.52426058 4278255360
-0.037211616 0.022881802 0.52466077 4278255360
-0.037509285 0.022846678 0.52506095 4278255360
-0.037806954 0.022811554 0.52546114 4278255360
-0.038104624 0.022776429 0.52586138 4278255360
-0.038402293 0.022741305 0.52626157 4278255360
-0.038699962 0.022706181 0.52666175 4278255360
-0.038997632 0.022671057 0.52706194 4278255360
-0.039295301 0.022635933 0.52746212 4278255360
-0.039592966 0.022600807 0.52786237 4278255360
-0.039890639 0.022565683 0.52826256 4278255360
-0.040188305 0.022530559 0.52866274 4278255360
-0.040485974 0.022495436 0.52906293 4278255360
-0.040783644 0.02246031 0.52946317 4278255360
-0.041081313 0.022425186 0.52986336 4278255360
-0.041378982 0.022390062 0.53026354 4278255360
-0.041676652 0.022354938 0.53066373 4278255360
-0.041974321 0.022319812 0.53106391 4278255360
-0.04227199 0.022284688 0.53146416 4278255360
-0.04256966 0.022249565 0.53186435 4278255360
-0.042867325 0.022214441 0.53226453 4278255360
-0.043164998 0.022179317 0.53266472 4278255360
-0.043462664 0.022144191 0.53306496 4278255360
-0.043760337 0.022109067 0.53346515 4278255360
-0.044058003 0.022073943 0.53386533 4278255360
-0.044355672 0.022038819 0.53426552 4278255360
-0.044653341 0.022003695 0.53466576 4278255360
-0.044951014 0.02196857 0.53506595 4278255360
-0.04524868 0.021933446 0.53546613 4278255360
-0.045546349 0.021898322 0.53586632 4278255360
-0.045844018 0.021863196 0.53626657 4278255360
-0.046141688 0.021828072 0.53666675 4278255360
-0.046439357 0.021792948 0.53706694 4278255360
-0.046737026 0.021757824 0.53746712 4278255360
-0.047034696 0.0217227 0.53786731 4278255360
-0.047332361 0.021687575 0.53826755 4278255360
-0.047630034 0.021652451 0.53866774 4278255360
-0.0479277 0.021617327 0.53906792 4278255360
-0.048225369 0.021582203 0.53946811 4278255360
-0.048523039 0.021547077 0.53986835 4278255360
-0.048820712 0.021511953 0.54026854 4278255360
-0.049118377 0.021476829 0.54066873 4278255360
-0.049416047 0.021441706 0.54106891 4278255360
-0.049713716 0.02140658 0.5414691 4278255360
-0.050011382 0.021371456 0.54186934 4278255360
-0.050309055 0.021336332 0.54226953 4278255360
-0.050606724 0.021301208 0.54266971 4278255360
-0.050904393 0.021266084 0.5430699 4278255360
-0.051202059 0.021230958 0.54347014 4278255360
-0.051499732 0.021195835 0.54387033 4278255360
-0.051797397 0.021160711 0.54427052 4278255360
-0.052095067 0.021125587 0.5446707 4278255360
-0.052392736 0.021090461 0.54507095 4278255360
-0.052690405 0.021055337 0.54547113 4278255360
-0.052988075 0.021020213 0.54587132 4278255360
-0.053285744 0.020985089 0.5462715 4278255360
-0.053583413 0.020949963 0.54667169 4278255360
-0.053881079 0.02091484 0.54707193 4278255360
-0.054178752 0.020879716 0.54747212 4278255360
-0.054476421 0.020844592 0.5478723 4278255360
-0.054774091 0.020809468 0.54827249 4278255360
-0.055071756 0.020774342 0.54867274 4278255360
-0.055369429 0.020739218 0.54907292 4278255360
-0.055667095 0.020704094 0.54947311 4278255360
-0.055964768 0.02066897 0.54987329 4278255360
-0.056262434 0.020633845 0.55027354 4278255360
-0.056560103 0.020598721 0.55067372 4278255360
-0.056857772 0.020563597 0.55107391 4278255360
