# .PCD v0.7 - Point Cloud Data file format
VERSION 0.7
FIELDS x y z rgb
SIZE 4 4 4 4
TYPE F F F U
COUNT 1 1 1 1
WIDTH 886
HEIGHT 1
VIEWPOINT 0 0 0 1 0 0 0
POINTS 886
DATA ascii
0.069596365 0.018805888 0.34500003 4279648041
0.069596365 0.019926827 0.34500003 4279123748
0.068475805 0.021047767 0.34500003 4279650342
0.069394633 0.020986758 0.34400001 4279388455
0.068277322 0.022104451 0.34400001 4279387937
0.067160003 0.023222141 0.34400001 4279714852
0.068277322 0.023222141 0.34400001 4279060767
0.069394633 0.023222141 0.34400001 4279323426
0.070511945 0.023222141 0.34400001 4281555011
0.067160003 0.024339832 0.34400001 4279453217
0.068277322 0.024339832 0.34400001 4279060767
0.069394633 0.024339832 0.34400001 4279258146
0.070511945 0.024339832 0.34400001 4279385637
0.066964775 0.025383521 0.34300002 4279255836
0.068078846 0.025383521 0.34300002 4278732572
0.069192901 0.025383521 0.34300002 4278798365
0.066964775 0.026497962 0.34300002 4279321629
0.068078846 0.026497962 0.34300002 4278929181
0.069192901 0.026497962 0.34300002 4278863388
0.070306972 0.026497962 0.34300002 4279585832
0.065850712 0.027612403 0.34300002 4279780899
0.066964775 0.027612403 0.34300002 4279584031
0.068078846 0.027612403 0.34300002 4279191838
0.069192901 0.027612403 0.34300002 4278929179
0.070306972 0.027612403 0.34300002 4279586336
0.065850712 0.028726846 0.34300002 4279584033
0.066964775 0.028726846 0.34300002 4279321629
0.068078846 0.028726846 0.34300002 4279126047
0.069192901 0.028726846 0.34300002 4279126560
0.070306972 0.028726846 0.34300002 4278929181
0.071212806 0.028643092 0.34200001 4279586598
0.072323628 0.028643092 0.34200001 4281883456
0.06492538 0.029928287 0.34400001 4279318810
0.066042691 0.029928287 0.34400001 4279452963
0.066964775 0.029841287 0.34300002 4279322914
0.068078846 0.029841287 0.34300002 4279060767
0.069192901 0.029841287 0.34300002 4279389732
0.070306972 0.029841287 0.34300002 4279192355
0.071212806 0.029754285 0.34200001 4278797595
0.072323628 0.029754285 0.34200001 4279585314
0.073219724 0.029667286 0.34100002 4279516703
0.07432729 0.029667286 0.34100002 4282342470
0.066042691 0.031045981 0.34400001 4279255584
0.066964775 0.030955732 0.34300002 4279783465
0.068078846 0.030955732 0.34300002 4279323939
0.069192901 0.030955732 0.34300002 4279258916
0.072323628 0.030865481 0.34200001 4279125533
0.073434442 0.030865481 0.34200001 4279191840
0.07432729 0.030775232 0.34100002 4279519523
0.075434864 0.030775232 0.34100002 4279781412
0.07654243 0.030775232 0.34100002 4279648291
0.077877708 0.030865481 0.34200001 4279647777
0.078988522 0.030865481 0.34200001 4279777567
0.066042691 0.032163672 0.34400001 4279913514
0.069192901 0.032070175 0.34300002 4279587113
0.070101991 0.031976674 0.34200001 4278666781
0.071212806 0.031976674 0.34200001 4281495880
0.073434442 0.031976674 0.34200001 4279192355
0.074545257 0.031976674 0.34200001 4278863390
0.075656079 0.031976674 0.34200001 4278863390
0.076766886 0.031976674 0.34200001 4278862877
0.077877708 0.031976674 0.34200001 4279126049
0.07921949 0.032070175 0.34300002 4279257121
0.080567755 0.032163672 0.34400001 4279256351
0.081685066 0.032163672 0.34400001 4279453217
0.083043091 0.032257173 0.34500003 4279321631
0.084163651 0.032257173 0.34500003 4279715106
0.085284211 0.032257173 0.34500003 4279582496
0.086404771 0.032257173 0.34500003 4279384092
0.08864589 0.032257173 0.34500003 4279382807
0.089766458 0.032257173 0.34500003 4280172323
0.070306972 0.033184614 0.34300002 4279257633
0.071212806 0.033087865 0.34200001 4279323939
0.074545257 0.033087865 0.34200001 4278931236
0.075656079 0.033087865 0.34200001 4278733087
0.076766886 0.033087865 0.34200001 4278929951
0.07810542 0.033184614 0.34300002 4278798365
0.07921949 0.033184614 0.34300002 4278732572
0.080567755 0.033281364 0.34400001 4278797595
0.081685066 0.033281364 0.34400001 4278797595
0.083043091 0.033378113 0.34500003 4278666009
0.084163651 0.033378113 0.34500003 4278797082
0.085284211 0.033378113 0.34500003 4278928154
0.086404771 0.033378113 0.34500003 4279387935
0.08752533 0.033378113 0.34500003 4279453217
0.08864589 0.033378113 0.34500003 4279255068
0.089766458 0.033378113 0.34500003 4279320861
0.090623572 0.033281364 0.34400001 4279582750
0.091474198 0.033184614 0.34300002 4279779615
0.092318326 0.033087865 0.34200001 4279713822
0.093429133 0.033087865 0.34200001 4279516443
0.094263524 0.032991119 0.34100002 4279779363
0.073434442 0.034199059 0.34200001 4278666779
0.074545257 0.034199059 0.34200001 4278931234
0.075877294 0.034299057 0.34300002 4278733855
0.076991357 0.034299057 0.34300002 4278799646
0.07810542 0.034299057 0.34300002 4278865439
0.07921949 0.034299057 0.34300002 4278996255
0.080567755 0.034399055 0.34400001 4278864669
0.081922531 0.034499053 0.34500003 4278864669
0.083043091 0.034499053 0.34500003 4278995742
0.084163651 0.034499053 0.34500003 4278863386
0.085284211 0.034499053 0.34500003 4279126558
0.086404771 0.034499053 0.34500003 4278797080
0.08752533 0.034499053 0.34500003 4278731287
0.08864589 0.034499053 0.34500003 4278993945
0.089506261 0.034399055 0.34400001 4278862359
0.090623572 0.034399055 0.34400001 4278927382
0.091474198 0.034299057 0.34300002 4279058968
0.092318326 0.034199059 0.34200001 4278992662
0.09315595 0.034099061 0.34100002 4279058455
0.093987085 0.033999063 0.34 4279058970
0.09481173 0.033899069 0.33900002 4278993179
0.095629878 0.033799071 0.33800003 4279189791
0.096727706 0.033799071 0.33800003 4279320607
0.097536102 0.033699073 0.33700001 4279450910
0.098630674 0.033699073 0.33700001 4279581984
0.099725246 0.033699073 0.33700001 4279647264
0.10081983 0.033699073 0.33700001 4279252252
0.10191441 0.033699073 0.33700001 4279318049
0.10300899 0.033699073 0.33700001 4280304174
0.10410357 0.033699073 0.33700001 4281290302
0.10519814 0.033699073 0.33700001 4280763960
0.078333132 0.035516743 0.34400001 4279390500
0.079450443 0.035516743 0.34400001 4278929949
0.080567755 0.035516743 0.34400001 4278995742
0.081922531 0.035619993 0.34500003 4278995742
0.083043091 0.035619993 0.34500003 4278929949
0.084163651 0.035619993 0.34500003 4279061535
0.085284211 0.035619993 0.34500003 4278929949
0.086404771 0.035619993 0.34500003 4279060765
0.08752533 0.035619993 0.34500003 4279060765
0.088388942 0.035516743 0.34400001 4278797593
0.089506261 0.035516743 0.34400001 4278863386
0.090360135 0.0354135 0.34300002 4278731800
0.091474198 0.0354135 0.34300002 4278731802
0.092318326 0.03531025 0.34200001 4278665496
0.09315595 0.035207007 0.34100002 4278797082
0.093987085 0.035103757 0.34 4278731289
0.09481173 0.035000514 0.33900002 4278731289
0.095629878 0.034897268 0.33800003 4278664984
0.096727706 0.034897268 0.33800003 4278862363
0.097536102 0.034794021 0.33700001 4278992666
0.098630674 0.034794021 0.33700001 4279189275
0.099725246 0.034794021 0.33700001 4279057176
0.10081983 0.034794021 0.33700001 4279188762
0.10191441 0.034794021 0.33700001 4279056922
0.10300899 0.034794021 0.33700001 4279385887
0.10410357 0.034794021 0.33700001 4279450910
0.10519814 0.034794021 0.33700001 4279516189
0.10660812 0.034897268 0.33800003 4279318812
0.10770595 0.034897268 0.33800003 4279712803
0.10880377 0.034897268 0.33800003 4279712037
0.1099016 0.034897268 0.33800003 4280500268
0.11099943 0.034897268 0.33800003 4281353778
0.11209726 0.034897268 0.33800003 4282669638
0.087271631 0.036634434 0.34400001 4279323426
0.088388942 0.036634434 0.34400001 4278929181
0.089506261 0.036634434 0.34400001 4278929181
0.090360135 0.036527943 0.34300002 4279060769
0.091474198 0.036527943 0.34300002 4278929183
0.092048392 0.036314949 0.34100002 4278798367
0.092882767 0.036208451 0.34 4278798367
0.093987085 0.036208451 0.34 4278797082
0.09481173 0.03610196 0.33900002 4278862875
0.095629878 0.035995465 0.33800003 4279059740
0.096727706 0.035995465 0.33800003 4278862361
0.097825535 0.035995465 0.33800003 4278795798
0.098923348 0.035995465 0.33800003 4278993177
0.10002118 0.035995465 0.33800003 4279058970
0.101119 0.035995465 0.33800003 4278795798
0.10191441 0.035888966 0.33700001 4279058457
0.10331465 0.035995465 0.33800003 4278729492
0.10441248 0.035995465 0.33800003 4278400527
0.10551031 0.035995465 0.33800003 4278795285
0.10660812 0.035995465 0.33800003 4279123480
0.10770595 0.035995465 0.33800003 4279057176
0.10880377 0.035995465 0.33800003 4279385371
0.1099016 0.035995465 0.33800003 4279516443
0.11099943 0.035995465 0.33800003 4279581723
0.11209726 0.035995465 0.33800003 4279844895
0.11319507 0.035995465 0.33800003 4280040991
0.11539072 0.035995465 0.33800003 4280500518
0.11648855 0.035995465 0.33800003 4280236834
0.083043091 0.037861872 0.34500003 4278992666
0.092882767 0.037313148 0.34 4279126562
0.093987085 0.037313148 0.34 4278797082
0.09481173 0.037203405 0.33900002 4278665496
0.095912807 0.037203405 0.33900002 4279126047
0.096727706 0.037093662 0.33800003 4278928668
0.097825535 0.037093662 0.33800003 4279125533
0.098923348 0.037093662 0.33800003 4279125533
0.10002118 0.037093662 0.33800003 4278928152
0.101119 0.037093662 0.33800003 4279125531
0.10221682 0.037093662 0.33800003 4279058968
0.10331465 0.037093662 0.33800003 4278927382
0.10441248 0.037093662 0.33800003 4279058968
0.10551031 0.037093662 0.33800003 4278993175
0.10660812 0.037093662 0.33800003 4278927382
0.1080246 0.037203405 0.33900002 4278927382
0.10912567 0.037203405 0.33900002 4278861076
0.11022675 0.037203405 0.33900002 4278926099
0.11132782 0.037203405 0.33900002 4278794515
0.1124289 0.037203405 0.33900002 4279057174
0.11352996 0.037203405 0.33900002 4278991381
0.11463103 0.037203405 0.33900002 4279057174
0.11539072 0.037093662 0.33800003 4279254553
0.11683318 0.037203405 0.33900002 4279516955
0.11793426 0.037203405 0.33900002 4279779102
0.11903533 0.037203405 0.33900002 4279779102
0.12049079 0.037313148 0.34 4280105760
0.1215951 0.037313148 0.34 4279908381
0.12269942 0.037313148 0.34 4280171039
0.10031709 0.03830485 0.33900002 4278796570
0.10141817 0.03830485 0.33900002 4279059742
0.10251924 0.03830485 0.33900002 4278928154
0.10362031 0.03830485 0.33900002 4279257119
0.10472139 0.03830485 0.33900002 4279520291
0.10582246 0.03830485 0.33900002 4279586084
0.10692353 0.03830485 0.33900002 4278467603
0.1080246 0.03830485 0.33900002 4279125533
0.10912567 0.03830485 0.33900002 4278928154
0.11022675 0.03830485 0.33900002 4278928154
0.11132782 0.03830485 0.33900002 4278993177
0.1124289 0.03830485 0.33900002 4279124763
0.11352996 0.03830485 0.33900002 4278729492
0.11463103 0.03830485 0.33900002 4278861078
0.11573211 0.03830485 0.33900002 4278729492
0.11683318 0.03830485 0.33900002 4279255066
0.11793426 0.03830485 0.33900002 4278991381
0.11938646 0.038417842 0.34 4278991381
0.12049079 0.038417842 0.34 4279057176
0.1215951 0.038417842 0.34 4279385371
0.12269942 0.038417842 0.34 4279516955
0.12416787 0.038530838 0.34100002 4279516955
0.12527545 0.038530838 0.34100002 4279713822
0.12638302 0.038530838 0.34100002 4279779102
0.083043091 0.040103752 0.34500003 4280303657
0.086404771 0.040103752 0.34500003 4279515426
0.08752533 0.040103752 0.34500003 4279249689
0.08864589 0.040103752 0.34500003 4279709723
0.089506261 0.039987508 0.34400001 4279314965
0.090623572 0.039987508 0.34400001 4279183633
0.091740884 0.039987508 0.34400001 4279117840
0.092588268 0.039871268 0.34300002 4279052560
0.093429133 0.03975502 0.34200001 4279579416
0.10613462 0.039522536 0.34 4279651109
0.10723893 0.039522536 0.34 4279124765
0.10834325 0.039522536 0.34 4279257119
0.10944758 0.039522536 0.34 4279388705
0.11055189 0.039522536 0.34 4279257119
0.11165622 0.039522536 0.34 4279322912
0.11276054 0.039522536 0.34 4279454498
0.11496918 0.039522536 0.34 4279387935
0.1160735 0.039522536 0.34 4278927384
0.11717782 0.039522536 0.34 4279058970
0.11828214 0.039522536 0.34 4279058970
0.11938646 0.039522536 0.34 4278993177
0.12084518 0.03963878 0.34100002 4279124763
0.12195273 0.03963878 0.34100002 4278795285
0.12306031 0.03963878 0.34100002 4278991894
0.12416787 0.03963878 0.34100002 4278728722
0.12527545 0.03963878 0.34100002 4279188760
0.12638302 0.03963878 0.34100002 4278991381
0.12749058 0.03963878 0.34100002 4279385369
0.12859815 0.03963878 0.34100002 4279385371
0.12932535 0.039522536 0.34 4279647262
0.13042967 0.039522536 0.34 4279778848
0.13192086 0.03963878 0.34100002 4279976227
0.13302843 0.03963878 0.34100002 4280107813
0.13413599 0.03963878 0.34100002 4280565797
0.13564017 0.03975502 0.34200001 4280105246
0.13675098 0.03975502 0.34200001 4280235551
0.1378618 0.03975502 0.34200001 4281945656
0.077440284 0.041224692 0.34500003 4279582498
0.079681411 0.041224692 0.34500003 4279385887
0.080801971 0.041224692 0.34500003 4279516189
0.081922531 0.041224692 0.34500003 4280105760
0.083043091 0.041224692 0.34500003 4280435495
0.085284211 0.041224692 0.34500003 4279517475
0.086404771 0.041224692 0.34500003 4279381275
0.08752533 0.041224692 0.34500003 4279708957
0.08864589 0.041224692 0.34500003 4279314197
0.089766458 0.041224692 0.34500003 4280826923
0.090623572 0.0411052 0.34400001 4279774233
0.091740884 0.0411052 0.34400001 4280892714
0.092858203 0.0411052 0.34400001 4280365600
0.093702324 0.040985707 0.34300002 4280431393
0.094539955 0.040866215 0.34200001 4280630055
0.09565077 0.040866215 0.34200001 4279577367
0.096761592 0.040866215 0.34200001 4279577367
0.097872406 0.040866215 0.34200001 4279708953
0.098983228 0.040866215 0.34200001 4278592007
0.10009404 0.040866215 0.34200001 4279514393
0.10120485 0.040866215 0.34200001 4279778850
0.11419976 0.040746726 0.34100002 4279321629
0.11530732 0.040746726 0.34100002 4279124250
0.1164149 0.040746726 0.34100002 4279190043
0.11752246 0.040746726 0.34100002 4279716900
0.11863004 0.040746726 0.34100002 4279651107
0.1197376 0.040746726 0.34100002 4279453728
0.12084518 0.040746726 0.34100002 4279519519
0.12195273 0.040746726 0.34100002 4279256347
0.12306031 0.040746726 0.34100002 4278730005
0.124532 0.040866215 0.34200001 4278993177
0.12527545 0.040746726 0.34100002 4278926099
0.12638302 0.040746726 0.34100002 4279123478
0.12749058 0.040746726 0.34100002 4279123478
0.12859815 0.040746726 0.34100002 4279123480
0.12970571 0.040746726 0.34100002 4279188760
0.13081329 0.040746726 0.34100002 4279188760
0.13192086 0.040746726 0.34100002 4279188760
0.13302843 0.040746726 0.34100002 4279254553
0.13452935 0.040866215 0.34200001 4279451162
0.13564017 0.040866215 0.34200001 4279582234
0.13675098 0.040866215 0.34200001 4279779102
0.13826491 0.040985707 0.34300002 4279844895
0.13937898 0.040985707 0.34300002 4280107297
0.14049304 0.040985707 0.34300002 4280172323
0.14201996 0.0411052 0.34400001 4279711002
0.084163651 0.042345632 0.34500003 4280238118
0.085284211 0.042345632 0.34500003 4279449115
0.086404771 0.042345632 0.34500003 4279909414
0.089766458 0.042345632 0.34500003 4280039715
0.090887018 0.042345632 0.34500003 4279314967
0.092007577 0.042345632 0.34500003 4279380760
0.092858203 0.042222891 0.34400001 4279641879
0.093975507 0.042222891 0.34400001 4279773465
0.094816387 0.04210015 0.34300002 4279511063
0.095930457 0.04210015 0.34300002 4279905821
0.09704452 0.04210015 0.34300002 4280367655
0.09815859 0.04210015 0.34300002 4281091889
0.099272653 0.04210015 0.34300002 4280301860
0.10038671 0.04210015 0.34300002 4279840541
0.10150078 0.04210015 0.34300002 4279119385
0.10595704 0.04210015 0.34300002 4280108326
0.10707111 0.04210015 0.34300002 4279319324
0.10818516 0.04210015 0.34300002 4279385119
0.12008874 0.041977406 0.34200001 4279847203
0.12119956 0.041977406 0.34200001 4279584799
0.12231036 0.041977406 0.34200001 4279190554
0.12342118 0.041977406 0.34200001 4279256349
0.124532 0.041977406 0.34200001 4279519523
0.12564282 0.041977406 0.34200001 4279585314
0.12675364 0.041977406 0.34200001 4279453728
0.12786445 0.041977406 0.34200001 4279453215
0.12859815 0.041854668 0.34100002 4279255066
0.12970571 0.041854668 0.34100002 4279123480
0.13081329 0.041854668 0.34100002 4279255066
0.13192086 0.041854668 0.34100002 4279123480
0.13341853 0.041977406 0.34200001 4279123480
0.13452935 0.041977406 0.34200001 4279123480
0.13564017 0.041977406 0.34200001 4279188760
0.13715084 0.04210015 0.34300002 4279122195
0.13826491 0.04210015 0.34300002 4279385367
0.13937898 0.04210015 0.34300002 4279187990
0.14090264 0.042222891 0.34400001 4279516441
0.14201996 0.042222891 0.34400001 4279648027
0.14313726 0.042222891 0.34400001 4279647514
0.14383525 0.04210015 0.34300002 4279712537
0.090887018 0.043466575 0.34500003 4280039715
0.092007577 0.043466575 0.34500003 4280172071
0.093128145 0.043466575 0.34500003 4280302887
0.093975507 0.043340582 0.34400001 4280368680
0.09621013 0.043340582 0.34400001 4280171301
0.097327448 0.043340582 0.34400001 4279052822
0.09844476 0.043340582 0.34400001 4278920722
0.099562079 0.043340582 0.34400001 4279183896
0.10067938 0.043340582 0.34400001 4279249176
0.10403132 0.043340582 0.34400001 4279515678
0.10514864 0.043340582 0.34400001 4278723855
0.10626595 0.043340582 0.34400001 4279249174
0.10738327 0.043340582 0.34400001 4279512859
0.10850057 0.043340582 0.34400001 4280303141
0.11264143 0.043214593 0.34300002 4280370469
0.11375549 0.043214593 0.34300002 4279844895
0.11486955 0.043214593 0.34300002 4279253271
0.11598361 0.043214593 0.34300002 4279582236
0.12675364 0.043088604 0.34200001 4279519010
0.12786445 0.043088604 0.34200001 4279584803
0.12897527 0.043088604 0.34200001 4279453728
0.13008608 0.043088604 0.34200001 4279519521
0.1311969 0.043088604 0.34200001 4279453728
0.13230772 0.043088604 0.34200001 4279584801
0.13341853 0.043088604 0.34200001 4279584031
0.13492273 0.043214593 0.34300002 4279649313
0.13603678 0.043214593 0.34300002 4279386139
0.13715084 0.043214593 0.34300002 4279320346
0.13826491 0.043214593 0.34300002 4279320346
0.13978532 0.043340582 0.34400001 4278991894
0.14090264 0.043340582 0.34400001 4279254551
0.14201996 0.043340582 0.34400001 4278991379
0.14313726 0.043340582 0.34400001 4278991379
0.14425458 0.043340582 0.34400001 4279188758
0.1449493 0.043214593 0.34300002 4279582232
0.14606336 0.043214593 0.34300002 4280828710
0.093128145 0.044587512 0.34500003 4280037922
0.094248697 0.044587512 0.34500003 4280301864
0.095092818 0.04445827 0.34400001 4279908903
0.09621013 0.04445827 0.34400001 4279974696
0.097327448 0.04445827 0.34400001 4280106793
0.09844476 0.04445827 0.34400001 4279777828
0.099562079 0.04445827 0.34400001 4280173356
0.10067938 0.04445827 0.34400001 4280107563
0.10179669 0.04445827 0.34400001 4279976490
0.10291401 0.04445827 0.34400001 4279055386
0.10403132 0.04445827 0.34400001 4278791701
0.10514864 0.04445827 0.34400001 4279908899
0.10626595 0.04445827 0.34400001 4280170276
0.10961788 0.04445827 0.34400001 4280566059
0.11296982 0.04445827 0.34400001 4279317014
0.12266801 0.044329032 0.34300002 4279844125
0.13492273 0.044329032 0.34300002 4279715619
0.13603678 0.044329032 0.34300002 4279715619
0.1375507 0.04445827 0.34400001 4279781412
0.13866802 0.04445827 0.34400001 4279781412
0.13978532 0.04445827 0.34400001 4279781410
0.14090264 0.04445827 0.34400001 4279584031
0.14201996 0.04445827 0.34400001 4279584029
0.14313726 0.04445827 0.34400001 4279320857
0.14425458 0.04445827 0.34400001 4278991892
0.14537188 0.04445827 0.34400001 4279188758
0.14606336 0.044329032 0.34300002 4279516441
0.10209262 0.045708455 0.34500003 4280106543
0.10321318 0.045708455 0.34500003 4280172334
0.10433374 0.045708455 0.34500003 4280172588
0.1054543 0.045708455 0.34500003 4280238379
0.10657487 0.045708455 0.34500003 4280107563
0.10769543 0.045708455 0.34500003 4280041770
0.10881598 0.045708455 0.34500003 4280173354
0.10993654 0.045708455 0.34500003 4280369963
0.1110571 0.045708455 0.34500003 4280238631
0.11217767 0.045708455 0.34500003 4279646494
0.11329823 0.045708455 0.34500003 4280107043
0.1196737 0.045575965 0.34400001 4280172838
0.13046646 0.045443479 0.34300002 4280107297
0.13419876 0.045575965 0.34400001 4281227573
0.14090264 0.045575965 0.34400001 4279847201
0.14201996 0.045575965 0.34400001 4279781410
0.14313726 0.045575965 0.34400001 4279781410
0.14425458 0.045575965 0.34400001 4279386652
0.14537188 0.045575965 0.34400001 4279320857
0.14606336 0.045443479 0.34300002 4279385369
0.12601019 0.046557918 0.34300002 4280039967
0.13158052 0.046557918 0.34300002 4281751607
0.13308145 0.046693653 0.34400001 4281554230
0.13531607 0.046693653 0.34400001 4279974426
0.1375507 0.046693653 0.34400001 4281358645
0.14090264 0.046693653 0.34400001 4281424436
0.12601019 0.047672361 0.34300002 4280565284
0.12935241 0.047672361 0.34300002 4281947704
0.13084681 0.047811348 0.34400001 4281684532
0.13308145 0.047811348 0.34400001 4279776535
0.13419876 0.047811348 0.34400001 4281026089
0.13531607 0.047811348 0.34400001 4281816116
0.13683 0.047950335 0.34500003 4281554741
0.13795055 0.047950335 0.34500003 4281554739
0.14019169 0.047950335 0.34500003 4281554741
0.14090264 0.047811348 0.34400001 4281423925
0.14201996 0.047811348 0.34400001 4281555509
0.14313726 0.047811348 0.34400001 4281817911
0.14425458 0.047811348 0.34400001 4282146365
0.14537188 0.047811348 0.34400001 4282737732
0.1464892 0.047811348 0.34400001 4283128385
0.13458888 0.049071278 0.34500003 4282210363
0.13570945 0.049071278 0.34500003 4282079288
0.13683 0.049071278 0.34500003 4281685044
0.13795055 0.049071278 0.34500003 4281750837
0.13907112 0.049071278 0.34500003 4282014009
0.14019169 0.049071278 0.34500003 4282079800
0.14131224 0.049071278 0.34500003 4282014007
0.14243281 0.049071278 0.34500003 4282211386
0.14313726 0.048929039 0.34400001 4282999107
0.14425458 0.048929039 0.34400001 4285760366
0.14537188 0.048929039 0.34400001 4285957232
0.1464892 0.048929039 0.34400001 4286022255
0.13458888 0.050192215 0.34500003 4285629294
0.13570945 0.050192215 0.34500003 4284708444
0.13683 0.050192215 0.34500003 4284840028
0.13795055 0.050192215 0.34500003 4284708444
0.13907112 0.050192215 0.34500003 4285037409
0.10504402 0.038459543 0.3422015 4294967295
0.10504402 0.038459543 0.3422015 4294901760
0.10512272 0.038065411 0.34190407 4294901760
0.10520142 0.037671279 0.34160665 4294901760
0.10528012 0.037277143 0.34130922 4294901760
0.10535882 0.036883011 0.34101176 4294901760
0.10543752 0.036488879 0.34071434 4294901760
0.10551623 0.036094747 0.34041691 4294901760
0.10559493 0.035700612 0.34011948 4294901760
0.10567363 0.03530648 0.33982205 4294901760
0.10575233 0.034912348 0.33952463 4294901760
0.10583103 0.034518216 0.3392272 4294901760
0.10590973 0.034124084 0.33892974 4294901760
0.10598843 0.033729948 0.33863232 4294901760
0.10606713 0.033335816 0.33833489 4294901760
0.10614583 0.032941684 0.33803746 4294901760
0.10622453 0.032547552 0.33774003 4294901760
0.10630323 0.03215342 0.33744261 4294901760
0.10638193 0.031759284 0.33714515 4294901760
0.10646063 0.031365152 0.33684772 4294901760
0.10653933 0.03097102 0.3365503 4294901760
0.10661803 0.030576887 0.33625287 4294901760
0.10669673 0.030182755 0.33595544 4294901760
0.10677543 0.029788621 0.33565801 4294901760
0.10685413 0.029394489 0.33536059 4294901760
0.10693283 0.029000357 0.33506313 4294901760
0.10701153 0.028606223 0.3347657 4294901760
0.10709023 0.028212091 0.33446828 4294901760
0.10716894 0.027817957 0.33417085 4294901760
0.10724764 0.027423825 0.33387342 4294901760
0.10732634 0.027029693 0.33357599 4294901760
0.10740504 0.026635557 0.33327854 4294901760
0.10748374 0.026241425 0.33298111 4294901760
0.10756244 0.025847293 0.33268368 4294901760
0.10764114 0.02545316 0.33238626 4294901760
0.10771984 0.025059028 0.33208883 4294901760
0.10779854 0.024664894 0.3317914 4294901760
0.10787724 0.024270762 0.33149397 4294901760
0.10795594 0.02387663 0.33119652 4294901760
0.10803464 0.023482498 0.33089909 4294901760
0.10811334 0.023088364 0.33060166 4294901760
0.10819204 0.02269423 0.33030424 4294901760
0.10827074 0.022300098 0.33000681 4294901760
0.10834944 0.021905966 0.32970938 4294901760
0.10842814 0.021511832 0.32941195 4294901760
0.10850684 0.0211177 0.3291145 4294901760
0.10858554 0.020723566 0.32881707 4294901760
0.10866424 0.020329434 0.32851964 4294901760
0.10874294 0.019935301 0.32822222 4294901760
0.10882165 0.019541169 0.32792479 4294901760
0.10890035 0.019147035 0.32762736 4294901760
0.10897905 0.018752903 0.32732993 4294901760
0.10905775 0.018358771 0.32703248 4294901760
0.10913645 0.017964639 0.32673505 4294901760
0.10921515 0.017570505 0.32643762 4294901760
0.10929385 0.017176371 0.3261402 4294901760
0.10937255 0.016782239 0.32584277 4294901760
0.10945125 0.016388105 0.32554534 4294901760
0.10952995 0.015993973 0.32524788 4294901760
0.10960865 0.015599841 0.32495046 4294901760
0.10968735 0.015205709 0.32465303 4294901760
0.10976605 0.014811574 0.3243556 4294901760
0.10984475 0.014417442 0.32405818 4294901760
0.10992345 0.01402331 0.32376075 4294901760
0.11000215 0.013629176 0.32346332 4294901760
0.11008085 0.013235044 0.32316586 4294901760
0.11015955 0.012840912 0.32286844 4294901760
0.11023825 0.012446776 0.32257101 4294901760
0.11031695 0.012052644 0.32227358 4294901760
0.11039566 0.011658512 0.32197616 4294901760
0.11047436 0.01126438 0.32167873 4294901760
0.11055306 0.010870246 0.32138127 4294901760
0.11063176 0.010476114 0.32108384 4294901760
0.11071046 0.01008198 0.32078642 4294901760
0.11078916 0.0096878465 0.32048899 4294901760
0.11086786 0.0092937145 0.32019156 4294901760
0.11094656 0.0088995825 0.31989413 4294901760
0.11102526 0.0085054506 0.31959671 4294901760
0.11110396 0.0081113186 0.31929928 4294901760
0.11118266 0.0077171847 0.31900182 4294901760
0.11126136 0.0073230509 0.3187044 4294901760
0.11134006 0.006928917 0.31840697 4294901760
0.11141876 0.006534785 0.31810954 4294901760
0.11149746 0.006140653 0.31781211 4294901760
0.11157616 0.0057465211 0.31751469 4294901760
0.11165486 0.0053523891 0.31721723 4294901760
0.11173356 0.0049582534 0.3169198 4294901760
0.11181226 0.0045641214 0.31662238 4294901760
0.11189096 0.0041699894 0.31632495 4294901760
0.11196966 0.0037758574 0.31602752 4294901760
0.11204837 0.0033817254 0.31573009 4294901760
0.11212707 0.0029875897 0.31543267 4294901760
0.11220577 0.0025934577 0.31513521 4294901760
0.11228447 0.0021993257 0.31483778 4294901760
0.11236317 0.00180519 0.31454036 4294901760
0.11244187 0.001411058 0.31424293 4294901760
0.11252057 0.001016926 0.3139455 4294901760
0.11259927 0.00062279403 0.31364807 4294901760
0.11267797 0.00022865832 0.31335062 4294901760
0.11275667 -0.00016547367 0.31305319 4294901760
0.11283537 -0.00055960566 0.31275576 4294901760
0.11291407 -0.00095373765 0.31245834 4294901760
0.10504402 0.038459543 0.3422015 4278255360
0.10553388 0.038559675 0.34219843 4278255360
0.10602374 0.038659807 0.34219536 4278255360
0.1065136 0.038759939 0.34219229 4278255360
0.10700347 0.038860071 0.34218922 4278255360
0.10749333 0.038960204 0.34218615 4278255360
0.10798319 0.039060336 0.34218308 4278255360
0.10847306 0.039160468 0.34218001 4278255360
0.10896292 0.0392606 0.34217694 4278255360
0.10945278 0.039360732 0.34217387 4278255360
0.10994264 0.039460864 0.3421708 4278255360
0.1104325 0.039560996 0.34216774 4278255360
0.11092236 0.039661128 0.34216467 4278255360
0.11141222 0.03976126 0.3421616 4278255360
0.11190208 0.039861392 0.34215853 4278255360
0.11239195 0.039961524 0.34215546 4278255360
0.11288181 0.040061653 0.34215239 4278255360
0.11337167 0.040161788 0.34214932 4278255360
0.11386153 0.040261917 0.34214625 4278255360
0.11435139 0.040362049 0.34214318 4278255360
0.11484125 0.040462181 0.34214011 4278255360
0.11533111 0.040562313 0.34213704 4278255360
0.11582097 0.040662445 0.34213397 4278255360
0.11631083 0.040762577 0.3421309 4278255360
0.1168007 0.040862709 0.34212783 4278255360
0.11729056 0.040962841 0.34212476 4278255360
0.11778042 0.041062973 0.34212169 4278255360
0.11827029 0.041163106 0.34211862 4278255360
0.11876015 0.041263238 0.34211555 4278255360
0.11925001 0.04136337 0.34211248 4278255360
0.11973987 0.041463502 0.34210941 4278255360
0.12022973 0.041563634 0.34210634 4278255360
0.12071959 0.041663766 0.34210327 4278255360
0.12120946 0.041763898 0.3421002 4278255360
0.12169932 0.04186403 0.34209713 4278255360
0.12218918 0.041964162 0.34209406 4278255360
0.12267904 0.042064294 0.34209099 4278255360
0.1231689 0.042164426 0.34208792 4278255360
0.12365876 0.042264558 0.34208485 4278255360
0.12414862 0.04236469 0.34208179 4278255360
0.12463848 0.042464823 0.34207872 4278255360
0.12512834 0.042564955 0.34207565 4278255360
0.1256182 0.042665087 0.34207258 4278255360
0.12610807 0.042765219 0.34206951 4278255360
0.12659793 0.042865351 0.34206644 4278255360
0.12708779 0.042965483 0.34206337 4278255360
0.12757765 0.043065615 0.3420603 4278255360
0.12806751 0.043165747 0.34205723 4278255360
0.12855737 0.043265879 0.34205416 4278255360
0.12904724 0.043366008 0.34205109 4278255360
0.12953711 0.043466143 0.34204805 4278255360
0.13002697 0.043566272 0.34204498 4278255360
0.13051683 0.043666404 0.34204191 4278255360
0.13100669 0.043766536 0.34203884 4278255360
0.13149655 0.043866672 0.34203577 4278255360
0.13198641 0.0439668 0.3420327 4278255360
0.13247627 0.044066932 0.34202963 4278255360
0.13296613 0.044167064 0.34202656 4278255360
0.13345599 0.044267196 0.34202349 4278255360
0.13394585 0.044367328 0.34202042 4278255360
0.13443571 0.04446746 0.34201735 4278255360
0.13492557 0.044567592 0.34201428 4278255360
0.13541543 0.044667725 0.34201121 4278255360
0.1359053 0.044767857 0.34200814 4278255360
0.13639516 0.044867989 0.34200507 4278255360
0.13688502 0.044968121 0.342002 4278255360
0.13737488 0.045068253 0.34199893 4278255360
0.13786474 0.045168385 0.34199587 4278255360
0.1383546 0.045268517 0.3419928 4278255360
0.13884446 0.045368649 0.34198973 4278255360
0.13933432 0.045468781 0.34198666 4278255360
0.13982418 0.045568913 0.34198359 4278255360
0.14031406 0.045669045 0.34198052 4278255360
0.14080392 0.045769177 0.34197745 4278255360
0.14129378 0.045869309 0.34197438 4278255360
0.14178364 0.045969442 0.34197131 4278255360
0.1422735 0.046069574 0.34196824 4278255360
0.14276336 0.046169706 0.34196517 4278255360
0.14325322 0.046269838 0.3419621 4278255360
0.14374308 0.04636997 0.34195903 4278255360
0.14423294 0.046470102 0.34195596 4278255360
0.1447228 0.046570234 0.34195289 4278255360
0.14521267 0.046670362 0.34194982 4278255360
0.14570253 0.046770498 0.34194675 4278255360
0.14619239 0.046870627 0.34194368 4278255360
0.14668225 0.046970762 0.34194061 4278255360
0.14717211 0.047070891 0.34193754 4278255360
0.14766197 0.047171026 0.34193447 4278255360
0.14815184 0.047271155 0.3419314 4278255360
0.14864171 0.047371287 0.34192833 4278255360
0.14913157 0.047471419 0.34192526 4278255360
0.14962143 0.047571551 0.34192219 4278255360
0.15011129 0.047671683 0.34191912 4278255360
0.15060115 0.047771815 0.34191605 4278255360
0.15109101 0.047871947 0.34191298 4278255360
0.15158087 0.047972079 0.34190992 4278255360
0.15207073 0.048072211 0.34190685 4278255360
0.15256059 0.048172344 0.34190378 4278255360
0.15305045 0.048272476 0.34190071 4278255360
0.15354031 0.048372608 0.34189764 4278255360
0.15403017 0.04847274 0.34189457 4278255360
0.10504402 0.038459543 0.3422015 4278190335
0.10504482 0.038158458 0.34260067 4278190335
0.10504562 0.037857376 0.34299988 4278190335
0.10504642 0.037556291 0.34339905 4278190335
0.10504722 0.037255209 0.34379825 4278190335
0.10504802 0.036954124 0.34419742 4278190335
0.10504882 0.036653038 0.34459659 4278190335
0.10504962 0.036351956 0.3449958 4278190335
0.10505041 0.036050871 0.34539497 4278190335
0.10505121 0.035749786 0.34579417 4278190335
0.10505202 0.035448704 0.34619334 4278190335
0.10505281 0.035147619 0.34659252 4278190335
0.10505361 0.034846537 0.34699172 4278190335
0.10505441 0.034545451 0.34739089 4278190335
0.10505521 0.034244366 0.34779006 4278190335
0.10505601 0.033943284 0.34818926 4278190335
0.10505681 0.033642199 0.34858844 4278190335
0.1050576 0.033341117 0.34898764 4278190335
0.10505841 0.033040032 0.34938681 4278190335
0.10505921 0.032738946 0.34978598 4278190335
0.10506 0.032437865 0.35018519 4278190335
0.1050608 0.032136779 0.35058436 4278190335
0.10506161 0.031835698 0.35098356 4278190335
0.1050624 0.031534612 0.35138273 4278190335
0.1050632 0.031233529 0.3517819 4278190335
0.105064 0.030932445 0.35218111 4278190335
0.1050648 0.03063136 0.35258028 4278190335
0.1050656 0.030330276 0.35297948 4278190335
0.1050664 0.030029193 0.35337865 4278190335
0.1050672 0.029728109 0.35377783 4278190335
0.105068 0.029427024 0.35417703 4278190335
0.1050688 0.02912594 0.3545762 4278190335
0.10506959 0.028824857 0.35497537 4278190335
0.1050704 0.028523773 0.35537457 4278190335
0.10507119 0.028222688 0.35577375 4278190335
0.10507199 0.027921606 0.35617295 4278190335
0.10507279 0.02762052 0.35657212 4278190335
0.10507359 0.027319437 0.35697129 4278190335
0.10507439 0.027018353 0.3573705 4278190335
0.10507519 0.026717268 0.35776967 4278190335
0.10507599 0.026416184 0.35816887 4278190335
0.10507679 0.026115101 0.35856804 4278190335
0.10507759 0.025814017 0.35896721 4278190335
0.10507838 0.025512934 0.35936642 4278190335
0.10507918 0.025211848 0.35976559 4278190335
0.10507999 0.024910767 0.36016479 4278190335
0.10508078 0.024609681 0.36056396 4278190335
0.10508158 0.024308596 0.36096314 4278190335
0.10508238 0.024007514 0.36136234 4278190335
0.10508318 0.023706429 0.36176151 4278190335
0.10508398 0.023405345 0.36216068 4278190335
0.10508478 0.023104262 0.36255988 4278190335
0.10508558 0.022803178 0.36295906 4278190335
0.10508638 0.022502095 0.36335826 4278190335
0.10508718 0.022201009 0.36375743 4278190335
0.10508797 0.021899926 0.3641566 4278190335
0.10508878 0.021598842 0.36455581 4278190335
0.10508958 0.021297758 0.36495498 4278190335
0.10509037 0.020996675 0.36535418 4278190335
0.10509117 0.020695589 0.36575335 4278190335
0.10509197 0.020394504 0.36615252 4278190335
0.10509277 0.020093421 0.36655173 4278190335
0.10509357 0.019792337 0.3669509 4278190335
0.10509437 0.019491253 0.3673501 4278190335
0.10509517 0.01919017 0.36774927 4278190335
0.10509597 0.018889086 0.36814845 4278190335
0.10509676 0.018588001 0.36854765 4278190335
0.10509756 0.018286917 0.36894682 4278190335
0.10509837 0.017985834 0.36934602 4278190335
0.10509916 0.01768475 0.36974519 4278190335
0.10509996 0.017383667 0.37014437 4278190335
0.10510076 0.017082583 0.37054357 4278190335
0.10510156 0.016781498 0.37094274 4278190335
0.10510236 0.016480414 0.37134194 4278190335
0.10510316 0.016179331 0.37174112 4278190335
0.10510395 0.015878245 0.37214029 4278190335
0.10510476 0.015577162 0.37253949 4278190335
0.10510556 0.015276078 0.37293866 4278190335
0.10510635 0.014974995 0.37333784 4278190335
0.10510716 0.014673909 0.37373704 4278190335
0.10510796 0.014372826 0.37413621 4278190335
0.10510875 0.014071742 0.37453541 4278190335
0.10510955 0.013770659 0.37493458 4278190335
0.10511035 0.013469575 0.37533376 4278190335
0.10511115 0.013168491 0.37573296 4278190335
0.10511195 0.012867406 0.37613213 4278190335
0.10511275 0.012566322 0.3765313 4278190335
0.10511355 0.012265239 0.37693051 4278190335
0.10511435 0.011964155 0.37732968 4278190335
0.10511515 0.011663072 0.37772888 4278190335
0.10511594 0.011361988 0.37812805 4278190335
0.10511675 0.011060903 0.37852722 4278190335
0.10511754 0.010759817 0.37892643 4278190335
0.10511834 0.010458734 0.3793256 4278190335
0.10511914 0.01015765 0.3797248 4278190335
0.10511994 0.0098565668 0.38012397 4278190335
0.10512074 0.0095554832 0.38052315 4278190335
0.10512154 0.0092543978 0.38092235 4278190335
0.10512234 0.0089533143 0.38132152 4278190335
0.10512314 0.0086522307 0.38172072 4278190335
0.10512394 0.0083511472 0.38211989 4278190335
0.10504402 0.038459543 0.3422015 4294967295
0.10503922 0.040266048 0.33980641 4294967295
0.10503443 0.042072549 0.33741128 4294967295
0.10502964 0.043879054 0.33501619 4294967295
0.10502484 0.04568556 0.3326211 4294967295
0.10502005 0.047492065 0.33022597 4294967295
0.10501526 0.049298566 0.32783088 4294967295
0.10501046 0.051105071 0.32543579 4294967295
0.10500567 0.052911572 0.32304066 4294967295
0.10500087 0.054718077 0.32064557 4294967295
0.10499607 0.056524582 0.31825048 4294967295
0.10499128 0.058331087 0.31585535 4294967295
0.10498648 0.060137589 0.31346026 4294967295
0.10498169 0.06194409 0.31106514 4294967295
0.10497689 0.063750595 0.30867004 4294967295
0.1049721 0.0655571 0.30627495 4294967295
0.1049673 0.067363605 0.30387983 4294967295
0.10496251 0.06917011 0.30148473 4294967295
0.10495771 0.070976615 0.29908964 4294967295
0.10495292 0.072783113 0.29669452 4294967295
0.10494813 0.074589625 0.29429942 4294967295
0.10494333 0.076396123 0.29190433 4294967295
0.10493854 0.078202628 0.28950921 4294967295
0.10493374 0.080009133 0.28711411 4294967295
0.10492895 0.08181563 0.28471902 4294967295
0.10492415 0.083622143 0.2823239 4294967295
0.10491935 0.08542864 0.2799288 4294967295
0.10491456 0.087235153 0.27753371 4294967295
0.10490976 0.08904165 0.27513859 4294967295
0.10490497 0.090848148 0.27274349 4294967295
0.10490017 0.09265466 0.27034837 4294967295
0.10489538 0.094461158 0.26795328 4294967295
0.10489058 0.096267663 0.26555818 4294967295
0.10488579 0.098074168 0.26316306 4294967295
0.104881 0.099880673 0.26076797 4294967295
0.1048762 0.10168718 0.25837287 4294967295
0.10487141 0.10349369 0.25597775 4294967295
0.10486661 0.10530019 0.25358266 4294967295
0.10486182 0.10710669 0.25118756 4294967295
0.10485702 0.10891318 0.24879245 4294967295
0.10485223 0.1107197 0.24639735 4294967295
0.10484743 0.11252619 0.24400225 4294967295
0.10484263 0.11433271 0.24160714 4294967295
0.10483784 0.1161392 0.23921204 4294967295
0.10483304 0.11794572 0.23681693 4294967295
0.10482825 0.11975221 0.23442182 4294967295
0.10482346 0.12155873 0.23202673 4294967295
0.10481866 0.12336522 0.22963162 4294967295
0.10481387 0.12517172 0.22723651 4294967295
0.10480908 0.12697823 0.22484142 4294967295
0.10480428 0.12878473 0.22244631 4294967295
0.10479948 0.13059124 0.2200512 4294967295
0.10479469 0.13239774 0.21765611 4294967295
0.10478989 0.13420424 0.215261 4294967295
0.1047851 0.13601075 0.21286589 4294967295
0.1047803 0.13781725 0.21047078 4294967295
0.10477551 0.13962376 0.20807569 4294967295
0.10477071 0.14143026 0.20568058 4294967295
0.10476592 0.14323676 0.20328549 4294967295
0.10476112 0.14504327 0.20089038 4294967295
0.10475633 0.14684978 0.19849527 4294967295
0.10475153 0.14865628 0.19610016 4294967295
0.10474674 0.15046278 0.19370507 4294967295
0.10474195 0.15226929 0.19130996 4294967295
0.10473715 0.15407579 0.18891485 4294967295
0.10473236 0.15588228 0.18651976 4294967295
0.10472756 0.1576888 0.18412463 4294967295
0.10472276 0.15949531 0.18172954 4294967295
0.10471797 0.16130181 0.17933443 4294967295
0.10471317 0.1631083 0.17693934 4294967295
0.10470838 0.1649148 0.17454423 4294967295
0.10470358 0.16672131 0.17214914 4294967295
0.10469879 0.16852783 0.16975401 4294967295
0.10469399 0.17033432 0.16735892 4294967295
0.1046892 0.17214082 0.16496381 4294967295
0.10468441 0.17394733 0.16256872 4294967295
0.10467961 0.17575383 0.16017361 4294967295
0.10467482 0.17756033 0.1577785 4294967295
0.10467002 0.17936683 0.15538341 4294967295
0.10466523 0.18117334 0.15298828 4294967295
0.10466043 0.18297985 0.15059319 4294967295
0.10465564 0.18478635 0.14819808 4294967295
0.10465084 0.18659285 0.14580299 4294967295
0.10464605 0.18839936 0.14340788 4294967295
0.10464125 0.19020586 0.14101279 4294967295
0.10463645 0.19201237 0.13861766 4294967295
0.10463166 0.19381887 0.13622257 4294967295
0.10462686 0.19562538 0.13382746 4294967295
0.10462207 0.19743188 0.13143235 4294967295
0.10461728 0.19923837 0.12903726 4294967295
0.10461248 0.20104489 0.12664215 4294967295
0.10460769 0.2028514 0.12424704 4294967295
0.10460289 0.2046579 0.12185194 4294967295
0.1045981 0.20646439 0.11945684 4294967295
0.1045933 0.20827089 0.11706173 4294967295
0.10458851 0.2100774 0.11466664 4294967295
0.10458371 0.2118839 0.11227153 4294967295
0.10457892 0.21369042 0.10987642 4294967295
0.10457412 0.21549691 0.10748132 4294967295
0.10456933 0.21730343 0.10508622 4294967295
0.10456453 0.21910992 0.10269111 4294967295
