# .PCD v0.7 - Point Cloud Data file format
VERSION 0.7
FIELDS x y z rgb
SIZE 4 4 4 4
TYPE F F F U
COUNT 1 1 1 1
WIDTH 1036
HEIGHT 1
VIEWPOINT 0 0 0 1 0 0 0
POINTS 1036
DATA ascii
-0.0043670619 0.037433725 0.46500003 4278993945
-0.0028505973 0.037353221 0.46400002 4278992664
-0.001340629 0.037272722 0.46300003 4278530062
0.00016284335 0.037192214 0.46200001 4279058459
0.0016598196 0.037111714 0.46100003 4278730005
0.0031502999 0.037031211 0.46000001 4278664212
0.0046342839 0.036950707 0.45900002 4278730003
0.0061117732 0.036870208 0.45800003 4278730003
0.0075827646 0.036789704 0.45700002 4278664210
0.0090472614 0.036709201 0.45600003 4278795796
0.010482173 0.036548197 0.45400003 4278730003
0.011904093 0.03638719 0.45200002 4278796050
0.013342606 0.03630669 0.45100003 4278730257
0.014807455 0.03630669 0.45100003 4278796050
0.016236221 0.036226183 0.45000002 4278533908
0.017658494 0.036145683 0.44900003 4278468115
-0.020098343 0.040200833 0.48000002 4279513373
-0.01850068 0.040117081 0.47900003 4279582498
-0.01690951 0.040033329 0.47800002 4279123998
-0.015356964 0.040033329 0.47800002 4278862363
-0.013746661 0.039865825 0.47600001 4278862361
-0.01214935 0.039698325 0.47400004 4278599189
-0.01056503 0.039530821 0.47200003 4278797082
-0.008993702 0.039363317 0.47000003 4278797082
-0.0074194777 0.039112058 0.46700001 4278797082
-0.005890022 0.039028309 0.46600002 4278665496
-0.0043576704 0.038860805 0.46400002 4278664982
-0.0028505973 0.038860805 0.46400002 4278199554
-0.001340629 0.038777053 0.46300003 4278195968
0.00016284335 0.038693301 0.46200001 4278859797
0.0016598196 0.038609549 0.46100003 4278200331
0.0031502999 0.038525797 0.46000001 4278197256
0.0046443804 0.038525797 0.46000001 4278195972
0.0061251172 0.038442045 0.45900002 4278195969
0.0075993575 0.038358297 0.45800003 4278195712
0.0090671014 0.038274541 0.45700002 4278198024
0.010505262 0.038107038 0.45500001 4278198275
0.011956766 0.038023289 0.45400003 4278923793
0.013401774 0.037939534 0.45300001 4279121683
0.014840287 0.037855785 0.45200002 4279056404
0.016308382 0.037855785 0.45200002 4278795285
0.017737152 0.037772033 0.45100003 4278532626
0.020804323 0.038023289 0.45400003 4278730003
0.022229843 0.037939534 0.45300001 4278664210
0.023701187 0.037939534 0.45300001 4278730003
0.025172532 0.037939534 0.45300001 4278467601
0.026585061 0.037855785 0.45200002 4278599187
-0.020056473 0.0416734 0.47900003 4279316764
-0.01850068 0.0416734 0.47900003 4279385887
-0.01690951 0.041586399 0.47800002 4279124765
-0.015324838 0.041499399 0.47700003 4278993949
-0.013746661 0.041412398 0.47600001 4278796570
-0.01214935 0.041238397 0.47400004 4278796570
-0.01056503 0.041064397 0.47200003 4278797084
-0.008993702 0.040890392 0.47000003 4278731291
-0.0074194777 0.040629391 0.46700001 4278731291
-0.005890022 0.04054239 0.46600002 4278731289
-0.0043576704 0.040368386 0.46400002 4278664982
-0.0028444538 0.040281389 0.46300003 4278925590
-0.001340629 0.040281389 0.46300003 4279580188
0.00016284335 0.040194385 0.46200001 4279188760
0.0016598196 0.040107384 0.46100003 4278196228
0.0031571484 0.040107384 0.46100003 4278655756
0.0046443804 0.040020384 0.46000001 4278851597
0.0061251172 0.039933383 0.45900002 4278785804
0.0075993575 0.039846383 0.45800003 4278785804
0.0090869423 0.039846383 0.45800003 4278720525
0.010551439 0.039759383 0.45700002 4278654732
0.012009439 0.039672382 0.45600003 4278654732
0.013460943 0.039585378 0.45500001 4278589193
0.014905952 0.039498381 0.45400003 4278524681
0.016380543 0.039498381 0.45400003 4278194688
0.017815808 0.039411377 0.45300001 4278200845
0.019372307 0.039585378 0.45500001 4278196480
0.020804323 0.039498381 0.45400003 4278197504
0.022278916 0.039498381 0.45400003 4278199815
0.023701187 0.039411377 0.45300001 4278858259
0.025172532 0.039411377 0.45300001 4279715106
0.026585061 0.039324377 0.45200002 4278991894
0.028053159 0.039324377 0.45200002 4279124250
0.029521253 0.039324377 0.45200002 4278598419
0.030920792 0.03923738 0.45100003 4278599187
0.03238564 0.03923738 0.45100003 4278533396
0.03377543 0.039150376 0.45000002 4278599189
0.035237033 0.039150376 0.45000002 4278533396
0.036698632 0.039150376 0.45000002 4278664982
0.038075436 0.039063375 0.44900003 4278468117
0.039533786 0.039063375 0.44900003 4278402837
0.040992137 0.039063375 0.44900003 4278666009
0.042450495 0.039063375 0.44900003 4278402837
0.043811049 0.038976375 0.44800001 4278666779
0.045165118 0.038889375 0.44700003 4278600986
0.046616975 0.038889375 0.44700003 4278798365
0.047961291 0.03880237 0.44600001 4278929951
0.049409904 0.03880237 0.44600001 4279193125
0.050858509 0.03880237 0.44600001 4279192101
0.052307121 0.03880237 0.44600001 4279323174
0.053755727 0.03880237 0.44600001 4279454246
0.055204336 0.03880237 0.44600001 4279649574
-0.020056473 0.043229725 0.47900003 4279711522
-0.018462054 0.043139473 0.47800002 4279320094
-0.01690951 0.043139473 0.47800002 4278862361
-0.015324838 0.043049224 0.47700003 4278928154
-0.013746661 0.042958971 0.47600001 4278731289
-0.01214935 0.042778477 0.47400004 4278665496
-0.01056503 0.042597976 0.47200003 4278731289
-0.0089745661 0.042327221 0.46900001 4278797082
-0.0074194777 0.042146724 0.46700001 4278731291
-0.005890022 0.042056475 0.46600002 4278731291
-0.0043576704 0.041875973 0.46400002 4278862361
-0.0028444538 0.041785724 0.46300003 4278398992
-0.001340629 0.041785724 0.46300003 4278923541
0.00016284335 0.041695476 0.46200001 4279123482
0.0016634201 0.041695476 0.46200001 4278197001
0.0031571484 0.041605227 0.46100003 4280038692
0.0046443804 0.041514974 0.46000001 4278853135
0.0061384616 0.041514974 0.46000001 4279444502
0.0076159495 0.041424725 0.45900002 4279313686
0.0090869423 0.041334476 0.45800003 4279116307
0.010574528 0.041334476 0.45800003 4279249176
0.012035775 0.041244224 0.45700002 4278655756
0.013490528 0.041153975 0.45600003 4278720525
0.014971618 0.041153975 0.45600003 4278720525
0.016416624 0.041063726 0.45500001 4278197256
0.017894465 0.041063726 0.45500001 4279056154
0.019414883 0.041153975 0.45600003 4278991129
0.020850148 0.041063726 0.45500001 4279385887
0.022327987 0.041063726 0.45500001 4279188762
0.023753507 0.040973477 0.45400003 4279122199
0.025172532 0.040883224 0.45300001 4279055638
0.026643876 0.040883224 0.45300001 4278397708
0.028053159 0.040792976 0.45200002 4278199045
0.029521253 0.040792976 0.45200002 4278196224
0.030920792 0.040702727 0.45100003 4278196480
0.03238564 0.040702727 0.45100003 4278198276
0.033850487 0.040702727 0.45100003 4278266124
0.035237033 0.040612474 0.45000002 4279055640
0.036698632 0.040612474 0.45000002 4278925590
0.038160235 0.040612474 0.45000002 4279123480
0.039621834 0.040612474 0.45000002 4278663699
0.041083433 0.040612474 0.45000002 4278664212
0.042450495 0.040522225 0.44900003 4278533398
0.043908846 0.040522225 0.44900003 4278599191
0.045266159 0.040431976 0.44800001 4278599189
0.046721261 0.040431976 0.44800001 4278599189
0.048068829 0.040341727 0.44700003 4278665496
0.04952069 0.040341727 0.44700003 4278862875
0.050972544 0.040341727 0.44700003 4278731802
0.052424401 0.040341727 0.44700003 4278863388
0.053876258 0.040341727 0.44700003 4279060767
0.055328112 0.040341727 0.44700003 4279126560
0.056906991 0.040431976 0.44800001 4279190304
-0.020056473 0.044786043 0.47900003 4280040485
-0.018462054 0.044692542 0.47800002 4279385887
-0.016874135 0.044599045 0.47700003 4278796568
-0.015324838 0.044599045 0.47700003 4278797080
-0.013746661 0.044505544 0.47600001 4278533910
-0.01214935 0.044318549 0.47400004 4278731289
-0.010542646 0.04403805 0.47100002 4278665498
-0.0089745661 0.043851051 0.46900001 4278731291
-0.0074194777 0.043664053 0.46700001 4278665498
-0.0058773826 0.043477058 0.46500003 4278731291
-0.0043576704 0.043383557 0.46400002 4278599191
-0.0028444538 0.04329006 0.46300003 4278198018
-0.001340629 0.04329006 0.46300003 4279778850
0.00016284335 0.043196559 0.46200001 4279319578
0.0016634201 0.043196559 0.46200001 4278327050
0.0031571484 0.043103062 0.46100003 4280170278
0.0046544774 0.043103062 0.46100003 4279315480
0.0061384616 0.043009561 0.46000001 4278195714
0.0076159495 0.042916063 0.45900002 4278919439
0.0091067832 0.042916063 0.45900002 4278195716
0.010574528 0.042822566 0.45800003 4278194688
0.012062112 0.042822566 0.45800003 4278327304
0.013520112 0.042729065 0.45700002 4279446555
0.01500445 0.042729065 0.45700002 4279051027
0.016452705 0.042635567 0.45600003 4278460685
0.017933793 0.042635567 0.45600003 4278991642
0.019414883 0.042635567 0.45600003 4278465298
0.020895973 0.042635567 0.45600003 4278198787
0.022327987 0.042542066 0.45500001 4278198016
0.023753507 0.042448569 0.45400003 4278727957
0.025228102 0.042448569 0.45400003 4278728211
0.026643876 0.042355068 0.45300001 4278859797
0.028115222 0.042355068 0.45300001 4278991383
0.029521253 0.042261571 0.45200002 4279188762
0.030989353 0.042261571 0.45200002 4279254555
0.032457449 0.042261571 0.45200002 4279582750
0.033850487 0.04216807 0.45100003 4279845668
0.035315339 0.04216807 0.45100003 4279385117
0.036780186 0.04216807 0.45100003 4279581469
0.038160235 0.042074572 0.45000002 4278726160
0.039621834 0.042074572 0.45000002 4278197762
0.041083433 0.042074572 0.45000002 4278196992
0.042545035 0.042074572 0.45000002 4278196480
0.044006635 0.042074572 0.45000002 4278196736
0.0453672 0.041981071 0.44900003 4278199817
0.04682555 0.041981071 0.44900003 4279056154
0.048283901 0.041981071 0.44900003 4278796568
0.049742259 0.041981071 0.44900003 4278664982
0.051086575 0.041887574 0.44800001 4278862361
0.052541681 0.041887574 0.44800001 4278796568
0.053996786 0.041887574 0.44800001 4278665494
0.055575669 0.041981071 0.44900003 4278533908
0.057034019 0.041981071 0.44900003 4279126049
0.058622643 0.042074572 0.45000002 4278204179
-0.020056473 0.046342365 0.47900003 4280107045
-0.018462054 0.046245612 0.47800002 4279254814
-0.016874135 0.046148866 0.47700003 4278665498
-0.015324838 0.046148866 0.47700003 4278533912
-0.013746661 0.046052117 0.47600001 4278731291
-0.01214935 0.045858625 0.47400004 4278731291
-0.010542646 0.045568377 0.47100002 4278665498
-0.0089554312 0.045278132 0.46800002 4278665498
-0.0074035903 0.045084637 0.46600002 4278533912
-0.0058773826 0.044987891 0.46500003 4278533912
-0.0043576704 0.044891141 0.46400002 4278861080
-0.0028444538 0.044794392 0.46300003 4278197766
-0.001340629 0.044794392 0.46300003 4278725138
0.00016284335 0.044697642 0.46200001 4279385119
0.0016634201 0.044697642 0.46200001 4278853133
0.0031571484 0.044600897 0.46100003 4278786572
0.0046544774 0.044600897 0.46100003 4278654732
0.0061384616 0.044504147 0.46000001 4278458377
0.0076325419 0.044504147 0.46000001 4278524170
0.0091067832 0.044407401 0.45900002 4278523400
0.010597616 0.044407401 0.45900002 4278589963
0.012062112 0.044310652 0.45800003 4279774750
0.013549698 0.044310652 0.45800003 4279644959
0.015037282 0.044310652 0.45800003 4279117590
0.016488785 0.044213902 0.45700002 4279514654
0.017973121 0.044213902 0.45700002 4278925849
0.019457459 0.044213902 0.45700002 4278197508
0.020895973 0.044117156 0.45600003 4278589959
0.022377061 0.044117156 0.45600003 4278590474
0.023805827 0.044020407 0.45500001 4278658832
0.025228102 0.043923661 0.45400003 4279779363
0.026702695 0.043923661 0.45400003 4278792468
0.028115222 0.043826912 0.45300001 4278858261
0.029586565 0.043826912 0.45300001 4278726673
0.030989353 0.043730162 0.45200002 4278199815
0.032457449 0.043730162 0.45200002 4278925336
0.033925544 0.043730162 0.45200002 4278860056
0.035315339 0.043633416 0.45100003 4278992666
0.036780186 0.043633416 0.45100003 4278663701
0.038245037 0.043633416 0.45100003 4278926103
0.039709885 0.043633416 0.45100003 4278860310
0.041174732 0.043633416 0.45100003 4278926103
0.042639583 0.043633416 0.45100003 4278991896
0.044104431 0.043633416 0.45100003 4278926103
0.045569282 0.043633416 0.45100003 4279254814
0.04692984 0.043536667 0.45000002 4279056154
0.048391439 0.043536667 0.45000002 4278200842
0.049853042 0.043536667 0.45000002 4278993179
0.051314641 0.043536667 0.45000002 4278533396
0.052776244 0.043536667 0.45000002 4278796568
0.054237843 0.043536667 0.45000002 4278795796
0.055699442 0.043536667 0.45000002 4278599187
0.057161041 0.043536667 0.45000002 4278797082
0.05875292 0.043633416 0.45100003 4278993949
0.060217768 0.043633416 0.45100003 4283068763
-0.020056473 0.047898684 0.47900003 4280107813
-0.018462054 0.047798686 0.47800002 4279058459
-0.016874135 0.047698688 0.47700003 4278927386
-0.015324838 0.047698688 0.47700003 4278862363
-0.013746661 0.04759869 0.47600001 4278533912
-0.012174981 0.047498692 0.47500002 4278797084
-0.010520263 0.046998709 0.47000003 4278797084
-0.0089554312 0.046798714 0.46800002 4278665498
-0.0074035903 0.046598718 0.46600002 4278533912
-0.0058773826 0.046498723 0.46500003 4278468119
-0.0043576704 0.046398722 0.46400002 4278730007
-0.0028444538 0.046298727 0.46300003 4278595089
-0.0013377335 0.046198729 0.46200001 4279450398
0.00016284335 0.046198729 0.46200001 4279254303
0.0016598196 0.046098731 0.46100003 4278460685
0.0031571484 0.046098731 0.46100003 4278787855
0.0046544774 0.046098731 0.46100003 4278721549
0.0061384616 0.045998733 0.46000001 4278654732
0.0076325419 0.045998733 0.46000001 4278654732
0.0091067832 0.045898739 0.45900002 4278720525
0.010597616 0.045898739 0.45900002 4278851597
0.012088448 0.045898739 0.45900002 4278654732
0.013549698 0.045798741 0.45800003 4278523916
0.015037282 0.045798741 0.45800003 4278655502
0.016524866 0.045798741 0.45800003 4279448861
0.017973121 0.045698743 0.45700002 4279123228
0.019457459 0.045698743 0.45700002 4278328072
0.020895973 0.045598745 0.45600003 4278786572
0.022377061 0.045598745 0.45600003 4278327302
0.023805827 0.045498747 0.45500001 4278921236
0.025283668 0.045498747 0.45500001 4279121433
0.026702695 0.045398753 0.45400003 4278660882
0.028177287 0.045398753 0.45400003 4278726675
0.029586565 0.045298751 0.45300001 4279186711
0.031057913 0.045298751 0.45300001 4279385117
0.032529257 0.045298751 0.45300001 4279647777
0.033925544 0.045198757 0.45200002 4278726421
0.03539364 0.045198757 0.45200002 4278198792
0.036861736 0.045198757 0.45200002 4278200588
0.038329836 0.045198757 0.45200002 4278198532
0.039797932 0.045198757 0.45200002 4278197248
0.041266028 0.045198757 0.45200002 4278925336
0.042734127 0.045198757 0.45200002 4278859797
0.044202223 0.045198757 0.45200002 4278728724
0.045569282 0.045098759 0.45100003 4279189275
0.04703413 0.045098759 0.45100003 4279452447
0.048498977 0.045098759 0.45100003 4279055638
0.049963828 0.045098759 0.45100003 4278861080
0.051428676 0.045098759 0.45100003 4278795798
0.052893527 0.045098759 0.45100003 4278927384
0.054358374 0.045098759 0.45100003 4278730003
0.055823222 0.045098759 0.45100003 4278927382
0.057288069 0.045098759 0.45100003 4278533398
0.05875292 0.045098759 0.45100003 4278862363
0.06035129 0.045198757 0.45200002 4281424452
-0.020140216 0.049661495 0.48100004 4279710742
-0.018462054 0.049351756 0.47800002 4279122199
-0.01690951 0.049351756 0.47800002 4278795798
-0.015356964 0.049351756 0.47800002 4278927384
-0.013775541 0.049248509 0.47700003 4278664982
-0.012200613 0.049145263 0.47600001 4278664982
-0.010520263 0.048525784 0.47000003 4278731291
-0.0089362953 0.048216045 0.46700001 4278533912
-0.0074035903 0.048112798 0.46600002 4278533912
-0.0058773826 0.048009556 0.46500003 4278468119
-0.0043576704 0.047906306 0.46400002 4278729240
-0.0028444538 0.047803063 0.46300003 4278464785
-0.0013377335 0.047699813 0.46200001 4278859543
0.00016284335 0.047699813 0.46200001 4279189021
0.0016598196 0.047596566 0.46100003 4279123228
0.0031571484 0.047596566 0.46100003 4279123228
0.0046443804 0.04749332 0.46000001 4279779361
0.0061384616 0.04749332 0.46000001 4279713568
0.0076325419 0.04749332 0.46000001 4279251736
0.0091067832 0.047390074 0.45900002 4279514141
0.010597616 0.047390074 0.45900002 4279052308
0.012088448 0.047390074 0.45900002 4278657550
0.013549698 0.047286831 0.45800003 4278195718
0.015037282 0.047286831 0.45800003 4278260744
0.016524866 0.047286831 0.45800003 4279777826
0.017973121 0.047183581 0.45700002 4278858261
0.019457459 0.047183581 0.45700002 4279777567
0.020895973 0.047080338 0.45600003 4279381271
0.022377061 0.047080338 0.45600003 4279447580
0.023805827 0.046977088 0.45500001 4279383840
0.025283668 0.046977088 0.45500001 4279121179
0.026702695 0.046873845 0.45400003 4279450398
0.028177287 0.046873845 0.45400003 4279318810
0.029586565 0.046770595 0.45300001 4278198532
0.031057913 0.046770595 0.45300001 4278266124
0.032529257 0.046770595 0.45300001 4279253019
0.034000598 0.046770595 0.45300001 4278198793
0.03539364 0.046667352 0.45200002 4278660115
0.036861736 0.046667352 0.45200002 4278923287
0.038329836 0.046667352 0.45200002 4278660628
0.039797932 0.046667352 0.45200002 4279186974
0.041266028 0.046667352 0.45200002 4278791703
0.042734127 0.046667352 0.45200002 4279185689
0.044202223 0.046667352 0.45200002 4278660115
0.045670319 0.046667352 0.45200002 4279189023
0.047138415 0.046667352 0.45200002 4278925851
0.048606511 0.046667352 0.45200002 4278792466
0.050074611 0.046667352 0.45200002 4279123482
0.051542707 0.046667352 0.45200002 4278927384
0.053010803 0.046667352 0.45200002 4278927384
0.054478899 0.046667352 0.45200002 4278993177
0.055946995 0.046667352 0.45200002 4278795798
0.057415091 0.046667352 0.45200002 4278795798
0.05888319 0.046667352 0.45200002 4279189793
0.06035129 0.046667352 0.45200002 4280173356
-0.01850068 0.051011324 0.47900003 4279314447
-0.016944887 0.051011324 0.47900003 4279122199
-0.015389093 0.051011324 0.47900003 4278926103
-0.013804421 0.050904825 0.47800002 4279190045
-0.012251875 0.050904825 0.47800002 4278861080
-0.010497879 0.049946368 0.46900001 4279387683
-0.0089362953 0.049733374 0.46700001 4278927132
-0.0073877033 0.049520388 0.46500003 4278664730
-0.0058647431 0.04941389 0.46400002 4278533144
-0.004348279 0.049307395 0.46300003 4278992925
-0.0028444538 0.049307395 0.46300003 4279058205
-0.0013377335 0.0492009 0.46200001 4278860826
0.00016284335 0.0492009 0.46200001 4278860826
0.0016598196 0.049094405 0.46100003 4278861080
0.0031571484 0.049094405 0.46100003 4278203150
0.0046443804 0.048987906 0.46000001 4278861078
0.0061384616 0.048987906 0.46000001 4278795285
0.0076325419 0.048987906 0.46000001 4278992666
0.0091067832 0.048881412 0.45900002 4278795287
0.010597616 0.048881412 0.45900002 4278992412
0.012088448 0.048881412 0.45900002 4279123228
0.013549698 0.04877492 0.45800003 4279254814
0.015037282 0.04877492 0.45800003 4278925336
0.016524866 0.04877492 0.45800003 4279121947
0.017973121 0.048668422 0.45700002 4279450912
0.019457459 0.048668422 0.45700002 4279581984
0.020895973 0.048561927 0.45600003 4278594576
0.022377061 0.048561927 0.45600003 4278198277
0.023805827 0.048455428 0.45500001 4278196480
0.025283668 0.048455428 0.45500001 4278195712
0.026702695 0.048348937 0.45400003 4278195200
0.028177287 0.048348937 0.45400003 4278462220
0.029651878 0.048348937 0.45400003 4279186713
0.031057913 0.048242439 0.45300001 4279515678
0.032529257 0.048242439 0.45300001 4279516191
0.034000598 0.048242439 0.45300001 4279318812
0.035471946 0.048242439 0.45300001 4279319326
0.03694329 0.048242439 0.45300001 4279121945
0.038414635 0.048242439 0.45300001 4279319324
0.039885979 0.048242439 0.45300001 4278989847
0.041357324 0.048242439 0.45300001 4279581984
0.042828668 0.048242439 0.45300001 4278199049
0.044300012 0.048242439 0.45300001 4278198536
0.04577136 0.048242439 0.45300001 4279123228
0.047242705 0.048242439 0.45300001 4278201101
0.048714045 0.048242439 0.45300001 4279648291
0.050185394 0.048242439 0.45300001 4278992666
0.051656738 0.048242439 0.45300001 4278927384
0.053128082 0.048242439 0.45300001 4278795798
0.054478899 0.048135944 0.45200002 4278927384
0.055946995 0.048135944 0.45200002 4278795798
0.057542115 0.048242439 0.45300001 4278795800
0.05901346 0.048242439 0.45300001 4279190306
0.060484808 0.048242439 0.45300001 4279383070
-0.015389093 0.052567642 0.47900003 4284249440
-0.0138333 0.052567642 0.47900003 4283593309
-0.0089171594 0.05114096 0.46600002 4279252254
-0.0073877033 0.051031221 0.46500003 4279121693
-0.0058647431 0.050921474 0.46400002 4279582244
-0.004348279 0.05081173 0.46300003 4279648809
-0.0028444538 0.05081173 0.46300003 4279451943
-0.0013377335 0.050701983 0.46200001 4279583527
0.00016284335 0.050701983 0.46200001 4279254816
0.0016598196 0.05059224 0.46100003 4279255584
0.0031571484 0.05059224 0.46100003 4279189791
0.0046443804 0.050482493 0.46000001 4279189791
0.0061384616 0.050482493 0.46000001 4278992412
0.0076159495 0.05037275 0.45900002 4278992412
0.0091067832 0.05037275 0.45900002 4278992412
0.010597616 0.05037275 0.45900002 4278860826
0.012088448 0.05037275 0.45900002 4278795033
0.013549698 0.050263006 0.45800003 4278992412
0.015037282 0.050263006 0.45800003 4278992412
0.016488785 0.050153259 0.45700002 4278992412
0.017973121 0.050153259 0.45700002 4278860826
0.019457459 0.050153259 0.45700002 4279058205
0.020895973 0.050043516 0.45600003 4278795033
0.022377061 0.050043516 0.45600003 4278925849
0.023805827 0.049933773 0.45500001 4279056922
0.025283668 0.049933773 0.45500001 4278859543
0.026702695 0.049824029 0.45400003 4279121945
0.028177287 0.049824029 0.45400003 4279319324
0.029651878 0.049824029 0.45400003 4279516703
0.031057913 0.049714282 0.45300001 4279253017
0.032529257 0.049714282 0.45300001 4278726675
0.034000598 0.049714282 0.45300001 4278198023
0.035471946 0.049714282 0.45300001 4278195968
0.03694329 0.049714282 0.45300001 4278196224
0.038414635 0.049714282 0.45300001 4278197509
0.039885979 0.049714282 0.45300001 4278330634
0.041357324 0.049714282 0.45300001 4279185943
0.042828668 0.049714282 0.45300001 4279516191
0.044300012 0.049714282 0.45300001 4279450910
0.04577136 0.049714282 0.45300001 4279187992
0.047242705 0.049714282 0.45300001 4278660882
0.048714045 0.049714282 0.45300001 4279319324
0.05029618 0.049824029 0.45400003 4279058459
0.051656738 0.049714282 0.45300001 4278795800
0.053128082 0.049714282 0.45300001 4278927384
0.054599427 0.049714282 0.45300001 4278993177
0.056070771 0.049714282 0.45300001 4278993177
0.057542115 0.049714282 0.45300001 4278927386
0.05901346 0.049714282 0.45300001 4279058718
0.060484808 0.049714282 0.45300001 4281620034
-0.0073718154 0.052429054 0.46400002 4284578405
-0.0058647431 0.052429054 0.46400002 4285302128
-0.004348279 0.052316062 0.46300003 4284843378
-0.0028383103 0.052203067 0.46200001 4283593311
-0.0013377335 0.052203067 0.46200001 4281948486
0.00016249088 0.052090075 0.46100003 4280172073
0.0016598196 0.052090075 0.46100003 4279186459
0.0031571484 0.052090075 0.46100003 4279055386
0.0046443804 0.051977079 0.46000001 4279779625
0.0061384616 0.051977079 0.46000001 4279451430
0.0076159495 0.051864088 0.45900002 4279583529
0.0091067832 0.051864088 0.45900002 4279649320
0.010597616 0.051864088 0.45900002 4279518758
0.012088448 0.051864088 0.45900002 4279255586
0.013549698 0.051751096 0.45800003 4279585064
0.015037282 0.051751096 0.45800003 4278729755
0.016488785 0.0516381 0.45700002 4278466583
0.017973121 0.0516381 0.45700002 4279058718
0.019414883 0.051525109 0.45600003 4278795546
0.020895973 0.051525109 0.45600003 4278795546
0.022327987 0.051412113 0.45500001 4278598167
0.023805827 0.051412113 0.45500001 4278927132
0.025283668 0.051412113 0.45500001 4278729753
0.026702695 0.051299121 0.45400003 4278729753
0.028177287 0.051299121 0.45400003 4278664214
0.029651878 0.051299121 0.45400003 4278466835
0.031126473 0.051299121 0.45400003 4278861080
0.032529257 0.051186126 0.45300001 4278861080
0.034000598 0.051186126 0.45300001 4279123482
0.035471946 0.051186126 0.45300001 4278794263
0.03694329 0.051186126 0.45300001 4278991642
0.038414635 0.051186126 0.45300001 4279123228
0.039885979 0.051186126 0.45300001 4279648289
0.041448619 0.051299121 0.45400003 4279910947
0.042923216 0.051299121 0.45400003 4279055638
0.044397809 0.051299121 0.45400003 4278660882
0.045872401 0.051299121 0.45400003 4278198019
0.047346994 0.051299121 0.45400003 4278397197
0.048821583 0.051299121 0.45400003 4279123228
0.05029618 0.051299121 0.45400003 4278927386
0.051770773 0.051299121 0.45400003 4278862363
0.053245366 0.051299121 0.45400003 4278862361
0.054840483 0.051412113 0.45500001 4278862361
0.056194548 0.051299121 0.45400003 4278862361
0.05766914 0.051299121 0.45400003 4278993179
0.059143737 0.051299121 0.45400003 4278795033
0.06061833 0.051299121 0.45400003 4285632640
-0.0028383103 0.053704154 0.46200001 4284447334
-0.0013377335 0.053704154 0.46200001 4284315748
0.00016249088 0.05358791 0.46100003 4284381541
0.0016598196 0.05358791 0.46100003 4284381541
0.0031571484 0.05358791 0.46100003 4284710506
0.0046443804 0.053471666 0.46000001 4284776813
0.0061384616 0.053471666 0.46000001 4284711790
0.0076159495 0.053355426 0.45900002 4284513643
0.0091067832 0.053355426 0.45900002 4283001174
0.010597616 0.053355426 0.45900002 4280897081
0.012062112 0.053239185 0.45800003 4279515941
0.013549698 0.053239185 0.45800003 4278989857
0.015037282 0.053239185 0.45800003 4279319076
0.016488785 0.053122938 0.45700002 4279582246
0.017973121 0.053122938 0.45700002 4279648809
0.019414883 0.053006697 0.45600003 4279452711
0.020895973 0.053006697 0.45600003 4279452711
0.022327987 0.052890453 0.45500001 4279583779
0.023805827 0.052890453 0.45500001 4279386400
0.025283668 0.052890453 0.45500001 4279254814
0.026702695 0.052774213 0.45400003 4279254814
0.028177287 0.052774213 0.45400003 4279123998
0.029651878 0.052774213 0.45400003 4279189791
0.031126473 0.052774213 0.45400003 4278729753
0.032601066 0.052774213 0.45400003 4278729753
0.034000598 0.052657969 0.45300001 4278795033
0.035471946 0.052657969 0.45300001 4278861080
0.037024844 0.052774213 0.45400003 4278861080
0.038499437 0.052774213 0.45400003 4279058459
0.03997403 0.052774213 0.45400003 4278795287
0.041448619 0.052774213 0.45400003 4279058459
0.042923216 0.052774213 0.45400003 4279058459
0.044397809 0.052774213 0.45400003 4278861080
0.045872401 0.052774213 0.45400003 4279058459
0.04745128 0.052890453 0.45500001 4279189275
0.048929121 0.052890453 0.45500001 4278861080
0.050406963 0.052890453 0.45500001 4278993179
0.051884804 0.052890453 0.45500001 4278796570
0.053362645 0.052890453 0.45500001 4278928156
0.054840483 0.052890453 0.45500001 4278796570
0.056318324 0.052890453 0.45500001 4278928156
0.057796162 0.052890453 0.45500001 4278992412
0.059274007 0.052890453 0.45500001 4279976490
0.060751848 0.052890453 0.45500001 4285764228
-0.0013377335 0.055205237 0.46200001 4284381028
0.00016249088 0.055085748 0.46100003 4284446821
0.0016598196 0.055085748 0.46100003 4284512614
0.0031571484 0.055085748 0.46100003 4284381028
0.0046443804 0.054966252 0.46000001 4284447334
0.0061384616 0.054966252 0.46000001 4284447334
0.0076159495 0.054846764 0.45900002 4284775786
0.0091067832 0.054846764 0.45900002 4284973165
0.010597616 0.054846764 0.45900002 4285302130
0.012088448 0.054846764 0.45900002 4285499509
0.013549698 0.054727271 0.45800003 4285368438
0.015037282 0.054727271 0.45800003 4285762942
0.016488785 0.054607779 0.45700002 4285895812
0.017973121 0.054607779 0.45700002 4285566847
0.019414883 0.05448829 0.45600003 4284318065
0.020895973 0.05448829 0.45600003 4282081103
0.022327987 0.054368794 0.45500001 4280239151
0.023805827 0.054368794 0.45500001 4279383840
0.025283668 0.054368794 0.45500001 4278858009
0.026702695 0.054249305 0.45400003 4278989595
0.028177287 0.054249305 0.45400003 4279252765
0.029651878 0.054249305 0.45400003 4279384865
0.031126473 0.054249305 0.45400003 4279254049
0.032601066 0.054249305 0.45400003 4279254562
0.034075655 0.054249305 0.45400003 4279254562
0.035550252 0.054249305 0.45400003 4279320355
0.037024844 0.054249305 0.45400003 4279254816
0.038499437 0.054249305 0.45400003 4279451682
0.03997403 0.054249305 0.45400003 4279517475
0.041448619 0.054249305 0.45400003 4279649061
0.042923216 0.054249305 0.45400003 4279583781
0.044495597 0.054368794 0.45500001 4279321379
0.045973442 0.054368794 0.45500001 4279321379
0.04745128 0.054368794 0.45500001 4279255586
0.048929121 0.054368794 0.45500001 4279255586
0.050517749 0.05448829 0.45600003 4279124513
0.051998835 0.05448829 0.45600003 4279124513
0.053479929 0.05448829 0.45600003 4279190304
0.054961015 0.05448829 0.45600003 4279189791
0.056442104 0.05448829 0.45600003 4279386402
0.05792319 0.05448829 0.45600003 4279383588
0.059274007 0.054368794 0.45500001 4285698946
0.060751848 0.054368794 0.45500001 4285434491
0.0061384616 0.056460839 0.46000001 4284512616
0.0076159495 0.056338102 0.45900002 4284775788
0.0091067832 0.056338102 0.45900002 4284973167
0.010597616 0.056338102 0.45900002 4285367925
0.012088448 0.056338102 0.45900002 4285433718
0.016488785 0.05609262 0.45700002 4285434231
0.025283668 0.055847134 0.45500001 4283789666
0.026702695 0.055724397 0.45400003 4283855459
0.028177287 0.055724397 0.45400003 4284118633
0.029651878 0.055724397 0.45400003 4283922024
0.031126473 0.055724397 0.45400003 4283789920
0.032601066 0.055724397 0.45400003 4281684544
0.034075655 0.055724397 0.45400003 4282013509
0.035550252 0.055724397 0.45400003 4284053862
0.037024844 0.055724397 0.45400003 4283857766
0.038499437 0.055724397 0.45400003 4283265375
0.03997403 0.055724397 0.45400003 4282870617
0.041448619 0.055724397 0.45400003 4281950028
0.042923216 0.055724397 0.45400003 4281555270
0.044495597 0.055847134 0.45500001 4280699702
0.045973442 0.055847134 0.45500001 4280239151
0.04745128 0.055847134 0.45500001 4279712807
0.049036659 0.055969879 0.45600003 4279647527
0.050517749 0.055969879 0.45600003 4279515941
0.051998835 0.055969879 0.45600003 4279121181
0.053479929 0.055969879 0.45600003 4279055388
0.055081543 0.05609262 0.45700002 4279777830
0.056442104 0.055969879 0.45600003 4283066713
0.05792319 0.055969879 0.45600003 4285303677
0.055081543 0.057577461 0.45700002 4285369722
0.018907158 0.045671698 0.45899302 4294967295
0.018907158 0.045671698 0.45899302 4294901760
0.018943446 0.045173429 0.45897275 4294901760
0.018979736 0.04467516 0.45895249 4294901760
0.019016024 0.044176891 0.45893222 4294901760
0.019052312 0.043678619 0.45891193 4294901760
0.019088602 0.04318035 0.45889166 4294901760
0.01912489 0.042682081 0.45887139 4294901760
0.01916118 0.042183813 0.45885113 4294901760
0.019197468 0.041685544 0.45883086 4294901760
0.019233756 0.041187275 0.4588106 4294901760
0.019270046 0.040689006 0.45879033 4294901760
0.019306334 0.040190734 0.45877004 4294901760
0.019342622 0.039692465 0.45874977 4294901760
0.019378912 0.039194196 0.45872951 4294901760
0.0194152 0.038695928 0.45870924 4294901760
0.01945149 0.038197659 0.45868897 4294901760
0.019487778 0.03769939 0.45866871 4294901760
0.019524066 0.037201121 0.45864844 4294901760
0.019560356 0.036702849 0.45862815 4294901760
0.019596644 0.03620458 0.45860788 4294901760
0.019632932 0.035706311 0.45858762 4294901760
0.019669222 0.035208043 0.45856735 4294901760
0.01970551 0.034709774 0.45854709 4294901760
0.0197418 0.034211505 0.45852682 4294901760
0.019778088 0.033713236 0.45850655 4294901760
0.019814376 0.033214964 0.45848626 4294901760
0.019850666 0.032716699 0.45846599 4294901760
0.019886954 0.032218426 0.45844573 4294901760
0.019923242 0.031720158 0.45842546 4294901760
0.019959532 0.031221889 0.4584052 4294901760
0.01999582 0.03072362 0.45838493 4294901760
0.020032108 0.030225351 0.45836467 4294901760
0.020068398 0.029727081 0.4583444 4294901760
0.020104686 0.02922881 0.4583241 4294901760
0.020140976 0.028730541 0.45830384 4294901760
0.020177264 0.028232273 0.45828357 4294901760
0.020213552 0.027734004 0.45826331 4294901760
0.020249842 0.027235735 0.45824304 4294901760
0.02028613 0.026737465 0.45822278 4294901760
0.020322418 0.026239196 0.45820251 4294901760
0.020358708 0.025740927 0.45818222 4294901760
0.020394996 0.025242658 0.45816195 4294901760
0.020431284 0.02474439 0.45814168 4294901760
0.020467574 0.024246119 0.45812142 4294901760
0.020503862 0.02374785 0.45810115 4294901760
0.020540152 0.023249581 0.45808089 4294901760
0.02057644 0.022751311 0.45806062 4294901760
0.020612728 0.022253042 0.45804033 4294901760
0.020649018 0.021754773 0.45802006 4294901760
0.020685306 0.021256503 0.4579998 4294901760
0.020721596 0.020758234 0.45797953 4294901760
0.020757884 0.020259965 0.45795926 4294901760
0.020794172 0.019761696 0.457939 4294901760
0.020830462 0.019263428 0.45791873 4294901760
0.02086675 0.018765155 0.45789844 4294901760
0.020903038 0.018266886 0.45787817 4294901760
0.020939328 0.017768618 0.45785791 4294901760
0.020975616 0.017270349 0.45783764 4294901760
0.021011904 0.01677208 0.45781738 4294901760
0.021048194 0.016273811 0.45779711 4294901760
0.021084482 0.015775541 0.45777684 4294901760
0.021120772 0.015277272 0.45775655 4294901760
0.02115706 0.014779003 0.45773628 4294901760
0.021193348 0.014280733 0.45771602 4294901760
0.021229638 0.013782464 0.45769575 4294901760
0.021265926 0.013284195 0.45767549 4294901760
0.021302216 0.012785923 0.45765522 4294901760
0.021338504 0.012287654 0.45763496 4294901760
0.021374792 0.011789385 0.45761466 4294901760
0.02141108 0.011291116 0.45759439 4294901760
0.02144737 0.010792848 0.45757413 4294901760
0.021483658 0.010294579 0.45755386 4294901760
0.021519948 0.0097963102 0.4575336 4294901760
0.021556236 0.0092980415 0.45751333 4294901760
0.021592524 0.0087997727 0.45749307 4294901760
0.021628814 0.0083015002 0.4574728 4294901760
0.021665102 0.0078032315 0.45745251 4294901760
0.021701392 0.0073049627 0.45743224 4294901760
0.02173768 0.006806694 0.45741197 4294901760
0.021773968 0.0063084252 0.45739171 4294901760
0.021810258 0.0058101565 0.45737144 4294901760
0.021846546 0.0053118877 0.45735118 4294901760
0.021882834 0.004813619 0.45733091 4294901760
0.021919124 0.0043153502 0.45731062 4294901760
0.021955412 0.0038170815 0.45729035 4294901760
0.0219917 0.003318809 0.45727009 4294901760
0.02202799 0.0028205402 0.45724982 4294901760
0.022064278 0.0023222715 0.45722955 4294901760
0.022100568 0.0018240027 0.45720929 4294901760
0.022136856 0.001325734 0.45718902 4294901760
0.022173144 0.00082746521 0.45716873 4294901760
0.022209434 0.00032919273 0.45714846 4294901760
0.022245722 -0.00016907603 0.4571282 4294901760
0.02228201 -0.00066734478 0.45710793 4294901760
0.0223183 -0.0011656135 0.45708767 4294901760
0.022354588 -0.0016638823 0.4570674 4294901760
0.022390876 -0.002162151 0.45704713 4294901760
0.022427166 -0.0026604235 0.45702684 4294901760
0.022463454 -0.0031586923 0.45700657 4294901760
0.022499744 -0.003656961 0.45698631 4294901760
0.022536032 -0.0041552298 0.45696604 4294901760
0.018907158 0.045671698 0.45899302 4278255360
0.019379791 0.045712546 0.45883507 4278255360
0.019852426 0.045753393 0.45867711 4278255360
0.020325059 0.045794241 0.45851916 4278255360
0.020797692 0.045835085 0.45836121 4278255360
0.021270325 0.045875933 0.45820326 4278255360
0.02174296 0.045916781 0.4580453 4278255360
0.022215594 0.045957629 0.45788735 4278255360
0.022688227 0.045998476 0.4577294 4278255360
0.02316086 0.046039324 0.45757145 4278255360
0.023633495 0.046080168 0.45741349 4278255360
0.024106128 0.046121016 0.45725554 4278255360
0.024578761 0.046161864 0.45709759 4278255360
0.025051396 0.046202712 0.45693964 4278255360
0.02552403 0.04624356 0.45678169 4278255360
0.025996663 0.046284407 0.45662373 4278255360
0.026469298 0.046325251 0.45646578 4278255360
0.026941931 0.046366099 0.45630783 4278255360
0.027414564 0.046406947 0.45614988 4278255360
0.027887199 0.046447795 0.45599192 4278255360
0.02835983 0.046488643 0.45583397 4278255360
0.028832465 0.046529491 0.45567602 4278255360
0.029305099 0.046570335 0.45551807 4278255360
0.029777732 0.046611182 0.45536011 4278255360
0.030250367 0.04665203 0.45520216 4278255360
0.030723 0.046692878 0.45504421 4278255360
0.031195633 0.046733726 0.45488626 4278255360
0.031668268 0.046774574 0.45472831 4278255360
0.032140903 0.046815421 0.45457035 4278255360
0.032613534 0.046856266 0.4544124 4278255360
0.03308617 0.046897113 0.45425445 4278255360
0.033558801 0.046937961 0.4540965 4278255360
0.034031436 0.046978809 0.45393854 4278255360
0.034504071 0.047019657 0.45378059 4278255360
0.034976706 0.047060505 0.45362264 4278255360
0.035449337 0.047101349 0.45346469 4278255360
0.035921969 0.047142196 0.45330673 4278255360
0.036394604 0.047183044 0.45314878 4278255360
0.036867239 0.047223892 0.45299083 4278255360
0.037339874 0.04726474 0.45283288 4278255360
0.037812505 0.047305588 0.45267493 4278255360
0.038285136 0.047346432 0.45251697 4278255360
0.038757771 0.04738728 0.45235902 4278255360
0.039230406 0.047428127 0.45220107 4278255360
0.039703041 0.047468975 0.45204312 4278255360
0.040175673 0.047509823 0.45188516 4278255360
0.040648308 0.047550671 0.45172721 4278255360
0.041120939 0.047591515 0.45156926 4278255360
0.041593574 0.047632363 0.45141131 4278255360
0.042066209 0.047673211 0.45125335 4278255360
0.042538844 0.047714058 0.4510954 4278255360
0.043011475 0.047754906 0.45093745 4278255360
0.043484107 0.047795754 0.4507795 4278255360
0.043956742 0.047836602 0.45062155 4278255360
0.044429377 0.047877446 0.45046359 4278255360
0.044902012 0.047918294 0.45030564 4278255360
0.045374647 0.047959141 0.45014769 4278255360
0.045847278 0.047999989 0.44998974 4278255360
0.046319909 0.048040837 0.44983178 4278255360
0.046792544 0.048081681 0.44967383 4278255360
0.047265179 0.048122529 0.44951588 4278255360
0.047737814 0.048163377 0.44935793 4278255360
0.048210446 0.048204225 0.44919997 4278255360
0.048683081 0.048245072 0.44904202 4278255360
0.049155712 0.04828592 0.44888407 4278255360
0.049628347 0.048326768 0.44872612 4278255360
0.050100982 0.048367612 0.44856817 4278255360
0.050573617 0.04840846 0.44841021 4278255360
0.051046252 0.048449308 0.44825226 4278255360
0.05151888 0.048490155 0.44809431 4278255360
0.051991515 0.048531003 0.44793636 4278255360
0.05246415 0.048571851 0.4477784 4278255360
0.052936785 0.048612699 0.44762045 4278255360
0.05340942 0.048653543 0.4474625 4278255360
0.053882048 0.048694391 0.44730455 4278255360
0.054354683 0.048735239 0.44714659 4278255360
0.054827318 0.048776086 0.44698864 4278255360
0.055299953 0.048816934 0.44683069 4278255360
0.055772588 0.048857778 0.44667274 4278255360
0.056245223 0.048898626 0.44651479 4278255360
0.05671785 0.048939474 0.44635683 4278255360
0.057190485 0.048980322 0.44619888 4278255360
0.05766312 0.04902117 0.44604093 4278255360
0.058135755 0.049062017 0.44588298 4278255360
0.058608383 0.049102865 0.44572502 4278255360
0.059081025 0.049143709 0.44556707 4278255360
0.059553653 0.049184557 0.44540912 4278255360
0.060026288 0.049225405 0.44525117 4278255360
0.060498923 0.049266253 0.44509321 4278255360
0.060971558 0.0493071 0.44493526 4278255360
0.061444186 0.049347948 0.44477731 4278255360
0.061916828 0.049388796 0.44461936 4278255360
0.062389456 0.04942964 0.44446141 4278255360
0.062862091 0.049470488 0.44430345 4278255360
0.063334726 0.049511336 0.4441455 4278255360
0.063807361 0.049552184 0.44398755 4278255360
0.064279988 0.049593031 0.4438296 4278255360
0.064752623 0.049633875 0.44367164 4278255360
0.065225258 0.049674723 0.44351369 4278255360
0.065697894 0.049715571 0.44335574 4278255360
0.066170529 0.049756419 0.44319779 4278255360
0.018907158 0.045671698 0.45899302 4278190335
0.019052608 0.045662835 0.45947132 4278190335
0.019198056 0.045653969 0.45994961 4278190335
0.019343507 0.045645107 0.46042791 4278190335
0.019488957 0.04563624 0.46090621 4278190335
0.019634405 0.045627378 0.46138448 4278190335
0.019779855 0.045618512 0.46186277 4278190335
0.019925306 0.045609649 0.46234107 4278190335
0.020070754 0.045600787 0.46281937 4278190335
0.020216204 0.045591921 0.46329767 4278190335
0.020361654 0.045583058 0.46377596 4278190335
0.020507103 0.045574192 0.46425426 4278190335
0.020652553 0.045565329 0.46473256 4278190335
0.020798001 0.045556467 0.46521086 4278190335
0.020943452 0.045547601 0.46568915 4278190335
0.021088902 0.045538738 0.46616745 4278190335
0.02123435 0.045529872 0.46664572 4278190335
0.021379801 0.04552101 0.46712402 4278190335
0.021525251 0.045512144 0.46760231 4278190335
0.021670699 0.045503281 0.46808061 4278190335
0.021816149 0.045494419 0.46855891 4278190335
0.0219616 0.045485552 0.4690372 4278190335
0.022107048 0.04547669 0.4695155 4278190335
0.022252498 0.045467824 0.4699938 4278190335
0.022397947 0.045458961 0.4704721 4278190335
0.022543397 0.045450099 0.47095037 4278190335
0.022688847 0.045441233 0.47142866 4278190335
0.022834297 0.04543237 0.47190696 4278190335
0.022979746 0.045423504 0.47238526 4278190335
0.023125196 0.045414641 0.47286355 4278190335
0.023270644 0.045405775 0.47334185 4278190335
0.023416094 0.045396913 0.47382015 4278190335
0.023561545 0.04538805 0.47429845 4278190335
0.023706995 0.045379184 0.47477674 4278190335
0.023852443 0.045370322 0.47525504 4278190335
0.023997894 0.045361456 0.47573334 4278190335
0.024143342 0.045352593 0.47621161 4278190335
0.024288792 0.045343727 0.4766899 4278190335
0.024434242 0.045334864 0.4771682 4278190335
0.024579691 0.045326002 0.4776465 4278190335
0.024725141 0.045317136 0.4781248 4278190335
0.024870589 0.045308273 0.47860309 4278190335
0.02501604 0.045299407 0.47908139 4278190335
0.02516149 0.045290545 0.47955969 4278190335
0.02530694 0.045281682 0.48003799 4278190335
0.025452388 0.045272816 0.48051625 4278190335
0.025597839 0.045263954 0.48099455 4278190335
0.025743287 0.045255087 0.48147285 4278190335
0.025888737 0.045246225 0.48195115 4278190335
0.026034188 0.045237359 0.48242944 4278190335
0.026179638 0.045228496 0.48290774 4278190335
0.026325086 0.045219634 0.48338604 4278190335
0.026470536 0.045210768 0.48386434 4278190335
0.026615985 0.045201905 0.48434263 4278190335
0.026761435 0.045193039 0.48482093 4278190335
0.026906885 0.045184176 0.48529923 4278190335
0.027052335 0.04517531 0.4857775 4278190335
0.027197784 0.045166448 0.48625579 4278190335
0.027343232 0.045157585 0.48673409 4278190335
0.027488682 0.045148719 0.48721239 4278190335
0.027634133 0.045139857 0.48769069 4278190335
0.027779583 0.04513099 0.48816898 4278190335
0.027925033 0.045122128 0.48864728 4278190335
0.028070481 0.045113266 0.48912558 4278190335
0.02821593 0.045104399 0.48960388 4278190335
0.02836138 0.045095537 0.49008214 4278190335
0.02850683 0.045086671 0.49056047 4278190335
0.028652281 0.045077808 0.49103874 4278190335
0.028797731 0.045068942 0.49151704 4278190335
0.028943179 0.04506008 0.49199533 4278190335
0.029088628 0.045051217 0.49247363 4278190335
0.029234078 0.045042351 0.49295193 4278190335
0.029379528 0.045033488 0.49343023 4278190335
0.029524978 0.045024622 0.49390852 4278190335
0.029670427 0.04501576 0.49438682 4278190335
0.029815877 0.045006894 0.49486512 4278190335
0.029961325 0.044998031 0.49534339 4278190335
0.030106775 0.044989169 0.49582168 4278190335
0.030252226 0.044980302 0.49629998 4278190335
0.030397676 0.04497144 0.49677828 4278190335
0.030543124 0.044962574 0.49725658 4278190335
0.030688573 0.044953711 0.49773487 4278190335
0.030834023 0.044944849 0.49821317 4278190335
0.030979473 0.044935983 0.49869147 4278190335
0.031124923 0.04492712 0.49916977 4278190335
0.031270374 0.044918254 0.49964803 4278190335
0.03141582 0.044909392 0.50012636 4278190335
0.03156127 0.044900525 0.50060463 4278190335
0.031706721 0.044891663 0.50108296 4278190335
0.031852171 0.0448828 0.50156122 4278190335
0.031997621 0.044873934 0.50203955 4278190335
0.032143071 0.044865072 0.50251782 4278190335
0.032288522 0.044856206 0.50299609 4278190335
0.032433968 0.044847343 0.50347441 4278190335
0.032579418 0.044838481 0.50395268 4278190335
0.032724869 0.044829614 0.50443101 4278190335
0.032870315 0.044820752 0.50490928 4278190335
0.033015769 0.044811886 0.5053876 4278190335
0.033161215 0.044803023 0.50586587 4278190335
0.033306666 0.044794157 0.5063442 4278190335
0.033452116 0.044785295 0.50682247 4278190335
0.018907158 0.045671698 0.45899302 4294967295
0.01803446 0.045724884 0.45612326 4294967295
0.017161762 0.045778066 0.45325348 4294967295
0.016289065 0.045831252 0.45038372 4294967295
0.015416368 0.045884434 0.44751394 4294967295
0.014543669 0.04593762 0.44464418 4294967295
0.013670973 0.045990802 0.4417744 4294967295
0.012798275 0.046043988 0.43890464 4294967295
0.011925578 0.046097171 0.43603486 4294967295
0.01105288 0.046150357 0.4331651 4294967295
0.010180182 0.046203539 0.43029532 4294967295
0.0093074851 0.046256725 0.42742556 4294967295
0.0084347874 0.046309911 0.42455578 4294967295
0.0075620906 0.046363093 0.42168602 4294967295
0.006689392 0.046416279 0.41881627 4294967295
0.0058166943 0.046469461 0.41594648 4294967295
0.0049439976 0.046522647 0.41307673 4294967295
0.0040712999 0.046575829 0.41020694 4294967295
0.0031986013 0.046629015 0.40733719 4294967295
0.0023259055 0.046682198 0.4044674 4294967295
0.0014532059 0.046735384 0.40159765 4294967295
0.00058051012 0.04678857 0.39872786 4294967295
-0.00029218756 0.046841752 0.39585811 4294967295
-0.0011648852 0.046894938 0.39298832 4294967295
-0.0020375829 0.04694812 0.39011857 4294967295
-0.0029102806 0.047001306 0.38724881 4294967295
-0.0037829764 0.047054488 0.38437903 4294967295
-0.004655676 0.047107674 0.38150924 4294967295
-0.0055283736 0.047160856 0.37863949 4294967295
-0.0064010695 0.047214042 0.37576973 4294967295
-0.007273769 0.047267228 0.37289995 4294967295
-0.0081464667 0.047320411 0.37003019 4294967295
-0.0090191625 0.047373597 0.36716041 4294967295
-0.009891862 0.047426779 0.36429065 4294967295
-0.010764558 0.047479965 0.36142087 4294967295
-0.011637256 0.047533147 0.35855111 4294967295
-0.012509955 0.047586333 0.35568133 4294967295
-0.013382653 0.047639515 0.35281157 4294967295
-0.014255347 0.047692701 0.34994179 4294967295
-0.015128044 0.047745883 0.34707204 4294967295
-0.016000746 0.047799069 0.34420228 4294967295
-0.01687344 0.047852255 0.3413325 4294967295
-0.017746137 0.047905438 0.33846274 4294967295
-0.018618835 0.047958624 0.33559296 4294967295
-0.019491533 0.048011806 0.3327232 4294967295
-0.02036423 0.048064992 0.32985342 4294967295
-0.021236928 0.048118174 0.32698366 4294967295
-0.022109626 0.04817136 0.32411391 4294967295
-0.022982324 0.048224542 0.32124412 4294967295
-0.023855021 0.048277728 0.31837434 4294967295
-0.024727719 0.048330911 0.31550458 4294967295
-0.025600417 0.048384096 0.31263483 4294967295
-0.026473111 0.048437282 0.30976504 4294967295
-0.027345808 0.048490465 0.30689529 4294967295
-0.02821851 0.048543651 0.3040255 4294967295
-0.029091207 0.048596833 0.30115575 4294967295
-0.029963905 0.048650019 0.29828596 4294967295
-0.030836603 0.048703201 0.29541621 4294967295
-0.031709298 0.048756387 0.29254645 4294967295
-0.032581992 0.048809569 0.28967667 4294967295
-0.033454694 0.048862755 0.28680688 4294967295
-0.034327395 0.048915941 0.28393713 4294967295
-0.035200089 0.048969124 0.28106737 4294967295
-0.036072783 0.049022309 0.27819759 4294967295
-0.036945485 0.049075492 0.2753278 4294967295
-0.037818179 0.049128678 0.27245808 4294967295
-0.03869088 0.04918186 0.26958829 4294967295
-0.039563581 0.049235046 0.26671851 4294967295
-0.040436275 0.049288228 0.26384872 4294967295
-0.041308969 0.049341414 0.260979 4294967295
-0.042181671 0.0493946 0.25810921 4294967295
-0.043054365 0.049447782 0.25523943 4294967295
-0.043927066 0.049500968 0.25236964 4294967295
-0.04479976 0.049554151 0.24949989 4294967295
-0.045672461 0.049607337 0.24663013 4294967295
-0.046545155 0.049660519 0.24376036 4294967295
-0.047417849 0.049713705 0.24089059 4294967295
-0.048290551 0.049766887 0.23802084 4294967295
-0.049163245 0.049820073 0.23515107 4294967295
-0.050035946 0.049873255 0.23228128 4294967295
-0.050908647 0.049926441 0.22941151 4294967295
-0.051781341 0.049979627 0.22654174 4294967295
-0.052654035 0.050032809 0.22367199 4294967295
-0.053526737 0.050085995 0.22080222 4294967295
-0.054399431 0.050139178 0.21793245 4294967295
-0.055272132 0.050192364 0.21506266 4294967295
-0.056144826 0.050245546 0.21219291 4294967295
-0.057017528 0.050298732 0.20932314 4294967295
-0.057890221 0.050351914 0.20645338 4294967295
-0.058762923 0.0504051 0.2035836 4294967295
-0.059635617 0.050458282 0.20071384 4294967295
-0.060508318 0.050511468 0.19784406 4294967295
-0.061381012 0.050564654 0.1949743 4294967295
