# .PCD v0.7 - Point Cloud Data file format
VERSION 0.7
FIELDS x y z rgb
SIZE 4 4 4 4
TYPE F F F U
COUNT 1 1 1 1
WIDTH 758
HEIGHT 1
VIEWPOINT 0 0 0 1 0 0 0
POINTS 758
DATA ascii
-0.052329343 0.0048349667 0.39400002 4284841840
-0.051049635 0.0048349667 0.39400002 4288263590
-0.049769919 0.0048349667 0.39400002 4288198569
-0.048490208 0.0048349667 0.39400002 4288461739
-0.047210496 0.0048349667 0.39400002 4287936162
-0.052329343 0.0061151129 0.39400002 4283920740
-0.0511792 0.0061306334 0.39500001 4284973426
-0.049769919 0.0061151129 0.39400002 4284182116
-0.047210496 0.0061151129 0.39400002 4282536773
-0.045930784 0.0061151129 0.39400002 4284248672
-0.044651069 0.0061151129 0.39400002 4285961859
-0.043371357 0.0061151129 0.39400002 4283528547
-0.042091645 0.0061151129 0.39400002 4282938207
-0.04081193 0.0061151129 0.39400002 4284057455
-0.039632555 0.0061306334 0.39500001 4286424204
-0.038349591 0.0061306334 0.39500001 4288070315
-0.037066631 0.0061306334 0.39500001 4288266924
-0.035874266 0.0061461544 0.39600003 4287608480
-0.0511792 0.007414029 0.39500001 4284511846
-0.049769919 0.0073952596 0.39400002 4283984989
-0.048490208 0.0073952596 0.39400002 4282602566
-0.047210496 0.0073952596 0.39400002 4282405185
-0.045930784 0.0073952596 0.39400002 4282339392
-0.044651069 0.0073952596 0.39400002 4282405185
-0.043371357 0.0073952596 0.39400002 4282339392
-0.042091645 0.0073952596 0.39400002 4281816128
-0.040915512 0.007414029 0.39500001 4281356860
-0.039632555 0.007414029 0.39500001 4279648039
-0.038349591 0.007414029 0.39500001 4281296200
-0.037160471 0.0074327989 0.39600003 4280378428
-0.035874266 0.0074327989 0.39600003 4280969795
-0.034588054 0.0074327989 0.39600003 4282087513
-0.049896237 0.0086974241 0.39500001 4281287474
-0.048490208 0.0086754058 0.39400002 4281813820
-0.047210496 0.0086754058 0.39400002 4281748025
-0.045930784 0.0086754058 0.39400002 4281484853
-0.044651069 0.0086754058 0.39400002 4281945404
-0.043371357 0.0086754058 0.39400002 4281616437
-0.042091645 0.0086754058 0.39400002 4281748536
-0.040915512 0.0086974241 0.39500001 4281617720
-0.039632555 0.0086974241 0.39500001 4282013505
-0.03844668 0.0087194433 0.39600003 4280503086
-0.037160471 0.0087194433 0.39600003 4279589680
-0.035964854 0.0087414617 0.39700001 4279130923
-0.034675397 0.0087414617 0.39700001 4279460656
-0.053609058 0.0099555515 0.39400002 4283920729
-0.052727789 0.010031355 0.39700001 4281947198
-0.049896237 0.0099808192 0.39500001 4280827436
-0.048490208 0.0099555515 0.39400002 4281551161
-0.047210496 0.0099555515 0.39400002 4281682745
-0.045930784 0.0099555515 0.39400002 4281419573
-0.044651069 0.0099555515 0.39400002 4281287987
-0.043371357 0.0099555515 0.39400002 4282011708
-0.042198475 0.0099808192 0.39500001 4281155886
-0.040915512 0.0099808192 0.39500001 4281156140
-0.039732892 0.010006087 0.39600003 4280894764
-0.03844668 0.010006087 0.39600003 4280435497
-0.037254311 0.010031355 0.39700001 4279323941
-0.036055449 0.010056623 0.39800003 4279194406
-0.034762744 0.010056623 0.39800003 4278998822
-0.033638228 0.010107159 0.40000001 4279262761
-0.032419875 0.010132426 0.40100002 4278671394
-0.031195026 0.010157694 0.40200001 4280184381
-0.02988933 0.010157694 0.40200001 4282223460
-0.028654736 0.010182963 0.40300003 4280118852
-0.027345791 0.010182963 0.40300003 4280447815
-0.026036849 0.010182963 0.40300003 4280118850
-0.024727901 0.010182963 0.40300003 4280185410
-0.023477068 0.01020823 0.40400001 4280119104
-0.022110013 0.010182963 0.40300003 4279855416
-0.052993421 0.011378283 0.39900002 4285697390
-0.051697474 0.011378283 0.39900002 4281618233
-0.050906796 0.011492351 0.40300003 4281616952
-0.049720924 0.011520868 0.40400001 4280958511
-0.048408728 0.011520868 0.40400001 4280893229
-0.047096539 0.011520868 0.40400001 4281156401
-0.045784343 0.011520868 0.40400001 4281222194
-0.044472151 0.011520868 0.40400001 4282076218
-0.042305309 0.011292732 0.39600003 4282075958
-0.041019097 0.011292732 0.39600003 4281351720
-0.039732892 0.011292732 0.39600003 4281155368
-0.038543768 0.011321248 0.39700001 4280434211
-0.037348151 0.011349767 0.39800003 4279584803
-0.036055449 0.011349767 0.39800003 4279191840
-0.034850083 0.011378283 0.39900002 4279062820
-0.033638228 0.0114068 0.40000001 4279063845
-0.032419875 0.011435317 0.40100002 4279197738
-0.031195026 0.011463834 0.40200001 4279264045
-0.02988933 0.011463834 0.40200001 4279395890
-0.028654736 0.011492351 0.40300003 4279659064
-0.027345791 0.011492351 0.40300003 4280054592
-0.026101455 0.011520868 0.40400001 4279331382
-0.024789261 0.011520868 0.40400001 4279200818
-0.023477068 0.011520868 0.40400001 4279135023
-0.022110013 0.011492351 0.40300003 4279396912
-0.053126235 0.012706441 0.40000001 4282075945
-0.051956609 0.012738207 0.40100002 4281880115
-0.050906796 0.012801739 0.40300003 4281156401
-0.049720924 0.012833506 0.40400001 4281155118
-0.048408728 0.012833506 0.40400001 4280562981
-0.047096539 0.012833506 0.40400001 4281023534
-0.045784343 0.012833506 0.40400001 4281155118
-0.044472151 0.012833506 0.40400001 4282141751
-0.042305309 0.012579377 0.39600003 4282272306
-0.041019097 0.012579377 0.39600003 4280891423
-0.039833225 0.012611143 0.39700001 4281155368
-0.038640857 0.01264291 0.39800003 4280499491
-0.037348151 0.01264291 0.39800003 4279782182
-0.036146037 0.012674675 0.39900002 4279454500
-0.034937426 0.012706441 0.40000001 4279258916
-0.033722326 0.012738207 0.40100002 4279193634
-0.032419875 0.012738207 0.40100002 4279129892
-0.031195026 0.012769973 0.40200001 4279460140
-0.029963681 0.012801739 0.40300003 4279198252
-0.028654736 0.012801739 0.40300003 4279265328
-0.027413648 0.012833506 0.40400001 4279331121
-0.026101455 0.012833506 0.40400001 4279067949
-0.024850622 0.012865272 0.40500003 4278936363
-0.023535181 0.012865272 0.40500003 4279462707
-0.022439193 0.012992335 0.40900001 4279331121
-0.053391866 0.014076112 0.40200001 4282533925
-0.052086174 0.014076112 0.40200001 4282272041
-0.050906796 0.014111128 0.40300003 4280563751
-0.049720924 0.014146143 0.40400001 4280366374
-0.048408728 0.014146143 0.40400001 4280562983
-0.047096539 0.014146143 0.40400001 4280891948
-0.045671016 0.014111128 0.40300003 4280694569
-0.044362072 0.014111128 0.40300003 4281812019
-0.042412139 0.013901036 0.39700001 4282009904
-0.041122679 0.013901036 0.39700001 4281220134
-0.039833225 0.013901036 0.39700001 4281023784
-0.038640857 0.013936052 0.39800003 4280302112
-0.037441991 0.013971067 0.39900002 4279781412
-0.036146037 0.013971067 0.39900002 4279849256
-0.034937426 0.014006081 0.40000001 4279389732
-0.033722326 0.014041097 0.40100002 4279325220
-0.032419875 0.014041097 0.40100002 4279458857
-0.031195026 0.014076112 0.40200001 4279196201
-0.029963681 0.014111128 0.40300003 4279001132
-0.028654736 0.014111128 0.40300003 4278936363
-0.027413648 0.014146143 0.40400001 4279396914
-0.026166065 0.014181159 0.40500003 4278343456
-0.024911981 0.014216173 0.40600002 4279132972
-0.023651402 0.014251187 0.40700001 4279264558
-0.022439193 0.014321218 0.40900001 4278934566
-0.053391866 0.015382251 0.40200001 4282731302
-0.052215744 0.015420516 0.40300003 4282337318
-0.050906796 0.015420516 0.40300003 4281155370
-0.049720924 0.015458779 0.40400001 4280827175
-0.048408728 0.015458779 0.40400001 4280761128
-0.046979964 0.015420516 0.40300003 4280958507
-0.045557689 0.015382251 0.40200001 4280694569
-0.044141915 0.015343987 0.40100002 4281615153
-0.042412139 0.015190929 0.39700001 4281418026
-0.041122679 0.015190929 0.39700001 4281418026
-0.039933562 0.015229194 0.39800003 4280892968
-0.038640857 0.015229194 0.39800003 4280500004
-0.037441991 0.015267458 0.39900002 4280110375
-0.036146037 0.015267458 0.39900002 4279585314
-0.034937426 0.015305722 0.40000001 4279652389
-0.033722326 0.015343987 0.40100002 4279456547
-0.032419875 0.015343987 0.40100002 4279327271
-0.031195026 0.015382251 0.40200001 4279131175
-0.029963681 0.015420516 0.40300003 4279593523
-0.028654736 0.015420516 0.40300003 4279331121
-0.027413648 0.015458779 0.40400001 4278870316
-0.026166065 0.015497045 0.40500003 4279132718
-0.024911981 0.015535308 0.40600002 4279001132
-0.023709515 0.015611837 0.40800002 4278211100
-0.022494059 0.015688365 0.41000003 4278204939
-0.021368841 0.015841423 0.41400003 4279326504
-0.0201209 0.015917951 0.41600001 4279130921
-0.018905092 0.016032744 0.41900003 4279262761
-0.017627923 0.016109273 0.42100003 4279263531
-0.01633776 0.016185801 0.42300001 4279131945
-0.014999231 0.016224066 0.42400002 4278802980
-0.012418202 0.016453652 0.43000001 4278869287
-0.011021561 0.016453652 0.43000001 4278737701
-0.052196525 0.016314769 0.39300001 4282928681
-0.052215744 0.016729904 0.40300003 4282732846
-0.050906796 0.016729904 0.40300003 4281286702
-0.049597852 0.016729904 0.40300003 4281155886
-0.048288908 0.016729904 0.40300003 4281155116
-0.046979964 0.016729904 0.40300003 4281023530
-0.045444362 0.016646877 0.40100002 4281615667
-0.044031832 0.016605362 0.40000001 4281813046
-0.042518973 0.016522337 0.39800003 4281681200
-0.041226264 0.016522337 0.39800003 4281286442
-0.039933562 0.016522337 0.39800003 4280302112
-0.038640857 0.016522337 0.39800003 4280172836
-0.037441991 0.01656385 0.39900002 4279519521
-0.036146037 0.01656385 0.39900002 4279520289
-0.034937426 0.016605362 0.40000001 4279851818
-0.033722326 0.016646877 0.40100002 4279129379
-0.032419875 0.016646877 0.40100002 4279196455
-0.031195026 0.01668839 0.40200001 4279394347
-0.02988933 0.01668839 0.40200001 4279461424
-0.028654736 0.016729904 0.40300003 4279658803
-0.027413648 0.016771417 0.40400001 4279000873
-0.026166065 0.01681293 0.40500003 4279132459
-0.024973338 0.016895955 0.40700001 4279000873
-0.023767626 0.016978983 0.40900001 4279066666
-0.022548921 0.01706201 0.41100001 4278931748
-0.021368841 0.017186552 0.41400003 4280115508
-0.020169269 0.017311091 0.41700003 4278200324
-0.018905092 0.017394118 0.41900003 4278200333
-0.017627923 0.017477145 0.42100003 4278201101
-0.01633776 0.017560171 0.42300001 4278199559
-0.015034606 0.017643198 0.42500001 4278199297
-0.013750589 0.017767739 0.42800003 4278401812
-0.012418202 0.017850764 0.43000001 4278202120
-0.011021561 0.017850764 0.43000001 4278203406
-0.052215744 0.018039292 0.40300003 4284115791
-0.050654158 0.017949766 0.40100002 4281747253
-0.04947478 0.017994529 0.40200001 4281155888
-0.04816908 0.017994529 0.40200001 4282142781
-0.046863385 0.017994529 0.40200001 4282142781
-0.045444362 0.017949766 0.40100002 4282076218
-0.044031832 0.017905002 0.40000001 4281483567
-0.042518973 0.01781548 0.39800003 4281351722
-0.041226264 0.01781548 0.39800003 4281418028
-0.039933562 0.01781548 0.39800003 4280104733
-0.038737942 0.017860241 0.39900002 4280173606
-0.037441991 0.017860241 0.39900002 4279454500
-0.036236629 0.017905002 0.40000001 4279258146
-0.034937426 0.017905002 0.40000001 4279128095
-0.033722326 0.017949766 0.40100002 4279326244
-0.032419875 0.017949766 0.40100002 4279261476
-0.031195026 0.017994529 0.40200001 4279460138
-0.02988933 0.017994529 0.40200001 4279198250
-0.028654736 0.018039292 0.40300003 4279658803
-0.027413648 0.018084053 0.40400001 4279395115
-0.026166065 0.018128816 0.40500003 4278868771
-0.024973338 0.01821834 0.40700001 4279329322
-0.023767626 0.018307867 0.40900001 4279658287
-0.022603786 0.018442154 0.41200003 4278200832
-0.021368841 0.01853168 0.41400003 4279718697
-0.020169269 0.018665968 0.41700003 4278922006
-0.018905092 0.018755492 0.41900003 4278986004
-0.017669793 0.018889779 0.42200002 4279379738
-0.016376384 0.018979304 0.42400002 4279379992
-0.015069982 0.01906883 0.42600003 4278198022
-0.013750589 0.019158354 0.42800003 4280440625
-0.012418202 0.019247878 0.43000001 4279982639
-0.011047194 0.019292641 0.43100002 4279983152
-0.0096920719 0.019382168 0.43300003 4279983154
-0.0082856873 0.019382168 0.43300003 4280377912
-0.052063711 0.018820552 0.39200002 4281617202
-0.0511792 0.018964587 0.39500001 4282209341
-0.050401516 0.019156635 0.39900002 4281682743
-0.049351711 0.019252658 0.40100002 4282405953
-0.04804926 0.019252658 0.40100002 4282406205
-0.046746813 0.019252658 0.40100002 4282406205
-0.045444362 0.019252658 0.40100002 4282471230
-0.044031832 0.019204644 0.40000001 4281483567
-0.042625804 0.019156635 0.39900002 4280167707
-0.04132985 0.019156635 0.39900002 4281417774
-0.040033896 0.019156635 0.39900002 4280368934
-0.038737942 0.019156635 0.39900002 4279977254
-0.037535828 0.019204644 0.40000001 4279454500
-0.036236629 0.019204644 0.40000001 4279191842
-0.035024773 0.019252658 0.40100002 4279391267
-0.033722326 0.019252658 0.40100002 4279392035
-0.032419875 0.019252658 0.40100002 4279261476
-0.031195026 0.019300669 0.40200001 4279262759
-0.02988933 0.019300669 0.40200001 4279198250
-0.028654736 0.019348681 0.40300003 4279461422
-0.027413648 0.019396693 0.40400001 4279001384
-0.026166065 0.019444704 0.40500003 4278672419
-0.024973338 0.019540727 0.40700001 4279593010
-0.023767626 0.01963675 0.40900001 4279658287
-0.022603786 0.019780785 0.41200003 4278732572
-0.021420455 0.019924819 0.41500002 4278731804
-0.020169269 0.020020844 0.41700003 4278594324
-0.018950211 0.020164877 0.42000002 4280764210
-0.017669793 0.020260902 0.42200002 4281554239
-0.016376384 0.020356925 0.42400002 4281158966
-0.015069982 0.020452948 0.42600003 4278727189
-0.013750589 0.020548971 0.42800003 4280770872
-0.012418202 0.020644994 0.43000001 4278203402
-0.011072825 0.020741018 0.43200001 4278206228
-0.0096920719 0.020789029 0.43300003 4278272536
-0.0083048223 0.020837041 0.43400002 4280247094
-0.055844311 0.019632854 0.38300002 4282536771
-0.054885443 0.019735375 0.38500002 4281747253
-0.05391359 0.019837897 0.38700002 4282473281
-0.052928742 0.019940419 0.38900003 4282144831
-0.052063711 0.020094201 0.39200002 4282275650
-0.0511792 0.020247983 0.39500001 4281814329
-0.050275199 0.020401767 0.39800003 4281682745
-0.049228635 0.020504287 0.40000001 4282142781
-0.047929432 0.020504287 0.40000001 4282208058
-0.046746813 0.020555547 0.40100002 4282471230
-0.045331031 0.020504287 0.40000001 4282076472
-0.044031832 0.020504287 0.40000001 4281286702
-0.042732634 0.020504287 0.40000001 4281155116
-0.041433431 0.020504287 0.40000001 4281222192
-0.040134232 0.020504287 0.40000001 4279646492
-0.03883503 0.020504287 0.40000001 4279781412
-0.037535828 0.020504287 0.40000001 4279257633
-0.036327224 0.020555547 0.40100002 4279521316
-0.035024773 0.020555547 0.40100002 4279390754
-0.033722326 0.020555547 0.40100002 4279523621
-0.032500722 0.020606807 0.40200001 4279327269
-0.031195026 0.020606807 0.40200001 4279394345
-0.02988933 0.020606807 0.40200001 4279329838
-0.028654736 0.020658068 0.40300003 4279329838
-0.027413648 0.020709328 0.40400001 4279132459
-0.026230671 0.02081185 0.40600002 4278606115
-0.024973338 0.02086311 0.40700001 4279132459
-0.023825739 0.021016894 0.41000003 4279525679
-0.022603786 0.021119416 0.41200003 4280048434
-0.021420455 0.021273198 0.41500002 4278201354
-0.020169269 0.021375719 0.41700003 4280898108
-0.018950211 0.021529501 0.42000002 4278990109
-0.017669793 0.021632021 0.42200002 4278529042
-0.016376384 0.021734543 0.42400002 4279976488
-0.015105357 0.021888325 0.42700002 4279781930
-0.013782715 0.021990847 0.42900002 4278200327
-0.012447082 0.022093369 0.43100002 4278201098
-0.011072825 0.022144629 0.43200001 4280178998
-0.0097144553 0.022247151 0.43400002 4279127078
-0.0083239581 0.022298412 0.43500003 4278732320
-0.0069428519 0.022400932 0.43700001 4278864419
-0.056135926 0.020986279 0.38500002 4282143296
-0.055028003 0.02104079 0.38600001 4282275652
-0.054052901 0.021149809 0.38800001 4281551929
-0.053064801 0.021258829 0.39000002 4282078788
-0.052196525 0.021422358 0.39300001 4283065168
-0.0511792 0.021531377 0.39500001 4281946687
-0.050148878 0.021640398 0.39700001 4282010427
-0.049105566 0.021749416 0.39900002 4282010425
-0.047929432 0.021803927 0.40000001 4282471230
-0.046630234 0.021803927 0.40000001 4282537023
-0.045331031 0.021803927 0.40000001 4281944634
-0.044141915 0.021858437 0.40100002 4281484081
-0.042839468 0.021858437 0.40100002 4281419058
-0.041537017 0.021858437 0.40100002 4280893227
-0.040234569 0.021858437 0.40100002 4280042533
-0.038932119 0.021858437 0.40100002 4279584803
-0.037629671 0.021858437 0.40100002 4279323426
-0.036327224 0.021858437 0.40100002 4279323426
-0.035112113 0.021912945 0.40200001 4279392037
-0.033806417 0.021912945 0.40200001 4279260965
-0.032500722 0.021912945 0.40200001 4279196455
-0.031195026 0.021912945 0.40200001 4279328554
-0.029963681 0.021967458 0.40300003 4279264045
-0.028654736 0.021967458 0.40300003 4279329838
-0.027413648 0.022021966 0.40400001 4278671654
-0.026230671 0.022130987 0.40600002 4279000873
-0.0250347 0.022240005 0.40800002 4279461422
-0.023825739 0.022349026 0.41000003 4279130921
-0.022603786 0.022458045 0.41200003 4280836667
-0.021420455 0.022621574 0.41500002 4278200840
-0.020169269 0.022730595 0.41700003 4278725910
-0.018950211 0.022894124 0.42000002 4278461966
-0.017669793 0.023003142 0.42200002 4279119383
-0.016376384 0.023112163 0.42400002 4281028663
-0.015105357 0.023275692 0.42700002 4281097790
-0.013782715 0.023384711 0.42900002 4278399253
-0.012447082 0.023493731 0.43100002 4280439606
-0.011072825 0.02354824 0.43200001 4278599712
-0.0097144553 0.02365726 0.43400002 4278798115
-0.0083430931 0.023766281 0.43600002 4278535195
-0.0069428519 0.02382079 0.43700001 4278270999
-0.0055487547 0.02392981 0.43900001 4278271769
-0.054331526 0.022525977 0.39000002 4282407240
-0.053200867 0.022583738 0.39100003 4283130193
-0.052196525 0.022699254 0.39300001 4281814333
-0.0511792 0.022814773 0.39500001 4281945404
-0.050148878 0.022930291 0.39700001 4282010427
-0.048982497 0.022988051 0.39800003 4283588945
-0.047809612 0.023045808 0.39900002 4282931267
-0.046630234 0.023103567 0.40000001 4282141751
-0.045331031 0.023103567 0.40000001 4281746741
-0.044141915 0.023161327 0.40100002 4281615669
-0.042839468 0.023161327 0.40100002 4281419573
-0.041640598 0.023219084 0.40200001 4280697133
-0.040334903 0.023219084 0.40200001 4280307504
-0.039029203 0.023219084 0.40200001 4279717418
-0.037723508 0.023219084 0.40200001 4279389732
-0.036417812 0.023219084 0.40200001 4279456295
-0.035112113 0.023219084 0.40200001 4279391013
-0.033806417 0.023219084 0.40200001 4279260711
-0.032500722 0.023219084 0.40200001 4279131945
-0.031195026 0.023219084 0.40200001 4279198252
-0.029963681 0.023276845 0.40300003 4279527217
-0.028725838 0.023334604 0.40400001 4279000873
-0.027481504 0.023392363 0.40500003 4279000619
-0.026230671 0.023450121 0.40600002 4279197998
-0.0250347 0.023565639 0.40800002 4278803494
-0.023825739 0.023681156 0.41000003 4278203398
-0.022603786 0.023796676 0.41200003 4281296452
-0.021420455 0.023969952 0.41500002 4278726935
-0.020169269 0.02408547 0.41700003 4279314969
-0.018950211 0.024258746 0.42000002 4279117590
-0.017669793 0.024374263 0.42200002 4279248406
-0.016376384 0.024489783 0.42400002 4278854418
-0.015069982 0.0246053 0.42600003 4280900409
-0.013750589 0.024720818 0.42800003 4278466583
-0.012418202 0.024836333 0.43000001 4280573241
-0.011072825 0.024951853 0.43200001 4280048432
-0.0097368397 0.025125131 0.43500003 4280377910
-0.0083430931 0.025182888 0.43600002 4279917359
-0.0069587394 0.025298407 0.43800002 4279654957
-0.0055487547 0.025356164 0.43900001 4279852336
-0.052329343 0.02403716 0.39400002 4283129680
-0.0511792 0.024098167 0.39500001 4283260496
-0.048982497 0.024281193 0.39800003 4283524436
-0.047809612 0.0243422 0.39900002 4283655250
-0.046630234 0.024403207 0.40000001 4283325771
-0.045331031 0.024403207 0.40000001 4282602048
-0.044141915 0.024464216 0.40100002 4282010425
-0.042946298 0.024525223 0.40200001 4281287987
-0.041640598 0.024525223 0.40200001 4280697133
-0.04043524 0.024586232 0.40300003 4279716650
-0.039126292 0.024586232 0.40300003 4279454760
-0.037817348 0.024586232 0.40300003 4279389734
-0.036508407 0.024586232 0.40300003 4279456295
-0.035112113 0.024525223 0.40200001 4279391783
-0.033806417 0.024525223 0.40200001 4279523883
-0.032500722 0.024525223 0.40200001 4279197484
-0.031272627 0.024586232 0.40300003 4278869033
-0.029963681 0.024586232 0.40300003 4279988797
-0.028725838 0.02464724 0.40400001 4278936109
-0.027481504 0.024708249 0.40500003 4278672167
-0.026230671 0.024769256 0.40600002 4278935339
-0.0250347 0.024891272 0.40800002 4279000619
-0.023825739 0.025013288 0.41000003 4279129640
-0.022658648 0.025196312 0.41300002 4279917107
-0.021420455 0.025318328 0.41500002 4279058718
-0.020169269 0.025440345 0.41700003 4279121693
-0.018905092 0.025562361 0.41900003 4278858007
-0.017627923 0.025684377 0.42100003 4279252254
-0.01633776 0.025806392 0.42300001 4278660628
-0.015034606 0.025928408 0.42500001 4278201099
-0.013718461 0.026050424 0.42700002 4278201098
-0.012418202 0.026233448 0.43000001 4278201355
-0.011047194 0.026294457 0.43100002 4278202894
-0.0097368397 0.026538489 0.43500003 4278201606
-0.0083430931 0.026599497 0.43600002 4278201606
-0.0069587394 0.026721513 0.43800002 4278203405
-0.0055487547 0.02678252 0.43900001 4278201606
-0.047689788 0.025574338 0.39800003 4282998605
-0.046513662 0.025638593 0.39900002 4283392850
-0.045331031 0.025702849 0.40000001 4283129680
-0.044141915 0.025767108 0.40100002 4283524436
-0.042946298 0.025831364 0.40200001 4281356347
-0.041744184 0.025895622 0.40300003 4280963383
-0.04043524 0.025895622 0.40300003 4279586346
-0.039126292 0.025895622 0.40300003 4279586346
-0.037817348 0.025895622 0.40300003 4279587113
-0.036508407 0.025895622 0.40300003 4279851053
-0.03519946 0.025895622 0.40300003 4279260713
-0.033890516 0.025895622 0.40300003 4279458605
-0.032581568 0.025895622 0.40300003 4279132207
-0.031272627 0.025895622 0.40300003 4279264306
-0.029963681 0.025895622 0.40300003 4279265074
-0.028725838 0.025959879 0.40400001 4278804523
-0.027481504 0.026024137 0.40500003 4279001902
-0.026230671 0.026088392 0.40600002 4278803753
-0.0250347 0.026216907 0.40800002 4278867236
-0.023825739 0.026345422 0.41000003 4278669089
-0.022658648 0.026538193 0.41300002 4279787059
-0.021420455 0.026666706 0.41500002 4279589680
-0.020169269 0.026795221 0.41700003 4279063849
-0.018905092 0.026923737 0.41900003 4279196205
-0.017627923 0.027052252 0.42100003 4279196205
-0.01633776 0.027180763 0.42300001 4279524400
-0.014999231 0.027245022 0.42400002 4279523885
-0.013686333 0.027373536 0.42600003 4279589678
-0.012360444 0.027502051 0.42800003 4279392299
-0.011021561 0.027630564 0.43000001 4279458605
-0.0097144553 0.027887592 0.43400002 4279129640
-0.0083430931 0.028016107 0.43600002 4279458603
-0.0069587394 0.02814462 0.43800002 4279327017
-0.0055487547 0.028208878 0.43900001 4279524398
-0.047689788 0.026867479 0.39800003 4288528817
-0.046513662 0.026934985 0.39900002 4286356878
-0.045331031 0.027002489 0.40000001 4281816130
-0.044141915 0.027069997 0.40100002 4281750337
-0.042946298 0.027137503 0.40200001 4280698932
-0.041744184 0.027205011 0.40300003 4280634420
-0.04043524 0.027205011 0.40300003 4279913775
-0.039126292 0.027205011 0.40300003 4279585834
-0.037817348 0.027205011 0.40300003 4279652141
-0.036508407 0.027205011 0.40300003 4279717932
-0.03519946 0.027205011 0.40300003 4279982641
-0.033890516 0.027205011 0.40300003 4279523371
-0.032581568 0.027205011 0.40300003 4279459888
-0.031272627 0.027205011 0.40300003 4279329072
-0.029963681 0.027205011 0.40300003 4279527476
-0.028725838 0.027272515 0.40400001 4278803753
-0.027481504 0.027340023 0.40500003 4279066925
-0.026295278 0.027475033 0.40700001 4278869033
-0.0250347 0.027542541 0.40800002 4279592242
-0.023825739 0.027677553 0.41000003 4279131693
-0.022658648 0.027880071 0.41300002 4279328302
-0.021420455 0.028015085 0.41500002 4279262509
-0.0201209 0.028082591 0.41600001 4279328302
-0.018859971 0.028217603 0.41800001 4278934314
-0.017586051 0.028352614 0.42000002 4279131693
-0.016299138 0.028487628 0.42200002 4279130923
-0.014963855 0.028555132 0.42300001 4279130921
-0.013654205 0.028690146 0.42500001 4278999335
-0.012331564 0.028825158 0.42700002 4279328300
-0.010970299 0.028892666 0.42800003 4278934312
-0.0097144553 0.029297702 0.43400002 4279000107
-0.0083430931 0.029432716 0.43600002 4279000107
-0.0069587394 0.029567728 0.43800002 4279525429
-0.0055487547 0.029635234 0.43900001 4279524916
-0.041744184 0.028514398 0.40300003 4284384369
-0.04043524 0.028514398 0.40300003 4281358143
-0.039126292 0.028514398 0.40300003 4280240948
-0.037817348 0.028514398 0.40300003 4279846703
-0.036508407 0.028514398 0.40300003 4280505914
-0.03519946 0.028514398 0.40300003 4280375612
-0.033890516 0.028514398 0.40300003 4280376893
-0.032581568 0.028514398 0.40300003 4280378682
-0.031272627 0.028514398 0.40300003 4279787059
-0.029963681 0.028514398 0.40300003 4279919928
-0.028725838 0.028585153 0.40400001 4279723060
-0.027481504 0.028655909 0.40500003 4279525679
-0.026295278 0.028797418 0.40700001 4279854644
-0.0250347 0.028868174 0.40800002 4279591474
-0.023825739 0.029009685 0.41000003 4279459888
-0.022603786 0.029151196 0.41200003 4279328304
-0.021368841 0.029292706 0.41400003 4279262511
-0.0201209 0.029434215 0.41600001 4279525683
-0.018859971 0.029575726 0.41800001 4278999339
-0.01754418 0.029646484 0.41900003 4279590963
-0.016260514 0.029787995 0.42100003 4279196205
-0.01492848 0.029858749 0.42200002 4279525170
-0.013622078 0.03000026 0.42400002 4279524916
-0.012302685 0.030141771 0.42600003 4279590709
-0.010944667 0.030212525 0.42700002 4279130158
-0.03519946 0.029823786 0.40300003 4284648309
-0.033890516 0.029823786 0.40300003 4282740310
-0.032581568 0.029823786 0.40300003 4281558087
-0.031272627 0.029823786 0.40300003 4280834618
-0.029963681 0.029823786 0.40300003 4280704315
-0.028725838 0.029897789 0.40400001 4279717680
-0.027481504 0.029971795 0.40500003 4279586094
-0.026295278 0.030119803 0.40700001 4279389228
-0.0250347 0.030193808 0.40800002 4279520818
-0.023825739 0.030341817 0.41000003 4279651889
-0.022603786 0.030489827 0.41200003 4279454508
-0.021368841 0.030637836 0.41400003 4279849268
-0.0201209 0.030785842 0.41600001 4279914547
-0.018859971 0.030933851 0.41800001 4280045363
-0.01754418 0.031007856 0.41900003 4280111156
-0.01622189 0.031081861 0.42000002 4280439608
-0.01492848 0.03122987 0.42200002 4281228352
-0.01358995 0.031303871 0.42300001 4283727975
-0.01622189 0.032446481 0.42000002 4287476640
-0.032347247 0.019433748 0.40675855 4294967295
-0.032347247 0.019433748 0.40675855 4294901760
-0.032347247 0.019433748 0.40725854 4294901760
-0.032347247 0.019433748 0.40775853 4294901760
-0.032347247 0.019433748 0.40825856 4294901760
-0.032347247 0.019433748 0.40875855 4294901760
-0.032347247 0.019433748 0.40925854 4294901760
-0.032347247 0.019433748 0.40975854 4294901760
-0.032347247 0.019433748 0.41025856 4294901760
-0.032347247 0.019433748 0.41075855 4294901760
-0.032347247 0.019433748 0.41125855 4294901760
-0.032347247 0.019433748 0.41175854 4294901760
-0.032347247 0.019433748 0.41225854 4294901760
-0.032347247 0.019433748 0.41275856 4294901760
-0.032347247 0.019433748 0.41325855 4294901760
-0.032347247 0.019433748 0.41375855 4294901760
-0.032347247 0.019433748 0.41425854 4294901760
-0.032347247 0.019433748 0.41475856 4294901760
-0.032347247 0.019433748 0.41525856 4294901760
-0.032347247 0.019433748 0.41575855 4294901760
-0.032347247 0.019433748 0.41625854 4294901760
-0.032347247 0.019433748 0.41675854 4294901760
-0.032347247 0.019433748 0.41725856 4294901760
-0.032347247 0.019433748 0.41775855 4294901760
-0.032347247 0.019433748 0.41825855 4294901760
-0.032347247 0.019433748 0.41875854 4294901760
-0.032347247 0.019433748 0.41925853 4294901760
-0.032347247 0.019433748 0.41975856 4294901760
-0.032347247 0.019433748 0.42025855 4294901760
-0.032347247 0.019433748 0.42075855 4294901760
-0.032347247 0.019433748 0.42125854 4294901760
-0.032347247 0.019433748 0.42175856 4294901760
-0.032347247 0.019433748 0.42225856 4294901760
-0.032347247 0.019433748 0.42275855 4294901760
-0.032347247 0.019433748 0.42325854 4294901760
-0.032347247 0.019433748 0.42375857 4294901760
-0.032347247 0.019433748 0.42425856 4294901760
-0.032347247 0.019433748 0.42475855 4294901760
-0.032347247 0.019433748 0.42525855 4294901760
-0.032347247 0.019433748 0.42575854 4294901760
-0.032347247 0.019433748 0.42625856 4294901760
-0.032347247 0.019433748 0.42675856 4294901760
-0.032347247 0.019433748 0.42725855 4294901760
-0.032347247 0.019433748 0.42775854 4294901760
-0.032347247 0.019433748 0.42825854 4294901760
-0.032347247 0.019433748 0.42875856 4294901760
-0.032347247 0.019433748 0.42925856 4294901760
-0.032347247 0.019433748 0.42975855 4294901760
-0.032347247 0.019433748 0.43025854 4294901760
-0.032347247 0.019433748 0.43075857 4294901760
-0.032347247 0.019433748 0.43125856 4294901760
-0.032347247 0.019433748 0.43175855 4294901760
-0.032347247 0.019433748 0.43225855 4294901760
-0.032347247 0.019433748 0.43275854 4294901760
-0.032347247 0.019433748 0.43325856 4294901760
-0.032347247 0.019433748 0.43375856 4294901760
-0.032347247 0.019433748 0.43425855 4294901760
-0.032347247 0.019433748 0.43475854 4294901760
-0.032347247 0.019433748 0.43525857 4294901760
-0.032347247 0.019433748 0.43575856 4294901760
-0.032347247 0.019433748 0.43625855 4294901760
-0.032347247 0.019433748 0.43675855 4294901760
-0.032347247 0.019433748 0.43725854 4294901760
-0.032347247 0.019433748 0.43775856 4294901760
-0.032347247 0.019433748 0.43825856 4294901760
-0.032347247 0.019433748 0.43875855 4294901760
-0.032347247 0.019433748 0.43925855 4294901760
-0.032347247 0.019433748 0.43975857 4294901760
-0.032347247 0.019433748 0.44025856 4294901760
-0.032347247 0.019433748 0.44075856 4294901760
-0.032347247 0.019433748 0.44125855 4294901760
-0.032347247 0.019433748 0.44175854 4294901760
-0.032347247 0.019433748 0.44225857 4294901760
-0.032347247 0.019433748 0.44275856 4294901760
-0.032347247 0.019433748 0.44325855 4294901760
-0.032347247 0.019433748 0.44375855 4294901760
-0.032347247 0.019433748 0.44425857 4294901760
-0.032347247 0.019433748 0.44475856 4294901760
-0.032347247 0.019433748 0.44525856 4294901760
-0.032347247 0.019433748 0.44575855 4294901760
-0.032347247 0.019433748 0.44625854 4294901760
-0.032347247 0.019433748 0.44675857 4294901760
-0.032347247 0.019433748 0.44725856 4294901760
-0.032347247 0.019433748 0.44775856 4294901760
-0.032347247 0.019433748 0.44825855 4294901760
-0.032347247 0.019433748 0.44875854 4294901760
-0.032347247 0.019433748 0.44925857 4294901760
-0.032347247 0.019433748 0.44975856 4294901760
-0.032347247 0.019433748 0.45025855 4294901760
-0.032347247 0.019433748 0.45075855 4294901760
-0.032347247 0.019433748 0.45125854 4294901760
-0.032347247 0.019433748 0.45175856 4294901760
-0.032347247 0.019433748 0.45225856 4294901760
-0.032347247 0.019433748 0.45275855 4294901760
-0.032347247 0.019433748 0.45325857 4294901760
-0.032347247 0.019433748 0.45375857 4294901760
-0.032347247 0.019433748 0.45425856 4294901760
-0.032347247 0.019433748 0.45475855 4294901760
-0.032347247 0.019433748 0.45525855 4294901760
-0.032347247 0.019433748 0.45575857 4294901760
-0.032347247 0.019433748 0.45625857 4294901760
-0.032347247 0.019433748 0.45675856 4294901760
-0.032347247 0.019433748 0.40675855 4278255360
-0.031920742 0.019441994 0.40649775 4278255360
-0.031494234 0.01945024 0.40623692 4278255360
-0.031067727 0.019458486 0.40597612 4278255360
-0.030641222 0.01946673 0.40571529 4278255360
-0.030214716 0.019474976 0.40545449 4278255360
-0.029788209 0.019483222 0.40519366 4278255360
-0.029361703 0.019491468 0.40493286 4278255360
-0.028935196 0.019499714 0.40467203 4278255360
-0.028508689 0.019507959 0.40441123 4278255360
-0.028082183 0.019516205 0.4041504 4278255360
-0.027655676 0.019524451 0.4038896 4278255360
-0.027229171 0.019532695 0.40362877 4278255360
-0.026802665 0.019540941 0.40336797 4278255360
-0.026376158 0.019549187 0.40310714 4278255360
-0.025949651 0.019557433 0.40284634 4278255360
-0.025523145 0.019565679 0.40258551 4278255360
-0.025096638 0.019573925 0.40232471 4278255360
-0.024670132 0.019582171 0.40206388 4278255360
-0.024243627 0.019590417 0.40180308 4278255360
-0.023817118 0.019598661 0.40154225 4278255360
-0.023390613 0.019606907 0.40128145 4278255360
-0.022964107 0.019615153 0.40102062 4278255360
-0.0225376 0.019623399 0.40075982 4278255360
-0.022111095 0.019631645 0.40049899 4278255360
-0.021684587 0.019639891 0.40023819 4278255360
-0.021258082 0.019648137 0.39997736 4278255360
-0.020831574 0.019656381 0.39971656 4278255360
-0.020405069 0.019664627 0.39945573 4278255360
-0.019978564 0.019672872 0.39919493 4278255360
-0.019552056 0.019681118 0.3989341 4278255360
-0.019125551 0.019689364 0.3986733 4278255360
-0.018699042 0.01969761 0.39841247 4278255360
-0.018272538 0.019705856 0.39815167 4278255360
-0.017846029 0.019714102 0.39789084 4278255360
-0.017419524 0.019722346 0.39763004 4278255360
-0.016993016 0.019730592 0.39736921 4278255360
-0.016566511 0.019738838 0.39710841 4278255360
-0.016140005 0.019747084 0.39684758 4278255360
-0.0157135 0.01975533 0.39658678 4278255360
-0.015286991 0.019763576 0.39632595 4278255360
-0.014860487 0.019771822 0.39606515 4278255360
-0.01443398 0.019780068 0.39580432 4278255360
-0.014007473 0.019788312 0.39554352 4278255360
-0.013580967 0.019796558 0.39528269 4278255360
-0.013154462 0.019804804 0.39502189 4278255360
-0.012727953 0.01981305 0.39476106 4278255360
-0.012301449 0.019821296 0.39450026 4278255360
-0.011874942 0.019829541 0.39423943 4278255360
-0.011448435 0.019837787 0.39397863 4278255360
-0.011021929 0.019846033 0.39371783 4278255360
-0.010595422 0.019854277 0.393457 4278255360
-0.010168917 0.019862523 0.3931962 4278255360
-0.0097424109 0.019870769 0.39293537 4278255360
-0.0093159024 0.019879015 0.39267457 4278255360
-0.0088893957 0.019887261 0.39241374 4278255360
-0.008462891 0.019895507 0.39215294 4278255360
-0.0080363844 0.019903753 0.39189211 4278255360
-0.0076098796 0.019911997 0.39163131 4278255360
-0.007183373 0.019920243 0.39137048 4278255360
-0.0067568645 0.019928489 0.39110968 4278255360
-0.0063303579 0.019936735 0.39084885 4278255360
-0.0059038531 0.019944981 0.39058805 4278255360
-0.0054773465 0.019953227 0.39032722 4278255360
-0.0050508399 0.019961473 0.39006642 4278255360
-0.0046243351 0.019969719 0.38980559 4278255360
-0.0041978266 0.019977963 0.38954479 4278255360
-0.00377132 0.019986209 0.38928396 4278255360
-0.0033448134 0.019994454 0.38902315 4278255360
-0.0029183086 0.0200027 0.38876233 4278255360
-0.002491802 0.020010946 0.38850152 4278255360
-0.0020652954 0.020019192 0.38824069 4278255360
-0.0016387869 0.020027438 0.38797989 4278255360
-0.0012122821 0.020035684 0.38771906 4278255360
-0.00078577548 0.020043928 0.38745826 4278255360
-0.00035927072 0.020052174 0.38719743 4278255360
6.7237765e-05 0.02006042 0.38693663 4278255360
0.00049374253 0.020068666 0.3866758 4278255360
0.00092024729 0.020076912 0.386415 4278255360
0.0013467558 0.020085158 0.38615417 4278255360
0.0017732643 0.020093404 0.38589337 4278255360
0.002199769 0.020101648 0.38563254 4278255360
0.0026262738 0.020109894 0.38537174 4278255360
0.0030527785 0.02011814 0.38511091 4278255360
0.003479287 0.020126386 0.38485011 4278255360
0.0039057955 0.020134632 0.38458928 4278255360
0.0043323003 0.020142877 0.38432848 4278255360
0.004758805 0.020151123 0.38406765 4278255360
0.0051853135 0.020159369 0.38380685 4278255360
0.0056118183 0.020167613 0.38354602 4278255360
0.006038323 0.020175859 0.38328522 4278255360
0.0064648315 0.020184105 0.38302439 4278255360
0.00689134 0.020192351 0.38276359 4278255360
0.0073178448 0.020200597 0.38250276 4278255360
0.0077443495 0.020208843 0.38224196 4278255360
0.008170858 0.020217089 0.38198113 4278255360
0.0085973628 0.020225335 0.38172033 4278255360
0.0090238713 0.020233579 0.3814595 4278255360
0.009450376 0.020241825 0.3811987 4278255360
0.0098768845 0.020250071 0.38093787 4278255360
0.010303389 0.020258317 0.38067707 4278255360
