# .PCD v0.7 - Point Cloud Data file format
VERSION 0.7
FIELDS x y z rgb
SIZE 4 4 4 4
TYPE F F F U
COUNT 1 1 1 1
WIDTH 1020
HEIGHT 1
VIEWPOINT 0 0 0 1 0 0 0
POINTS 1020
DATA ascii
-0.026615093 0.024965497 0.45800003 4282922530
-0.025182372 0.025020007 0.45900002 4284558626
-0.023743154 0.025074515 0.46000001 4285739561
-0.022345807 0.025183534 0.46200001 4285872426
-0.02093547 0.025292555 0.46400002 4285219375
-0.019470271 0.025347065 0.46500003 4280226827
-0.018037196 0.025456084 0.46700001 4280491030
-0.01659113 0.025565105 0.46900001 4280624672
-0.015132072 0.025674123 0.47100002 4280889897
-0.013631144 0.025728634 0.47200003 4283917658
-0.01214935 0.025837654 0.47400004 4279706395
-0.010632181 0.025892163 0.47500002 4288131229
-0.0091085145 0.025946673 0.47600001 4287342740
-0.0075783534 0.026001183 0.47700003 4287671191
-0.0060290569 0.026001183 0.47700003 4281941552
-0.0044891518 0.026055692 0.47800002 4283442975
-0.0029427505 0.026110204 0.47900003 4283967261
-0.0013869575 0.026110204 0.47900003 4285803555
0.0001691879 0.026164712 0.48000002 4289552475
0.0017318293 0.026219223 0.48100004 4286791477
0.003294118 0.026219223 0.48100004 4286593846
-0.037109032 0.026511343 0.45900002 4282269726
-0.035463002 0.026395826 0.45700002 4283253541
-0.033904314 0.026338067 0.45600003 4285411875
-0.032423224 0.026338067 0.45600003 4285935650
-0.030942136 0.026338067 0.45600003 4284425495
-0.02946105 0.026338067 0.45600003 4282523920
-0.028041318 0.026395826 0.45700002 4281212425
-0.02655698 0.026395826 0.45700002 4282922016
-0.02512751 0.026453586 0.45800003 4285083425
-0.023743154 0.026569102 0.46000001 4285936168
-0.022345807 0.026684619 0.46200001 4285020197
-0.02093547 0.026800139 0.46400002 4281211658
-0.019512143 0.026915656 0.46600002 4280164118
-0.018037196 0.026973415 0.46700001 4279835926
-0.01659113 0.027088933 0.46900001 4282537804
-0.015132072 0.02720445 0.47100002 4282406988
-0.013631144 0.027262211 0.47200003 4279246104
-0.01214935 0.027377728 0.47400004 4280825136
-0.010632181 0.027435487 0.47500002 4281090610
-0.0091085145 0.027493244 0.47600001 4287211154
-0.0075783534 0.027551005 0.47700003 4287408531
-0.0060416963 0.027608763 0.47800002 4284510045
-0.0044891518 0.027608763 0.47800002 4283442975
-0.0029427505 0.027666522 0.47900003 4283835675
-0.001389853 0.027724281 0.48000002 4285474847
0.0001691879 0.027724281 0.48000002 4286461483
0.0017318293 0.027782042 0.48100004 4288698704
0.003294118 0.027782042 0.48100004 4286857020
-0.036947336 0.027880665 0.45700002 4282465822
-0.035385404 0.027819658 0.45600003 4284103974
-0.033829961 0.027758649 0.45500001 4285739811
-0.03235212 0.027758649 0.45500001 4286198822
-0.03087428 0.027758649 0.45500001 4284296991
-0.029396441 0.027758649 0.45500001 4281671431
-0.027979959 0.027819658 0.45600003 4282924063
-0.02655698 0.027880665 0.45700002 4283643936
-0.02512751 0.027941674 0.45800003 4285411105
-0.023743154 0.028063688 0.46000001 4285935396
-0.022345807 0.028185705 0.46200001 4285092161
-0.02093547 0.028307721 0.46400002 4279636487
-0.019470271 0.02836873 0.46500003 4279441938
-0.018037196 0.028490745 0.46700001 4286484353
-0.01659113 0.028612761 0.46900001 4285301878
-0.015132072 0.028734777 0.47100002 4282999636
-0.013660023 0.028856793 0.47300002 4283457621
-0.01214935 0.028917802 0.47400004 4279443221
-0.010632181 0.02897881 0.47500002 4279377943
-0.0091276504 0.029100826 0.47700003 4287802525
-0.0075783534 0.029100826 0.47700003 4287211926
-0.0060416963 0.029161833 0.47800002 4286089591
-0.0044985432 0.029222842 0.47900003 4283507487
-0.0029488937 0.02928385 0.48000002 4284427040
-0.001389853 0.02928385 0.48000002 4285542945
0.00016954038 0.029344859 0.48100004 4285674018
0.0017318293 0.029344859 0.48100004 4286197541
0.0033009665 0.029405866 0.48200002 4286593071
0.0048665032 0.029405866 0.48200002 4288454286
-0.03678564 0.029236991 0.45500001 4282594330
-0.035230204 0.029172735 0.45400003 4284889124
-0.033755612 0.029172735 0.45400003 4285935650
-0.032281019 0.029172735 0.45400003 4286789932
-0.030806426 0.029172735 0.45400003 4282259721
-0.029396441 0.029236991 0.45500001 4281540877
-0.027918598 0.029236991 0.45500001 4283053600
-0.026498869 0.02930125 0.45600003 4283971104
-0.02512751 0.029429764 0.45800003 4285607971
-0.023691539 0.029494021 0.45900002 4285279519
-0.022297442 0.029622534 0.46100003 4280885523
-0.020890351 0.029751049 0.46300003 4283520584
-0.019470271 0.029879564 0.46500003 4283850834
-0.018037196 0.030008078 0.46700001 4283983705
-0.01659113 0.030136591 0.46900001 4289247909
-0.015132072 0.030265106 0.47100002 4282536507
-0.013660023 0.030393621 0.47300002 4282272570
-0.01214935 0.030457878 0.47400004 4282535742
-0.010654564 0.030586392 0.47600001 4280233252
-0.0091276504 0.030650649 0.47700003 4287802012
-0.0075942408 0.030714905 0.47800002 4287408535
-0.0060543362 0.030779164 0.47900003 4286089593
-0.0044985432 0.030779164 0.47900003 4283639071
-0.0029488937 0.03084342 0.48000002 4284229661
-0.0013927486 0.030907677 0.48100004 4285280802
0.00016954038 0.030907677 0.48100004 4285412388
0.0017354296 0.030971935 0.48200002 4285542695
0.0033009665 0.030971935 0.48200002 4285545269
-0.037927102 0.030445309 0.45100003 4282005789
-0.036623947 0.030580319 0.45300001 4284300071
-0.035152603 0.030580319 0.45300001 4285150502
-0.033681259 0.030580319 0.45300001 4287053104
-0.032209914 0.030580319 0.45300001 4285736990
-0.03073857 0.030580319 0.45300001 4282326543
-0.029331835 0.030647827 0.45400003 4281277966
-0.027918598 0.030715333 0.45500001 4282657559
-0.026498869 0.030782839 0.45600003 4284101407
-0.025072645 0.030850345 0.45700002 4285936166
-0.023691539 0.030985359 0.45900002 4284030222
-0.022297442 0.031120371 0.46100003 4280556298
-0.020890351 0.031255383 0.46300003 4279637254
-0.019470271 0.031390395 0.46500003 4280429085
-0.018037196 0.031525407 0.46700001 4280628010
-0.01659113 0.031660419 0.46900001 4287009400
-0.015132072 0.031795431 0.47100002 4284507458
-0.013660023 0.031930447 0.47300002 4283060537
-0.01214935 0.031997953 0.47400004 4282008621
-0.010654564 0.032132965 0.47600001 4279575320
-0.0091276504 0.032200471 0.47700003 4288000158
-0.0075942408 0.032267977 0.47800002 4287278232
-0.0060543362 0.032335483 0.47900003 4285563249
-0.0045079347 0.032402989 0.48000002 4284032284
-0.0029488937 0.032402989 0.48000002 4284622876
-0.0013927486 0.032470495 0.48100004 4285543461
0.00016989285 0.032538 0.48200002 4285478183
0.0017354296 0.032538 0.48200002 4283773739
0.0033078149 0.032605506 0.48300001 4288782999
-0.037927102 0.031910654 0.45100003 4282136353
-0.036543101 0.031981409 0.45200002 4285414189
-0.035075005 0.031981409 0.45200002 4285804582
-0.033606909 0.031981409 0.45200002 4290078549
-0.03213881 0.031981409 0.45200002 4287446061
-0.03073857 0.032052163 0.45300001 4286857270
-0.029331835 0.032122921 0.45400003 4282454020
-0.027857238 0.032122921 0.45400003 4283969823
-0.026498869 0.03226443 0.45600003 4284690462
-0.025072645 0.032335185 0.45700002 4286001189
-0.023691539 0.032476697 0.45900002 4284227603
-0.022297442 0.032618206 0.46100003 4281674787
-0.020890351 0.032759719 0.46300003 4279440650
-0.019470271 0.032901227 0.46500003 4280559899
-0.018037196 0.033042736 0.46700001 4280626466
-0.01659113 0.033184249 0.46900001 4281677862
-0.015132072 0.033325758 0.47100002 4283517745
-0.013660023 0.03346727 0.47300002 4283519278
-0.01214935 0.033538029 0.47400004 4282007331
-0.010654564 0.033679534 0.47600001 4280036123
-0.0091276504 0.033750292 0.47700003 4287670426
-0.0075942408 0.033821046 0.47800002 4287539867
-0.0060543362 0.033891805 0.47900003 4284180571
-0.0045079347 0.033962559 0.48000002 4284754722
-0.0029550374 0.034033313 0.48100004 4285213728
-0.0013927486 0.034033313 0.48100004 4285871660
0.00016989285 0.034104068 0.48200002 4288444528
0.0017390301 0.034174822 0.48300001 4288129178
0.0033078149 0.034174822 0.48300001 4287736473
-0.037927102 0.033376001 0.45100003 4283448874
-0.036462255 0.033376001 0.45100003 4286003246
-0.035075005 0.033450004 0.45200002 4286460200
-0.033606909 0.033450004 0.45200002 4287115554
-0.03213881 0.033450004 0.45200002 4287115554
-0.03073857 0.033524007 0.45300001 4287115554
-0.029267225 0.033524007 0.45300001 4287445034
-0.027857238 0.033598013 0.45400003 4287249198
-0.026498869 0.033746019 0.45600003 4287053102
-0.025072645 0.033820026 0.45700002 4286000932
-0.023691539 0.033968035 0.45900002 4285082142
-0.022297442 0.034116041 0.46100003 4283451713
-0.020890351 0.03426405 0.46300003 4279244043
-0.019470271 0.03441206 0.46500003 4280559901
-0.018037196 0.034560069 0.46700001 4281020452
-0.01659113 0.034708075 0.46900001 4280888348
-0.015132072 0.034856085 0.47100002 4281675804
-0.013660023 0.035004094 0.47300002 4281479960
-0.012174981 0.035152104 0.47500002 4282665004
-0.010654564 0.035226107 0.47600001 4281286452
-0.0091276504 0.035300113 0.47700003 4287605660
-0.0075942408 0.035374116 0.47800002 4287802266
-0.0060543362 0.035448123 0.47900003 4282795834
-0.0045079347 0.035522126 0.48000002 4284951076
-0.0029550374 0.035596132 0.48100004 4285672998
-0.0013927486 0.035596132 0.48100004 4284623138
0.00016989285 0.035670135 0.48200002 4289437331
0.0017390301 0.035744138 0.48300001 4287605400
0.0033078149 0.035744138 0.48300001 4287670939
-0.039304607 0.034764089 0.45000002 4282203683
-0.037927102 0.034841344 0.45100003 4284169517
-0.036462255 0.034841344 0.45100003 4285936168
-0.034997404 0.034841344 0.45100003 4286262305
-0.033532556 0.034841344 0.45100003 4286656288
-0.03213881 0.034918595 0.45200002 4287050276
-0.030670714 0.034918595 0.45200002 4286918688
-0.029267225 0.03499585 0.45300001 4291922034
-0.027857238 0.035073105 0.45400003 4287578417
-0.026498869 0.035227612 0.45600003 4287775026
-0.02512751 0.035382118 0.45800003 4286395172
-0.023743154 0.035536624 0.46000001 4285016349
-0.022345807 0.035691131 0.46200001 4283319612
-0.02093547 0.035845637 0.46400002 4279309066
-0.019470271 0.035922892 0.46500003 4280690715
-0.018037196 0.036077399 0.46700001 4284310100
-0.01659113 0.036231905 0.46900001 4281941806
-0.015132072 0.036386412 0.47100002 4284835919
-0.013660023 0.036540922 0.47300002 4282335785
-0.012174981 0.036695428 0.47500002 4282072872
-0.010654564 0.03677268 0.47600001 4287539094
-0.0091467863 0.036927186 0.47800002 4287408281
-0.0075942408 0.036927186 0.47800002 4288787876
-0.0060543362 0.037004441 0.47900003 4283514417
-0.0045079347 0.037081696 0.48000002 4285935400
-0.0029550374 0.037158951 0.48100004 4286000934
-0.0013927486 0.037158951 0.48100004 4284100390
0.00017024532 0.037313454 0.48300001 4288980633
0.0017390301 0.037313454 0.48300001 4287474328
-0.039304607 0.036226183 0.45000002 4282727465
-0.037843008 0.036226183 0.45000002 4284694577
-0.036462255 0.03630669 0.45100003 4285672994
-0.034997404 0.03630669 0.45100003 4286066209
-0.033532556 0.03630669 0.45100003 4286328350
-0.03213881 0.03638719 0.45200002 4286591522
-0.030670714 0.03638719 0.45200002 4286589471
-0.029267225 0.03646769 0.45300001 4287313964
-0.027857238 0.036548197 0.45400003 4288500296
-0.026498869 0.036709201 0.45600003 4287577390
-0.02512751 0.036870208 0.45800003 4287053102
-0.023743154 0.037031211 0.46000001 4285411109
-0.022345807 0.037192214 0.46200001 4280818968
-0.02093547 0.037353221 0.46400002 4280164121
-0.019512143 0.037514228 0.46600002 4280099350
-0.01807582 0.037675232 0.46800002 4280033555
-0.016626507 0.037836239 0.47000003 4284047950
-0.0151642 0.037997242 0.47200003 4282666297
-0.013688903 0.038158249 0.47400004 4282862908
-0.012174981 0.038238753 0.47500002 4281085727
-0.010676947 0.038399756 0.47700003 4287735701
-0.0091467863 0.038480259 0.47800002 4287474326
-0.0075942408 0.038480259 0.47800002 4289572765
-0.0060543362 0.038560763 0.47900003 4284822568
-0.0045079347 0.038641263 0.48000002 4286197543
-0.0029488937 0.038641263 0.48000002 4286394922
-0.0013927486 0.038721766 0.48100004 4286077010
0.00017024532 0.03888277 0.48300001 4288062617
0.0017390301 0.03888277 0.48300001 4287539867
-0.039304607 0.037688281 0.45000002 4282332707
-0.037843008 0.037688281 0.45000002 4283709225
-0.036462255 0.037772033 0.45100003 4285018918
-0.034997404 0.037772033 0.45100003 4285346084
-0.033532556 0.037772033 0.45100003 4285672219
-0.03213881 0.037855785 0.45200002 4286065948
-0.030670714 0.037855785 0.45200002 4286524959
-0.029267225 0.037939534 0.45300001 4286722084
-0.027857238 0.038023289 0.45400003 4287969841
-0.026498869 0.038190793 0.45600003 4288036658
-0.02512751 0.038358297 0.45800003 4285803553
-0.023743154 0.038525797 0.46000001 4285614142
-0.022345807 0.038693301 0.46200001 4281678902
-0.02093547 0.038860805 0.46400002 4280230435
-0.019512143 0.039028309 0.46600002 4279967514
-0.01807582 0.039195813 0.46800002 4279441938
-0.016626507 0.039363317 0.47000003 4279573778
-0.0151642 0.039530821 0.47200003 4282995264
-0.013688903 0.039698325 0.47400004 4281807910
-0.012200613 0.039865825 0.47600001 4283643182
-0.010676947 0.039949577 0.47700003 4287923831
-0.0091467863 0.040033329 0.47800002 4287668877
-0.0076101287 0.040117081 0.47900003 4286078543
-0.0060543362 0.040117081 0.47900003 4286002733
-0.0044985432 0.040117081 0.47900003 4286525993
-0.0029488937 0.040200833 0.48000002 4287052339
-0.0013927486 0.040284585 0.48100004 4289635994
-0.039304607 0.039150376 0.45000002 4286413679
-0.037843008 0.039150376 0.45000002 4282790440
-0.036462255 0.03923738 0.45100003 4284231458
-0.034997404 0.03923738 0.45100003 4284362271
-0.033532556 0.03923738 0.45100003 4284753175
-0.03213881 0.039324377 0.45200002 4285409306
-0.03073857 0.039411377 0.45300001 4286263586
-0.029267225 0.039411377 0.45300001 4286263586
-0.027918598 0.039585378 0.45500001 4286722338
-0.026498869 0.039672382 0.45600003 4287248682
-0.02512751 0.039846383 0.45800003 4284755746
-0.023743154 0.040020384 0.46000001 4289110415
-0.022345807 0.040194385 0.46200001 4287670426
-0.02093547 0.040368386 0.46400002 4280298794
-0.019512143 0.04054239 0.46600002 4279968294
-0.01807582 0.040716391 0.46800002 4280758832
-0.016661881 0.040977392 0.47100002 4279772186
-0.015196327 0.041151397 0.47300002 4281547568
-0.013717782 0.041325398 0.47500002 4282784793
-0.012200613 0.041412398 0.47600001 4286726463
-0.010676947 0.041499399 0.47700003 4286199090
-0.0091467863 0.041586399 0.47800002 4290810506
-0.0075942408 0.041586399 0.47800002 4285607975
-0.0060543362 0.0416734 0.47900003 4286658092
-0.0044985432 0.0416734 0.47900003 4287051051
-0.0029488937 0.0417604 0.48000002 4285869348
-0.039304607 0.040612474 0.45000002 4288983460
-0.037927102 0.040702727 0.45100003 4283384123
-0.036462255 0.040702727 0.45100003 4284035112
-0.034997404 0.040702727 0.45100003 4284165667
-0.033606909 0.040792976 0.45200002 4284360218
-0.03213881 0.040792976 0.45200002 4284425495
-0.03073857 0.040883224 0.45300001 4285213726
-0.029331835 0.040973477 0.45400003 4285608484
-0.027918598 0.041063726 0.45500001 4285805604
-0.026498869 0.041153975 0.45600003 4286133799
-0.02512751 0.041334476 0.45800003 4284362017
-0.023743154 0.041514974 0.46000001 4289110931
-0.022345807 0.041695476 0.46200001 4287474328
-0.02093547 0.041875973 0.46400002 4286947732
-0.019512143 0.042056475 0.46600002 4280233263
-0.018114444 0.042327221 0.46900001 4280166956
-0.016661881 0.042507723 0.47100002 4280690210
-0.015196327 0.042688224 0.47300002 4282066980
-0.013717782 0.042868722 0.47500002 4287056450
-0.012200613 0.042958971 0.47600001 4286988086
-0.010676947 0.043049224 0.47700003 4286789682
-0.0091467863 0.043139473 0.47800002 4287250233
-0.0075942408 0.043139473 0.47800002 4286985258
-0.0060543362 0.043229725 0.47900003 4287050794
-0.0044985432 0.043229725 0.47900003 4287314993
-0.0029427505 0.043229725 0.47900003 4288439900
-0.039304607 0.042074572 0.45000002 4288197024
-0.037927102 0.04216807 0.45100003 4282600256
-0.036462255 0.04216807 0.45100003 4284233524
-0.035075005 0.042261571 0.45200002 4284232239
-0.033606909 0.042261571 0.45200002 4284297251
-0.032209914 0.042355068 0.45300001 4284362017
-0.030806426 0.042448569 0.45400003 4284756775
-0.029331835 0.042448569 0.45400003 4284822568
-0.027918598 0.042542066 0.45500001 4285545521
-0.02655698 0.042729065 0.45700002 4285216556
-0.02512751 0.042822566 0.45800003 4285348144
-0.023743154 0.043009561 0.46000001 4290159508
-0.022297442 0.043103062 0.46100003 4287671191
-0.020890351 0.04329006 0.46300003 4287539867
-0.019512143 0.043570556 0.46600002 4287869086
-0.018114444 0.043851051 0.46900001 4288132258
-0.016661881 0.04403805 0.47100002 4284309332
-0.015196327 0.044225048 0.47300002 4283972149
-0.013717782 0.044412047 0.47500002 4285606953
-0.012200613 0.044505544 0.47600001 4287052600
-0.010676947 0.044599045 0.47700003 4290935664
-0.0091467863 0.044692542 0.47800002 4286986028
-0.0075942408 0.044692542 0.47800002 4287247403
-0.0060543362 0.044786043 0.47900003 4287642931
-0.0044985432 0.044786043 0.47900003 4286724912
-0.0029427505 0.044786043 0.47900003 4290551186
-0.037927102 0.043633416 0.45100003 4288394662
-0.036543101 0.043730162 0.45200002 4284503890
-0.035075005 0.043730162 0.45200002 4284695359
-0.033681259 0.043826912 0.45300001 4284694323
-0.032281019 0.043923661 0.45400003 4284759857
-0.030806426 0.043923661 0.45400003 4283641124
-0.029396441 0.044020407 0.45500001 4284235837
-0.027979959 0.044117156 0.45600003 4288188296
-0.02655698 0.044213902 0.45700002 4283446838
-0.02512751 0.044310652 0.45800003 4284691759
-0.023743154 0.044504147 0.46000001 4287522913
-0.022297442 0.044600897 0.46100003 4287605396
-0.020890351 0.044794392 0.46300003 4287408533
-0.019512143 0.045084637 0.46600002 4287474074
-0.01807582 0.045278132 0.46800002 4287539867
-0.016661881 0.045568377 0.47100002 4288459424
-0.015196327 0.045761872 0.47300002 4283782731
-0.013717782 0.045955371 0.47500002 4286072385
-0.012200613 0.046052117 0.47600001 4292718243
-0.010676947 0.046148866 0.47700003 4288367427
-0.0091467863 0.046245612 0.47800002 4287839027
-0.0075942408 0.046245612 0.47800002 4287050797
-0.0060543362 0.046342365 0.47900003 4290279024
-0.0044985432 0.046342365 0.47900003 4286657844
-0.0029427505 0.046342365 0.47900003 4288966507
-0.038011197 0.045198757 0.45200002 4287671453
-0.036543101 0.045198757 0.45200002 4288523682
-0.035152603 0.045298751 0.45300001 4284439378
-0.033755612 0.045398753 0.45400003 4284629048
-0.032281019 0.045398753 0.45400003 4283576360
-0.03087428 0.045498747 0.45500001 4288054911
-0.02946105 0.045598745 0.45600003 4288260248
-0.028041318 0.045698743 0.45700002 4287670426
-0.026615093 0.045798741 0.45800003 4285890937
-0.025182372 0.045898739 0.45900002 4284233524
-0.023743154 0.045998733 0.46000001 4284758070
-0.022297442 0.046098731 0.46100003 4288786331
-0.020890351 0.046298727 0.46300003 4287605396
-0.019512143 0.046598718 0.46600002 4287605912
-0.01807582 0.046798714 0.46800002 4287605912
-0.016661881 0.047098704 0.47100002 4287474328
-0.015196327 0.0472987 0.47300002 4288393629
-0.013717782 0.047498692 0.47500002 4285350970
-0.012200613 0.04759869 0.47600001 4286527537
-0.010676947 0.047698688 0.47700003 4287904050
-0.0091467863 0.047798686 0.47800002 4287706669
-0.0075942408 0.047798686 0.47800002 4293897123
-0.0060543362 0.047898684 0.47900003 4287913810
-0.0044985432 0.047898684 0.47900003 4286855212
-0.0029427505 0.047898684 0.47900003 4286658864
-0.038011197 0.046667352 0.45200002 4287738016
-0.036623947 0.046770595 0.45300001 4287671453
-0.035230204 0.046873845 0.45400003 4288327586
-0.033829961 0.046977088 0.45500001 4284367677
-0.03235212 0.046977088 0.45500001 4284365876
-0.030942136 0.047080338 0.45600003 4283247143
-0.029525656 0.047183581 0.45700002 4288718233
-0.028041318 0.047183581 0.45700002 4287736219
-0.026615093 0.047286831 0.45800003 4288460196
-0.025182372 0.047390074 0.45900002 4283975747
-0.023743154 0.04749332 0.46000001 4284956732
-0.022345807 0.047699813 0.46200001 4285747529
-0.020890351 0.047803063 0.46300003 4289178009
-0.019512143 0.048112798 0.46600002 4287998871
-0.01807582 0.048319291 0.46800002 4288196250
-0.016661881 0.048629031 0.47100002 4288719768
-0.015196327 0.048835523 0.47300002 4287199334
-0.013717782 0.049042016 0.47500002 4286919983
-0.012200613 0.049145263 0.47600001 4287378222
-0.010676947 0.049248509 0.47700003 4287970095
-0.0091276504 0.049248509 0.47700003 4288101679
-0.0075942408 0.049351756 0.47800002 4288036917
-0.0060416963 0.049351756 0.47800002 4286524453
-0.0044985432 0.049455002 0.47900003 4287117096
-0.0029427505 0.049455002 0.47900003 4287446831
-0.036623947 0.048242439 0.45300001 4288264360
-0.035385404 0.048561927 0.45600003 4287738016
-0.033904314 0.048561927 0.45600003 4284702550
-0.032494329 0.048668422 0.45700002 4284367677
-0.031009993 0.048668422 0.45700002 4285153082
-0.029590266 0.04877492 0.45800003 4288973187
-0.028102677 0.04877492 0.45800003 4287671193
-0.026673203 0.048881412 0.45900002 4287605914
-0.025237234 0.048987906 0.46000001 4288722085
-0.02379477 0.049094405 0.46100003 4282596402
-0.022345807 0.0492009 0.46200001 4285809726
-0.02093547 0.04941389 0.46400002 4286597959
-0.019512143 0.049626879 0.46600002 4287851358
-0.01807582 0.049839873 0.46800002 4285546293
-0.016661881 0.050159357 0.47100002 4287053104
-0.015196327 0.050372347 0.47300002 4287511343
-0.013688903 0.050478846 0.47400004 4287837485
-0.012200613 0.050691836 0.47600001 4288100657
-0.010654564 0.050691836 0.47600001 4288101681
-0.0091276504 0.05079833 0.47700003 4288036658
-0.0075942408 0.050904825 0.47800002 4286787620
-0.0060416963 0.050904825 0.47800002 4286853415
-0.0044985432 0.051011324 0.47900003 4286787622
-0.0029427505 0.051011324 0.47900003 4286460454
-0.035463002 0.050153259 0.45700002 4287803811
-0.033978667 0.050153259 0.45700002 4288985257
-0.032565434 0.050263006 0.45800003 4282662197
-0.031077849 0.050263006 0.45800003 4285022007
-0.029654872 0.05037275 0.45900002 4284297771
-0.028164037 0.05037275 0.45900002 4288983969
-0.026731314 0.050482493 0.46000001 4287605398
-0.025237234 0.050482493 0.46000001 4287474328
-0.02379477 0.05059224 0.46100003 4288263328
-0.022345807 0.050701983 0.46200001 4283508257
-0.02093547 0.050921474 0.46400002 4285938484
-0.019512143 0.05114096 0.46600002 4287447095
-0.01807582 0.051360451 0.46800002 4287708981
-0.016626507 0.051579941 0.47000003 4288037941
-0.0151642 0.051799431 0.47200003 4288366134
-0.013688903 0.052018922 0.47400004 4288102449
-0.012174981 0.052128665 0.47500002 4287904302
-0.010654564 0.052238405 0.47600001 4287447349
-0.0091276504 0.052348152 0.47700003 4285277468
-0.0075942408 0.052457895 0.47800002 4285738789
-0.0060416963 0.052457895 0.47800002 4286199340
-0.0044985432 0.052567642 0.47900003 4286331698
-0.0029427505 0.052567642 0.47900003 4285612863
-0.035540603 0.051751096 0.45800003 4287869604
-0.03412737 0.051864088 0.45900002 4287868832
-0.032636534 0.051864088 0.45900002 4286089595
-0.031145703 0.051864088 0.45900002 4284826427
-0.029719478 0.051977079 0.46000001 4285153591
-0.028225396 0.051977079 0.46000001 4284100907
-0.026731314 0.051977079 0.46000001 4289371538
-0.0252921 0.052090075 0.46100003 4288915864
-0.023846386 0.052203067 0.46200001 4287201137
-0.022394177 0.052316062 0.46300003 4286199088
-0.02093547 0.052429054 0.46400002 4288172878
-0.019512143 0.052655045 0.46600002 4287118645
-0.01807582 0.052881032 0.46800002 4287840567
-0.016626507 0.05310702 0.47000003 4287380009
-0.0151642 0.053333007 0.47200003 4287183657
-0.013688903 0.053558994 0.47400004 4286330151
-0.012174981 0.053671986 0.47500002 4285805350
-0.010654564 0.053784978 0.47600001 4284822568
-0.0091276504 0.053897973 0.47700003 4285020722
-0.0075783534 0.053897973 0.47700003 4285218101
-0.0060416963 0.054010965 0.47800002 4285283896
-0.0044985432 0.05412396 0.47900003 4284304712
-0.035618201 0.053355426 0.45900002 4287869351
-0.034201719 0.053471666 0.46000001 4287935397
-0.032707639 0.053471666 0.46000001 4288723627
-0.031213557 0.053471666 0.46000001 4283513651
-0.029719478 0.053471666 0.46000001 4284891702
-0.028286757 0.05358791 0.46100003 4285084718
-0.026789427 0.05358791 0.46100003 4284952619
-0.0252921 0.05358791 0.46100003 4284887341
-0.023846386 0.053704154 0.46200001 4285543986
-0.022394177 0.053820398 0.46300003 4286525995
-0.02093547 0.053936638 0.46400002 4288038212
-0.019512143 0.054169126 0.46600002 4291068792
-0.01807582 0.05440161 0.46800002 4286657063
-0.016626507 0.054634098 0.47000003 4286395947
-0.015132072 0.054750338 0.47100002 4284690214
-0.013660023 0.054982822 0.47300002 4284495152
-0.01214935 0.05509907 0.47400004 4284432698
-0.010654564 0.055331551 0.47600001 4285097819
-0.0091276504 0.055447794 0.47700003 4285295200
-0.0075783534 0.055447794 0.47700003 4286677880
-0.0060416963 0.055564038 0.47800002 4288193172
-0.037270728 0.055085748 0.46100003 4288001190
-0.035695799 0.054966252 0.46000001 4287935397
-0.034201719 0.054966252 0.46000001 4288132774
-0.032778744 0.055085748 0.46100003 4287803039
-0.031281415 0.055085748 0.46100003 4284241997
-0.029784087 0.055085748 0.46100003 4283708462
-0.028286757 0.055085748 0.46100003 4285611832
-0.026789427 0.055085748 0.46100003 4284887339
-0.025346963 0.055205237 0.46200001 4284820517
-0.023898002 0.05532473 0.46300003 4285410855
-0.022394177 0.05532473 0.46300003 4286329899
-0.02093547 0.055444222 0.46400002 4286987061
-0.019512143 0.055683207 0.46600002 4286656811
-0.018037196 0.055802695 0.46700001 4287183923
-0.01659113 0.05604168 0.46900001 4285479730
-0.015132072 0.056280665 0.47100002 4287265649
-0.013660023 0.05651965 0.47300002 4288591010
-0.01214935 0.056639142 0.47400004 4288130977
-0.010632181 0.056758635 0.47500002 4287736732
-0.0091085145 0.056878123 0.47600001 4287670939
-0.0075783534 0.056997616 0.47700003 4287670939
-0.0060416963 0.057117108 0.47800002 4287474074
-0.037270728 0.056583583 0.46100003 4287869602
-0.0357734 0.056583583 0.46100003 4287409051
-0.034276072 0.056583583 0.46100003 4287803809
-0.032778744 0.056583583 0.46100003 4287803039
-0.031281415 0.056583583 0.46100003 4289311140
-0.029784087 0.056583583 0.46100003 4284368958
-0.028348114 0.05670632 0.46200001 4285022007
-0.026847538 0.05670632 0.46200001 4284428585
-0.025346963 0.05670632 0.46200001 4284558374
-0.023898002 0.056829065 0.46300003 4284558115
-0.022394177 0.056829065 0.46300003 4285476648
-0.02093547 0.056951806 0.46400002 4286068272
-0.019470271 0.057074547 0.46500003 4286199088
-0.018037196 0.057320025 0.46700001 4286134065
-0.016555754 0.057442769 0.46800002 4289373851
-0.015099945 0.057688251 0.47000003 4287998362
-0.013631144 0.057933733 0.47200003 4287802266
-0.012123718 0.058056474 0.47300002 4287934365
-0.010609797 0.058179218 0.47400004 4287736732
-0.0091085145 0.058424696 0.47600001 4287934111
-0.0075783534 0.058547437 0.47700003 4287802525
-0.037270728 0.058081422 0.46100003 4288000418
-0.0357734 0.058081422 0.46100003 4288000418
-0.034276072 0.058081422 0.46100003 4288000418
-0.032778744 0.058081422 0.46100003 4288000418
-0.031349268 0.058207411 0.46200001 4288065438
-0.029848693 0.058207411 0.46200001 4282861886
-0.028348114 0.058207411 0.46200001 4284497980
-0.026847538 0.058207411 0.46200001 4284167731
-0.025346963 0.058207411 0.46200001 4284100394
-0.023898002 0.058333404 0.46300003 4284691761
-0.022394177 0.058333404 0.46300003 4285217074
-0.02093547 0.05845939 0.46400002 4285611832
-0.019470271 0.058585383 0.46500003 4285349177
-0.017998572 0.058711372 0.46600002 4286735455
-0.016520379 0.058837362 0.46700001 4288195487
-0.015067817 0.05908934 0.46900001 4287999391
-0.013602264 0.059341323 0.47100002 4287867805
-0.012123718 0.059593301 0.47300002 4287934111
-0.010609797 0.059719294 0.47400004 4288065697
-0.0357734 0.059579253 0.46100003 4288000418
-0.034350425 0.059708491 0.46200001 4288066211
-0.032849845 0.059708491 0.46200001 4287934625
-0.031349268 0.059708491 0.46200001 4287934625
-0.029848693 0.059708491 0.46200001 4288855213
-0.028348114 0.059708491 0.46200001 4283978575
-0.026847538 0.059708491 0.46200001 4283712577
-0.025346963 0.059708491 0.46200001 4284631108
-0.023898002 0.059837732 0.46300003 4283710260
-0.022394177 0.059837732 0.46300003 4284367675
-0.02093547 0.05996697 0.46400002 4284368188
-0.019470271 0.060096212 0.46500003 4287402373
-0.01795995 0.060096212 0.46500003 4288261534
-0.016485004 0.06022545 0.46600002 4288065184
-0.01503569 0.060483929 0.46800002 4287999391
-0.035850998 0.061209582 0.46200001 4288000420
-0.034350425 0.061209582 0.46200001 4288066213
-0.032849845 0.061209582 0.46200001 4287934627
-0.031349268 0.061209582 0.46200001 4288066213
-0.029848693 0.061209582 0.46200001 4287671455
-0.028348114 0.061209582 0.46200001 4288065699
-0.026847538 0.061209582 0.46200001 4288459944
-0.025346963 0.061209582 0.46200001 4288787878
-0.023898002 0.061342072 0.46300003 4288722085
-0.022394177 0.061342072 0.46300003 4288460196
-0.02093547 0.061474558 0.46400002 4287736732
-0.019428398 0.061474558 0.46400002 4288065697
-0.01795995 0.061607048 0.46500003 4287934111
-0.016485004 0.061739534 0.46600002 4287868832
-0.032849845 0.062710665 0.46200001 4288000418
-0.031349268 0.062710665 0.46200001 4287934625
-0.029848693 0.062710665 0.46200001 4287934625
-0.028348114 0.062710665 0.46200001 4287999904
-0.026847538 0.062710665 0.46200001 4287934111
-0.025346963 0.062710665 0.46200001 4288065697
-0.023898002 0.0628464 0.46300003 4287934111
-0.022394177 0.0628464 0.46300003 4287539867
-0.019084439 0.036558267 0.46718919 4294967295
-0.019084439 0.036558267 0.46718919 4294901760
-0.019084439 0.036061663 0.46713102 4294901760
-0.019084439 0.03556506 0.46707284 4294901760
-0.019084439 0.035068456 0.46701464 4294901760
-0.019084439 0.034571853 0.46695647 4294901760
-0.019084439 0.034075249 0.46689829 4294901760
-0.019084439 0.033578645 0.46684012 4294901760
-0.019084439 0.033082042 0.46678194 4294901760
-0.019084439 0.032585438 0.46672377 4294901760
-0.019084439 0.032088835 0.46666557 4294901760
-0.019084439 0.031592231 0.46660739 4294901760
-0.019084439 0.031095626 0.46654922 4294901760
-0.019084439 0.030599022 0.46649104 4294901760
-0.019084439 0.030102419 0.46643287 4294901760
-0.019084439 0.029605815 0.4663747 4294901760
-0.019084439 0.029109212 0.46631649 4294901760
-0.019084439 0.028612608 0.46625832 4294901760
-0.019084439 0.028116005 0.46620014 4294901760
-0.019084439 0.027619399 0.46614197 4294901760
-0.019084439 0.027122797 0.46608379 4294901760
-0.019084439 0.026626192 0.46602562 4294901760
-0.019084439 0.02612959 0.46596742 4294901760
-0.019084439 0.025632985 0.46590924 4294901760
-0.019084439 0.025136381 0.46585107 4294901760
-0.019084439 0.024639778 0.46579289 4294901760
-0.019084439 0.024143174 0.46573472 4294901760
-0.019084439 0.023646571 0.46567655 4294901760
-0.019084439 0.023149967 0.46561834 4294901760
-0.019084439 0.022653364 0.46556017 4294901760
-0.019084439 0.02215676 0.46550199 4294901760
-0.019084439 0.021660157 0.46544382 4294901760
-0.019084439 0.021163553 0.46538565 4294901760
-0.019084439 0.020666949 0.46532747 4294901760
-0.019084439 0.020170346 0.46526927 4294901760
-0.019084439 0.019673742 0.46521109 4294901760
-0.019084439 0.019177139 0.46515292 4294901760
-0.019084439 0.018680533 0.46509475 4294901760
-0.019084439 0.018183932 0.46503657 4294901760
-0.019084439 0.017687328 0.4649784 4294901760
-0.019084439 0.017190725 0.46492019 4294901760
-0.019084439 0.016694119 0.46486202 4294901760
-0.019084439 0.016197518 0.46480384 4294901760
-0.019084439 0.015700914 0.46474567 4294901760
-0.019084439 0.015204309 0.4646875 4294901760
-0.019084439 0.014707705 0.46462932 4294901760
-0.019084439 0.014211103 0.46457112 4294901760
-0.019084439 0.013714498 0.46451294 4294901760
-0.019084439 0.013217894 0.46445477 4294901760
-0.019084439 0.012721291 0.4643966 4294901760
-0.019084439 0.012224687 0.46433842 4294901760
-0.019084439 0.011728084 0.46428025 4294901760
-0.019084439 0.01123148 0.46422204 4294901760
-0.019084439 0.010734877 0.46416387 4294901760
-0.019084439 0.010238275 0.4641057 4294901760
-0.019084439 0.0097416677 0.46404752 4294901760
-0.019084439 0.0092450641 0.46398935 4294901760
-0.019084439 0.0087484624 0.46393114 4294901760
-0.019084439 0.0082518589 0.46387297 4294901760
-0.019084439 0.0077552553 0.4638148 4294901760
-0.019084439 0.0072586518 0.46375662 4294901760
-0.019084439 0.0067620464 0.46369845 4294901760
-0.019084439 0.0062654428 0.46364027 4294901760
-0.019084439 0.0057688393 0.46358207 4294901760
-0.019084439 0.0052722357 0.46352389 4294901760
-0.019084439 0.0047756322 0.46346572 4294901760
-0.019084439 0.0042790286 0.46340755 4294901760
-0.019084439 0.0037824251 0.46334937 4294901760
-0.019084439 0.0032858215 0.4632912 4294901760
-0.019084439 0.002789218 0.46323299 4294901760
-0.019084439 0.0022926144 0.46317482 4294901760
-0.019084439 0.0017960109 0.46311665 4294901760
-0.019084439 0.0012994073 0.46305847 4294901760
-0.019084439 0.00080280006 0.4630003 4294901760
-0.019084439 0.00030620024 0.46294212 4294901760
-0.019084439 -0.00019040331 0.46288392 4294901760
-0.019084439 -0.00068700686 0.46282575 4294901760
-0.019084439 -0.0011836104 0.46276757 4294901760
-0.019084439 -0.001680214 0.4627094 4294901760
-0.019084439 -0.0021768175 0.46265122 4294901760
-0.019084439 -0.0026734248 0.46259305 4294901760
-0.019084439 -0.0031700283 0.46253484 4294901760
-0.019084439 -0.0036666282 0.46247667 4294901760
-0.019084439 -0.0041632317 0.4624185 4294901760
-0.019084439 -0.0046598352 0.46236032 4294901760
-0.019084439 -0.0051564388 0.46230215 4294901760
-0.019084439 -0.0056530461 0.46224397 4294901760
-0.019084439 -0.0061496496 0.46218577 4294901760
-0.019084439 -0.0066462532 0.4621276 4294901760
-0.019084439 -0.0071428567 0.46206942 4294901760
-0.019084439 -0.0076394565 0.46201125 4294901760
-0.019084439 -0.0081360601 0.46195307 4294901760
-0.019084439 -0.0086326674 0.4618949 4294901760
-0.019084439 -0.0091292709 0.4618367 4294901760
-0.019084439 -0.0096258745 0.46177852 4294901760
-0.019084439 -0.010122478 0.46172035 4294901760
-0.019084439 -0.010619082 0.46166217 4294901760
-0.019084439 -0.011115685 0.461604 4294901760
-0.019084439 -0.011612289 0.46154583 4294901760
-0.019084439 -0.012108892 0.46148762 4294901760
-0.019084439 -0.012605496 0.46142945 4294901760
-0.019084439 -0.013102099 0.46137127 4294901760
-0.019084439 0.036558267 0.46718919 4278255360
-0.018689424 0.036522601 0.46749365 4278255360
-0.018294407 0.036486931 0.46779808 4278255360
-0.017899392 0.036451265 0.46810254 4278255360
-0.017504375 0.036415596 0.46840701 4278255360
-0.017109361 0.03637993 0.46871144 4278255360
-0.016714344 0.03634426 0.4690159 4278255360
-0.016319329 0.036308594 0.46932036 4278255360
-0.015924312 0.036272924 0.46962479 4278255360
-0.015529297 0.036237258 0.46992925 4278255360
-0.015134281 0.036201589 0.47023371 4278255360
-0.014739266 0.036165923 0.47053814 4278255360
-0.01434425 0.036130253 0.4708426 4278255360
-0.013949234 0.036094587 0.47114706 4278255360
-0.013554218 0.036058918 0.47145152 4278255360
-0.013159202 0.036023252 0.47175595 4278255360
-0.012764188 0.035987582 0.47206041 4278255360
-0.012369171 0.035951916 0.47236487 4278255360
-0.011974155 0.035916246 0.4726693 4278255360
-0.011579139 0.035880581 0.47297376 4278255360
-0.011184123 0.035844911 0.47327822 4278255360
-0.010789108 0.035809245 0.47358266 4278255360
-0.010394093 0.035773575 0.47388712 4278255360
-0.0099990768 0.035737909 0.47419158 4278255360
-0.009604061 0.03570224 0.47449601 4278255360
-0.0092090452 0.035666574 0.47480047 4278255360
-0.0088140294 0.035630908 0.47510493 4278255360
-0.0084190136 0.035595238 0.47540936 4278255360
-0.0080239978 0.035559572 0.47571382 4278255360
-0.0076289829 0.035523903 0.47601828 4278255360
-0.0072339661 0.035488237 0.47632271 4278255360
-0.0068389503 0.035452567 0.47662717 4278255360
-0.0064439354 0.035416901 0.47693163 4278255360
-0.0060489187 0.035381231 0.47723606 4278255360
-0.0056539038 0.035345566 0.47754052 4278255360
-0.005258888 0.035309896 0.47784498 4278255360
-0.0048638713 0.03527423 0.47814941 4278255360
-0.0044688564 0.03523856 0.47845387 4278255360
-0.0040738406 0.035202894 0.47875834 4278255360
-0.0036788257 0.035167225 0.4790628 4278255360
-0.003283808 0.035131559 0.47936723 4278255360
-0.0028887931 0.035095889 0.47967169 4278255360
-0.0024937782 0.035060223 0.47997615 4278255360
-0.0020987615 0.035024554 0.48028058 4278255360
-0.0017037466 0.034988888 0.48058504 4278255360
-0.0013087317 0.034953218 0.4808895 4278255360
-0.00091371499 0.034917552 0.48119393 4278255360
-0.00051869825 0.034881882 0.48149839 4278255360
-0.00012368336 0.034846216 0.48180285 4278255360
0.00027133338 0.034810547 0.48210728 4278255360
0.00066634826 0.034774881 0.48241174 4278255360
0.0010613631 0.034739215 0.4827162 4278255360
0.0014563799 0.034703545 0.48302063 4278255360
0.0018513948 0.034667879 0.48332509 4278255360
0.0022464115 0.03463221 0.48362955 4278255360
0.0026414283 0.034596544 0.48393399 4278255360
0.0030364431 0.034560874 0.48423845 4278255360
0.003431458 0.034525208 0.48454291 4278255360
0.0038264729 0.034489539 0.48484734 4278255360
0.0042214897 0.034453873 0.4851518 4278255360
0.0046165064 0.034418203 0.48545626 4278255360
0.0050115213 0.034382537 0.48576069 4278255360
0.005406538 0.034346867 0.48606515 4278255360
0.0058015529 0.034311201 0.48636961 4278255360
0.0061965678 0.034275532 0.48667407 4278255360
0.0065915827 0.034239866 0.4869785 4278255360
0.0069866013 0.034204196 0.48728296 4278255360
0.0073816162 0.03416853 0.48758742 4278255360
0.007776631 0.034132861 0.48789185 4278255360
0.0081716478 0.034097195 0.48819631 4278255360
0.0085666627 0.034061525 0.48850077 4278255360
0.0089616776 0.034025859 0.4888052 4278255360
0.0093566962 0.033990189 0.48910967 4278255360
0.009751711 0.033954524 0.48941413 4278255360
0.010146726 0.033918858 0.48971856 4278255360
0.010541741 0.033883188 0.49002302 4278255360
0.010936758 0.033847518 0.49032748 4278255360
0.011331772 0.033811852 0.49063191 4278255360
0.011726787 0.033776186 0.49093637 4278255360
0.012121806 0.033740517 0.49124083 4278255360
0.012516823 0.033704851 0.49154526 4278255360
0.012911838 0.033669181 0.49184972 4278255360
0.013306852 0.033633515 0.49215418 4278255360
0.013701867 0.033597846 0.49245861 4278255360
0.014096882 0.03356218 0.49276307 4278255360
0.014491901 0.03352651 0.49306753 4278255360
0.014886916 0.033490844 0.49337196 4278255360
0.015281931 0.033455174 0.49367642 4278255360
0.015676945 0.033419508 0.49398088 4278255360
0.01607196 0.033383839 0.49428535 4278255360
0.016466975 0.033348173 0.49458978 4278255360
0.016861994 0.033312503 0.49489424 4278255360
0.017257009 0.033276837 0.4951987 4278255360
0.017652024 0.033241168 0.49550313 4278255360
0.018047042 0.033205502 0.49580759 4278255360
0.018442057 0.033169832 0.49611205 4278255360
0.018837072 0.033134166 0.49641648 4278255360
0.019232091 0.033098496 0.49672094 4278255360
0.019627105 0.033062831 0.4970254 4278255360
0.02002212 0.033027165 0.49732983 4278255360
0.020417135 0.032991495 0.49763429 4278255360
-0.019084439 0.036558267 0.46718919 4278190335
-0.019390972 0.036512304 0.46758151 4278190335
-0.019697504 0.036466341 0.46797386 4278190335
-0.020004038 0.036420375 0.46836621 4278190335
-0.020310571 0.036374412 0.46875852 4278190335
-0.020617105 0.03632845 0.46915084 4278190335
-0.020923637 0.036282487 0.46954319 4278190335
-0.021230171 0.036236525 0.46993554 4278190335
-0.021536704 0.036190558 0.47032785 4278190335
-0.021843238 0.036144596 0.4707202 4278190335
-0.02214977 0.036098633 0.47111252 4278190335
-0.022456303 0.03605267 0.47150487 4278190335
-0.022762837 0.036006704 0.47189718 4278190335
-0.023069371 0.035960741 0.4722895 4278190335
-0.023375902 0.035914779 0.47268185 4278190335
-0.023682436 0.035868816 0.4730742 4278190335
-0.02398897 0.035822853 0.47346652 4278190335
-0.024295501 0.035776887 0.47385883 4278190335
-0.024602037 0.035730924 0.47425118 4278190335
-0.024908569 0.035684962 0.47464353 4278190335
-0.025215102 0.035638999 0.47503585 4278190335
-0.025521636 0.035593037 0.47542816 4278190335
-0.025828168 0.03554707 0.47582051 4278190335
-0.026134701 0.035501108 0.47621286 4278190335
-0.026441235 0.035455145 0.47660518 4278190335
-0.026747767 0.035409182 0.47699749 4278190335
-0.027054301 0.03536322 0.47738984 4278190335
-0.027360834 0.035317253 0.47778219 4278190335
-0.027667366 0.035271291 0.47817451 4278190335
-0.027973901 0.035225328 0.47856683 4278190335
-0.028280433 0.035179365 0.47895917 4278190335
-0.028586967 0.035133399 0.47935152 4278190335
-0.028893501 0.035087436 0.47974384 4278190335
-0.029200032 0.035041474 0.48013619 4278190335
-0.029506566 0.034995511 0.4805285 4278190335
-0.0298131 0.034949549 0.48092085 4278190335
-0.030119633 0.034903582 0.48131317 4278190335
-0.030426167 0.03485762 0.48170549 4278190335
-0.030732699 0.034811657 0.48209783 4278190335
-0.031039231 0.034765694 0.48249015 4278190335
-0.031345766 0.034719732 0.4828825 4278190335
-0.031652298 0.034673765 0.48327482 4278190335
-0.031958833 0.034627803 0.48366717 4278190335
-0.032265365 0.03458184 0.48405951 4278190335
-0.032571897 0.034535877 0.48445183 4278190335
-0.032878429 0.034489915 0.48484415 4278190335
-0.033184964 0.034443948 0.4852365 4278190335
-0.0334915 0.034397986 0.48562884 4278190335
-0.033798032 0.034352023 0.48602116 4278190335
-0.034104563 0.034306061 0.48641348 4278190335
-0.034411095 0.034260094 0.48680583 4278190335
-0.034717631 0.034214132 0.48719817 4278190335
-0.035024162 0.034168169 0.48759049 4278190335
-0.035330698 0.034122206 0.48798281 4278190335
-0.03563723 0.034076244 0.48837516 4278190335
-0.035943761 0.034030277 0.4887675 4278190335
-0.036250293 0.033984315 0.48915982 4278190335
-0.036556829 0.033938352 0.48955214 4278190335
-0.036863364 0.033892389 0.48994449 4278190335
-0.037169896 0.033846427 0.49033681 4278190335
-0.037476428 0.03380046 0.49072915 4278190335
-0.03778296 0.033754498 0.49112147 4278190335
-0.038089495 0.033708535 0.49151382 4278190335
-0.038396031 0.033662573 0.49190617 4278190335
-0.038702562 0.03361661 0.49229848 4278190335
-0.039009094 0.033570644 0.4926908 4278190335
-0.039315626 0.033524681 0.49308315 4278190335
-0.039622162 0.033478718 0.4934755 4278190335
-0.039928693 0.033432756 0.49386781 4278190335
-0.040235229 0.033386789 0.49426013 4278190335
-0.040541761 0.033340827 0.49465248 4278190335
-0.040848292 0.033294864 0.49504483 4278190335
-0.041154828 0.033248901 0.49543715 4278190335
-0.04146136 0.033202939 0.49582946 4278190335
-0.041767895 0.033156972 0.49622181 4278190335
-0.042074427 0.03311101 0.49661416 4278190335
-0.042380959 0.033065047 0.49700648 4278190335
-0.042687491 0.033019084 0.49739879 4278190335
-0.042994022 0.032973122 0.49779114 4278190335
-0.043300562 0.032927155 0.49818349 4278190335
-0.043607093 0.032881193 0.49857581 4278190335
-0.043913625 0.03283523 0.49896812 4278190335
-0.044220157 0.032789268 0.49936047 4278190335
-0.044526689 0.032743305 0.49975282 4278190335
-0.044833224 0.032697339 0.50014514 4278190335
-0.04513976 0.032651376 0.50053746 4278190335
-0.045446292 0.032605413 0.50092983 4278190335
-0.045752823 0.032559451 0.50132215 4278190335
-0.046059355 0.032513484 0.50171447 4278190335
-0.046365891 0.032467522 0.50210679 4278190335
-0.046672422 0.032421559 0.5024991 4278190335
-0.046978958 0.032375596 0.50289148 4278190335
-0.04728549 0.032329634 0.5032838 4278190335
-0.047592022 0.032283671 0.50367612 4278190335
-0.047898557 0.032237705 0.50406849 4278190335
-0.048205089 0.032191742 0.50446081 4278190335
-0.048511624 0.03214578 0.50485313 4278190335
-0.048818156 0.032099817 0.50524545 4278190335
-0.049124688 0.032053851 0.50563776 4278190335
-0.04943122 0.032007888 0.50603014 4278190335
-0.049737755 0.031961925 0.50642246 4278190335
-0.019084439 0.036558267 0.46718919 4294967295
-0.018471371 0.036650192 0.46640453 4294967295
-0.017858306 0.036742121 0.46561986 4294967295
-0.017245241 0.036834046 0.4648352 4294967295
-0.016632173 0.036925975 0.46405053 4294967295
-0.016019106 0.0370179 0.46326587 4294967295
-0.01540604 0.037109829 0.4624812 4294967295
-0.014792974 0.037201755 0.46169654 4294967295
-0.014179908 0.03729368 0.46091187 4294967295
-0.013566841 0.037385609 0.4601272 4294967295
-0.012953775 0.037477534 0.45934254 4294967295
-0.012340709 0.037569463 0.45855787 4294967295
-0.011727642 0.037661389 0.45777321 4294967295
-0.011114576 0.037753314 0.45698854 4294967295
-0.01050151 0.037845243 0.45620388 4294967295
-0.0098884432 0.037937168 0.45541921 4294967295
-0.0092753768 0.038029097 0.45463455 4294967295
-0.0086623104 0.038121022 0.45384988 4294967295
-0.0080492441 0.038212951 0.45306522 4294967295
-0.0074361777 0.038304877 0.45228055 4294967295
-0.0068231113 0.038396802 0.45149589 4294967295
-0.006210045 0.038488731 0.45071122 4294967295
-0.0055969786 0.038580656 0.44992656 4294967295
-0.0049839122 0.038672585 0.44914189 4294967295
-0.0043708459 0.03876451 0.44835722 4294967295
-0.0037577795 0.038856439 0.44757256 4294967295
-0.0031447131 0.038948365 0.44678789 4294967295
-0.0025316458 0.03904029 0.44600323 4294967295
-0.0019185804 0.039132219 0.44521856 4294967295
-0.0013055149 0.039224144 0.4444339 4294967295
-0.00069244765 0.039316073 0.44364923 4294967295
-7.9380348e-05 0.039407998 0.44286457 4294967295
0.00053368509 0.039499924 0.4420799 4294967295
0.0011467524 0.039591853 0.44129524 4294967295
0.0017598178 0.039683778 0.44051057 4294967295
0.0023728833 0.039775707 0.43972591 4294967295
0.0029859506 0.039867632 0.43894124 4294967295
0.0035990179 0.039959561 0.43815657 4294967295
0.0042120833 0.040051486 0.43737191 4294967295
0.0048251487 0.040143412 0.43658724 4294967295
0.005438216 0.040235341 0.43580258 4294967295
0.0060512815 0.040327266 0.43501791 4294967295
0.0066643488 0.040419195 0.43423325 4294967295
0.0072774161 0.04051112 0.43344858 4294967295
0.0078904815 0.040603049 0.43266392 4294967295
0.0085035469 0.040694974 0.43187928 4294967295
0.0091166142 0.0407869 0.43109459 4294967295
0.0097296797 0.040878829 0.43030995 4294967295
0.010342747 0.040970754 0.42952526 4294967295
0.010955814 0.041062683 0.42874062 4294967295
0.01156888 0.041154608 0.42795593 4294967295
0.012181945 0.041246533 0.42717129 4294967295
0.012795012 0.041338462 0.42638662 4294967295
0.013408076 0.041430388 0.42560196 4294967295
0.014021147 0.041522317 0.42481726 4294967295
0.014634211 0.041614242 0.42403263 4294967295
0.015247278 0.041706167 0.42324793 4294967295
0.015860345 0.041798096 0.4224633 4294967295
0.016473409 0.041890021 0.42167863 4294967295
0.017086476 0.04198195 0.42089397 4294967295
0.017699543 0.042073876 0.42010927 4294967295
0.018312611 0.042165805 0.41932464 4294967295
0.018925678 0.04225773 0.41853997 4294967295
0.019538742 0.042349659 0.41775531 4294967295
0.020151809 0.042441584 0.41697064 4294967295
0.020764872 0.042533509 0.41618598 4294967295
0.021377943 0.042625438 0.41540131 4294967295
0.021991011 0.042717364 0.41461664 4294967295
0.022604074 0.042809293 0.41383198 4294967295
0.023217142 0.042901218 0.41304731 4294967295
0.023830205 0.042993143 0.41226265 4294967295
0.024443273 0.043085072 0.41147798 4294967295
0.02505634 0.043176997 0.41069332 4294967295
0.025669407 0.043268926 0.40990865 4294967295
0.026282474 0.043360852 0.40912399 4294967295
0.026895538 0.043452777 0.40833932 4294967295
0.027508605 0.043544706 0.40755466 4294967295
0.028121669 0.043636631 0.40676999 4294967295
0.028734736 0.04372856 0.40598533 4294967295
0.029347807 0.043820485 0.40520066 4294967295
0.029960871 0.043912414 0.40441599 4294967295
0.030573938 0.04400434 0.40363133 4294967295
0.031187002 0.044096265 0.40284666 4294967295
0.031800069 0.044188194 0.402062 4294967295
0.032413136 0.044280119 0.40127733 4294967295
0.033026204 0.044372048 0.40049267 4294967295
0.033639271 0.044463973 0.399708 4294967295
0.034252334 0.044555902 0.39892334 4294967295
0.034865402 0.044647828 0.39813867 4294967295
0.035478469 0.044739753 0.39735401 4294967295
0.036091533 0.044831682 0.39656934 4294967295
0.036704604 0.044923607 0.39578468 4294967295
0.037317667 0.045015536 0.39500001 4294967295
0.037930734 0.045107462 0.39421535 4294967295
0.038543798 0.045199387 0.39343068 4294967295
0.039156865 0.045291316 0.39264601 4294967295
