# .PCD v0.7 - Point Cloud Data file format
VERSION 0.7
FIELDS x y z rgb
SIZE 4 4 4 4
TYPE F F F U
COUNT 1 1 1 1
WIDTH 1037
HEIGHT 1
VIEWPOINT 0 0 0 1 0 0 0
POINTS 1037
DATA ascii
-0.012277507 0.024553884 0.47900003 4278466833
-0.010721715 0.024553884 0.47900003 4278466833
-0.0091659222 0.024553884 0.47900003 4278466833
-0.0075942408 0.024502622 0.47800002 4278598419
-0.0060416963 0.024502622 0.47800002 4278664212
-0.0044891518 0.024502622 0.47800002 4278993177
-0.0029366068 0.024502622 0.47800002 4278335247
-0.0013811664 0.024451362 0.47700003 4278467603
0.00016813047 0.024451362 0.47700003 4278533396
-0.023458261 0.02643726 0.48500001 4279250199
-0.021837862 0.026382752 0.48400003 4279318812
-0.020223958 0.026328241 0.48300001 4278334734
-0.01861655 0.026273731 0.48200002 4278730005
-0.017015638 0.026219223 0.48100004 4278730005
-0.01542122 0.026164712 0.48000002 4278664212
-0.01386218 0.026164712 0.48000002 4278532626
-0.012277507 0.026110204 0.47900003 4278598419
-0.010721715 0.026110204 0.47900003 4278532113
-0.0091467863 0.026055692 0.47800002 4278532113
-0.0075942408 0.026055692 0.47800002 4278400527
-0.0060416963 0.026055692 0.47800002 4278729492
-0.0044891518 0.026055692 0.47800002 4278464015
-0.0029304633 0.026001183 0.47700003 4278198786
-0.0013811664 0.026001183 0.47700003 4278466833
0.00016813047 0.026001183 0.47700003 4278598419
0.0017174273 0.026001183 0.47700003 4278335247
0.0032667241 0.026001183 0.47700003 4278532626
0.0048059244 0.025946673 0.47600001 4278335247
-0.023458261 0.028013075 0.48500001 4279118867
-0.021837862 0.027955318 0.48400003 4279055638
-0.020223958 0.027897557 0.48300001 4278466833
-0.01861655 0.027839798 0.48200002 4278730005
-0.017015638 0.027782042 0.48100004 4278664212
-0.01542122 0.027724281 0.48000002 4278532626
-0.01386218 0.027724281 0.48000002 4278466833
-0.012277507 0.027666522 0.47900003 4278466833
-0.010721715 0.027666522 0.47900003 4278598419
-0.0091467863 0.027608763 0.47800002 4278532113
-0.0075942408 0.027608763 0.47800002 4278532113
-0.0060416963 0.027608763 0.47800002 4278532113
-0.0044797603 0.027551005 0.47700003 4278200329
-0.0029304633 0.027551005 0.47700003 4278595089
-0.0013811664 0.027551005 0.47700003 4278530578
0.00016813047 0.027551005 0.47700003 4278727957
0.0017174273 0.027551005 0.47700003 4278530578
0.0032598756 0.027493244 0.47600001 4278925590
0.0048059244 0.027493244 0.47600001 4278728211
0.0063519734 0.027493244 0.47600001 4278728211
0.0078980215 0.027493244 0.47600001 4278530830
0.009444071 0.027493244 0.47600001 4278728722
0.012562505 0.027551005 0.47700003 4278729494
0.014111802 0.027551005 0.47700003 4278597908
0.0156611 0.027551005 0.47700003 4278532115
0.017210396 0.027551005 0.47700003 4278597908
0.018759692 0.027551005 0.47700003 4278664214
0.02030899 0.027551005 0.47700003 4278664212
0.021858286 0.027551005 0.47700003 4278664212
0.023407584 0.027551005 0.47700003 4278335247
0.026450608 0.027493244 0.47600001 4278598419
0.027996656 0.027493244 0.47600001 4278664982
0.029542705 0.027493244 0.47600001 4278533910
0.031088753 0.027493244 0.47600001 4278731289
0.032566246 0.027435487 0.47500002 4278731289
0.034109045 0.027435487 0.47500002 4278731289
0.035651844 0.027435487 0.47500002 4278862875
0.038574342 0.027319968 0.47300002 4278928156
0.040110648 0.027319968 0.47300002 4279322660
0.04164695 0.027319968 0.47300002 4279124511
0.045003194 0.027493244 0.47600001 4280175153
-0.023458261 0.029588889 0.48500001 4279315732
-0.021837862 0.029527882 0.48400003 4279187478
-0.020182086 0.029405866 0.48200002 4278597908
-0.01861655 0.029405866 0.48200002 4278730007
-0.017015638 0.029344859 0.48100004 4278599191
-0.01542122 0.02928385 0.48000002 4278467605
-0.01386218 0.02928385 0.48000002 4278335247
-0.012277507 0.029222842 0.47900003 4278466833
-0.010699331 0.029161833 0.47800002 4278466833
-0.0091467863 0.029161833 0.47800002 4278466833
-0.0075942408 0.029161833 0.47800002 4278532113
-0.0060290569 0.029100826 0.47700003 4278663699
-0.0044797603 0.029100826 0.47700003 4278195200
-0.0029304633 0.029100826 0.47700003 4279054357
-0.0013811664 0.029100826 0.47700003 4279121433
0.00016813047 0.029100826 0.47700003 4278197511
0.0017138268 0.029039817 0.47600001 4278196488
0.0032598756 0.029039817 0.47600001 4278195974
0.0048059244 0.029039817 0.47600001 4278262279
0.0063519734 0.029039817 0.47600001 4278195713
0.0078980215 0.029039817 0.47600001 4278196224
0.009444071 0.029039817 0.47600001 4278197508
0.01099012 0.029039817 0.47600001 4278396427
0.012562505 0.029100826 0.47700003 4278922771
0.014111802 0.029100826 0.47700003 4278595601
0.0156611 0.029100826 0.47700003 4278596371
0.017210396 0.029100826 0.47700003 4278531091
0.018759692 0.029100826 0.47700003 4278531091
0.02030899 0.029100826 0.47700003 4278465298
0.021858286 0.029100826 0.47700003 4278465552
0.023407584 0.029100826 0.47700003 4278399757
0.024904558 0.029039817 0.47600001 4278663699
0.026450608 0.029039817 0.47600001 4278400527
0.027996656 0.029039817 0.47600001 4278532113
0.029542705 0.029039817 0.47600001 4278335247
0.031088753 0.029039817 0.47600001 4278533396
0.032566246 0.02897881 0.47500002 4278204945
0.034109045 0.02897881 0.47500002 4278336531
0.035651844 0.02897881 0.47500002 4278203915
0.037116341 0.028917802 0.47400004 4278468115
0.038655896 0.028917802 0.47400004 4278533908
0.04019545 0.028917802 0.47400004 4278731287
0.041735001 0.028917802 0.47400004 4278928666
0.043457143 0.029039817 0.47600001 4278731287
0.045003194 0.029039817 0.47600001 4278797082
0.046647035 0.029100826 0.47700003 4278993695
0.048297372 0.029161833 0.47800002 4279125283
0.049849916 0.029161833 0.47800002 4279322662
0.051509999 0.029222842 0.47900003 4278663708
-0.023409896 0.031100448 0.48400003 4279250453
-0.021792741 0.031036191 0.48300001 4279186711
-0.020182086 0.030971935 0.48200002 4278729494
-0.018577926 0.030907677 0.48100004 4278599191
-0.017015638 0.030907677 0.48100004 4278599191
-0.01542122 0.03084342 0.48000002 4278533396
-0.0138333 0.030779164 0.47900003 4278467603
-0.012277507 0.030779164 0.47900003 4278336017
-0.010699331 0.030714905 0.47800002 4278335247
-0.0091467863 0.030714905 0.47800002 4278532626
-0.0075783534 0.030650649 0.47700003 4278400527
-0.0060290569 0.030650649 0.47700003 4278728724
-0.0044797603 0.030650649 0.47700003 4278194176
-0.0029304633 0.030650649 0.47700003 4279185943
-0.0013811664 0.030650649 0.47700003 4279318299
0.00016777799 0.030586392 0.47600001 4278262281
0.0017138268 0.030586392 0.47600001 4278785804
0.0032598756 0.030586392 0.47600001 4278720013
0.0048059244 0.030586392 0.47600001 4278720013
0.0063519734 0.030586392 0.47600001 4278851084
0.0078980215 0.030586392 0.47600001 4278654218
0.009444071 0.030586392 0.47600001 4278720011
0.01099012 0.030586392 0.47600001 4278720011
0.012562505 0.030650649 0.47700003 4278588939
0.014111802 0.030650649 0.47700003 4278194688
0.0156611 0.030650649 0.47700003 4278594322
0.017210396 0.030650649 0.47700003 4278198536
0.018759692 0.030650649 0.47700003 4278197252
0.02030899 0.030650649 0.47700003 4278195712
0.021858286 0.030650649 0.47700003 4278195712
0.023407584 0.030650649 0.47700003 4278195200
0.024904558 0.030586392 0.47600001 4278198277
0.026450608 0.030586392 0.47600001 4278331917
0.027996656 0.030586392 0.47600001 4278792466
0.029542705 0.030586392 0.47600001 4278661394
0.031088753 0.030586392 0.47600001 4278990613
0.032566246 0.030522134 0.47500002 4278596623
0.034109045 0.030522134 0.47500002 4278465550
0.035651844 0.030522134 0.47500002 4278531343
0.037194647 0.030522134 0.47500002 4278597906
0.038737446 0.030522134 0.47500002 4278400527
0.040280249 0.030522134 0.47500002 4278334734
0.041823048 0.030522134 0.47500002 4278532626
0.043457143 0.030586392 0.47600001 4278401810
0.045097739 0.030650649 0.47700003 4278599189
0.046744827 0.030714905 0.47800002 4278599189
0.048297372 0.030714905 0.47800002 4278796568
0.049954206 0.030779164 0.47900003 4278731289
0.051509999 0.030779164 0.47900003 4278731291
0.053176578 0.03084342 0.48000002 4278862623
0.054735616 0.03084342 0.48000002 4278795294
-0.023409896 0.032673012 0.48400003 4279382809
-0.021792741 0.032605506 0.48300001 4279252758
-0.020182086 0.032538 0.48200002 4278926103
-0.018577926 0.032470495 0.48100004 4278729494
-0.016980261 0.032402989 0.48000002 4278795798
-0.01542122 0.032402989 0.48000002 4278466833
-0.0138333 0.032335483 0.47900003 4278269454
-0.012277507 0.032335483 0.47900003 4278598421
-0.010699331 0.032267977 0.47800002 4278335249
-0.0091467863 0.032267977 0.47800002 4278532628
-0.0075783534 0.032200471 0.47700003 4278532628
-0.0060290569 0.032200471 0.47700003 4278597908
-0.0044797603 0.032200471 0.47700003 4278195200
-0.0029243196 0.032132965 0.47600001 4278923541
-0.0013782708 0.032132965 0.47600001 4278527246
0.00016777799 0.032132965 0.47600001 4278524170
0.0017138268 0.032132965 0.47600001 4278918928
0.0032598756 0.032132965 0.47600001 4278984467
0.0048059244 0.032132965 0.47600001 4279510811
0.0063519734 0.032132965 0.47600001 4279445018
0.0078980215 0.032132965 0.47600001 4279576858
0.009444071 0.032132965 0.47600001 4278853135
0.01099012 0.032132965 0.47600001 4278984721
0.012562505 0.032200471 0.47700003 4278853135
0.014111802 0.032200471 0.47700003 4278195461
0.0156611 0.032200471 0.47700003 4278857494
0.017210396 0.032200471 0.47700003 4278727189
0.018759692 0.032200471 0.47700003 4278990361
0.02030899 0.032200471 0.47700003 4278792468
0.021858286 0.032200471 0.47700003 4278989593
0.023407584 0.032200471 0.47700003 4279055386
0.02495688 0.032200471 0.47700003 4279515937
0.026450608 0.032132965 0.47600001 4278858007
0.027996656 0.032132965 0.47600001 4278725908
0.029542705 0.032132965 0.47600001 4279384092
0.031088753 0.032132965 0.47600001 4278593806
0.032634802 0.032132965 0.47600001 4278198534
0.03418085 0.032132965 0.47600001 4278196480
0.035726897 0.032132965 0.47600001 4278195456
0.037194647 0.032065459 0.47500002 4278195712
0.038737446 0.032065459 0.47500002 4278196224
0.040365048 0.032132965 0.47600001 4278199818
0.041911095 0.032132965 0.47600001 4278660880
0.043548442 0.032200471 0.47700003 4278398222
0.045097739 0.032200471 0.47700003 4278794004
0.046744827 0.032267977 0.47800002 4278334736
0.048398416 0.032335483 0.47900003 4278466835
0.049954206 0.032335483 0.47900003 4278336019
0.051617533 0.032402989 0.48000002 4278467605
0.053176578 0.032402989 0.48000002 4278862877
0.054735616 0.032402989 0.48000002 4278928156
0.056294661 0.032402989 0.48000002 4278202898
-0.023361526 0.034174822 0.48300001 4279515676
-0.021747623 0.034104068 0.48200002 4278925590
-0.020140216 0.034033313 0.48100004 4278795285
-0.018539302 0.033962559 0.48000002 4278729492
-0.016980261 0.033962559 0.48000002 4278992664
-0.015389093 0.033891805 0.47900003 4278203404
-0.0138333 0.033891805 0.47900003 4278598419
-0.012251875 0.033821046 0.47800002 4278730005
-0.010699331 0.033821046 0.47800002 4278335249
-0.0091276504 0.033750292 0.47700003 4278269456
-0.0075783534 0.033750292 0.47700003 4278532115
-0.0060290569 0.033750292 0.47700003 4278728470
-0.0044703684 0.033679534 0.47600001 4278328583
-0.0029243196 0.033679534 0.47600001 4278923541
-0.0013782708 0.033679534 0.47600001 4278263304
0.00016777799 0.033679534 0.47600001 4278655756
0.0017138268 0.033679534 0.47600001 4278194947
0.0032598756 0.033679534 0.47600001 4279379992
0.0048059244 0.033679534 0.47600001 4279971875
0.0063519734 0.033679534 0.47600001 4278194694
0.0078980215 0.033679534 0.47600001 4278192896
0.009444071 0.033679534 0.47600001 4278392330
0.01099012 0.033679534 0.47600001 4279116820
0.012562505 0.033750292 0.47700003 4278458890
0.014111802 0.033750292 0.47700003 4278196742
0.0156611 0.033750292 0.47700003 4278923541
0.017210396 0.033750292 0.47700003 4278528013
0.018759692 0.033750292 0.47700003 4278197511
0.02030899 0.033750292 0.47700003 4278196997
0.021858286 0.033750292 0.47700003 4278593552
0.023407584 0.033750292 0.47700003 4278199564
0.02495688 0.033750292 0.47700003 4278331150
0.026506176 0.033750292 0.47700003 4278792468
0.027996656 0.033679534 0.47600001 4278198789
0.029542705 0.033679534 0.47600001 4278858259
0.031088753 0.033679534 0.47600001 4279055892
0.032634802 0.033679534 0.47600001 4279055892
0.03418085 0.033679534 0.47600001 4278989845
0.035726897 0.033679534 0.47600001 4278989845
0.037272949 0.033679534 0.47600001 4278858259
0.038818996 0.033679534 0.47600001 4278989845
0.04044985 0.033750292 0.47700003 4279055127
0.041999146 0.033750292 0.47700003 4279252506
0.043639734 0.033821046 0.47800002 4279120920
0.045192283 0.033821046 0.47800002 4278461453
0.04684262 0.033891805 0.47900003 4278857748
0.048398416 0.033891805 0.47900003 4278597908
0.050058495 0.033962559 0.48000002 4278598421
0.051617533 0.033962559 0.48000002 4278466835
0.053176578 0.033962559 0.48000002 4278532628
0.054735616 0.033962559 0.48000002 4278795800
0.056411941 0.034033313 0.48100004 4278861080
0.05797423 0.034033313 0.48100004 4284647282
-0.023313159 0.035670135 0.48200002 4279581469
-0.021702504 0.035596132 0.48100004 4278859797
-0.020140216 0.035596132 0.48100004 4278991894
-0.018539302 0.035522126 0.48000002 4278861078
-0.016980261 0.035522126 0.48000002 4278729492
-0.015389093 0.035448123 0.47900003 4278335247
-0.0138333 0.035448123 0.47900003 4278335247
-0.012251875 0.035374116 0.47800002 4278598419
-0.010699331 0.035374116 0.47800002 4278466835
-0.0091276504 0.035300113 0.47700003 4278597908
-0.0075783534 0.035300113 0.47700003 4278662931
-0.0060290569 0.035300113 0.47700003 4278595855
-0.0044703684 0.035226107 0.47600001 4278525451
-0.0029243196 0.035226107 0.47600001 4278660369
-0.0013782708 0.035226107 0.47600001 4278194944
0.00016777799 0.035226107 0.47600001 4278654986
0.0017138268 0.035226107 0.47600001 4278851597
0.0032598756 0.035226107 0.47600001 4278522632
0.0048059244 0.035226107 0.47600001 4278654732
0.0063519734 0.035226107 0.47600001 4278523146
0.0078980215 0.035226107 0.47600001 4278654732
0.009444071 0.035226107 0.47600001 4278720525
0.01099012 0.035226107 0.47600001 4278657037
0.012562505 0.035300113 0.47700003 4278788623
0.014111802 0.035300113 0.47700003 4279052822
0.0156611 0.035300113 0.47700003 4278726675
0.017210396 0.035300113 0.47700003 4278196744
0.018759692 0.035300113 0.47700003 4278524683
0.02030899 0.035300113 0.47700003 4278589963
0.021858286 0.035300113 0.47700003 4278789136
0.023407584 0.035300113 0.47700003 4278792216
0.02495688 0.035300113 0.47700003 4278197766
0.026506176 0.035300113 0.47700003 4278331665
0.028055474 0.035300113 0.47700003 4279054873
0.02960477 0.035300113 0.47700003 4278196224
0.031154066 0.035300113 0.47700003 4278198791
0.032634802 0.035226107 0.47600001 4278198788
0.034252662 0.035300113 0.47700003 4278791955
0.035801958 0.035300113 0.47700003 4278989845
0.037351254 0.035300113 0.47700003 4278200843
0.03890055 0.035300113 0.47700003 4278595601
0.04044985 0.035300113 0.47700003 4278727187
0.042087194 0.035374116 0.47800002 4278858773
0.043639734 0.035374116 0.47800002 4278727187
0.045286831 0.035448123 0.47900003 4279383322
0.04684262 0.035448123 0.47900003 4279318297
0.048499454 0.035522126 0.48000002 4278728724
0.050058495 0.035522126 0.48000002 4278860310
0.051725071 0.035596132 0.48100004 4278532115
0.053287365 0.035596132 0.48100004 4278663701
0.054849651 0.035596132 0.48100004 4278532115
0.056411941 0.035596132 0.48100004 4278794263
0.05797423 0.035596132 0.48100004 4284449903
-0.028300326 0.03762247 0.48700002 4285366638
-0.023313159 0.037236203 0.48200002 4279254301
-0.021702504 0.037158951 0.48100004 4278926103
-0.020098343 0.037081696 0.48000002 4278992666
-0.018539302 0.037081696 0.48000002 4278861078
-0.016944887 0.037004441 0.47900003 4278861078
-0.015389093 0.037004441 0.47900003 4278597906
-0.0138333 0.037004441 0.47900003 4278400527
-0.012251875 0.036927186 0.47800002 4278663701
-0.010699331 0.036927186 0.47800002 4278532628
-0.0091276504 0.036849935 0.47700003 4278466835
-0.0075783534 0.036849935 0.47700003 4278400529
-0.0060164174 0.03677268 0.47600001 4278200583
-0.0044703684 0.03677268 0.47600001 4278461707
-0.0029243196 0.03677268 0.47600001 4279055640
-0.0013782708 0.03677268 0.47600001 4279186972
0.00016777799 0.03677268 0.47600001 4278460171
0.0017138268 0.03677268 0.47600001 4278721549
0.0032598756 0.03677268 0.47600001 4278523146
0.0048059244 0.03677268 0.47600001 4278720011
0.0063519734 0.03677268 0.47600001 4278720011
0.0078980215 0.03677268 0.47600001 4278720011
0.009444071 0.03677268 0.47600001 4278720011
0.01099012 0.03677268 0.47600001 4278654218
0.012562505 0.036849935 0.47700003 4278523146
0.014111802 0.036849935 0.47700003 4279053592
0.0156611 0.036849935 0.47700003 4278792214
0.017210396 0.036849935 0.47700003 4278789652
0.018759692 0.036849935 0.47700003 4278195464
0.02030899 0.036849935 0.47700003 4278920722
0.021858286 0.036849935 0.47700003 4279053590
0.023407584 0.036849935 0.47700003 4278197765
0.02495688 0.036849935 0.47700003 4278529042
0.026506176 0.036849935 0.47700003 4278265870
0.028055474 0.036849935 0.47700003 4278989847
0.02960477 0.036849935 0.47700003 4278594576
0.031154066 0.036849935 0.47700003 4278462990
0.032703366 0.036849935 0.47700003 4278856211
0.034252662 0.036849935 0.47700003 4278198281
0.035801958 0.036849935 0.47700003 4278330121
0.03742956 0.036927186 0.47800002 4279185943
0.038982101 0.036927186 0.47800002 4278528013
0.040534649 0.036927186 0.47800002 4278725392
0.042175245 0.037004441 0.47900003 4278200074
0.043731034 0.037004441 0.47900003 4278727187
0.045381371 0.037081696 0.48000002 4278198278
0.046940412 0.037081696 0.48000002 4279054355
0.048499454 0.037081696 0.48000002 4278728724
0.050162785 0.037158951 0.48100004 4278860310
0.051725071 0.037158951 0.48100004 4278662931
0.053287365 0.037158951 0.48100004 4278531345
0.054849651 0.037158951 0.48100004 4278531345
0.056411941 0.037158951 0.48100004 4279123230
0.05797423 0.037158951 0.48100004 4283067996
-0.026553961 0.038963273 0.48400003 4284315496
-0.023313159 0.03880227 0.48200002 4279450658
-0.021702504 0.038721766 0.48100004 4279123228
-0.020098343 0.038641263 0.48000002 4278663447
-0.018539302 0.038641263 0.48000002 4278729240
-0.016944887 0.038560763 0.47900003 4278663447
-0.015389093 0.038560763 0.47900003 4278663701
-0.0138333 0.038560763 0.47900003 4278597908
-0.012251875 0.038480259 0.47800002 4278729494
-0.010699331 0.038480259 0.47800002 4278532113
-0.0091276504 0.038399756 0.47700003 4278597906
-0.0075783534 0.038399756 0.47700003 4278663701
-0.0060164174 0.038319252 0.47600001 4278991896
-0.0044703684 0.038319252 0.47600001 4278661394
-0.0029243196 0.038319252 0.47600001 4278596371
-0.0013782708 0.038319252 0.47600001 4279189021
0.00016742553 0.038238753 0.47500002 4278860056
0.0017102263 0.038238753 0.47500002 4278727187
0.0032598756 0.038319252 0.47600001 4279121431
0.0048059244 0.038319252 0.47600001 4279055125
0.0063519734 0.038319252 0.47600001 4279120920
0.0078980215 0.038319252 0.47600001 4279251736
0.009444071 0.038319252 0.47600001 4279382809
0.01099012 0.038319252 0.47600001 4279579164
0.012562505 0.038399756 0.47700003 4279315478
0.014111802 0.038399756 0.47700003 4278988051
0.0156611 0.038399756 0.47700003 4278195968
0.017210396 0.038399756 0.47700003 4278195712
0.018759692 0.038399756 0.47700003 4278195457
0.02030899 0.038399756 0.47700003 4278195971
0.021858286 0.038399756 0.47700003 4278196996
0.023407584 0.038399756 0.47700003 4278856724
0.02495688 0.038399756 0.47700003 4278791701
0.026506176 0.038399756 0.47700003 4279318299
0.028055474 0.038399756 0.47700003 4279581471
0.02960477 0.038399756 0.47700003 4279253017
0.031154066 0.038399756 0.47700003 4278989845
0.032703366 0.038399756 0.47700003 4279055638
0.034324467 0.038480259 0.47800002 4278923539
0.035877012 0.038480259 0.47800002 4278857748
0.03742956 0.038480259 0.47800002 4278791955
0.039063655 0.038560763 0.47900003 4278857748
0.040619452 0.038560763 0.47900003 4278197252
0.042263292 0.038641263 0.48000002 4278265611
0.043822329 0.038641263 0.48000002 4278858261
0.045381371 0.038641263 0.48000002 4278196481
0.047038205 0.038721766 0.48100004 4278923287
0.048600499 0.038721766 0.48100004 4278728724
0.050162785 0.038721766 0.48100004 4278662931
0.051832609 0.03880227 0.48200002 4278728724
0.053398147 0.03880227 0.48200002 4278860310
0.054963682 0.03880227 0.48200002 4278662677
0.05652922 0.03880227 0.48200002 4279123230
0.058094755 0.03880227 0.48200002 4282476374
-0.023313159 0.040368337 0.48200002 4283394908
-0.020098343 0.040200833 0.48000002 4279054875
-0.018539302 0.040200833 0.48000002 4279121181
-0.016944887 0.040117081 0.47900003 4279385635
-0.015389093 0.040117081 0.47900003 4279254049
-0.0138333 0.040117081 0.47900003 4279320096
-0.012251875 0.040033329 0.47800002 4279123230
-0.010699331 0.040033329 0.47800002 4278728472
-0.0091467863 0.040033329 0.47800002 4279189023
-0.0075783534 0.039949577 0.47700003 4278662679
-0.0060290569 0.039949577 0.47700003 4278794263
-0.0044703684 0.039865825 0.47600001 4278859543
-0.0029243196 0.039865825 0.47600001 4279123228
-0.0013782708 0.039865825 0.47600001 4278663701
0.00016742553 0.039782073 0.47500002 4278597908
0.0017102263 0.039782073 0.47500002 4278663701
0.0032530271 0.039782073 0.47500002 4278597908
0.0048059244 0.039865825 0.47600001 4278662931
0.0063519734 0.039865825 0.47600001 4278794517
0.0078980215 0.039865825 0.47600001 4278794517
0.009444071 0.039865825 0.47600001 4278859797
0.01099012 0.039865825 0.47600001 4278596625
0.012562505 0.039949577 0.47700003 4278991129
0.014111802 0.039949577 0.47700003 4278924566
0.0156611 0.039949577 0.47700003 4278990359
0.017210396 0.039949577 0.47700003 4278924566
0.018759692 0.039949577 0.47700003 4278990361
0.02030899 0.039949577 0.47700003 4279450912
0.021858286 0.039949577 0.47700003 4279121433
0.023407584 0.039949577 0.47700003 4279186713
0.02495688 0.039949577 0.47700003 4279055127
0.026506176 0.039949577 0.47700003 4279186459
0.028055474 0.039949577 0.47700003 4278331150
0.02960477 0.039949577 0.47700003 4278396173
0.031219378 0.040033329 0.47800002 4278196481
0.032771926 0.040033329 0.47800002 4278193664
0.034324467 0.040033329 0.47800002 4278196484
0.035952069 0.040117081 0.47900003 4278196483
0.037507866 0.040117081 0.47900003 4278198537
0.039145209 0.040200833 0.48000002 4278725138
0.04070425 0.040200833 0.48000002 4278790931
0.042263292 0.040200833 0.48000002 4279252506
0.043913629 0.040284585 0.48100004 4278923541
0.045475919 0.040284585 0.48100004 4278196224
0.047038205 0.040284585 0.48100004 4279055386
0.048701536 0.040368337 0.48200002 4278794263
0.050267071 0.040368337 0.48200002 4278662677
0.051832609 0.040368337 0.48200002 4278465552
0.053398147 0.040368337 0.48200002 4278399759
0.054963682 0.040368337 0.48200002 4278794263
0.05652922 0.040368337 0.48200002 4279056672
0.058094755 0.040368337 0.48200002 4284842873
-0.023361526 0.042021401 0.48300001 4284315237
-0.021702504 0.041847404 0.48100004 4284381543
-0.020140216 0.041847404 0.48100004 4284842092
-0.018539302 0.0417604 0.48000002 4285368436
-0.016944887 0.0416734 0.47900003 4284645229
-0.015389093 0.0416734 0.47900003 4283264605
-0.0138333 0.0416734 0.47900003 4281685573
-0.012277507 0.0416734 0.47900003 4280040235
-0.010699331 0.041586399 0.47800002 4278792218
-0.0091467863 0.041586399 0.47800002 4278595099
-0.0075783534 0.041499399 0.47700003 4278397974
-0.0060290569 0.041499399 0.47700003 4279384867
-0.0044703684 0.041412398 0.47600001 4279121693
-0.0029243196 0.041412398 0.47600001 4279056670
-0.0013782708 0.041412398 0.47600001 4278793752
0.00016742553 0.041325398 0.47500002 4278925336
0.0017102263 0.041325398 0.47500002 4278793750
0.0032530271 0.041325398 0.47500002 4278925336
0.0048059244 0.041412398 0.47600001 4278991642
0.0063519734 0.041412398 0.47600001 4278860056
0.0078980215 0.041412398 0.47600001 4278728470
0.009444071 0.041412398 0.47600001 4278794517
0.011013209 0.041499399 0.47700003 4278860310
0.012562505 0.041499399 0.47700003 4278728724
0.014111802 0.041499399 0.47700003 4278662931
0.0156611 0.041499399 0.47700003 4278794517
0.017210396 0.041499399 0.47700003 4278662931
0.018759692 0.041499399 0.47700003 4278794517
0.02030899 0.041499399 0.47700003 4278728470
0.021858286 0.041499399 0.47700003 4278794263
0.023407584 0.041499399 0.47700003 4278859543
0.02495688 0.041499399 0.47700003 4278859543
0.026506176 0.041499399 0.47700003 4278859543
0.028055474 0.041499399 0.47700003 4278793750
0.029666835 0.041586399 0.47800002 4278858773
0.031219378 0.041586399 0.47800002 4278990359
0.032840487 0.0416734 0.47900003 4278990361
0.03439628 0.0416734 0.47900003 4278990361
0.036027126 0.0417604 0.48000002 4278924568
0.037586167 0.0417604 0.48000002 4278990361
0.039226763 0.041847404 0.48100004 4279450398
0.040789053 0.041847404 0.48100004 4279186459
0.042351339 0.041847404 0.48100004 4279186459
0.044004925 0.041934405 0.48200002 4278461966
0.045570463 0.041934405 0.48200002 4278791955
0.047135998 0.041934405 0.48200002 4278990361
0.048701536 0.041934405 0.48200002 4278663449
0.05037136 0.042021401 0.48300001 4278597656
0.051940143 0.042021401 0.48300001 4278531861
0.05350893 0.042021401 0.48300001 4278729494
0.055077713 0.042021401 0.48300001 4278793750
0.0566465 0.042021401 0.48300001 4279252256
-0.023361526 0.043590721 0.48300001 4284380006
-0.021747623 0.043500472 0.48200002 4284380776
-0.020140216 0.043410223 0.48100004 4284447082
-0.018539302 0.043319974 0.48000002 4284710254
-0.016944887 0.043229725 0.47900003 4284907633
-0.015389093 0.043229725 0.47900003 4284776047
-0.0138333 0.043229725 0.47900003 4284841840
-0.012277507 0.043229725 0.47900003 4284841840
-0.010699331 0.043139473 0.47800002 4284776047
-0.0091467863 0.043139473 0.47800002 4284841840
-0.0075783534 0.043049224 0.47700003 4284907633
-0.0060290569 0.043049224 0.47700003 4284579182
-0.0044703684 0.042958971 0.47600001 4284185194
-0.0029243196 0.042958971 0.47600001 4283198301
-0.0013782708 0.042958971 0.47600001 4282146126
0.00016742553 0.042868722 0.47500002 4281093438
0.0017102263 0.042868722 0.47500002 4279186209
0.0032598756 0.042958971 0.47600001 4278791705
0.0048059244 0.042958971 0.47600001 4278528792
0.0063519734 0.042958971 0.47600001 4278200081
0.0078980215 0.042958971 0.47600001 4278660628
0.009444071 0.042958971 0.47600001 4279055900
0.011013209 0.043049224 0.47700003 4278925086
0.012562505 0.043049224 0.47700003 4278990879
0.014111802 0.043049224 0.47700003 4279254303
0.0156611 0.043049224 0.47700003 4279056924
0.017210396 0.043049224 0.47700003 4279254303
0.018759692 0.043049224 0.47700003 4279188508
0.02030899 0.043049224 0.47700003 4278859543
0.021858286 0.043049224 0.47700003 4278859543
0.023407584 0.043049224 0.47700003 4278793750
0.02495688 0.043049224 0.47700003 4278925336
0.026506176 0.043049224 0.47700003 4278793750
0.028114289 0.043139473 0.47800002 4278727957
0.029666835 0.043139473 0.47800002 4278859543
0.031284694 0.043229725 0.47900003 4278596371
0.032840487 0.043229725 0.47900003 4278727957
0.034468085 0.043319974 0.48000002 4278859543
0.036027126 0.043319974 0.48000002 4278859543
0.037664473 0.043410223 0.48100004 4278925336
0.039226763 0.043410223 0.48100004 4278991131
0.040873852 0.043500472 0.48200002 4278859545
0.042439386 0.043500472 0.48200002 4278859545
0.044004925 0.043500472 0.48200002 4278859545
0.045665007 0.043590721 0.48300001 4278990361
0.04723379 0.043590721 0.48300001 4278925338
0.048802577 0.043590721 0.48300001 4278794265
0.05037136 0.043590721 0.48300001 4278794263
0.051940143 0.043590721 0.48300001 4278925849
0.05350893 0.043590721 0.48300001 4278925849
0.055077713 0.043590721 0.48300001 4278792216
0.0566465 0.043590721 0.48300001 4284515442
-0.023313159 0.045066539 0.48200002 4284116834
-0.021702504 0.044973042 0.48100004 4284314983
-0.020140216 0.044973042 0.48100004 4284512362
0.011013209 0.044599045 0.47700003 4284580719
0.012562505 0.044599045 0.47700003 4284185959
0.014111802 0.044599045 0.47700003 4282147144
0.0156611 0.044599045 0.47700003 4280502321
0.017210396 0.044599045 0.47700003 4279778346
0.018759692 0.044599045 0.47700003 4279120416
0.02030899 0.044599045 0.47700003 4278989597
0.021858286 0.044599045 0.47700003 4278265874
0.023407584 0.044599045 0.47700003 4278331665
0.02495688 0.044599045 0.47700003 4278660630
0.026561745 0.044692542 0.47800002 4278989593
0.028114289 0.044692542 0.47800002 4278660628
0.029666835 0.044692542 0.47800002 4278858007
0.031284694 0.044786043 0.47900003 4279186972
0.032909047 0.044879541 0.48000002 4279121695
0.034539897 0.044973042 0.48100004 4279121695
0.036102183 0.044973042 0.48100004 4279055900
0.037742779 0.045066539 0.48200002 4279056670
0.039308313 0.045066539 0.48200002 4278990877
0.040873852 0.045066539 0.48200002 4278793498
0.042527433 0.045160037 0.48300001 4279121693
0.044096217 0.045160037 0.48300001 4279056670
0.045665007 0.045160037 0.48300001 4278990877
0.04723379 0.045160037 0.48300001 4279121693
0.048802577 0.045160037 0.48300001 4279319326
0.05047565 0.045253538 0.48400003 4279319324
0.052047681 0.045253538 0.48400003 4279319324
0.053619716 0.045253538 0.48400003 4278792214
0.055191748 0.045253538 0.48400003 4283987817
0.026561745 0.046245612 0.47800002 4285106296
0.028114289 0.046245612 0.47800002 4285106296
0.029728901 0.046342365 0.47900003 4285369468
0.031350002 0.046439111 0.48000002 4285106296
0.032977607 0.046535861 0.48100004 4285303675
0.034539897 0.046535861 0.48100004 4285106550
0.03617724 0.046632607 0.48200002 4285040757
0.037742779 0.046632607 0.48200002 4284974964
0.039389864 0.046729356 0.48300001 4284843891
0.04095865 0.046729356 0.48300001 4284778098
0.042527433 0.046729356 0.48300001 4284449133
0.044187516 0.046826106 0.48400003 4284317547
0.045759551 0.046826106 0.48400003 4284317547
0.047331583 0.046826106 0.48400003 4283922276
0.048903618 0.046826106 0.48400003 4283725410
0.05047565 0.046826106 0.48400003 4284383340
0.052047681 0.046826106 0.48400003 4284843637
0.053619716 0.046826106 0.48400003 4284843126
0.055191748 0.046826106 0.48400003 4284579184
0.031350002 0.047998678 0.48000002 4284710768
0.032977607 0.04809868 0.48100004 4284776561
0.034611702 0.048198674 0.48200002 4284842354
0.03617724 0.048198674 0.48200002 4284645745
0.037821081 0.048298672 0.48300001 4284645745
0.039389864 0.048298672 0.48300001 4284776561
0.04095865 0.048298672 0.48300001 4284710768
0.042615484 0.04839867 0.48400003 4284644975
0.044187516 0.04839867 0.48400003 4284776561
0.045759551 0.04839867 0.48400003 4284710768
0.047331583 0.04839867 0.48400003 4284710768
0.048903618 0.04839867 0.48400003 4284513389
0.05047565 0.04839867 0.48400003 4284644975
0.052047681 0.04839867 0.48400003 4284644975
0.053619716 0.04839867 0.48400003 4284644975
0.015305537 0.035599999 0.47849631 4294967295
0.015305537 0.035599999 0.47849631 4294901760
0.015355369 0.03510249 0.4784956 4294901760
0.015405202 0.034604978 0.47849491 4294901760
0.015455035 0.034107469 0.4784942 4294901760
0.015504867 0.03360996 0.47849351 4294901760
0.0155547 0.033112448 0.4784928 4294901760
0.015604532 0.032614939 0.47849211 4294901760
0.015654365 0.03211743 0.4784914 4294901760
0.015704198 0.031619918 0.47849071 4294901760
0.015754031 0.031122409 0.47849 4294901760
0.015803862 0.030624898 0.47848931 4294901760
0.015853696 0.030127389 0.47848859 4294901760
0.015903529 0.029629879 0.47848791 4294901760
0.01595336 0.02913237 0.47848719 4294901760
0.016003193 0.028634859 0.47848651 4294901760
0.016053027 0.028137349 0.47848579 4294901760
0.016102858 0.02763984 0.47848511 4294901760
0.016152691 0.027142327 0.47848439 4294901760
0.016202524 0.026644818 0.47848371 4294901760
0.016252358 0.02614731 0.47848299 4294901760
0.016302189 0.025649797 0.47848231 4294901760
0.016352022 0.025152288 0.47848159 4294901760
0.016401855 0.02465478 0.47848091 4294901760
0.016451687 0.024157267 0.47848019 4294901760
0.01650152 0.023659758 0.4784795 4294901760
0.016551353 0.023162249 0.47847879 4294901760
0.016601184 0.022664739 0.4784781 4294901760
0.016651018 0.022167228 0.47847739 4294901760
0.016700851 0.021669719 0.4784767 4294901760
0.016750682 0.021172209 0.47847599 4294901760
0.016800515 0.020674698 0.4784753 4294901760
0.016850349 0.020177189 0.47847459 4294901760
0.01690018 0.019679679 0.4784739 4294901760
0.016950013 0.019182168 0.47847319 4294901760
0.016999846 0.018684657 0.4784725 4294901760
0.017049678 0.018187148 0.47847179 4294901760
0.017099511 0.017689638 0.4784711 4294901760
0.017149344 0.017192127 0.47847039 4294901760
0.017199177 0.016694618 0.4784697 4294901760
0.017249009 0.01619711 0.47846898 4294901760
0.017298842 0.015699597 0.4784683 4294901760
0.017348675 0.015202088 0.47846758 4294901760
0.017398506 0.014704579 0.4784669 4294901760
0.01744834 0.014207067 0.47846618 4294901760
0.017498173 0.013709558 0.4784655 4294901760
0.017548004 0.013212049 0.47846478 4294901760
0.017597837 0.012714537 0.4784641 4294901760
0.017647671 0.012217028 0.47846338 4294901760
0.017697502 0.011719519 0.4784627 4294901760
0.017747335 0.011222007 0.47846198 4294901760
0.017797168 0.010724498 0.47846127 4294901760
0.017847 0.010226989 0.47846058 4294901760
0.017896833 0.0097294785 0.47845986 4294901760
0.017946666 0.0092319697 0.47845918 4294901760
0.017996497 0.0087344572 0.47845846 4294901760
0.018046331 0.0082369465 0.47845778 4294901760
0.018096164 0.0077394377 0.47845706 4294901760
0.018145997 0.0072419289 0.47845638 4294901760
0.018195828 0.0067444183 0.47845566 4294901760
0.018245662 0.0062469095 0.47845498 4294901760
0.018295495 0.005749397 0.47845426 4294901760
0.018345326 0.0052518863 0.47845358 4294901760
0.018395159 0.0047543775 0.47845286 4294901760
0.018444993 0.0042568669 0.47845218 4294901760
0.018494824 0.0037593581 0.47845146 4294901760
0.018544657 0.0032618493 0.47845078 4294901760
0.01859449 0.0027643368 0.47845006 4294901760
0.018644322 0.002266828 0.47844937 4294901760
0.018694155 0.0017693155 0.47844866 4294901760
0.018743988 0.0012718067 0.47844797 4294901760
0.018793819 0.00077429786 0.47844726 4294901760
0.018843653 0.00027678907 0.47844657 4294901760
0.018893486 -0.00022072345 0.47844586 4294901760
0.018943317 -0.00071823224 0.47844517 4294901760
0.01899315 -0.0012157448 0.47844446 4294901760
0.019042984 -0.0017132536 0.47844377 4294901760
0.019092817 -0.0022107624 0.47844306 4294901760
0.019142648 -0.0027082711 0.47844237 4294901760
0.019192481 -0.0032057799 0.47844166 4294901760
0.019242315 -0.0037032925 0.47844097 4294901760
0.019292146 -0.004200805 0.47844025 4294901760
0.019341979 -0.0046983138 0.47843957 4294901760
0.019391812 -0.0051958226 0.47843885 4294901760
0.019441644 -0.0056933314 0.47843817 4294901760
0.019491477 -0.0061908402 0.47843745 4294901760
0.01954131 -0.0066883527 0.47843677 4294901760
0.019591141 -0.0071858652 0.47843605 4294901760
0.019640975 -0.007683374 0.47843537 4294901760
0.019690808 -0.0081808828 0.47843465 4294901760
0.019740641 -0.0086783916 0.47843397 4294901760
0.019790472 -0.0091759004 0.47843325 4294901760
0.019840306 -0.0096734129 0.47843257 4294901760
0.019890137 -0.010170925 0.47843185 4294901760
0.01993997 -0.010668434 0.47843117 4294901760
0.019989803 -0.011165943 0.47843045 4294901760
0.020039637 -0.011663452 0.47842976 4294901760
0.020089468 -0.012160961 0.47842905 4294901760
0.020139301 -0.012658473 0.47842836 4294901760
0.020189134 -0.013155986 0.47842765 4294901760
0.020238966 -0.013653494 0.47842696 4294901760
0.020288799 -0.014151003 0.47842625 4294901760
0.015305537 0.035599999 0.47849631 4278255360
0.015803039 0.035649829 0.47849923 4278255360
0.016300542 0.035699654 0.47850212 4278255360
0.016798044 0.035749484 0.47850502 4278255360
0.017295547 0.03579931 0.47850794 4278255360
0.01779305 0.035849139 0.47851086 4278255360
0.018290551 0.035898965 0.47851375 4278255360
0.018788055 0.035948794 0.47851664 4278255360
0.019285556 0.03599862 0.47851956 4278255360
0.019783059 0.03604845 0.47852248 4278255360
0.020280562 0.036098275 0.47852537 4278255360
0.020778064 0.036148105 0.47852826 4278255360
0.021275567 0.036197931 0.47853118 4278255360
0.02177307 0.03624776 0.4785341 4278255360
0.022270571 0.03629759 0.47853699 4278255360
0.022768075 0.036347415 0.47853988 4278255360
0.023265578 0.036397245 0.4785428 4278255360
0.023763079 0.036447071 0.47854573 4278255360
0.024260582 0.0364969 0.47854862 4278255360
0.024758084 0.036546726 0.47855151 4278255360
0.025255587 0.036596555 0.47855443 4278255360
0.025753088 0.036646381 0.47855732 4278255360
0.026250592 0.036696211 0.47856024 4278255360
0.026748095 0.036746036 0.47856313 4278255360
0.027245596 0.036795866 0.47856605 4278255360
0.027743099 0.036845692 0.47856897 4278255360
0.028240602 0.036895521 0.47857186 4278255360
0.028738104 0.03694535 0.47857475 4278255360
0.029235607 0.036995176 0.47857767 4278255360
0.02973311 0.037045006 0.47858059 4278255360
0.030230612 0.037094831 0.47858348 4278255360
0.030728115 0.037144661 0.47858638 4278255360
0.031225618 0.037194487 0.4785893 4278255360
0.031723119 0.037244316 0.47859222 4278255360
0.032220621 0.037294142 0.47859511 4278255360
0.032718126 0.037343971 0.478598 4278255360
0.033215627 0.037393797 0.47860092 4278255360
0.033713128 0.037443627 0.47860384 4278255360
0.03421063 0.037493452 0.47860673 4278255360
0.034708135 0.037543282 0.47860962 4278255360
0.035205636 0.037593111 0.47861254 4278255360
0.035703138 0.037642937 0.47861546 4278255360
0.036200643 0.037692767 0.47861835 4278255360
0.036698144 0.037742592 0.47862124 4278255360
0.037195645 0.037792422 0.47862417 4278255360
0.03769315 0.037842248 0.47862709 4278255360
0.038190652 0.037892077 0.47862998 4278255360
0.038688153 0.037941903 0.47863287 4278255360
0.039185654 0.037991732 0.47863579 4278255360
0.039683159 0.038041562 0.47863871 4278255360
0.040180661 0.038091388 0.4786416 4278255360
0.040678162 0.038141213 0.47864449 4278255360
0.041175667 0.038191043 0.47864741 4278255360
0.041673169 0.038240872 0.4786503 4278255360
0.042170674 0.038290698 0.47865322 4278255360
0.042668175 0.038340528 0.47865611 4278255360
0.043165676 0.038390353 0.47865903 4278255360
0.043663178 0.038440183 0.47866195 4278255360
0.044160683 0.038490009 0.47866485 4278255360
0.044658184 0.038539838 0.47866774 4278255360
0.045155689 0.038589664 0.47867066 4278255360
0.04565319 0.038639493 0.47867358 4278255360
0.046150692 0.038689323 0.47867647 4278255360
0.046648193 0.038739149 0.47867936 4278255360
0.047145698 0.038788978 0.47868228 4278255360
0.0476432 0.038838804 0.4786852 4278255360
0.048140705 0.038888633 0.47868809 4278255360
0.048638206 0.038938459 0.47869098 4278255360
0.049135707 0.038988288 0.4786939 4278255360
0.049633209 0.039038114 0.47869682 4278255360
0.050130714 0.039087944 0.47869971 4278255360
0.050628215 0.039137769 0.4787026 4278255360
0.05112572 0.039187599 0.47870553 4278255360
0.051623221 0.039237425 0.47870845 4278255360
0.052120723 0.039287254 0.47871134 4278255360
0.052618224 0.039337084 0.47871423 4278255360
0.053115726 0.039386909 0.47871715 4278255360
0.053613231 0.039436739 0.47872007 4278255360
0.054110732 0.039486565 0.47872296 4278255360
0.054608237 0.039536394 0.47872585 4278255360
0.055105738 0.03958622 0.47872877 4278255360
0.05560324 0.039636049 0.47873169 4278255360
0.056100741 0.039685875 0.47873458 4278255360
0.056598246 0.039735705 0.47873747 4278255360
0.057095747 0.03978553 0.47874039 4278255360
0.057593253 0.03983536 0.47874331 4278255360
0.058090754 0.039885186 0.47874621 4278255360
0.058588255 0.039935015 0.4787491 4278255360
0.059085757 0.039984845 0.47875202 4278255360
0.059583258 0.04003467 0.47875494 4278255360
0.060080763 0.0400845 0.47875783 4278255360
0.060578268 0.040134326 0.47876072 4278255360
0.061075769 0.040184155 0.47876364 4278255360
0.061573271 0.040233981 0.47876656 4278255360
0.062070772 0.04028381 0.47876945 4278255360
0.06256827 0.040333636 0.47877234 4278255360
0.063065775 0.040383466 0.47877526 4278255360
0.06356328 0.040433291 0.47877818 4278255360
0.064060785 0.040483121 0.47878107 4278255360
0.064558282 0.040532947 0.47878397 4278255360
0.065055788 0.040582776 0.47878689 4278255360
0.015305537 0.035599999 0.47849631 4278190335
0.015254522 0.035594188 0.47899368 4278190335
0.015203507 0.03558838 0.47949103 4278190335
0.015152492 0.035582568 0.4799884 4278190335
0.015101477 0.035576757 0.48048574 4278190335
0.015050462 0.035570949 0.48098311 4278190335
0.014999446 0.035565138 0.48148045 4278190335
0.014948431 0.035559326 0.48197782 4278190335
0.014897416 0.035553515 0.48247516 4278190335
0.014846401 0.035547707 0.48297253 4278190335
0.014795386 0.035541896 0.48346987 4278190335
0.014744371 0.035536084 0.48396724 4278190335
0.014693356 0.035530277 0.48446459 4278190335
0.014642341 0.035524465 0.48496196 4278190335
0.014591326 0.035518654 0.4854593 4278190335
0.014540311 0.035512842 0.48595667 4278190335
0.014489297 0.035507035 0.48645401 4278190335
0.014438281 0.035501223 0.48695138 4278190335
0.014387267 0.035495412 0.48744872 4278190335
0.014336252 0.035489604 0.48794609 4278190335
0.014285237 0.035483792 0.48844343 4278190335
0.014234222 0.035477981 0.48894081 4278190335
0.014183206 0.035472173 0.48943815 4278190335
0.014132191 0.035466362 0.48993552 4278190335
0.014081176 0.03546055 0.49043286 4278190335
0.014030161 0.035454743 0.49093023 4278190335
0.013979146 0.035448931 0.4914276 4278190335
0.013928131 0.03544312 0.49192494 4278190335
0.013877116 0.035437308 0.49242231 4278190335
0.013826101 0.035431501 0.49291965 4278190335
0.013775086 0.035425689 0.49341702 4278190335
0.013724071 0.035419878 0.49391437 4278190335
0.013673056 0.03541407 0.49441174 4278190335
0.013622041 0.035408258 0.49490908 4278190335
0.013571026 0.035402447 0.49540645 4278190335
0.013520011 0.035396636 0.49590379 4278190335
0.013468996 0.035390828 0.49640116 4278190335
0.013417981 0.035385016 0.4968985 4278190335
0.013366966 0.035379205 0.49739587 4278190335
0.013315951 0.035373397 0.49789321 4278190335
0.013264935 0.035367586 0.49839059 4278190335
0.01321392 0.035361774 0.49888793 4278190335
0.013162905 0.035355967 0.4993853 4278190335
0.01311189 0.035350155 0.49988264 4278190335
0.013060875 0.035344344 0.50037998 4278190335
0.013009861 0.035338536 0.50087738 4278190335
0.012958845 0.035332724 0.50137472 4278190335
0.012907831 0.035326913 0.50187206 4278190335
0.012856815 0.035321102 0.5023694 4278190335
0.012805801 0.035315294 0.5028668 4278190335
0.012754785 0.035309482 0.50336415 4278190335
0.012703771 0.035303671 0.50386149 4278190335
0.012652756 0.035297863 0.50435889 4278190335
0.012601741 0.035292052 0.50485623 4278190335
0.012550725 0.03528624 0.50535357 4278190335
0.012499711 0.035280429 0.50585091 4278190335
0.012448695 0.035274621 0.50634831 4278190335
0.01239768 0.03526881 0.50684565 4278190335
0.012346665 0.035262998 0.50734299 4278190335
0.01229565 0.03525719 0.50784034 4278190335
0.012244635 0.035251379 0.50833774 4278190335
0.01219362 0.035245568 0.50883508 4278190335
0.012142605 0.03523976 0.50933242 4278190335
0.01209159 0.035233948 0.50982976 4278190335
0.012040575 0.035228137 0.51032716 4278190335
0.01198956 0.035222329 0.5108245 4278190335
0.011938545 0.035216518 0.51132184 4278190335
0.01188753 0.035210706 0.51181918 4278190335
0.011836515 0.035204895 0.51231658 4278190335
0.0117855 0.035199087 0.51281393 4278190335
0.011734485 0.035193276 0.51331127 4278190335
0.01168347 0.035187464 0.51380861 4278190335
0.011632455 0.035181656 0.51430601 4278190335
0.01158144 0.035175845 0.51480335 4278190335
0.011530424 0.035170034 0.51530069 4278190335
0.011479409 0.035164222 0.51579809 4278190335
0.011428394 0.035158414 0.51629543 4278190335
0.011377379 0.035152603 0.51679277 4278190335
0.011326365 0.035146791 0.51729012 4278190335
0.011275349 0.035140984 0.51778752 4278190335
0.011224335 0.035135172 0.51828486 4278190335
0.011173319 0.035129361 0.5187822 4278190335
0.011122305 0.035123553 0.51927954 4278190335
0.011071289 0.035117742 0.51977694 4278190335
0.011020275 0.03511193 0.52027428 4278190335
0.010969259 0.035106122 0.52077162 4278190335
0.010918245 0.035100311 0.52126896 4278190335
0.010867229 0.0350945 0.52176636 4278190335
0.010816215 0.035088688 0.52226371 4278190335
0.010765199 0.03508288 0.52276105 4278190335
0.010714184 0.035077069 0.52325839 4278190335
0.010663169 0.035071258 0.52375579 4278190335
0.010612154 0.03506545 0.52425313 4278190335
0.010561139 0.035059638 0.52475047 4278190335
0.010510124 0.035053827 0.52524781 4278190335
0.010459109 0.035048015 0.52574521 4278190335
0.010408094 0.035042208 0.52624255 4278190335
0.010357079 0.035036396 0.5267399 4278190335
0.010306064 0.035030585 0.5272373 4278190335
0.010255049 0.035024777 0.52773464 4278190335
0.010204034 0.035018966 0.52823198 4278190335
0.015305537 0.035599999 0.47849631 4294967295
0.015611627 0.03563486 0.47551218 4294967295
0.015917717 0.035669722 0.47252804 4294967295
0.016223807 0.035704587 0.4695439 4294967295
0.016529897 0.035739448 0.46655974 4294967295
0.016835988 0.035774309 0.4635756 4294967295
0.017142078 0.03580917 0.46059147 4294967295
0.017448168 0.035844032 0.45760733 4294967295
0.017754259 0.035878893 0.45462319 4294967295
0.018060349 0.035913758 0.45163906 4294967295
0.018366439 0.035948619 0.44865492 4294967295
0.01867253 0.035983481 0.44567078 4294967295
0.018978618 0.036018342 0.44268662 4294967295
0.01928471 0.036053203 0.43970248 4294967295
0.019590799 0.036088068 0.43671834 4294967295
0.019896891 0.036122929 0.43373421 4294967295
0.020202979 0.036157791 0.43075007 4294967295
0.02050907 0.036192652 0.42776594 4294967295
0.02081516 0.036227513 0.42478177 4294967295
0.02112125 0.036262374 0.42179763 4294967295
0.021427341 0.036297239 0.4188135 4294967295
0.021733431 0.036332101 0.41582936 4294967295
0.022039521 0.036366962 0.41284522 4294967295
0.022345612 0.036401823 0.40986109 4294967295
0.022651702 0.036436684 0.40687695 4294967295
0.022957791 0.036471546 0.40389282 4294967295
0.023263883 0.036506411 0.40090865 4294967295
0.023569971 0.036541272 0.39792451 4294967295
0.023876064 0.036576133 0.39494038 4294967295
0.024182152 0.036610994 0.39195624 4294967295
0.024488244 0.036645856 0.3889721 4294967295
0.024794333 0.036680721 0.38598797 4294967295
0.025100423 0.036715582 0.38300383 4294967295
0.025406513 0.036750443 0.38001966 4294967295
0.025712604 0.036785305 0.37703553 4294967295
0.026018694 0.036820166 0.37405139 4294967295
0.026324784 0.036855027 0.37106726 4294967295
0.026630875 0.036889892 0.36808312 4294967295
0.026936963 0.036924753 0.36509898 4294967295
0.027243054 0.036959615 0.36211485 4294967295
0.027549144 0.036994476 0.35913068 4294967295
0.027855234 0.037029337 0.35614654 4294967295
0.028161325 0.037064202 0.35316241 4294967295
0.028467415 0.037099063 0.35017827 4294967295
0.028773505 0.037133925 0.34719414 4294967295
0.029079594 0.037168786 0.34421 4294967295
0.029385686 0.037203647 0.34122586 4294967295
0.029691774 0.037238508 0.3382417 4294967295
0.029997867 0.037273373 0.33525759 4294967295
0.030303955 0.037308235 0.33227342 4294967295
0.030610047 0.037343096 0.32928929 4294967295
0.030916136 0.037377957 0.32630515 4294967295
0.031222228 0.037412819 0.32332101 4294967295
0.031528316 0.037447684 0.32033688 4294967295
0.031834409 0.037482545 0.31735271 4294967295
0.032140497 0.037517406 0.31436858 4294967295
0.032446589 0.037552267 0.31138444 4294967295
0.032752678 0.037587129 0.3084003 4294967295
0.033058766 0.03762199 0.30541617 4294967295
0.033364858 0.037656855 0.30243203 4294967295
0.033670951 0.037691716 0.29944789 4294967295
0.033977039 0.037726577 0.29646373 4294967295
0.034283128 0.037761439 0.29347962 4294967295
0.03458922 0.0377963 0.29049546 4294967295
0.034895308 0.037831165 0.28751132 4294967295
0.035201397 0.037866026 0.28452718 4294967295
0.035507489 0.037900887 0.28154302 4294967295
0.035813581 0.037935749 0.27855891 4294967295
0.03611967 0.03797061 0.27557474 4294967295
0.036425758 0.038005471 0.27259064 4294967295
0.03673185 0.038040336 0.26960647 4294967295
0.037037939 0.038075197 0.26662236 4294967295
0.037344031 0.038110059 0.2636382 4294967295
0.03765012 0.03814492 0.26065403 4294967295
0.037956212 0.038179781 0.25766993 4294967295
0.0382623 0.038214646 0.25468576 4294967295
