# .PCD v0.7 - Point Cloud Data file format
VERSION 0.7
FIELDS x y z rgb
SIZE 4 4 4 4
TYPE F F F U
COUNT 1 1 1 1
WIDTH 777
HEIGHT 1
VIEWPOINT 0 0 0 1 0 0 0
POINTS 777
DATA ascii
0.099019401 -0.054497313 0.41700003 4287736986
0.09607961 -0.053015001 0.41600001 4286291083
0.097430773 -0.053015001 0.41600001 4282738261
0.10013311 -0.053015001 0.41600001 4281425218
0.0920261 -0.051663373 0.41600001 4287013523
0.09472844 -0.051663373 0.41600001 4281161796
0.098781943 -0.051663373 0.41600001 4280573495
0.10013311 -0.051663373 0.41600001 4280442422
0.087761126 -0.050190806 0.41500002 4286816144
0.089109041 -0.050190806 0.41500002 4287342742
0.09607961 -0.050311748 0.41600001 4279786553
0.097430773 -0.050311748 0.41600001 4279786807
0.098781943 -0.050311748 0.41600001 4279983924
0.10013311 -0.050311748 0.41600001 4279721266
0.10148428 -0.050311748 0.41600001 4279325740
0.083515637 -0.048724741 0.41400003 4286751121
0.08486031 -0.048724741 0.41400003 4286751634
0.086204983 -0.048724741 0.41400003 4287014806
0.087761126 -0.04884243 0.41500002 4283528801
0.089109041 -0.04884243 0.41500002 4281029694
0.091804892 -0.04884243 0.41500002 4280310584
0.093152806 -0.04884243 0.41500002 4279786545
0.094500728 -0.04884243 0.41500002 4279063336
0.09607961 -0.048960123 0.41600001 4279196205
0.097430773 -0.048960123 0.41600001 4279064619
0.098781943 -0.048960123 0.41600001 4279196205
0.10013311 -0.048960123 0.41600001 4279459377
0.08082629 -0.047379609 0.41400003 4286816916
0.08197248 -0.047265165 0.41300002 4286751121
0.083313905 -0.047265165 0.41300002 4287212185
0.08465533 -0.047265165 0.41300002 4283594594
0.086204983 -0.047379609 0.41400003 4281094973
0.08889433 -0.047379609 0.41400003 4279785775
0.090239003 -0.047379609 0.41400003 4279654957
0.091804892 -0.04749405 0.41500002 4279523885
0.093152806 -0.04749405 0.41500002 4279393582
0.094500728 -0.04749405 0.41500002 4279262509
0.09584865 -0.04749405 0.41500002 4279130410
0.097430773 -0.047608491 0.41600001 4279195433
0.098781943 -0.047608491 0.41600001 4280114738
0.078136951 -0.046034481 0.41400003 4286620048
0.07928963 -0.045923285 0.41300002 4286488462
0.080631055 -0.045923285 0.41300002 4286883222
0.08197248 -0.045923285 0.41300002 4282411093
0.083313905 -0.045923285 0.41300002 4280833083
0.08465533 -0.045923285 0.41300002 4280506164
0.085996754 -0.045923285 0.41300002 4280244789
0.087338179 -0.045923285 0.41300002 4279458607
0.08889433 -0.046034481 0.41400003 4279261226
0.090239003 -0.046034481 0.41400003 4279458603
0.091583677 -0.046034481 0.41400003 4279261224
0.093152806 -0.046145674 0.41500002 4279064615
0.094500728 -0.046145674 0.41500002 4279327787
0.09584865 -0.046145674 0.41500002 4280181299
0.097196564 -0.046145674 0.41500002 4280377910
0.10013311 -0.046256866 0.41600001 4281165378
0.10148428 -0.046256866 0.41600001 4282542417
0.07679227 -0.044689354 0.41400003 4286620048
0.078136951 -0.044689354 0.41400003 4286489234
0.07928963 -0.044581406 0.41300002 4282345302
0.081774004 -0.044473462 0.41200003 4279849779
0.083112173 -0.044473462 0.41200003 4279851316
0.084450357 -0.044473462 0.41200003 4280049977
0.085788533 -0.044473462 0.41200003 4279458353
0.087338179 -0.044581406 0.41300002 4278868523
0.088679604 -0.044581406 0.41300002 4278736935
0.090021029 -0.044581406 0.41300002 4278736933
0.091583677 -0.044689354 0.41400003 4278933542
0.092928343 -0.044689354 0.41400003 4279787055
0.098781943 -0.044905242 0.41600001 4280637750
0.10148428 -0.044905242 0.41600001 4287342740
0.080240592 -0.043030132 0.41100001 4280114740
0.08157552 -0.043030132 0.41100001 4279524400
0.082910441 -0.043030132 0.41100001 4279458605
0.084245376 -0.043030132 0.41100001 4279920439
0.085788533 -0.043134831 0.41200003 4279065130
0.08712671 -0.043134831 0.41200003 4278867751
0.088464886 -0.043134831 0.41200003 4279262509
0.090021029 -0.043239526 0.41300002 4279655986
0.094500728 -0.043448918 0.41500002 4281295934
0.098544493 -0.043448918 0.41500002 4281492546
0.077948205 -0.041897647 0.41300002 4279523887
0.078713678 -0.041593306 0.41000003 4279590189
0.080045357 -0.041593306 0.41000003 4279327787
0.081377044 -0.041593306 0.41000003 4279459373
0.082708716 -0.041593306 0.41000003 4279262507
0.084245376 -0.041694753 0.41100001 4278670370
0.085580304 -0.041694753 0.41100001 4279130408
0.086915232 -0.041694753 0.41100001 4280246322
0.088464886 -0.0417962 0.41200003 4280377397
0.090021029 -0.041897647 0.41300002 4280046637
0.097196564 -0.042100541 0.41500002 4281492800
0.067022428 -0.038886402 0.39600003 4287146392
0.068308644 -0.038886402 0.39600003 4282608724
0.071060054 -0.0389846 0.39700001 4280245820
0.074751899 -0.039573789 0.40300003 4279195951
0.076249577 -0.039671987 0.40400001 4279459377
0.078329705 -0.040064778 0.40800002 4279262509
0.079654895 -0.040064778 0.40800002 4279065130
0.081178561 -0.040162977 0.40900001 4278802728
0.082506984 -0.040162977 0.40900001 4279393582
0.084040403 -0.040261175 0.41000003 4279787057
0.085372083 -0.040261175 0.41000003 4280247094
0.086915232 -0.04035937 0.41100001 4280376114
0.08825016 -0.04035937 0.41100001 4280045865
0.09584865 -0.040752165 0.41500002 4281491778
0.062844798 -0.037409861 0.39400002 4286817681
0.06412451 -0.037409861 0.39400002 4287409564
0.06557022 -0.037504807 0.39500001 4283004254
0.068308644 -0.037599761 0.39600003 4280178998
0.069770597 -0.037694708 0.39700001 4279720752
0.071239047 -0.037789658 0.39800003 4279655986
0.072713986 -0.037884604 0.39900002 4279262511
0.074566409 -0.038169451 0.40200001 4279000109
0.076060846 -0.038264401 0.40300003 4278868523
0.077945739 -0.038549248 0.40600002 4279130923
0.07945966 -0.038644195 0.40700001 4279394095
0.080781594 -0.038644195 0.40700001 4279983922
0.08230526 -0.038739145 0.40800002 4280246324
0.083835423 -0.038834091 0.40900001 4280047149
0.085163854 -0.038834091 0.40900001 4279454498
0.08825016 -0.039023992 0.41100001 4280242733
0.089803062 -0.039118942 0.41200003 4280373295
0.091362454 -0.039213888 0.41300002 4280241711
0.09584865 -0.039403789 0.41500002 4282936660
0.060132362 -0.036038015 0.39300001 4286685841
0.061408829 -0.036038015 0.39300001 4287014806
0.06557022 -0.036221415 0.39500001 4280442170
0.066853181 -0.036221415 0.39500001 4279457326
0.068308644 -0.036313117 0.39600003 4279721777
0.069770597 -0.036404815 0.39700001 4279459373
0.071239047 -0.036496516 0.39800003 4279460140
0.072713986 -0.036588214 0.39900002 4278934312
0.074380919 -0.036771614 0.40100002 4278934312
0.076060846 -0.036955014 0.40300003 4279591474
0.077561766 -0.037046712 0.40400001 4279852850
0.079069197 -0.037138414 0.40500003 4280377910
0.082103528 -0.03732181 0.40700001 4279058972
0.085163854 -0.037505209 0.40900001 4280834868
0.086703762 -0.037596911 0.41000003 4280307756
0.088035442 -0.037596911 0.41000003 4280768053
0.091141239 -0.037780311 0.41200003 4280767542
0.092703879 -0.037872009 0.41300002 4281159733
0.057286412 -0.034584217 0.39100003 4286685328
0.058556378 -0.034584217 0.39100003 4286883220
0.06412451 -0.034849569 0.39400002 4279653935
0.065404221 -0.034849569 0.39400002 4279195435
0.066853181 -0.034938019 0.39500001 4279327791
0.068308644 -0.035026472 0.39600003 4279065130
0.069770597 -0.035114922 0.39700001 4278868521
0.071239047 -0.035203371 0.39800003 4278934312
0.072713986 -0.035291821 0.39900002 4279394093
0.074380919 -0.035468724 0.40100002 4279852848
0.075872101 -0.035557173 0.40200001 4279983920
0.079069197 -0.035822526 0.40500003 4279322912
0.081901804 -0.035910975 0.40600002 4279518756
0.08342547 -0.035999425 0.40700001 4280374067
0.084955633 -0.036087878 0.40800002 4280175916
0.088035442 -0.036264781 0.41000003 4280240428
0.091141239 -0.03644168 0.41200003 4283528027
0.054466438 -0.033143416 0.38900003 4286816914
0.055729914 -0.033143416 0.38900003 4286949013
0.061252572 -0.033399019 0.39200002 4279982648
0.062685288 -0.033484221 0.39300001 4279458607
0.063961752 -0.033484221 0.39300001 4279524398
0.065404221 -0.033569422 0.39400002 4279327789
0.066853181 -0.033654623 0.39500001 4279919926
0.068308644 -0.033739828 0.39600003 4278933031
0.069770597 -0.033825029 0.39700001 4279327789
0.071239047 -0.03391023 0.39800003 4279459375
0.072713986 -0.033995431 0.39900002 4279852850
0.07419543 -0.034080632 0.40000001 4280180018
0.075872101 -0.034251034 0.40200001 4279454498
0.081901804 -0.034591842 0.40600002 4280505651
0.084955633 -0.034762245 0.40800002 4280110893
0.051538929 -0.031633656 0.38600001 4286620048
0.052929427 -0.031715609 0.38700002 4286883220
0.058406614 -0.031961467 0.39000002 4280048182
0.059826348 -0.03204342 0.39100003 4279458353
0.061096318 -0.03204342 0.39100003 4279195951
0.062525786 -0.032125372 0.39200002 4279394095
0.063961752 -0.032207321 0.39300001 4279592244
0.065404221 -0.032289278 0.39400002 4278868521
0.066853181 -0.032371227 0.39500001 4279262507
0.068308644 -0.032453183 0.39600003 4279721262
0.069770597 -0.032535132 0.39700001 4279983920
0.071239047 -0.032617088 0.39800003 4279456806
0.072713986 -0.032699037 0.39900002 4279521316
0.07419543 -0.03278099 0.40000001 4280638772
0.078678735 -0.033026848 0.40300003 4280242733
0.081901804 -0.033272706 0.40600002 4280242227
0.050154928 -0.030300798 0.38500002 4286488462
0.051538929 -0.0303795 0.38600001 4286555025
0.052792657 -0.0303795 0.38600001 4282148175
0.055586647 -0.030536907 0.38800001 4279916594
0.056993388 -0.030615611 0.38900003 4279130412
0.058256857 -0.030615611 0.38900003 4279393582
0.059673335 -0.030694313 0.39000002 4279327789
0.061096318 -0.030773019 0.39100003 4279459888
0.062525786 -0.030851722 0.39200002 4278802728
0.063961752 -0.030930424 0.39300001 4279000107
0.065404221 -0.031009128 0.39400002 4280050742
0.066853181 -0.031087831 0.39500001 4279983922
0.068308644 -0.031166535 0.39600003 4280377397
0.069770597 -0.031245237 0.39700001 4279520291
0.07568337 -0.031560052 0.40100002 4280175405
0.080186158 -0.031796161 0.40400001 4280373813
0.04877742 -0.028974438 0.384 4286751634
0.051405411 -0.029049894 0.38500002 4280047160
0.052792657 -0.029125346 0.38600001 4279391535
0.054186404 -0.029200802 0.38700002 4279458353
0.055443384 -0.029200802 0.38700002 4279195951
0.056846872 -0.029276256 0.38800001 4279065132
0.058256857 -0.029351711 0.38900003 4279591474
0.059673335 -0.029427165 0.39000002 4279262507
0.061096318 -0.029502621 0.39100003 4279065128
0.062525786 -0.029578073 0.39200002 4279328300
0.063961752 -0.029653527 0.39300001 4279458603
0.065404221 -0.029728983 0.39400002 4280969534
0.066853181 -0.029804435 0.39500001 4280836153
0.068308644 -0.02987989 0.39600003 4278726160
0.0771778 -0.030332616 0.40200001 4280110125
0.039421067 -0.027293554 0.37800002 4280182078
0.04877742 -0.027726782 0.384 4280835901
0.050024655 -0.027726782 0.384 4280311354
0.051405411 -0.02779899 0.38500002 4279262511
0.052792657 -0.027871193 0.38600001 4279065130
0.054046385 -0.027871193 0.38600001 4279262509
0.055443384 -0.027943401 0.38700002 4279130923
0.056846872 -0.028015604 0.38800001 4279525681
0.058256857 -0.028087812 0.38900003 4279328302
0.059673335 -0.028160015 0.39000002 4279525168
0.061096318 -0.028232221 0.39100003 4279525168
0.062525786 -0.028304426 0.39200002 4280116022
0.063961752 -0.02837663 0.39300001 4280574006
0.068481132 -0.028665451 0.39700001 4281421370
0.069946341 -0.028737657 0.39800003 4280369963
0.072896227 -0.028882066 0.40000001 4280108842
0.07419543 -0.028882066 0.40000001 4280569139
0.036965575 -0.026065392 0.37800002 4279061539
0.04877742 -0.026479129 0.384 4279458353
0.050024655 -0.026479129 0.384 4279458353
0.051405411 -0.026548086 0.38500002 4279262509
0.052792657 -0.026617041 0.38600001 4279394093
0.054046385 -0.026617041 0.38600001 4279263277
0.055443384 -0.026685998 0.38700002 4278473761
0.056846872 -0.026754953 0.38800001 4278867236
0.058256857 -0.02682391 0.38900003 4279787570
0.059673335 -0.026892865 0.39000002 4280115508
0.061096318 -0.026961822 0.39100003 4280443703
0.068481132 -0.027375558 0.39700001 4280369963
0.07141804 -0.027513471 0.39900002 4279518758
0.038395401 -0.024968646 0.38000003 4278734369
0.04616243 -0.025165766 0.38300002 4279591474
0.047406413 -0.025165766 0.38300002 4279262509
0.04877742 -0.025231473 0.384 4279328302
0.050154928 -0.025297182 0.38500002 4279459888
0.051405411 -0.025297182 0.38500002 4279460658
0.052792657 -0.025362886 0.38600001 4279000107
0.054186404 -0.025428595 0.38700002 4279000107
0.055586647 -0.025494302 0.38800001 4279130923
0.056993388 -0.02556001 0.38900003 4278865443
0.058406614 -0.025625715 0.39000002 4279851568
0.062685288 -0.025822837 0.39300001 4280434475
0.06412451 -0.025888544 0.39400002 4280631852
0.038496442 -0.023796445 0.38100001 4278733085
0.039733931 -0.023796445 0.38100001 4278471195
0.041078955 -0.023858905 0.38200003 4278539808
0.042319693 -0.023858905 0.38200003 4278210589
0.04356043 -0.023858905 0.38200003 4280051773
0.046282958 -0.023983818 0.384 4280053309
0.047530189 -0.023983818 0.384 4279198513
0.050154928 -0.024046278 0.38500002 4278803242
0.051538929 -0.024108734 0.38600001 4279328304
0.052929427 -0.024171194 0.38700002 4279590193
0.054186404 -0.024171194 0.38700002 4279852850
0.055586647 -0.02423365 0.38800001 4278668576
0.062685288 -0.02454594 0.39300001 4280960817
0.041186489 -0.022676956 0.38300002 4278603548
0.042430475 -0.022676956 0.38300002 4278999076
0.043674462 -0.022676956 0.38300002 4278868521
0.045035727 -0.022736164 0.384 4278934314
0.046282958 -0.022736164 0.384 4278934312
0.047653969 -0.022795374 0.38500002 4279000105
0.04903147 -0.022854581 0.38600001 4279788851
0.050285202 -0.022854581 0.38600001 4279525166
0.051672455 -0.022913791 0.38700002 4279787057
0.053066194 -0.022972999 0.38800001 4279983922
0.054326419 -0.022972999 0.38800001 4280508983
0.0571399 -0.023091417 0.39000002 4280111154
0.06412451 -0.023328252 0.39400002 4280895024
0.041294027 -0.021488508 0.384 4278667292
0.042541262 -0.021488508 0.384 4279129640
0.043902528 -0.02154447 0.38500002 4279064617
0.045153007 -0.02154447 0.38500002 4279854133
0.046403486 -0.02154447 0.38500002 4278933031
0.047777742 -0.021600427 0.38600001 4279393582
0.049158495 -0.021656388 0.38700002 4279787057
0.050415475 -0.021656388 0.38700002 4279721264
0.051805973 -0.021712348 0.38800001 4280116020
0.053202964 -0.021768307 0.38900003 4280181301
0.061408829 -0.021992145 0.39300001 4280632626
0.041401565 -0.020293564 0.38500002 4279390502
0.042652048 -0.020293564 0.38500002 4279194406
0.044016559 -0.020346273 0.38600001 4279458607
0.045270287 -0.020346273 0.38600001 4279919158
0.046524014 -0.020346273 0.38600001 4279261226
0.047901522 -0.020398986 0.38700002 4279655984
0.04928552 -0.020451695 0.38800001 4279852850
0.050545745 -0.020451695 0.38800001 4279721264
0.051939495 -0.020504406 0.38900003 4279720752
0.053339731 -0.020557117 0.39000002 4279852338
0.058706135 -0.020662537 0.39200002 4280108078
0.042762831 -0.01909212 0.38600001 4279325990
0.04413059 -0.019141583 0.38700002 4280313403
0.04538757 -0.019141583 0.38700002 4279852852
0.046644546 -0.019141583 0.38700002 4279589676
0.048025295 -0.019191043 0.38800001 4279787055
0.049412545 -0.019240506 0.38900003 4279852336
0.050676022 -0.019240506 0.38900003 4280312887
0.052073013 -0.019289967 0.39000002 4280246326
0.053339731 -0.019289967 0.39000002 4280312119
0.040359661 -0.01788418 0.38700002 4279521316
0.041616637 -0.01788418 0.38700002 4279456806
0.042873617 -0.01788418 0.38700002 4279194404
0.044244621 -0.017930392 0.38800001 4280181303
0.045504849 -0.017930392 0.38800001 4279720752
0.046765074 -0.017930392 0.38800001 4279918129
0.048149075 -0.017976604 0.38900003 4280444471
0.04953957 -0.018022817 0.39000002 4280312115
0.050806291 -0.018022817 0.39000002 4280246322
0.052206539 -0.018069031 0.39100003 4280246326
0.053476501 -0.018069031 0.39100003 4280180020
0.054746471 -0.018069031 0.39100003 4280176688
0.04046395 -0.016669741 0.38800001 4279325222
0.041724171 -0.016669741 0.38800001 4279654185
0.0429844 -0.016669741 0.38800001 4279917357
0.044358656 -0.016712705 0.38900003 4279786545
0.045622133 -0.016712705 0.38900003 4279852338
0.046885602 -0.016712705 0.38900003 4279720750
0.048272848 -0.016755667 0.39000002 4279983922
0.04953957 -0.016755667 0.39000002 4280377912
0.050936565 -0.01679863 0.39100003 4280377912
0.052206539 -0.01679863 0.39100003 4280443705
0.053476501 -0.01679863 0.39100003 4279916594
0.041831709 -0.015448804 0.38900003 4279588392
0.043095186 -0.015448804 0.38900003 4280114738
0.044358656 -0.015448804 0.38900003 4279852852
0.045739412 -0.015488517 0.39000002 4279721266
0.04700613 -0.015488517 0.39000002 4279984436
0.048272848 -0.015488517 0.39000002 4280181301
0.049666595 -0.015528233 0.39100003 4280443705
0.050936565 -0.015528233 0.39100003 4280048947
0.052340057 -0.015567946 0.39200002 4280176688
0.053613268 -0.015567946 0.39200002 4284780665
0.040672526 -0.014221366 0.39000002 4279390500
0.041939247 -0.014221366 0.39000002 4279588392
0.043205969 -0.014221366 0.39000002 4280115508
0.044472687 -0.014221366 0.39000002 4279984184
0.045739412 -0.014221366 0.39000002 4279852598
0.04700613 -0.014221366 0.39000002 4280246842
0.048396628 -0.014257832 0.39100003 4280443451
0.039405808 -0.012954217 0.39000002 4279587109
0.040672526 -0.012954217 0.39000002 4279652902
0.041939247 -0.012954217 0.39000002 4279917359
0.043205969 -0.012954217 0.39000002 4280247094
0.044472687 -0.012954217 0.39000002 4280049977
0.045856692 -0.012987434 0.39100003 4280049977
0.039405808 -0.011687067 0.39000002 4279980590
0.040672526 -0.011687067 0.39000002 4280047151
0.041939247 -0.011687067 0.39000002 4280443451
0.043316755 -0.011717035 0.39100003 4280181049
0.067069687 -0.032171402 0.39815104 4294967295
0.067069687 -0.032171402 0.39815104 4294901760
0.066914 -0.032619361 0.39799264 4294901760
0.066758312 -0.03306732 0.39783421 4294901760
0.066602632 -0.033515278 0.39767581 4294901760
0.066446945 -0.033963237 0.39751738 4294901760
0.066291258 -0.034411196 0.39735898 4294901760
0.06613557 -0.034859154 0.39720055 4294901760
0.065979883 -0.035307117 0.39704216 4294901760
0.065824203 -0.035755076 0.39688373 4294901760
0.065668516 -0.036203034 0.39672533 4294901760
0.065512829 -0.036650993 0.3965669 4294901760
0.065357141 -0.037098952 0.3964085 4294901760
0.065201461 -0.03754691 0.39625007 4294901760
0.065045774 -0.037994869 0.39609167 4294901760
0.064890087 -0.038442828 0.39593324 4294901760
0.064734399 -0.038890786 0.39577484 4294901760
0.064578712 -0.039338745 0.39561641 4294901760
0.064423032 -0.039786704 0.39545801 4294901760
0.064267345 -0.040234663 0.39529961 4294901760
0.064111657 -0.040682621 0.39514118 4294901760
0.06395597 -0.04113058 0.39498278 4294901760
0.063800283 -0.041578539 0.39482436 4294901760
0.063644603 -0.042026497 0.39466596 4294901760
0.063488916 -0.04247446 0.39450753 4294901760
0.063333228 -0.042922415 0.39434913 4294901760
0.063177541 -0.043370377 0.3941907 4294901760
0.063021854 -0.043818336 0.3940323 4294901760
0.062866174 -0.044266295 0.39387387 4294901760
0.062710486 -0.044714253 0.39371547 4294901760
0.062554799 -0.045162212 0.39355704 4294901760
0.062399112 -0.045610171 0.39339864 4294901760
0.062243428 -0.04605813 0.39324021 4294901760
0.062087744 -0.046506088 0.39308181 4294901760
0.061932057 -0.046954051 0.39292338 4294901760
0.06177637 -0.047402009 0.39276499 4294901760
0.061620686 -0.047849968 0.39260659 4294901760
0.061464999 -0.048297927 0.39244816 4294901760
0.061309315 -0.048745885 0.39228976 4294901760
0.061153628 -0.049193844 0.39213133 4294901760
0.060997941 -0.049641803 0.39197293 4294901760
0.060842257 -0.050089762 0.3918145 4294901760
0.06068657 -0.05053772 0.3916561 4294901760
0.060530886 -0.050985679 0.39149767 4294901760
0.060375199 -0.051433638 0.39133927 4294901760
0.060219511 -0.051881596 0.39118084 4294901760
0.060063828 -0.052329555 0.39102244 4294901760
0.05990814 -0.052777514 0.39086401 4294901760
0.059752457 -0.053225473 0.39070562 4294901760
0.05959677 -0.053673431 0.39054719 4294901760
0.059441082 -0.05412139 0.39038879 4294901760
0.059285399 -0.054569349 0.39023036 4294901760
0.059129715 -0.055017307 0.39007196 4294901760
0.058974028 -0.055465266 0.38991356 4294901760
0.05881834 -0.055913225 0.38975513 4294901760
0.058662653 -0.056361187 0.38959673 4294901760
0.058506969 -0.056809146 0.3894383 4294901760
0.058351286 -0.057257105 0.3892799 4294901760
0.058195598 -0.057705063 0.38912147 4294901760
0.058039911 -0.058153022 0.38896307 4294901760
0.057884227 -0.058600981 0.38880464 4294901760
0.05772854 -0.059048943 0.38864625 4294901760
0.057572857 -0.059496902 0.38848782 4294901760
0.057417169 -0.059944861 0.38832942 4294901760
0.057261482 -0.060392819 0.38817099 4294901760
0.057105798 -0.060840778 0.38801259 4294901760
0.056950115 -0.061288737 0.38785416 4294901760
0.056794427 -0.061736695 0.38769576 4294901760
0.05663874 -0.062184654 0.38753736 4294901760
0.056483053 -0.062632613 0.38737893 4294901760
0.056327369 -0.063080572 0.38722053 4294901760
0.056171685 -0.06352853 0.3870621 4294901760
0.056015998 -0.063976489 0.3869037 4294901760
0.055860311 -0.064424448 0.38674527 4294901760
0.055704623 -0.064872406 0.38658687 4294901760
0.05554894 -0.065320365 0.38642845 4294901760
0.055393256 -0.065768324 0.38627005 4294901760
0.055237569 -0.066216283 0.38611162 4294901760
0.055081882 -0.066664241 0.38595322 4294901760
0.054926198 -0.0671122 0.38579479 4294901760
0.054770511 -0.067560166 0.38563639 4294901760
0.054614827 -0.068008125 0.38547796 4294901760
0.05445914 -0.068456084 0.38531956 4294901760
0.054303452 -0.068904042 0.38516113 4294901760
0.054147769 -0.069352001 0.38500273 4294901760
0.053992085 -0.06979996 0.38484433 4294901760
0.053836398 -0.070247918 0.3846859 4294901760
0.05368071 -0.070695877 0.3845275 4294901760
0.053525023 -0.071143836 0.38436908 4294901760
0.05336934 -0.071591794 0.38421068 4294901760
0.053213656 -0.072039753 0.38405225 4294901760
0.053057969 -0.072487712 0.38389385 4294901760
0.052902281 -0.072935671 0.38373542 4294901760
0.052746594 -0.073383629 0.38357702 4294901760
0.05259091 -0.073831588 0.38341859 4294901760
0.052435227 -0.074279547 0.38326019 4294901760
0.052279539 -0.074727505 0.38310176 4294901760
0.052123852 -0.075175464 0.38294336 4294901760
0.051968165 -0.075623423 0.38278493 4294901760
0.051812481 -0.076071382 0.38262653 4294901760
0.051656798 -0.07651934 0.3824681 4294901760
0.05150111 -0.076967299 0.38230971 4294901760
0.067069687 -0.032171402 0.39815104 4278255360
0.067453638 -0.03238821 0.39838678 4278255360
0.067837581 -0.032605018 0.39862254 4278255360
0.068221532 -0.032821827 0.39885828 4278255360
0.068605483 -0.033038635 0.39909405 4278255360
0.068989433 -0.033255443 0.39932978 4278255360
0.069373377 -0.033472251 0.39956555 4278255360
0.069757327 -0.033689059 0.39980128 4278255360
0.070141278 -0.033905867 0.40003702 4278255360
0.070525229 -0.034122676 0.40027279 4278255360
0.070909172 -0.034339484 0.40050852 4278255360
0.071293123 -0.034556292 0.40074429 4278255360
0.071677074 -0.0347731 0.40098003 4278255360
0.072061017 -0.034989908 0.40121579 4278255360
0.072444968 -0.035206717 0.40145153 4278255360
0.072828919 -0.035423525 0.40168726 4278255360
0.073212869 -0.035640333 0.40192303 4278255360
0.073596813 -0.035857141 0.40215877 4278255360
0.073980764 -0.036073949 0.40239453 4278255360
0.074364714 -0.036290757 0.40263027 4278255360
0.074748665 -0.036507566 0.40286604 4278255360
0.075132608 -0.036724374 0.40310177 4278255360
0.075516559 -0.036941182 0.40333751 4278255360
0.07590051 -0.03715799 0.40357327 4278255360
0.076284453 -0.037374798 0.40380901 4278255360
0.076668404 -0.037591606 0.40404478 4278255360
0.077052355 -0.037808415 0.40428051 4278255360
0.077436306 -0.038025223 0.40451628 4278255360
0.077820256 -0.038242031 0.40475202 4278255360
0.0782042 -0.038458839 0.40498775 4278255360
0.07858815 -0.038675647 0.40522352 4278255360
0.078972101 -0.038892455 0.40545925 4278255360
0.079356045 -0.039109264 0.40569502 4278255360
0.079739995 -0.039326072 0.40593076 4278255360
0.080123946 -0.03954288 0.40616652 4278255360
0.080507889 -0.039759688 0.40640226 4278255360
0.08089184 -0.0399765 0.40663803 4278255360
0.081275791 -0.040193304 0.40687376 4278255360
0.081659742 -0.040410113 0.4071095 4278255360
0.082043685 -0.040626921 0.40734527 4278255360
0.082427636 -0.040843733 0.407581 4278255360
0.082811587 -0.041060537 0.40781677 4278255360
0.083195537 -0.041277345 0.4080525 4278255360
0.083579481 -0.041494153 0.40828824 4278255360
0.083963431 -0.041710965 0.40852401 4278255360
0.084347382 -0.04192777 0.40875974 4278255360
0.084731326 -0.042144582 0.40899551 4278255360
0.085115276 -0.042361386 0.40923125 4278255360
0.085499227 -0.042578198 0.40946701 4278255360
0.085883178 -0.042795002 0.40970275 4278255360
0.086267129 -0.043011814 0.40993851 4278255360
0.086651072 -0.043228619 0.41017425 4278255360
0.087035023 -0.043445431 0.41040999 4278255360
0.087418973 -0.043662235 0.41064575 4278255360
0.087802917 -0.043879047 0.41088149 4278255360
0.088186868 -0.044095851 0.41111726 4278255360
0.088570818 -0.044312663 0.41135299 4278255360
0.088954762 -0.044529468 0.41158873 4278255360
0.089338712 -0.04474628 0.41182449 4278255360
0.089722663 -0.044963084 0.41206023 4278255360
0.090106614 -0.045179896 0.412296 4278255360
0.090490565 -0.045396704 0.41253173 4278255360
0.090874508 -0.045613512 0.4127675 4278255360
0.091258459 -0.045830317 0.41300324 4278255360
0.09164241 -0.046047129 0.413239 4278255360
0.092026353 -0.046263933 0.41347474 4278255360
0.092410304 -0.046480745 0.41371047 4278255360
0.092794254 -0.046697553 0.41394624 4278255360
0.093178205 -0.046914361 0.41418198 4278255360
0.093562149 -0.04713117 0.41441774 4278255360
0.093946099 -0.047347978 0.41465348 4278255360
0.09433005 -0.047564782 0.41488922 4278255360
0.094714001 -0.047781594 0.41512498 4278255360
0.095097944 -0.047998402 0.41536072 4278255360
0.095481895 -0.04821521 0.41559649 4278255360
0.095865846 -0.048432019 0.41583222 4278255360
0.096249789 -0.048648827 0.41606799 4278255360
0.09663374 -0.048865631 0.41630372 4278255360
0.097017691 -0.049082443 0.41653949 4278255360
0.097401641 -0.049299251 0.41677523 4278255360
0.097785592 -0.049516059 0.41701096 4278255360
0.098169535 -0.049732868 0.41724673 4278255360
0.098553486 -0.049949676 0.41748247 4278255360
0.098937437 -0.05016648 0.41771823 4278255360
0.09932138 -0.050383292 0.41795397 4278255360
0.099705331 -0.0506001 0.41818973 4278255360
0.10008928 -0.050816908 0.41842547 4278255360
0.10047323 -0.051033717 0.41866121 4278255360
0.10085718 -0.051250525 0.41889697 4278255360
0.10124113 -0.051467333 0.41913271 4278255360
0.10162507 -0.051684141 0.41936848 4278255360
0.10200903 -0.051900949 0.41960421 4278255360
0.10239297 -0.052117757 0.41983998 4278255360
0.10277692 -0.052334566 0.42007571 4278255360
0.10316087 -0.052551374 0.42031145 4278255360
0.10354482 -0.052768182 0.42054722 4278255360
0.10392877 -0.05298499 0.42078295 4278255360
0.10431272 -0.053201798 0.42101872 4278255360
0.10469666 -0.053418607 0.42125446 4278255360
0.10508062 -0.053635415 0.42149022 4278255360
0.10546456 -0.053852223 0.42172596 4278255360
0.067069687 -0.032171402 0.39815104 4278190335
0.066785485 -0.032217201 0.39855987 4278190335
0.066501282 -0.032263 0.39896867 4278190335
0.06621708 -0.032308795 0.3993775 4278190335
0.06593287 -0.032354593 0.39978629 4278190335
0.065648668 -0.032400392 0.40019512 4278190335
0.065364465 -0.032446191 0.40060395 4278190335
0.065080263 -0.032491986 0.40101275 4278190335
0.06479606 -0.032537784 0.40142158 4278190335
0.064511858 -0.032583583 0.40183038 4278190335
0.064227656 -0.032629382 0.4022392 4278190335
0.063943446 -0.032675177 0.40264803 4278190335
0.063659243 -0.032720976 0.40305683 4278190335
0.063375041 -0.032766774 0.40346566 4278190335
0.063090838 -0.032812573 0.40387446 4278190335
0.062806636 -0.032858368 0.40428329 4278190335
0.062522434 -0.032904167 0.40469211 4278190335
0.062238228 -0.032949965 0.40510091 4278190335
0.061954021 -0.032995764 0.40550974 4278190335
0.061669819 -0.033041559 0.40591854 4278190335
0.061385617 -0.033087358 0.40632737 4278190335
0.061101414 -0.033133157 0.4067362 4278190335
0.060817208 -0.033178955 0.40714499 4278190335
0.060533006 -0.033224754 0.40755382 4278190335
0.060248803 -0.033270549 0.40796262 4278190335
0.059964597 -0.033316348 0.40837145 4278190335
0.059680395 -0.033362146 0.40878028 4278190335
0.059396192 -0.033407945 0.40918908 4278190335
0.05911199 -0.03345374 0.4095979 4278190335
0.058827784 -0.033499539 0.4100067 4278190335
0.058543582 -0.033545338 0.41041553 4278190335
0.058259379 -0.033591136 0.41082436 4278190335
0.057975173 -0.033636931 0.41123316 4278190335
0.057690971 -0.03368273 0.41164199 4278190335
0.057406768 -0.033728529 0.41205078 4278190335
0.057122566 -0.033774327 0.41245961 4278190335
0.05683836 -0.033820122 0.41286844 4278190335
0.056554157 -0.033865921 0.41327724 4278190335
0.056269955 -0.03391172 0.41368607 4278190335
0.055985749 -0.033957519 0.41409487 4278190335
0.055701546 -0.034003314 0.41450369 4278190335
0.055417344 -0.034049112 0.41491252 4278190335
0.055133142 -0.034094911 0.41532132 4278190335
0.054848935 -0.03414071 0.41573015 4278190335
0.054564733 -0.034186505 0.41613895 4278190335
0.054280527 -0.034232304 0.41654778 4278190335
0.053996325 -0.034278102 0.4169566 4278190335
0.053712122 -0.034323901 0.4173654 4278190335
0.05342792 -0.034369696 0.41777423 4278190335
0.053143714 -0.034415495 0.41818303 4278190335
0.052859511 -0.034461293 0.41859186 4278190335
0.052575309 -0.034507092 0.41900069 4278190335
0.052291103 -0.034552887 0.41940948 4278190335
0.0520069 -0.034598686 0.41981831 4278190335
0.051722698 -0.034644485 0.42022711 4278190335
0.051438496 -0.034690283 0.42063594 4278190335
0.051154289 -0.034736082 0.42104477 4278190335
0.050870087 -0.034781877 0.42145357 4278190335
0.050585881 -0.034827676 0.42186239 4278190335
0.050301678 -0.034873474 0.42227119 4278190335
0.050017476 -0.034919273 0.42268002 4278190335
0.049733274 -0.034965068 0.42308885 4278190335
0.049449071 -0.035010867 0.42349765 4278190335
0.049164865 -0.035056666 0.42390648 4278190335
0.048880663 -0.035102464 0.42431527 4278190335
0.048596457 -0.035148259 0.4247241 4278190335
0.048312254 -0.035194058 0.42513293 4278190335
0.048028052 -0.035239857 0.42554173 4278190335
0.047743849 -0.035285655 0.42595056 4278190335
0.047459647 -0.03533145 0.42635936 4278190335
0.047175441 -0.035377249 0.42676818 4278190335
0.046891239 -0.035423048 0.42717701 4278190335
0.046607032 -0.035468847 0.42758581 4278190335
0.04632283 -0.035514645 0.42799464 4278190335
0.046038628 -0.03556044 0.42840344 4278190335
0.045754425 -0.035606239 0.42881227 4278190335
0.045470223 -0.035652038 0.42922109 4278190335
0.045186017 -0.035697833 0.42962989 4278190335
0.044901814 -0.035743631 0.43003872 4278190335
0.044617608 -0.03578943 0.43044752 4278190335
0.044333406 -0.035835229 0.43085635 4278190335
0.044049203 -0.035881028 0.43126518 4278190335
0.043765001 -0.035926823 0.43167397 4278190335
0.043480795 -0.035972621 0.4320828 4278190335
0.043196592 -0.03601842 0.4324916 4278190335
0.042912386 -0.036064219 0.43290043 4278190335
0.042628184 -0.036110014 0.43330926 4278190335
0.042343982 -0.036155812 0.43371806 4278190335
0.042059779 -0.036201611 0.43412688 4278190335
0.041775577 -0.03624741 0.43453568 4278190335
0.041491371 -0.036293205 0.43494451 4278190335
0.041207165 -0.036339004 0.43535334 4278190335
0.040922962 -0.036384802 0.43576214 4278190335
0.04063876 -0.036430601 0.43617097 4278190335
0.040354557 -0.036476396 0.43657976 4278190335
0.040070355 -0.036522195 0.43698859 4278190335
0.039786153 -0.036567993 0.43739742 4278190335
0.039501943 -0.036613792 0.43780622 4278190335
0.03921774 -0.036659591 0.43821505 4278190335
0.038933538 -0.036705386 0.43862385 4278190335
0.038649336 -0.036751185 0.43903267 4278190335
0.067069687 -0.032171402 0.39815104 4294967295
0.068774909 -0.031896614 0.39569813 4294967295
0.070480131 -0.031621829 0.39324525 4294967295
0.072185352 -0.03134704 0.39079234 4294967295
0.073890574 -0.031072255 0.38833943 4294967295
0.075595796 -0.030797468 0.38588655 4294967295
0.07730101 -0.030522682 0.38343364 4294967295
0.07900624 -0.030247893 0.38098076 4294967295
0.080711454 -0.029973106 0.37852785 4294967295
0.082416676 -0.02969832 0.37607494 4294967295
0.084121898 -0.029423533 0.37362206 4294967295
0.08582712 -0.029148746 0.37116915 4294967295
0.087532341 -0.02887396 0.36871624 4294967295
0.089237563 -0.028599173 0.36626336 4294967295
0.090942785 -0.028324386 0.36381045 4294967295
0.092648007 -0.028049599 0.36135754 4294967295
0.094353229 -0.027774811 0.35890466 4294967295
0.096058451 -0.027500026 0.35645175 4294967295
0.097763672 -0.027225237 0.35399884 4294967295
0.099468887 -0.026950451 0.35154596 4294967295
0.10117412 -0.026675664 0.34909305 4294967295
0.10287933 -0.026400877 0.34664017 4294967295
0.10458455 -0.02612609 0.34418726 4294967295
0.10628977 -0.025851304 0.34173435 4294967295
0.107995 -0.025576517 0.33928147 4294967295
0.10970022 -0.02530173 0.33682856 4294967295
0.11140543 -0.025026944 0.33437568 4294967295
0.11311066 -0.024752155 0.33192277 4294967295
0.11481588 -0.02447737 0.32946986 4294967295
0.11652111 -0.024202581 0.32701698 4294967295
0.11822633 -0.023927795 0.32456407 4294967295
0.11993155 -0.023653008 0.32211116 4294967295
0.12163676 -0.023378221 0.31965828 4294967295
0.12334199 -0.023103435 0.31720537 4294967295
0.12504721 -0.022828648 0.31475246 4294967295
0.12675244 -0.022553861 0.31229958 4294967295
0.12845765 -0.022279073 0.30984667 4294967295
0.13016286 -0.022004288 0.30739379 4294967295
0.13186809 -0.021729499 0.30494088 4294967295
0.13357332 -0.021454714 0.30248797 4294967295
0.13527854 -0.021179926 0.30003506 4294967295
0.13698375 -0.020905141 0.29758218 4294967295
0.13868898 -0.020630352 0.2951293 4294967295
0.14039421 -0.020355565 0.29267639 4294967295
0.14209941 -0.020080779 0.29022348 4294967295
0.14380464 -0.019805992 0.28777057 4294967295
0.14550987 -0.019531205 0.28531769 4294967295
0.14721508 -0.019256419 0.28286478 4294967295
0.1489203 -0.018981632 0.2804119 4294967295
0.15062553 -0.018706843 0.27795899 4294967295
0.15233076 -0.018432058 0.27550608 4294967295
0.15403597 -0.01815727 0.27305317 4294967295
0.15574118 -0.017882485 0.27060029 4294967295
0.15744641 -0.017607696 0.26814741 4294967295
0.15915164 -0.01733291 0.2656945 4294967295
0.16085686 -0.017058123 0.26324159 4294967295
0.16256207 -0.016783336 0.26078868 4294967295
0.1642673 -0.016508549 0.2583358 4294967295
0.16597252 -0.016233763 0.25588292 4294967295
0.16767773 -0.015958976 0.25343001 4294967295
0.16938296 -0.015684187 0.2509771 4294967295
0.17108819 -0.015409401 0.24852419 4294967295
0.1727934 -0.015134614 0.24607129 4294967295
0.17449862 -0.014859827 0.2436184 4294967295
0.17620385 -0.014585041 0.2411655 4294967295
0.17790906 -0.014310256 0.23871261 4294967295
0.17961429 -0.014035467 0.2362597 4294967295
0.1813195 -0.01376068 0.2338068 4294967295
0.18302473 -0.013485894 0.23135391 4294967295
0.18472995 -0.013211107 0.228901 4294967295
0.18643516 -0.01293632 0.2264481 4294967295
0.18814039 -0.012661533 0.22399521 4294967295
0.18984562 -0.012386745 0.2215423 4294967295
0.19155085 -0.012111958 0.2190894 4294967295
0.19325605 -0.011837171 0.21663651 4294967295
0.19496128 -0.011562385 0.21418361 4294967295
0.19666651 -0.011287598 0.21173072 4294967295
0.19837171 -0.011012811 0.20927782 4294967295
0.20007694 -0.010738024 0.20682491 4294967295
0.20178217 -0.010463238 0.204372 4294967295
0.2034874 -0.010188451 0.20191911 4294967295
0.2051926 -0.0099136643 0.19946621 4294967295
0.20689783 -0.0096388776 0.19701332 4294967295
0.20860305 -0.0093640909 0.19456042 4294967295
0.21030825 -0.0090893041 0.19210753 4294967295
0.21201348 -0.0088145155 0.18965462 4294967295
0.21371871 -0.0085397288 0.18720172 4294967295
0.21542394 -0.0082649421 0.18474881 4294967295
0.21712914 -0.0079901554 0.18229592 4294967295
0.21883437 -0.0077153686 0.17984302 4294967295
0.2205396 -0.0074405819 0.17739013 4294967295
0.22224483 -0.0071657933 0.17493722 4294967295
0.22395006 -0.0068910066 0.17248432 4294967295
0.22565526 -0.0066162217 0.17003143 4294967295
0.22736049 -0.006341435 0.16757853 4294967295
0.22906572 -0.0060666483 0.16512564 4294967295
0.23077092 -0.0057918616 0.16267273 4294967295
0.23247615 -0.005517073 0.16021982 4294967295
0.23418137 -0.0052422862 0.15776692 4294967295
0.2358866 -0.0049674995 0.15531403 4294967295
0.2375918 -0.0046927128 0.15286113 4294967295
