# .PCD v0.7 - Point Cloud Data file format
VERSION 0.7
FIELDS x y z rgb
SIZE 4 4 4 4
TYPE F F F U
COUNT 1 1 1 1
WIDTH 1039
HEIGHT 1
VIEWPOINT 0 0 0 1 0 0 0
POINTS 1039
DATA ascii
0.0064378832 0.012325248 0.38800001 4279321377
0.0077179489 0.012357014 0.38900003 4278929181
0.0089814216 0.012357014 0.38900003 4278471449
0.010244895 0.012357014 0.38900003 4279129892
0.011537951 0.01238878 0.39000002 4279064615
0.012804672 0.01238878 0.39000002 4279656756
0.014107473 0.012420547 0.39100003 4282351450
0.015377442 0.012420547 0.39100003 4280705081
-0.0086400453 0.013515868 0.38600001 4281221683
-0.003662697 0.01365593 0.39000002 4280497960
-0.0023959761 0.01365593 0.39000002 4281090606
0.0001371127 0.013620915 0.38900003 4280761895
0.0013969848 0.013585899 0.38800001 4281023530
0.0026572095 0.013585899 0.38800001 4280826153
0.007698108 0.013585899 0.38800001 4278730007
0.0089814216 0.013620915 0.38900003 4278666777
0.010244895 0.013620915 0.38900003 4278206739
0.011537951 0.01365593 0.39000002 4278537501
0.012804672 0.01365593 0.39000002 4278472480
0.014107473 0.013690946 0.39100003 4278208024
0.015377442 0.013690946 0.39100003 4280708411
0.016689988 0.013725961 0.39200002 4278866720
0.018009027 0.013760975 0.39300001 4278933029
0.019285493 0.013760975 0.39300001 4279393580
0.020614278 0.01379599 0.39400002 4278867749
0.021893991 0.01379599 0.39400002 4278933544
0.023173705 0.01379599 0.39400002 4278999337
-0.0074054524 0.014808287 0.38700002 4281090356
-0.003662697 0.014923079 0.39000002 4280562981
-0.0023959761 0.014923079 0.39000002 4280103200
-0.0011292555 0.014923079 0.39000002 4280959022
0.00013676021 0.01484655 0.38800001 4279707672
0.0013933844 0.014808287 0.38700002 4281023530
0.002650361 0.014808287 0.38700002 4280826151
0.0039073378 0.014808287 0.38700002 4280958507
0.0051643145 0.014808287 0.38700002 4281287472
0.0064378832 0.01484655 0.38800001 4279711774
0.007698108 0.01484655 0.38800001 4279254555
0.0089583332 0.01484655 0.38800001 4278797082
0.010244895 0.014884816 0.38900003 4278862875
0.011508367 0.014884816 0.38900003 4278666777
0.012804672 0.014923079 0.39000002 4278864669
0.014071392 0.014923079 0.39000002 4278800160
0.015377442 0.014961344 0.39100003 4278405402
0.016689988 0.014999609 0.39200002 4279063845
0.018009027 0.015037872 0.39300001 4278933029
0.019285493 0.015037872 0.39300001 4279064615
0.020614278 0.015076137 0.39400002 4278933029
0.021893991 0.015076137 0.39400002 4278208792
0.023173705 0.015076137 0.39400002 4278538271
0.024453416 0.015076137 0.39400002 4278669859
0.025733128 0.015076137 0.39400002 4278341407
-0.0073863165 0.016024174 0.38600001 4280959024
-0.0036533056 0.016148716 0.38900003 4280365088
-0.0023959761 0.016190229 0.39000002 4280365604
-0.0011292555 0.016190229 0.39000002 4280562983
0.00013605527 0.016024174 0.38600001 4280036639
0.0013897839 0.016024174 0.38600001 4280694053
0.0026435126 0.016024174 0.38600001 4280628260
0.0038972411 0.016024174 0.38600001 4280761130
0.0051643145 0.016065689 0.38700002 4280892714
0.0064212908 0.016065689 0.38700002 4280632874
0.007678268 0.016065689 0.38700002 4279320094
0.0089583332 0.016107202 0.38800001 4278862109
0.010244895 0.016148716 0.38900003 4278664984
0.011508367 0.016148716 0.38900003 4278665496
0.012804672 0.016190229 0.39000002 4278862873
0.014071392 0.016190229 0.39000002 4278798363
0.015377442 0.016231744 0.39100003 4279061535
0.016689988 0.016273256 0.39200002 4278668574
0.017963205 0.016273256 0.39200002 4278603294
0.019285493 0.016314769 0.39300001 4278866466
0.020561956 0.016314769 0.39300001 4278669087
0.021893991 0.016356282 0.39400002 4278669087
0.023173705 0.016356282 0.39400002 4278537501
0.024453416 0.016356282 0.39400002 4278734367
0.025733128 0.016356282 0.39400002 4278734367
0.027081402 0.016397797 0.39500001 4278206481
0.028364362 0.016397797 0.39500001 4278800160
0.029647322 0.016397797 0.39500001 4278668574
-0.0036439139 0.017367853 0.38800001 4280035871
-0.0023959761 0.017457379 0.39000002 4280364323
-0.0011118823 0.017188802 0.384 4281023534
0.00013570279 0.017233565 0.38500002 4280365604
0.0013861834 0.017233565 0.38500002 4280628262
0.0026366641 0.017233565 0.38500002 4280167711
0.0038972411 0.017278329 0.38600001 4280036635
0.0051509701 0.017278329 0.38600001 4280695335
0.0064212908 0.017323092 0.38700002 4279382037
0.007678268 0.017323092 0.38700002 4279319578
0.0089583332 0.017367853 0.38800001 4279058972
0.010218557 0.017367853 0.38800001 4278862363
0.011508367 0.017412616 0.38900003 4278664982
0.012804672 0.017457379 0.39000002 4278929179
0.014071392 0.017457379 0.39000002 4278798363
0.015377442 0.017502142 0.39100003 4278733083
0.016647412 0.017502142 0.39100003 4278668574
0.017963205 0.017546903 0.39200002 4278668574
0.019285493 0.017591666 0.39300001 4279063332
0.020561956 0.017591666 0.39300001 4278865953
0.021838421 0.017591666 0.39300001 4278734621
0.023173705 0.01763643 0.39400002 4278866207
0.024453416 0.01763643 0.39400002 4278800414
0.025733128 0.01763643 0.39400002 4278535958
0.027081402 0.017681191 0.39500001 4279585316
0.028364362 0.017681191 0.39500001 4278928666
0.02972238 0.017725954 0.39600003 4278733853
0.031086894 0.017770715 0.39700001 4278536728
0.032457903 0.01781548 0.39800003 4278799900
0.033835407 0.017860241 0.39900002 4278536728
0.03724898 0.018263103 0.40800002 4278864923
0.038574167 0.018263103 0.40800002 4278864923
0.055756651 0.019158354 0.42800003 4278535958
0.057280317 0.019203117 0.42900002 4278864669
0.058810472 0.019247878 0.43000001 4278601499
0.060347132 0.019292641 0.43100002 4278864671
0.061890285 0.019337403 0.43200001 4278996257
0.063439943 0.019382168 0.43300003 4279063332
0.064996079 0.019426929 0.43400002 4278800160
0.066558726 0.019471692 0.43500003 4278865955
0.06797161 0.019471692 0.43500003 4278865443
-0.0048914989 0.018580494 0.38700002 4280498473
-0.0036345224 0.018580494 0.38700002 4280299297
-0.0023652585 0.018484471 0.38500002 4280101405
-0.0011118823 0.01843646 0.384 4280694055
0.00013535032 0.01843646 0.384 4280233504
0.0013861834 0.018484471 0.38500002 4280299295
0.0026366641 0.018484471 0.38500002 4280167709
0.0038871446 0.018484471 0.38500002 4280168223
0.0051509701 0.018532483 0.38600001 4280628772
0.0064046984 0.018532483 0.38600001 4279580186
0.007678268 0.018580494 0.38700002 4279319062
0.0089583332 0.018628506 0.38800001 4278993177
0.010218557 0.018628506 0.38800001 4278796568
0.011508367 0.018676519 0.38900003 4278797595
0.01277184 0.018676519 0.38900003 4278732570
0.014071392 0.018724529 0.39000002 4278929949
0.015338113 0.018724529 0.39000002 4278864669
0.016647412 0.018772542 0.39100003 4278733853
0.017963205 0.018820552 0.39200002 4278865955
0.019236421 0.018820552 0.39200002 4278865955
0.020561956 0.018868564 0.39300001 4278471197
0.021838421 0.018868564 0.39300001 4278668576
0.023173705 0.018916577 0.39400002 4278800160
0.024453416 0.018916577 0.39400002 4278799900
0.025733128 0.018916577 0.39400002 4278996255
0.027081402 0.018964587 0.39500001 4279387935
0.028364362 0.018964587 0.39500001 4279388703
0.02972238 0.0190126 0.39600003 4278927384
0.031165199 0.019108623 0.39800003 4278198784
0.032539453 0.019156635 0.39900002 4278200586
0.034005009 0.019252658 0.40100002 4278196736
0.035571601 0.019396693 0.40400001 4278196992
0.037157681 0.019540727 0.40700001 4278199046
0.038574167 0.019588739 0.40800002 4278196480
0.039997142 0.01963675 0.40900001 4278199301
0.041426618 0.019684762 0.41000003 4278198016
0.042862587 0.019732773 0.41100001 4278197504
0.044197515 0.019732773 0.41100001 4278196480
0.049257826 0.020164877 0.42000002 4278196993
0.050863042 0.020260902 0.42200002 4278196736
0.052357472 0.020308912 0.42300001 4278196480
0.053985428 0.020404935 0.42500001 4278196480
0.055626374 0.02050096 0.42700002 4278196480
0.057146799 0.020548971 0.42800003 4278195712
0.058673706 0.020596983 0.42900002 4278196480
0.060207114 0.020644994 0.43000001 4278197249
0.061747022 0.020693006 0.43100002 4278198277
0.063439943 0.020789029 0.43300003 4278929951
0.064996079 0.020837041 0.43400002 4278864671
0.066558726 0.020885052 0.43500003 4278930464
0.06797161 0.020885052 0.43500003 4279127843
-0.0036251307 0.019786635 0.38600001 4280036125
-0.0023591151 0.019684114 0.384 4279904539
-0.0011118823 0.019684114 0.384 4279904026
0.00013535032 0.019684114 0.384 4280167198
0.0013861834 0.019735375 0.38500002 4280233502
0.0026366641 0.019735375 0.38500002 4280101916
0.0038871446 0.019735375 0.38500002 4280628776
0.0051509701 0.019786635 0.38600001 4280103200
0.0064046984 0.019786635 0.38600001 4279317016
0.007678268 0.019837897 0.38700002 4279252756
0.0089583332 0.019889157 0.38800001 4278861078
0.010218557 0.019889157 0.38800001 4278927384
0.011508367 0.019940419 0.38900003 4278797080
0.01277184 0.019940419 0.38900003 4278797593
0.014071392 0.019991679 0.39000002 4278930203
0.015338113 0.019991679 0.39000002 4278995996
0.016604833 0.019991679 0.39000002 4278734107
0.017963205 0.020094201 0.39200002 4278931746
0.019236421 0.020094201 0.39200002 4278931746
0.020509636 0.020094201 0.39200002 4278865955
0.021838421 0.020145461 0.39300001 4278734882
0.023114886 0.020145461 0.39300001 4278603294
0.024453416 0.020196723 0.39400002 4278996255
0.025733128 0.020196723 0.39400002 4278797595
0.027081402 0.020247983 0.39500001 4278197760
0.028436171 0.020299245 0.39600003 4280045350
0.029797435 0.020350505 0.39700001 4278526476
0.031165199 0.020401767 0.39800003 4278853135
0.032621007 0.020504287 0.40000001 4278589709
0.034005009 0.020555547 0.40100002 4278655502
0.035571601 0.020709328 0.40400001 4278852883
0.037066389 0.02081185 0.40600002 4278721297
0.038574167 0.020914372 0.40800002 4278655504
0.039997142 0.020965632 0.40900001 4278197001
0.041426618 0.021016894 0.41000003 4279519269
0.042862587 0.021068154 0.41100001 4279059488
0.044305053 0.021119416 0.41200003 4279322660
0.045975581 0.021273198 0.41500002 4279256867
0.047551569 0.021375719 0.41700003 4279650855
0.049140546 0.021478241 0.41900003 4279519269
0.050742518 0.021580761 0.42100003 4279125281
0.052357472 0.021683281 0.42300001 4278993695
0.053985428 0.021785803 0.42500001 4279059742
0.055626374 0.021888325 0.42700002 4279059742
0.057146799 0.021939587 0.42800003 4279322914
0.058673706 0.021990847 0.42900002 4279125535
0.060207114 0.022042107 0.43000001 4279257119
0.061747022 0.022093369 0.43100002 4279914279
0.063293427 0.022144629 0.43200001 4279387937
0.064996079 0.022247151 0.43400002 4278929183
0.066558726 0.022298412 0.43500003 4278995746
0.06797161 0.022298412 0.43500003 4279060769
-0.0049041384 0.021149809 0.38800001 4281154866
-0.0036251307 0.02104079 0.38600001 4279838492
-0.0023591151 0.020931769 0.384 4280232737
-0.0011118823 0.020931769 0.384 4280298784
0.00013535032 0.020931769 0.384 4280101405
0.0013861834 0.020986279 0.38500002 4280364575
0.0026366641 0.020986279 0.38500002 4280232989
0.0038972411 0.02104079 0.38600001 4280628262
0.0051509701 0.02104079 0.38600001 4281484085
0.0064212908 0.0210953 0.38700002 4279382807
0.007678268 0.0210953 0.38700002 4279319578
0.0089583332 0.021149809 0.38800001 4278992666
0.010218557 0.021149809 0.38800001 4278993179
0.011508367 0.021204319 0.38900003 4278796568
0.01277184 0.021204319 0.38900003 4278994459
0.014071392 0.021258829 0.39000002 4278929949
0.015338113 0.021258829 0.39000002 4278996509
0.016604833 0.021258829 0.39000002 4278865693
0.017871555 0.021258829 0.39000002 4278865953
0.01918735 0.021313339 0.39100003 4278865953
0.020509636 0.021367848 0.39200002 4278603296
0.021838421 0.021422358 0.39300001 4278537503
0.023114886 0.021422358 0.39300001 4278603294
0.024453416 0.021476869 0.39400002 4278865439
0.025733128 0.021476869 0.39400002 4279653672
0.027081402 0.021531377 0.39500001 4280109610
0.028436171 0.021585887 0.39600003 4279912998
0.029797435 0.021640398 0.39700001 4278591759
0.031165199 0.021694908 0.39800003 4278786572
0.032621007 0.021803927 0.40000001 4278720525
0.034089811 0.021912945 0.40200001 4279116566
0.035571601 0.022021966 0.40400001 4278985750
0.037066389 0.022130987 0.40600002 4278854164
0.038479622 0.022185495 0.40700001 4279379738
0.039997142 0.022294514 0.40900001 4278591759
0.041426618 0.022349026 0.41000003 4279389221
0.042862587 0.022403535 0.41100001 4278203148
0.044412587 0.022512555 0.41300002 4278199040
0.045975581 0.022621574 0.41500002 4278664214
0.047437534 0.022676084 0.41600001 4278202120
0.049140546 0.022839613 0.41900003 4278466833
0.050742518 0.022948634 0.42100003 4278200835
0.052357472 0.023057653 0.42300001 4278929181
0.053858403 0.023112163 0.42400002 4278863388
0.055496104 0.023221184 0.42600003 4278863388
0.057146799 0.023330202 0.42800003 4278205458
0.058673706 0.023384711 0.42900002 4278863388
0.060207114 0.023439221 0.43000001 4278666007
0.061747022 0.023493731 0.43100002 4279389471
0.063293427 0.02354824 0.43200001 4278862109
0.064996079 0.02365726 0.43400002 4278929183
0.066558726 0.023711771 0.43500003 4278996257
0.06797161 0.023711771 0.43500003 4279258916
0.069543988 0.023766281 0.43600002 4285503102
-0.0049167783 0.02246822 0.38900003 4281089073
-0.0037378294 0.022988051 0.39800003 4280430116
-0.0023591151 0.022179425 0.384 4280890667
-0.0011118823 0.022179425 0.384 4280694055
0.00013535032 0.022179425 0.384 4280101918
0.0013897839 0.022294942 0.38600001 4280561956
0.0026435126 0.022294942 0.38600001 4280561956
0.0038972411 0.022294942 0.38600001 4281286192
0.0051643145 0.022352701 0.38700002 4280562981
0.0064212908 0.022352701 0.38700002 4279383061
0.007698108 0.02241046 0.38800001 4279319578
0.0089583332 0.02241046 0.38800001 4278992666
0.010244895 0.02246822 0.38900003 4278993179
0.011508367 0.02246822 0.38900003 4278928154
0.01277184 0.02246822 0.38900003 4278928668
0.014035312 0.02246822 0.38900003 4278798363
0.015338113 0.022525977 0.39000002 4278996255
0.016604833 0.022525977 0.39000002 4278865439
0.017871555 0.022525977 0.39000002 4279194404
0.01918735 0.022583738 0.39100003 4278931746
0.020509636 0.022641497 0.39200002 4278931746
0.021782853 0.022641497 0.39200002 4278471195
0.023114886 0.022699254 0.39300001 4278668574
0.024453416 0.022757014 0.39400002 4278864669
0.025733128 0.022757014 0.39400002 4279982639
0.027081402 0.022814773 0.39500001 4279781928
0.028436171 0.022872532 0.39600003 4279518756
0.029797435 0.022930291 0.39700001 4278196999
0.031165199 0.022988051 0.39800003 4279314969
0.032621007 0.023103567 0.40000001 4278920209
0.034089811 0.023219084 0.40200001 4278196742
0.035571601 0.023334604 0.40400001 4278789398
0.037066389 0.023450121 0.40600002 4278197004
0.038479622 0.02350788 0.40700001 4279447580
0.039997142 0.023623398 0.40900001 4278329867
0.041426618 0.023681156 0.41000003 4279913768
0.042862587 0.023738915 0.41100001 4278198274
0.044412587 0.023854433 0.41300002 4278395914
0.045975581 0.023969952 0.41500002 4279057176
0.047437534 0.024027709 0.41600001 4278663701
0.049140546 0.024200987 0.41900003 4278532115
0.050742518 0.024316506 0.42100003 4279059742
0.0522337 0.024374263 0.42200002 4278203149
0.053858403 0.024489783 0.42400002 4278201612
0.055496104 0.0246053 0.42600003 4278202126
0.057146799 0.024720818 0.42800003 4279583779
0.058673706 0.024778577 0.42900002 4278399505
0.060207114 0.024836333 0.43000001 4278203405
0.061747022 0.024894094 0.43100002 4278467605
0.063439943 0.025009612 0.43300003 4279389734
0.064996079 0.02506737 0.43400002 4278733087
0.066558726 0.025125131 0.43500003 4278799650
0.06797161 0.025125131 0.43500003 4278798367
0.069543988 0.025182888 0.43600002 4285569411
-0.0049546966 0.023915144 0.39200002 4281088813
-0.0037284377 0.024220183 0.39700001 4280561956
-0.0024389809 0.024220183 0.39700001 4280561702
-0.0011495242 0.024220183 0.39700001 4281220395
0.0001399325 0.024220183 0.39700001 4279838742
0.0013933844 0.023610104 0.38700002 4280890921
0.002650361 0.023610104 0.38700002 4281088300
0.0039073378 0.023610104 0.38700002 4280628772
0.005177659 0.023671111 0.38800001 4280958507
0.0064378832 0.023671111 0.38800001 4279317781
0.007698108 0.023671111 0.38800001 4279188762
0.0089583332 0.023671111 0.38800001 4278992664
0.010244895 0.02373212 0.38900003 4279124763
0.011508367 0.02373212 0.38900003 4278993947
0.01277184 0.02373212 0.38900003 4278994461
0.014035312 0.02373212 0.38900003 4278469652
0.015338113 0.023793127 0.39000002 4279062302
0.016604833 0.023793127 0.39000002 4279062302
0.017871555 0.023793127 0.39000002 4278997279
0.01918735 0.023854136 0.39100003 4278997025
0.020509636 0.023915144 0.39200002 4278799646
0.021782853 0.023915144 0.39200002 4278799646
0.023114886 0.023976151 0.39300001 4278931232
0.024453416 0.02403716 0.39400002 4278996255
0.025733128 0.02403716 0.39400002 4279193121
0.027081402 0.024098167 0.39500001 4279256097
0.028436171 0.024159176 0.39600003 4279979561
0.029797435 0.024220183 0.39700001 4278198281
0.031243503 0.0243422 0.39900002 4278856213
0.032621007 0.024403207 0.40000001 4279381785
0.034089811 0.024525223 0.40200001 4278195971
0.035571601 0.02464724 0.40400001 4278854931
0.037066389 0.024769256 0.40600002 4280631854
0.038479622 0.024830263 0.40700001 4280501036
0.039997142 0.024952279 0.40900001 4279514654
0.041426618 0.025013288 0.41000003 4278398476
0.042862587 0.025074296 0.41100001 4279118353
0.044412587 0.025196312 0.41300002 4278592523
0.045975581 0.025318328 0.41500002 4279319064
0.047551569 0.025440345 0.41700003 4278202120
0.049140546 0.025562361 0.41900003 4278532115
0.050742518 0.025684377 0.42100003 4278203919
0.052357472 0.025806392 0.42300001 4278532628
0.053985428 0.025928408 0.42500001 4278597656
0.055496104 0.025989417 0.42600003 4279189023
0.057146799 0.026111433 0.42800003 4278200843
0.058673706 0.02617244 0.42900002 4278201100
0.060347132 0.026294457 0.43100002 4278201866
0.061890285 0.026355464 0.43200001 4279388453
0.063439943 0.026416473 0.43300003 4278928929
0.064996079 0.02647748 0.43400002 4279061539
0.066558726 0.026538489 0.43500003 4279061539
0.06797161 0.026538489 0.43500003 4278665498
-0.0049673361 0.02525305 0.39300001 4281088813
-0.0037190462 0.025445823 0.39600003 4280561956
-0.0024389809 0.025510078 0.39700001 4280430370
-0.0011495242 0.025510078 0.39700001 4280759844
0.0001399325 0.025510078 0.39700001 4281023016
0.0014005854 0.024996022 0.38900003 4280825639
0.002664058 0.024996022 0.38900003 4280759846
0.0039174343 0.024931764 0.38800001 4280957225
0.005177659 0.024931764 0.38800001 4280826151
0.0064378832 0.024931764 0.38800001 4279187478
0.0077179489 0.024996022 0.38900003 4279123482
0.0089814216 0.024996022 0.38900003 4278795798
0.010244895 0.024996022 0.38900003 4279058968
0.011508367 0.024996022 0.38900003 4278731287
0.01277184 0.024996022 0.38900003 4278994459
0.014035312 0.024996022 0.38900003 4278798617
0.015298785 0.024996022 0.38900003 4279062302
0.016604833 0.025060279 0.39000002 4278996509
0.017871555 0.025060279 0.39000002 4279325474
0.01918735 0.025124537 0.39100003 4278865439
0.020457316 0.025124537 0.39100003 4278997025
0.021782853 0.025188792 0.39200002 4278799646
0.023114886 0.02525305 0.39300001 4278799646
0.024453416 0.025317308 0.39400002 4278864669
0.025733128 0.025317308 0.39400002 4278468119
0.027081402 0.025381563 0.39500001 4279058205
0.028436171 0.025445823 0.39600003 4279124252
0.029797435 0.025510078 0.39700001 4278591759
0.031165199 0.025574338 0.39800003 4278525453
0.032621007 0.025702849 0.40000001 4278590222
0.034089811 0.025831364 0.40200001 4278721295
0.035571601 0.025959879 0.40400001 4278655502
0.037066389 0.026088392 0.40600002 4278458636
0.038479622 0.02615265 0.40700001 4278459406
0.039997142 0.026281163 0.40900001 4280172588
0.041426618 0.026345422 0.41000003 4279780645
0.042966876 0.026473936 0.41200003 4278198791
0.044412587 0.026538193 0.41300002 4278727187
0.045975581 0.026666706 0.41500002 4279650594
0.047551569 0.026795221 0.41700003 4279716385
0.049140546 0.026923737 0.41900003 4279453726
0.050742518 0.027052252 0.42100003 4279454500
0.052357472 0.027180763 0.42300001 4279191842
0.053985428 0.027309278 0.42500001 4279126049
0.055626374 0.027437793 0.42700002 4279257635
0.057146799 0.027502051 0.42800003 4278796570
0.058810472 0.027630564 0.43000001 4279322914
0.060347132 0.027694821 0.43100002 4279322914
0.061890285 0.027759077 0.43200001 4278202892
0.063439943 0.027823336 0.43300003 4279323687
0.064996079 0.027887592 0.43400002 4279061537
0.066558726 0.02795185 0.43500003 4279390502
0.06797161 0.02795185 0.43500003 4278992925
-0.0049673361 0.026529947 0.39300001 4281023532
-0.0037190462 0.026732467 0.39600003 4281219884
-0.0024328374 0.026732467 0.39600003 4281154091
-0.0011466288 0.026732467 0.39600003 4281154604
0.00013887507 0.026597453 0.39400002 4281286190
0.0014077864 0.026394935 0.39100003 4281154606
0.0026709065 0.026327427 0.39000002 4281088813
0.0039376272 0.026327427 0.39000002 4281155118
0.0051910039 0.026259923 0.38900003 4281155888
0.0064544762 0.026259923 0.38900003 4279646492
0.0077179489 0.026259923 0.38900003 4279451164
0.0089814216 0.026259923 0.38900003 4278993177
0.010244895 0.026259923 0.38900003 4279125533
0.011508367 0.026259923 0.38900003 4278994461
0.01277184 0.026259923 0.38900003 4278797595
0.014035312 0.026259923 0.38900003 4278864671
0.015298785 0.026259923 0.38900003 4278865441
0.016562259 0.026259923 0.38900003 4278799646
0.017871555 0.026327427 0.39000002 4278997025
0.01918735 0.026394935 0.39100003 4278997027
0.020457316 0.026394935 0.39100003 4278799648
0.021782853 0.026462441 0.39200002 4278865439
0.023114886 0.026529947 0.39300001 4278865439
0.024453416 0.026597453 0.39400002 4278667290
0.025733128 0.026597453 0.39400002 4278203408
0.027081402 0.026664959 0.39500001 4278860826
0.028436171 0.026732467 0.39600003 4279321377
0.029797435 0.026799971 0.39700001 4278525453
0.031165199 0.026867479 0.39800003 4278853135
0.032621007 0.027002489 0.40000001 4278721297
0.034089811 0.027137503 0.40200001 4278852113
0.035571601 0.027272515 0.40400001 4279049492
0.037066389 0.027407529 0.40600002 4278786320
0.038479622 0.027475033 0.40700001 4278590224
0.039997142 0.027610047 0.40900001 4279712037
0.041426618 0.027677553 0.41000003 4278196738
0.042966876 0.027812567 0.41200003 4278196481
0.044412587 0.027880071 0.41300002 4278196481
0.045975581 0.028015085 0.41500002 4278196992
0.047551569 0.028150097 0.41700003 4278196480
0.049140546 0.02828511 0.41900003 4278196736
0.050742518 0.028420122 0.42100003 4278196992
0.052357472 0.028555132 0.42300001 4278196224
0.053985428 0.028690146 0.42500001 4278196736
0.055626374 0.028825158 0.42700002 4278196480
0.057280317 0.028960172 0.42900002 4278199559
0.058810472 0.029027676 0.43000001 4278200330
0.060347132 0.029095184 0.43100002 4278200844
0.061890285 0.02916269 0.43200001 4279518758
0.063439943 0.029230196 0.43300003 4279127078
0.064996079 0.029297702 0.43400002 4279061285
0.066558726 0.02936521 0.43500003 4279521066
0.06797161 0.02936521 0.43500003 4281952845
-0.004979976 0.027877599 0.39400002 4281155118
0.0052043479 0.027594578 0.39000002 4279907102
0.0064710681 0.027594578 0.39000002 4279713055
0.0077179489 0.027523823 0.38900003 4279516703
0.0089814216 0.027523823 0.38900003 4279124252
0.010244895 0.027523823 0.38900003 4279124763
0.011508367 0.027523823 0.38900003 4278862875
0.01277184 0.027523823 0.38900003 4278994461
0.014035312 0.027523823 0.38900003 4278995746
0.015298785 0.027523823 0.38900003 4278930466
0.016562259 0.027523823 0.38900003 4278733085
0.017871555 0.027594578 0.39000002 4279127843
0.019138277 0.027594578 0.39000002 4279127841
0.020457316 0.027665334 0.39100003 4278930462
0.021782853 0.027736088 0.39200002 4278799646
0.023114886 0.027806843 0.39300001 4278799646
0.024453416 0.027877599 0.39400002 4278865439
0.025733128 0.027877599 0.39400002 4278204687
0.027081402 0.027948353 0.39500001 4279322914
0.028436171 0.028019112 0.39600003 4279191842
0.029797435 0.028089866 0.39700001 4279913514
0.031165199 0.028160622 0.39800003 4279781158
0.032621007 0.028302131 0.40000001 4279978026
0.034089811 0.028443642 0.40200001 4279714854
0.035571601 0.028585153 0.40400001 4280306991
0.037066389 0.028726663 0.40600002 4279978026
0.038479622 0.028797418 0.40700001 4280109612
0.039997142 0.028938929 0.40900001 4279452965
0.041426618 0.029009685 0.41000003 4279520041
0.042966876 0.029151196 0.41200003 4279849006
0.044520125 0.029292706 0.41400003 4279256867
0.045975581 0.029363461 0.41500002 4279585832
0.047551569 0.029504972 0.41700003 4279190558
0.049257826 0.029717239 0.42000002 4279387937
0.050863042 0.029858749 0.42200002 4279322914
0.052481253 0.03000026 0.42400002 4278994463
0.054112453 0.030141771 0.42600003 4278928670
0.055756651 0.030283282 0.42800003 4279257381
0.057280317 0.030354036 0.42900002 4279257121
0.058947243 0.030495547 0.43100002 4279322914
0.060487147 0.030566301 0.43200001 4279388707
0.062033553 0.030637057 0.43300003 4279389221
0.063586451 0.030707812 0.43400002 4279323941
0.064996079 0.030707812 0.43400002 4279323941
0.066558726 0.030778568 0.43500003 4279124261
-0.0011437332 0.029231749 0.39500001 4283721815
0.0052043479 0.028861728 0.39000002 4279709977
0.0064710681 0.028861728 0.39000002 4279647777
0.0077377893 0.028861728 0.39000002 4279517473
0.0089814216 0.028787725 0.38900003 4279190043
0.010244895 0.028787725 0.38900003 4279124763
0.011508367 0.028787725 0.38900003 4279059740
0.01277184 0.028787725 0.38900003 4278994461
0.014035312 0.028787725 0.38900003 4279060767
0.015298785 0.028787725 0.38900003 4279653674
0.016562259 0.028787725 0.38900003 4278930464
0.017871555 0.028861728 0.39000002 4278997027
0.019138277 0.028861728 0.39000002 4279194404
0.020457316 0.028935732 0.39100003 4278865439
0.021782853 0.029009737 0.39200002 4278799646
0.023114886 0.02908374 0.39300001 4278799646
0.024391351 0.02908374 0.39300001 4278732570
0.025733128 0.029157747 0.39400002 4278203919
0.027081402 0.029231749 0.39500001 4279191842
0.028436171 0.029305754 0.39600003 4278995746
0.029797435 0.029379759 0.39700001 4278733087
0.031165199 0.029453764 0.39800003 4278995746
0.032621007 0.029601771 0.40000001 4278995744
0.034089811 0.029749781 0.40200001 4278995744
0.035571601 0.029897789 0.40400001 4279127330
0.037066389 0.030045798 0.40600002 4278929951
0.038479622 0.030119803 0.40700001 4278929951
0.039997142 0.03026781 0.40900001 4279061537
0.041527659 0.03041582 0.41100001 4278864671
0.042966876 0.030489827 0.41200003 4278733085
0.044520125 0.030637836 0.41400003 4278930464
0.046086367 0.030785842 0.41600001 4278864671
0.0476656 0.030933851 0.41800001 4279061535
0.049257826 0.031081861 0.42000002 4278929949
0.050863042 0.03122987 0.42200002 4278929951
0.052481253 0.031377878 0.42400002 4278798365
0.054112453 0.031525888 0.42600003 4278798365
0.055756651 0.031673897 0.42800003 4278995744
0.057413835 0.031821903 0.43000001 4279193123
0.058947243 0.031895909 0.43100002 4279323939
0.060487147 0.031969912 0.43200001 4279389219
0.062033553 0.032043919 0.43300003 4279455014
0.063586451 0.032117922 0.43400002 4278796830
0.065145843 0.032191928 0.43500003 4279189539
0.066558726 0.032191928 0.43500003 4285566847
0.0014113868 0.030283384 0.39200002 4283590229
0.002677755 0.030206133 0.39100003 4284050780
0.0039477237 0.030206133 0.39100003 4283329105
0.0052043479 0.030128878 0.39000002 4280238118
0.0064710681 0.030128878 0.39000002 4279582498
0.0077377893 0.030128878 0.39000002 4279385889
0.0089814216 0.030051624 0.38900003 4279124250
0.010244895 0.030051624 0.38900003 4278993177
0.011508367 0.030051624 0.38900003 4279257119
0.01277184 0.030051624 0.38900003 4279126047
0.014035312 0.030051624 0.38900003 4279060767
0.015298785 0.030051624 0.38900003 4279061537
0.016562259 0.030051624 0.38900003 4279456808
0.01782573 0.030051624 0.38900003 4279193636
0.019138277 0.030128878 0.39000002 4278865439
0.020457316 0.030206133 0.39100003 4278997025
0.021782853 0.030283384 0.39200002 4278931232
0.023114886 0.030360637 0.39300001 4278931234
0.024391351 0.030360637 0.39300001 4279127843
0.025733128 0.030437892 0.39400002 4279061539
0.027081402 0.030515144 0.39500001 4279127332
0.028364362 0.030515144 0.39500001 4279127332
0.02972238 0.030592399 0.39600003 4279061539
0.031165199 0.030746907 0.39800003 4279061537
0.032621007 0.030901412 0.40000001 4279127330
0.034089811 0.03105592 0.40200001 4279061537
0.035571601 0.031210426 0.40400001 4279061537
0.037066389 0.031364933 0.40600002 4278995744
0.038479622 0.031442188 0.40700001 4279061537
0.039997142 0.031596694 0.40900001 4279061537
0.041527659 0.031751201 0.41100001 4279061537
0.042966876 0.031828456 0.41200003 4279062050
0.044520125 0.031982962 0.41400003 4279062050
0.046086367 0.032137468 0.41600001 4279127843
0.0476656 0.032291975 0.41800001 4279062052
0.049257826 0.032446481 0.42000002 4279193125
0.050863042 0.032600991 0.42200002 4279193125
0.052605029 0.032832749 0.42500001 4279127332
0.054239478 0.032987259 0.42700002 4279060515
0.055756651 0.033064511 0.42800003 4278928416
0.057413835 0.033219017 0.43000001 4278663962
0.058947243 0.033296272 0.43100002 4279452711
0.060487147 0.033373524 0.43200001 4282017359
0.062033553 0.033450779 0.43300003 4284648307
0.0014113868 0.031557031 0.39200002 4283329117
0.002677755 0.031476531 0.39100003 4280038951
0.0039477237 0.031476531 0.39100003 4280104998
0.0052043479 0.031396028 0.39000002 4279711524
0.0064710681 0.031396028 0.39000002 4279713318
0.0077179489 0.031315524 0.38900003 4279516451
0.0089814216 0.031315524 0.38900003 4279385887
0.010244895 0.031315524 0.38900003 4279320607
0.011508367 0.031315524 0.38900003 4279453728
0.01277184 0.031315524 0.38900003 4279520291
0.014035312 0.031315524 0.38900003 4279060769
0.015298785 0.031315524 0.38900003 4279192355
0.016562259 0.031315524 0.38900003 4278996259
0.01782573 0.031315524 0.38900003 4279193636
0.019138277 0.031396028 0.39000002 4278733855
0.020457316 0.031476531 0.39100003 4279127843
0.021782853 0.031557031 0.39200002 4279193636
0.023056071 0.031557031 0.39200002 4279062052
0.024391351 0.031637534 0.39300001 4279258918
0.025733128 0.031718038 0.39400002 4279127332
0.027012844 0.031718038 0.39400002 4278929953
0.028364362 0.031798538 0.39500001 4279258148
0.02972238 0.031879045 0.39600003 4279389734
0.031165199 0.032040048 0.39800003 4279192355
0.032621007 0.032201052 0.40000001 4279126308
0.034089811 0.032362059 0.40200001 4279192101
0.035571601 0.032523062 0.40400001 4279389221
0.037066389 0.032684069 0.40600002 4279191842
0.038479622 0.032764569 0.40700001 4278797084
0.039997142 0.032925576 0.40900001 4278994209
0.041527659 0.033086583 0.41100001 4279388969
0.042966876 0.033167087 0.41200003 4279125797
0.044520125 0.03332809 0.41400003 4279454762
0.046086367 0.033489093 0.41600001 4279454248
0.0476656 0.0336501 0.41800001 4279583781
0.050863042 0.033972111 0.42200002 4281556808
0.052605029 0.034213617 0.42500001 4284384623
0.0077179489 0.032579426 0.38900003 4282081101
0.0089814216 0.032579426 0.38900003 4280436789
0.010244895 0.032579426 0.38900003 4279449894
0.011508367 0.032579426 0.38900003 4279188006
0.01277184 0.032579426 0.38900003 4279451945
0.013999231 0.032495674 0.38800001 4279781676
0.015259456 0.032495674 0.38800001 4279584810
0.016562259 0.032579426 0.38900003 4279322922
0.01782573 0.032579426 0.38900003 4279717934
0.019138277 0.032663178 0.39000002 4279388969
0.020457316 0.03274693 0.39100003 4279454508
0.021782853 0.032830682 0.39200002 4279651889
0.023056071 0.032830682 0.39200002 4279717166
0.024391351 0.03291443 0.39300001 4279979570
0.025733128 0.032998186 0.39400002 4279650605
0.027012844 0.032998186 0.39400002 4279979057
0.028364362 0.033081934 0.39500001 4279780908
0.02972238 0.033165686 0.39600003 4280109360
0.031165199 0.03333319 0.39800003 4280701497
0.032621007 0.033500694 0.40000001 4280569913
0.034089811 0.033668198 0.40200001 4281030464
0.038479622 0.034086954 0.40700001 4283266656
0.039997142 0.034254458 0.40900001 4284187758
0.041527659 0.034421962 0.41100001 4284845174
0.042966876 0.034505714 0.41200003 4285700483
0.027198752 0.023981823 0.40148789 4294967295
0.027198752 0.023981823 0.40148789 4294901760
0.027210036 0.023484588 0.40153918 4294901760
0.027221322 0.022987355 0.40159047 4294901760
0.027232606 0.02249012 0.40164176 4294901760
0.02724389 0.021992885 0.40169305 4294901760
0.027255174 0.021495651 0.40174434 4294901760
0.02726646 0.020998416 0.40179563 4294901760
0.027277743 0.020501183 0.40184692 4294901760
0.027289027 0.020003948 0.40189821 4294901760
0.027300313 0.019506713 0.4019495 4294901760
0.027311597 0.01900948 0.40200078 4294901760
0.027322881 0.018512245 0.40205207 4294901760
0.027334165 0.018015012 0.40210336 4294901760
0.027345451 0.017517777 0.40215465 4294901760
0.027356734 0.017020542 0.40220594 4294901760
0.027368018 0.016523309 0.40225723 4294901760
0.027379304 0.016026074 0.40230852 4294901760
0.027390588 0.01552884 0.40235984 4294901760
0.027401872 0.015031605 0.40241113 4294901760
0.027413158 0.014534372 0.40246242 4294901760
0.027424442 0.014037137 0.40251371 4294901760
0.027435726 0.013539903 0.402565 4294901760
0.027447009 0.013042669 0.40261629 4294901760
0.027458295 0.012545434 0.40266758 4294901760
0.027469579 0.012048201 0.40271887 4294901760
0.027480863 0.011550966 0.40277016 4294901760
0.027492149 0.011053732 0.40282145 4294901760
0.027503433 0.010556497 0.40287274 4294901760
0.027514717 0.010059263 0.40292403 4294901760
0.027526001 0.0095620286 0.40297532 4294901760
0.027537286 0.0090647936 0.40302661 4294901760
0.02754857 0.0085675595 0.4030779 4294901760
0.027559854 0.0080703255 0.40312919 4294901760
0.02757114 0.0075730905 0.40318048 4294901760
0.027582424 0.0070758574 0.40323177 4294901760
0.027593708 0.0065786224 0.40328306 4294901760
0.027604992 0.0060813874 0.40333435 4294901760
0.027616277 0.0055841543 0.40338564 4294901760
0.027627561 0.0050869212 0.40343693 4294901760
0.027638845 0.0045896862 0.40348822 4294901760
0.027650131 0.0040924512 0.40353951 4294901760
0.027661415 0.0035952181 0.4035908 4294901760
0.027672699 0.0030979831 0.40364209 4294901760
0.027683983 0.0026007481 0.40369338 4294901760
0.027695268 0.002103515 0.40374467 4294901760
0.027706552 0.00160628 0.40379596 4294901760
0.027717836 0.001109045 0.40384725 4294901760
0.027729122 0.00061181188 0.40389854 4294901760
0.027740406 0.00011457875 0.40394983 4294901760
0.02775169 -0.00038265809 0.40400112 4294901760
0.027762976 -0.00087989122 0.40405244 4294901760
0.027774259 -0.0013771243 0.40410373 4294901760
0.027785543 -0.0018743593 0.40415502 4294901760
0.027796827 -0.0023715924 0.40420631 4294901760
0.027808113 -0.0028688293 0.4042576 4294901760
0.027819397 -0.0033660624 0.40430889 4294901760
0.027830681 -0.0038632974 0.40436018 4294901760
0.027841967 -0.0043605305 0.40441146 4294901760
0.027853251 -0.0048577655 0.40446275 4294901760
0.027864534 -0.0053549986 0.40451404 4294901760
0.027875818 -0.0058522355 0.40456533 4294901760
0.027887104 -0.0063494686 0.40461662 4294901760
0.027898388 -0.0068467036 0.40466791 4294901760
0.027909672 -0.0073439348 0.4047192 4294901760
0.027920958 -0.0078411717 0.40477049 4294901760
0.027932242 -0.0083384048 0.40482178 4294901760
0.027943525 -0.0088356417 0.40487307 4294901760
0.027954809 -0.0093328748 0.40492436 4294901760
0.027966095 -0.0098301079 0.40497565 4294901760
0.027977379 -0.010327341 0.40502694 4294901760
0.027988663 -0.010824578 0.40507823 4294901760
0.027999949 -0.011321811 0.40512952 4294901760
0.028011233 -0.011819048 0.40518081 4294901760
0.028022517 -0.012316281 0.4052321 4294901760
0.0280338 -0.012813514 0.40528339 4294901760
0.028045086 -0.013310747 0.40533468 4294901760
0.02805637 -0.01380798 0.40538597 4294901760
0.028067654 -0.014305217 0.40543726 4294901760
0.02807894 -0.01480245 0.40548855 4294901760
0.028090224 -0.015299687 0.40553984 4294901760
0.028101508 -0.01579692 0.40559113 4294901760
0.028112791 -0.016294153 0.40564242 4294901760
0.028124077 -0.016791387 0.40569371 4294901760
0.028135361 -0.017288623 0.405745 4294901760
0.028146645 -0.017785857 0.40579632 4294901760
0.028157931 -0.018283093 0.40584761 4294901760
0.028169215 -0.018780326 0.4058989 4294901760
0.028180499 -0.01927756 0.40595019 4294901760
0.028191783 -0.019774793 0.40600148 4294901760
0.028203068 -0.020272026 0.40605277 4294901760
0.028214352 -0.020769263 0.40610406 4294901760
0.028225636 -0.0212665 0.40615535 4294901760
0.028236922 -0.021763733 0.40620664 4294901760
0.028248206 -0.022260966 0.40625793 4294901760
0.02825949 -0.022758199 0.40630922 4294901760
0.028270775 -0.023255432 0.40636051 4294901760
0.028282059 -0.023752665 0.4064118 4294901760
0.028293343 -0.024249902 0.40646309 4294901760
0.028304627 -0.024747139 0.40651438 4294901760
0.028315913 -0.025244372 0.40656567 4294901760
0.028327197 -0.025741605 0.40661696 4294901760
0.027198752 0.023981823 0.40148789 4278255360
0.027596721 0.024021804 0.40178794 4278255360
0.027994689 0.024061784 0.40208796 4278255360
0.028392658 0.024101766 0.40238801 4278255360
0.028790625 0.024141748 0.40268803 4278255360
0.029188594 0.024181729 0.40298808 4278255360
0.029586561 0.024221711 0.40328813 4278255360
0.02998453 0.024261691 0.40358815 4278255360
0.030382499 0.024301672 0.4038882 4278255360
0.030780466 0.024341654 0.40418822 4278255360
0.031178435 0.024381634 0.40448827 4278255360
0.031576402 0.024421616 0.40478832 4278255360
0.031974372 0.024461597 0.40508834 4278255360
0.032372341 0.024501579 0.40538839 4278255360
0.032770306 0.024541561 0.40568841 4278255360
0.033168275 0.02458154 0.40598845 4278255360
0.033566244 0.024621522 0.4062885 4278255360
0.033964213 0.024661504 0.40658852 4278255360
0.034362182 0.024701484 0.40688857 4278255360
0.034760147 0.024741465 0.40718859 4278255360
0.035158116 0.024781447 0.40748864 4278255360
0.035556085 0.024821429 0.40778869 4278255360
0.035954054 0.02486141 0.40808871 4278255360
0.036352023 0.02490139 0.40838876 4278255360
0.036749989 0.024941372 0.40868878 4278255360
0.037147958 0.024981353 0.40898883 4278255360
0.037545927 0.025021333 0.40928888 4278255360
0.037943896 0.025061315 0.4095889 4278255360
0.038341861 0.025101297 0.40988895 4278255360
0.03873983 0.025141278 0.41018897 4278255360
0.039137799 0.02518126 0.41048902 4278255360
0.039535768 0.02522124 0.41078907 4278255360
0.039933734 0.025261221 0.41108909 4278255360
0.040331706 0.025301203 0.41138914 4278255360
0.040729672 0.025341183 0.41168916 4278255360
0.041127641 0.025381165 0.41198921 4278255360
0.04152561 0.025421146 0.41228926 4278255360
0.041923575 0.025461128 0.41258928 4278255360
0.042321544 0.02550111 0.41288933 4278255360
0.042719513 0.025541089 0.41318935 4278255360
0.043117482 0.025581071 0.4134894 4278255360
0.043515451 0.025621053 0.41378945 4278255360
0.043913417 0.025661033 0.41408947 4278255360
0.044311386 0.025701014 0.41438952 4278255360
0.044709355 0.025740996 0.41468954 4278255360
0.04510732 0.025780978 0.41498959 4278255360
0.045505293 0.025820959 0.41528964 4278255360
0.045903258 0.025860939 0.41558966 4278255360
0.046301227 0.025900921 0.41588971 4278255360
0.046699196 0.025940903 0.41618973 4278255360
0.047097161 0.025980882 0.41648978 4278255360
0.04749513 0.026020864 0.41678983 4278255360
0.047893099 0.026060846 0.41708985 4278255360
0.048291065 0.026100827 0.4173899 4278255360
0.048689038 0.026140809 0.41768992 4278255360
0.049087003 0.026180789 0.41798997 4278255360
0.049484972 0.026220771 0.41829002 4278255360
0.049882941 0.026260752 0.41859004 4278255360
0.050280906 0.026300732 0.41889009 4278255360
0.050678875 0.026340714 0.41919011 4278255360
0.051076844 0.026380695 0.41949016 4278255360
0.051474813 0.026420677 0.41979021 4278255360
0.051872782 0.026460659 0.42009023 4278255360
0.052270748 0.026500639 0.42039028 4278255360
0.05266872 0.02654062 0.4206903 4278255360
0.053066686 0.026580602 0.42099035 4278255360
0.053464659 0.026620582 0.4212904 4278255360
0.053862624 0.026660563 0.42159042 4278255360
0.054260589 0.026700545 0.42189047 4278255360
0.054658562 0.026740527 0.42219049 4278255360
0.055056527 0.026780508 0.42249054 4278255360
0.055454493 0.026820488 0.42279059 4278255360
0.055852465 0.02686047 0.42309061 4278255360
0.056250431 0.026900452 0.42339066 4278255360
0.056648403 0.026940431 0.42369068 4278255360
0.057046369 0.026980413 0.42399073 4278255360
0.057444334 0.027020395 0.42429078 4278255360
0.057842307 0.027060376 0.4245908 4278255360
0.058240272 0.027100358 0.42489085 4278255360
0.058638245 0.027140338 0.42519087 4278255360
0.05903621 0.02718032 0.42549092 4278255360
0.059434175 0.027220301 0.42579097 4278255360
0.059832148 0.027260281 0.42609099 4278255360
0.060230114 0.027300263 0.42639104 4278255360
0.060628079 0.027340245 0.42669106 4278255360
0.061026052 0.027380226 0.42699111 4278255360
0.061424017 0.027420208 0.42729115 4278255360
0.06182199 0.027460188 0.42759117 4278255360
0.062219955 0.027500169 0.42789122 4278255360
0.06261792 0.027540151 0.42819124 4278255360
0.063015893 0.027580131 0.42849129 4278255360
0.063413858 0.027620113 0.42879134 4278255360
0.063811831 0.027660094 0.42909136 4278255360
0.064209796 0.027700076 0.42939141 4278255360
0.064607762 0.027740058 0.42969143 4278255360
0.065005735 0.027780037 0.42999148 4278255360
0.0654037 0.027820019 0.43029153 4278255360
0.065801673 0.027860001 0.43059155 4278255360
0.066199638 0.027899981 0.4308916 4278255360
0.066597603 0.027939962 0.43119162 4278255360
0.066995576 0.027979944 0.43149167 4278255360
0.027198752 0.023981823 0.40148789 4278190335
0.027006363 0.024024853 0.40194738 4278190335
0.026813976 0.024067886 0.40240687 4278190335
0.026621588 0.024110917 0.40286636 4278190335
0.026429201 0.02415395 0.40332586 4278190335
0.026236812 0.024196981 0.40378535 4278190335
0.026044425 0.024240013 0.40424484 4278190335
0.025852036 0.024283044 0.40470436 4278190335
0.025659649 0.024326077 0.40516385 4278190335
0.02546726 0.024369108 0.40562335 4278190335
0.025274873 0.02441214 0.40608284 4278190335
0.025082484 0.024455171 0.40654233 4278190335
0.024890097 0.024498204 0.40700182 4278190335
0.024697708 0.024541235 0.40746132 4278190335
0.024505321 0.024584267 0.40792081 4278190335
0.024312932 0.024627298 0.4083803 4278190335
0.024120543 0.024670329 0.40883979 4278190335
0.023928156 0.024713362 0.40929928 4278190335
0.023735767 0.024756392 0.40975878 4278190335
0.02354338 0.024799425 0.4102183 4278190335
0.023350991 0.024842456 0.41067779 4278190335
0.023158604 0.024885489 0.41113728 4278190335
0.022966215 0.02492852 0.41159678 4278190335
0.022773828 0.024971552 0.41205627 4278190335
0.022581439 0.025014583 0.41251576 4278190335
0.022389052 0.025057616 0.41297525 4278190335
0.022196664 0.025100647 0.41343474 4278190335
0.022004277 0.025143679 0.41389424 4278190335
0.021811888 0.02518671 0.41435373 4278190335
0.021619501 0.025229743 0.41481322 4278190335
0.021427112 0.025272774 0.41527271 4278190335
0.021234725 0.025315806 0.4157322 4278190335
0.021042336 0.025358837 0.41619173 4278190335
0.020849947 0.02540187 0.41665122 4278190335
0.02065756 0.025444901 0.41711071 4278190335
0.020465173 0.025487931 0.4175702 4278190335
0.020272784 0.025530964 0.4180297 4278190335
0.020080395 0.025573995 0.41848919 4278190335
0.019888008 0.025617028 0.41894868 4278190335
0.019695621 0.025660058 0.41940817 4278190335
0.019503232 0.025703091 0.41986766 4278190335
0.019310843 0.025746122 0.42032716 4278190335
0.019118456 0.025789155 0.42078665 4278190335
0.018926067 0.025832186 0.42124614 4278190335
0.01873368 0.025875218 0.42170566 4278190335
0.018541291 0.025918249 0.42216516 4278190335
0.018348902 0.025961282 0.42262465 4278190335
0.018156515 0.026004313 0.42308414 4278190335
0.017964128 0.026047345 0.42354363 4278190335
0.01777174 0.026090376 0.42400312 4278190335
0.017579351 0.026133407 0.42446262 4278190335
0.017386964 0.02617644 0.42492211 4278190335
0.017194577 0.02621947 0.4253816 4278190335
0.017002188 0.026262503 0.42584109 4278190335
0.016809799 0.026305534 0.42630059 4278190335
0.01661741 0.026348567 0.42676008 4278190335
0.016425025 0.026391597 0.42721957 4278190335
0.016232636 0.02643463 0.42767909 4278190335
0.016040247 0.026477661 0.42813858 4278190335
0.01584786 0.026520694 0.42859808 4278190335
0.015655471 0.026563725 0.42905757 4278190335
0.015463083 0.026606757 0.42951706 4278190335
0.015270695 0.026649788 0.42997655 4278190335
0.015078307 0.026692821 0.43043604 4278190335
0.014885919 0.026735852 0.43089554 4278190335
0.014693532 0.026778884 0.43135503 4278190335
0.014501142 0.026821915 0.43181452 4278190335
0.014308755 0.026864946 0.43227401 4278190335
0.014116367 0.026907979 0.43273351 4278190335
0.013923979 0.026951009 0.43319303 4278190335
0.013731591 0.026994042 0.43365252 4278190335
0.013539203 0.027037073 0.43411201 4278190335
0.013346815 0.027080106 0.4345715 4278190335
0.013154427 0.027123136 0.435031 4278190335
0.012962039 0.027166169 0.43549049 4278190335
0.012769651 0.0272092 0.43594998 4278190335
0.012577264 0.027252233 0.43640947 4278190335
0.012384876 0.027295263 0.43686897 4278190335
0.012192488 0.027338296 0.43732846 4278190335
0.012000099 0.027381327 0.43778795 4278190335
0.011807711 0.02742436 0.43824744 4278190335
0.011615323 0.027467391 0.43870693 4278190335
0.011422936 0.027510423 0.43916643 4278190335
0.011230547 0.027553454 0.43962595 4278190335
0.01103816 0.027596485 0.44008544 4278190335
0.010845771 0.027639518 0.44054493 4278190335
0.010653382 0.02768255 0.44100443 4278190335
0.010460995 0.027725581 0.44146392 4278190335
0.010268606 0.027768612 0.44192341 4278190335
0.010076219 0.027811645 0.4423829 4278190335
0.0098838322 0.027854675 0.44284239 4278190335
0.0096914414 0.027897708 0.44330189 4278190335
0.0094990544 0.027940739 0.44376138 4278190335
0.0093066674 0.027983772 0.4442209 4278190335
0.0091142785 0.028026802 0.44468039 4278190335
0.0089218915 0.028069835 0.44513988 4278190335
0.0087295026 0.028112866 0.44559938 4278190335
0.0085371137 0.028155899 0.44605887 4278190335
0.0083447266 0.02819893 0.44651836 4278190335
0.0081523377 0.028241962 0.44697785 4278190335
0.0079599507 0.028284993 0.44743735 4278190335
0.027198752 0.023981823 0.40148789 4294967295
0.02835308 0.023723632 0.39873093 4294967295
0.029507408 0.023465442 0.39597395 4294967295
0.030661736 0.023207253 0.393217 4294967295
0.031816065 0.022949062 0.39046001 4294967295
0.032970391 0.022690872 0.38770306 4294967295
0.034124721 0.022432681 0.38494608 4294967295
0.03527905 0.022174491 0.38218912 4294967295
0.036433376 0.0219163 0.37943214 4294967295
0.037587706 0.021658111 0.37667519 4294967295
0.038742032 0.021399921 0.37391824 4294967295
0.039896362 0.02114173 0.37116125 4294967295
0.041050687 0.02088354 0.3684043 4294967295
0.042205017 0.020625349 0.36564732 4294967295
0.043359347 0.02036716 0.36289036 4294967295
0.044513673 0.02010897 0.36013338 4294967295
0.045667998 0.019850779 0.35737643 4294967295
0.046822332 0.019592589 0.35461944 4294967295
0.047976658 0.019334398 0.35186249 4294967295
0.049130984 0.01907621 0.34910554 4294967295
0.050285313 0.018818019 0.34634855 4294967295
0.051439643 0.018559828 0.3435916 4294967295
0.052593969 0.018301638 0.34083462 4294967295
0.053748298 0.018043447 0.33807766 4294967295
0.054902628 0.017785259 0.33532068 4294967295
0.056056954 0.017527068 0.33256373 4294967295
0.05721128 0.017268877 0.32980675 4294967295
0.058365613 0.017010687 0.32704979 4294967295
0.059519939 0.016752496 0.32429284 4294967295
0.060674265 0.016494308 0.32153586 4294967295
0.061828598 0.016236115 0.31877887 4294967295
0.062982924 0.015977927 0.31602192 4294967295
0.06413725 0.015719736 0.31326497 4294967295
0.065291584 0.015461545 0.31050798 4294967295
0.066445909 0.015203356 0.30775103 4294967295
0.067600235 0.014945165 0.30499405 4294967295
0.068754561 0.014686975 0.30223709 4294967295
0.069908895 0.014428785 0.29948011 4294967295
0.071063221 0.014170595 0.29672316 4294967295
0.072217546 0.013912405 0.29396617 4294967295
0.073371872 0.013654214 0.29120922 4294967295
0.074526206 0.013396025 0.28845227 4294967295
0.075680532 0.013137834 0.28569528 4294967295
0.076834857 0.012879644 0.2829383 4294967295
0.077989183 0.012621454 0.28018135 4294967295
0.079143517 0.012363263 0.2774244 4294967295
0.080297843 0.012105073 0.27466741 4294967295
0.081452169 0.011846883 0.27191046 4294967295
