# .PCD v0.7 - Point Cloud Data file format
VERSION 0.7
FIELDS x y z rgb
SIZE 4 4 4 4
TYPE F F F U
COUNT 1 1 1 1
WIDTH 1031
HEIGHT 1
VIEWPOINT 0 0 0 1 0 0 0
POINTS 1031
DATA ascii
0.12325615 -0.022327904 0.39900002 4279193121
0.1245521 -0.022327904 0.39900002 4279389730
0.12584804 -0.022327904 0.39900002 4279652389
0.12746266 -0.022383863 0.40000001 4279718182
0.12876186 -0.022383863 0.40000001 4279849254
0.13006106 -0.022383863 0.40000001 4280045863
0.13136026 -0.022383863 0.40000001 4280044582
0.090872936 -0.020451695 0.38800001 4286027398
0.092133157 -0.020451695 0.38800001 4284054891
0.093634091 -0.020504406 0.38900003 4281555011
0.095141515 -0.020557117 0.39000002 4279977776
0.096408233 -0.020557117 0.39000002 4280241457
0.097674951 -0.020557117 0.39000002 4280045615
0.099195376 -0.020609828 0.39100003 4279783213
0.10046534 -0.020609828 0.39100003 4279257381
0.10173532 -0.020609828 0.39100003 4279323428
0.10300529 -0.020609828 0.39100003 4279258148
0.10427526 -0.020609828 0.39100003 4279258916
0.10581516 -0.020662537 0.39200002 4279062048
0.10708836 -0.020662537 0.39200002 4279193634
0.10836159 -0.020662537 0.39200002 4279062048
0.10991448 -0.020715248 0.39300001 4279062050
0.11119094 -0.020715248 0.39300001 4278930464
0.11275359 -0.020767959 0.39400002 4278864669
0.11777641 -0.020978801 0.39800003 4279193123
0.11906912 -0.020978801 0.39800003 4279193123
0.12036183 -0.020978801 0.39800003 4279323937
0.12165453 -0.020978801 0.39800003 4279718182
0.12325615 -0.021031512 0.39900002 4279650594
0.1245521 -0.021031512 0.39900002 4278597908
0.12584804 -0.021031512 0.39900002 4279717668
0.12746266 -0.021084221 0.40000001 4279783715
0.12876186 -0.021084221 0.40000001 4280177451
0.13006106 -0.021084221 0.40000001 4280374830
0.13136026 -0.021084221 0.40000001 4281489720
0.08596994 -0.018943736 0.38300002 4286355847
0.08766935 -0.01904266 0.38500002 4283527516
0.089150794 -0.01909212 0.38600001 4280634420
0.090872936 -0.019191043 0.38800001 4280570424
0.092133157 -0.019191043 0.38800001 4280045361
0.093634091 -0.019240506 0.38900003 4279914027
0.094897561 -0.019240506 0.38900003 4279323426
0.096408233 -0.019289967 0.39000002 4279258146
0.097674951 -0.019289967 0.39000002 4278995744
0.099195376 -0.019339429 0.39100003 4279127330
0.10046534 -0.019339429 0.39100003 4279127330
0.10173532 -0.019339429 0.39100003 4279258914
0.10300529 -0.019339429 0.39100003 4279193634
0.10427526 -0.019339429 0.39100003 4279325220
0.10581516 -0.01938889 0.39200002 4278996255
0.10708836 -0.01938889 0.39200002 4278930462
0.10863802 -0.019438351 0.39300001 4278930462
0.10991448 -0.019438351 0.39300001 4279193121
0.11147388 -0.019487813 0.39400002 4279323937
0.11275359 -0.019487813 0.39400002 4279323937
0.11461216 -0.019586736 0.39600003 4279455010
0.11619103 -0.019636197 0.39700001 4279718436
0.11748049 -0.019636197 0.39700001 4279717668
0.11906912 -0.01968566 0.39800003 4278926101
0.12036183 -0.01968566 0.39800003 4278266890
0.12165453 -0.01968566 0.39800003 4279451934
0.12325615 -0.01973512 0.39900002 4280109610
0.1245521 -0.01973512 0.39900002 4278990361
0.12584804 -0.01973512 0.39900002 4279979559
0.12746266 -0.019784581 0.40000001 4279716900
0.12876186 -0.019784581 0.40000001 4280111145
0.13006106 -0.019784581 0.40000001 4280899380
0.079725169 -0.017422056 0.377 4286356365
0.084504746 -0.017653119 0.38200003 4280305969
0.08596994 -0.017699331 0.38300002 4279977254
0.08766935 -0.017791755 0.38500002 4280241709
0.089150794 -0.017837968 0.38600001 4279257894
0.090638727 -0.01788418 0.38700002 4278995746
0.092133157 -0.017930392 0.38800001 4279061537
0.093634091 -0.017976604 0.38900003 4279193121
0.094897561 -0.017976604 0.38900003 4279127328
0.096408233 -0.018022817 0.39000002 4279456293
0.097674951 -0.018022817 0.39000002 4279390754
0.099195376 -0.018069031 0.39100003 4279457060
0.10046534 -0.018069031 0.39100003 4279325220
0.10173532 -0.018069031 0.39100003 4278996255
0.10300529 -0.018069031 0.39100003 4279062048
0.10454194 -0.018115241 0.39200002 4278930462
0.10581516 -0.018115241 0.39200002 4279062050
0.10708836 -0.018115241 0.39200002 4279127843
0.10863802 -0.018161453 0.39300001 4279390500
0.11019417 -0.018207667 0.39400002 4279455010
0.11147388 -0.018207667 0.39400002 4279586596
0.11303977 -0.018253878 0.39500001 4279389217
0.11461216 -0.018300092 0.39600003 4278465552
0.11619103 -0.018346304 0.39700001 4278596625
0.11748049 -0.018346304 0.39700001 4280307241
0.11906912 -0.018392516 0.39800003 4280109862
0.12036183 -0.018392516 0.39800003 4280109862
0.12165453 -0.018392516 0.39800003 4280241450
0.12325615 -0.018438729 0.39900002 4279648291
0.1245521 -0.018438729 0.39900002 4280898356
0.12584804 -0.018438729 0.39900002 4280176938
0.12746266 -0.018484941 0.40000001 4280176938
0.12876186 -0.018484941 0.40000001 4280833846
0.13006106 -0.018484941 0.40000001 4281752386
0.076051667 -0.016197145 0.377 4286356363
0.07727617 -0.016197145 0.377 4283989613
0.078500666 -0.016197145 0.377 4280570172
0.079936638 -0.016240109 0.37800002 4280241459
0.081379101 -0.016283071 0.37900001 4279913777
0.082828067 -0.016326034 0.38000003 4279652141
0.084504746 -0.016411962 0.38200003 4279257381
0.086194396 -0.016497888 0.384 4279257633
0.08766935 -0.016540851 0.38500002 4279257633
0.089150794 -0.016583813 0.38600001 4278995744
0.090638727 -0.016626777 0.38700002 4279127843
0.092133157 -0.016669741 0.38800001 4279391013
0.093634091 -0.016712705 0.38900003 4279127841
0.094897561 -0.016712705 0.38900003 4279522599
0.096408233 -0.016755667 0.39000002 4279127841
0.097674951 -0.016755667 0.39000002 4279127841
0.099195376 -0.01679863 0.39100003 4278930462
0.10046534 -0.01679863 0.39100003 4279193121
0.10173532 -0.01679863 0.39100003 4279127328
0.10300529 -0.01679863 0.39100003 4279323937
0.10454194 -0.016841594 0.39200002 4279849768
0.10581516 -0.016841594 0.39200002 4279586598
0.10736155 -0.016884556 0.39300001 4279455012
0.10863802 -0.016884556 0.39300001 4279651107
0.11019417 -0.01692752 0.39400002 4278201609
0.11175681 -0.016970484 0.39500001 4279321629
0.11303977 -0.016970484 0.39500001 4280045352
0.11461216 -0.017013447 0.39600003 4280175655
0.11619103 -0.017056409 0.39700001 4279846692
0.11748049 -0.017056409 0.39700001 4279780899
0.11906912 -0.017099373 0.39800003 4279254555
0.12036183 -0.017099373 0.39800003 4279845922
0.12196019 -0.017142337 0.39900002 4280109864
0.12325615 -0.017142337 0.39900002 4279648289
0.1245521 -0.017142337 0.39900002 4280175657
0.12584804 -0.017142337 0.39900002 4280307754
0.12746266 -0.017185299 0.40000001 4280373547
0.12876186 -0.017185299 0.40000001 4282145861
0.057531219 -0.01493252 0.37600002 4278731291
0.059973713 -0.01493252 0.37600002 4279848754
0.061194964 -0.01493252 0.37600002 4282940003
0.074827179 -0.014972233 0.377 4280305971
0.076051667 -0.014972233 0.377 4279977774
0.077481151 -0.015011949 0.37800002 4279913775
0.078708895 -0.015011949 0.37800002 4279652141
0.080148108 -0.015051662 0.37900001 4279257894
0.081593826 -0.015091376 0.38000003 4279060515
0.083046034 -0.01513109 0.38100001 4278864419
0.084725954 -0.015210519 0.38300002 4278996259
0.086194396 -0.015250232 0.384 4278930464
0.08766935 -0.015289947 0.38500002 4279390502
0.089150794 -0.015329661 0.38600001 4279127843
0.090638727 -0.015369375 0.38700002 4278997025
0.092133157 -0.01540909 0.38800001 4278931232
0.093393385 -0.01540909 0.38800001 4278865439
0.094897561 -0.015448804 0.38900003 4279325220
0.096408233 -0.015488517 0.39000002 4279127841
0.097674951 -0.015488517 0.39000002 4279258914
0.099195376 -0.015528233 0.39100003 4279521318
0.10046534 -0.015528233 0.39100003 4279587111
0.10173532 -0.015528233 0.39100003 4279455012
0.10326872 -0.015567946 0.39200002 4279716900
0.10454194 -0.015567946 0.39200002 4278992664
0.10581516 -0.015567946 0.39200002 4278201351
0.10736155 -0.01560766 0.39300001 4279780899
0.10891445 -0.015647374 0.39400002 4280175655
0.11019417 -0.015647374 0.39400002 4280109862
0.11175681 -0.015687088 0.39500001 4279913766
0.11332595 -0.015726803 0.39600003 4279124250
0.11461216 -0.015726803 0.39600003 4279057176
0.11619103 -0.015766516 0.39700001 4280372266
0.11777641 -0.015806232 0.39800003 4279845668
0.11906912 -0.015806232 0.39800003 4279910947
0.12036183 -0.015806232 0.39800003 4280832049
0.12196019 -0.015845945 0.39900002 4278989845
0.12325615 -0.015845945 0.39900002 4280634672
0.1245521 -0.015845945 0.39900002 4280569391
0.12584804 -0.015845945 0.39900002 4280239914
0.12746266 -0.015885659 0.40000001 4284778098
0.056309968 -0.013710856 0.37600002 4279644436
0.057531219 -0.013710856 0.37600002 4278795800
0.05875247 -0.013710856 0.37600002 4278796570
0.059973713 -0.013710856 0.37600002 4278928416
0.061194964 -0.013710856 0.37600002 4279848752
0.062416214 -0.013710856 0.37600002 4281229126
0.071342431 -0.013783786 0.37800002 4281225526
0.072570167 -0.013783786 0.37800002 4280437805
0.073797919 -0.013783786 0.37800002 4279715367
0.075025663 -0.013783786 0.37800002 4279848488
0.076253399 -0.013783786 0.37800002 4279453730
0.077481151 -0.013783786 0.37800002 4278929183
0.078917116 -0.013820251 0.37900001 4278863390
0.080359586 -0.013856716 0.38000003 4279127332
0.081808545 -0.013893181 0.38100001 4279127843
0.083264008 -0.013929646 0.38200003 4278865439
0.084725954 -0.013966111 0.38300002 4279194406
0.086418867 -0.014039041 0.38500002 4278800164
0.087897062 -0.014075506 0.38600001 4278865441
0.089150794 -0.014075506 0.38600001 4278865439
0.090638727 -0.014111971 0.38700002 4279062818
0.092133157 -0.014148436 0.38800001 4279062048
0.093393385 -0.014148436 0.38800001 4279062048
0.094897561 -0.014184902 0.38900003 4279258144
0.096408233 -0.014221366 0.39000002 4279389730
0.097674951 -0.014221366 0.39000002 4279455010
0.099195376 -0.014257832 0.39100003 4280046633
0.10046534 -0.014257832 0.39100003 4278860056
0.10173532 -0.014257832 0.39100003 4278793750
0.10326872 -0.014294297 0.39200002 4280438059
0.10454194 -0.014294297 0.39200002 4280240680
0.10608509 -0.014330762 0.39300001 4280240678
0.10736155 -0.014330762 0.39300001 4279385369
0.10891445 -0.014367227 0.39400002 4278398222
0.11047384 -0.014403692 0.39500001 4278200840
0.11175681 -0.014403692 0.39500001 4279253017
0.11332595 -0.014440157 0.39600003 4280239914
0.11490158 -0.014476622 0.39700001 4280371498
0.11619103 -0.014476622 0.39700001 4280239912
0.11777641 -0.014513087 0.39800003 4279318297
0.11906912 -0.014513087 0.39800003 4279186711
0.12036183 -0.014513087 0.39800003 4281686845
0.12196019 -0.014549552 0.39900002 4280764975
0.12325615 -0.014549552 0.39900002 4281619519
0.1245521 -0.014549552 0.39900002 4285763710
0.056309968 -0.012489194 0.37600002 4279841043
0.057531219 -0.012489194 0.37600002 4278728724
0.05875247 -0.012489194 0.37600002 4278730007
0.059973713 -0.012489194 0.37600002 4278993949
0.061194964 -0.012489194 0.37600002 4278993949
0.062416214 -0.012489194 0.37600002 4279322662
0.063637458 -0.012489194 0.37600002 4278861857
0.067480199 -0.01252241 0.377 4279451430
0.06992919 -0.01252241 0.377 4279650344
0.071153685 -0.01252241 0.377 4279190304
0.072378181 -0.01252241 0.377 4279257121
0.073797919 -0.012555626 0.37800002 4278928670
0.075025663 -0.012555626 0.37800002 4278994461
0.076253399 -0.012555626 0.37800002 4279192353
0.077686124 -0.012588842 0.37900001 4278929951
0.079125345 -0.012622058 0.38000003 4279061537
0.080359586 -0.012622058 0.38000003 4278929951
0.082023263 -0.01268849 0.38200003 4278995744
0.083481967 -0.012721705 0.38300002 4278930464
0.084947169 -0.012754921 0.384 4278930464
0.086418867 -0.012788137 0.38500002 4278930464
0.087897062 -0.012821353 0.38600001 4279062050
0.089381754 -0.01285457 0.38700002 4279258144
0.090638727 -0.01285457 0.38700002 4279192351
0.092133157 -0.012887785 0.38800001 4279257633
0.093393385 -0.012887785 0.38800001 4279586084
0.094897561 -0.012921002 0.38900003 4279256351
0.096408233 -0.012954217 0.39000002 4279584803
0.097674951 -0.012954217 0.39000002 4279452447
0.099195376 -0.012987434 0.39100003 4280373036
0.10046534 -0.012987434 0.39100003 4280438059
0.10199551 -0.01302065 0.39200002 4279977254
0.10326872 -0.01302065 0.39200002 4280043047
0.10454194 -0.01302065 0.39200002 4279318810
0.10608509 -0.013053864 0.39300001 4279911461
0.10763474 -0.013087081 0.39400002 4279648543
0.10891445 -0.013087081 0.39400002 4280307243
0.11047384 -0.013120296 0.39500001 4280175657
0.11175681 -0.013120296 0.39500001 4279911715
0.11332595 -0.013153513 0.39600003 4278727441
0.11490158 -0.013186729 0.39700001 4279385117
0.11619103 -0.013186729 0.39700001 4280634670
0.11777641 -0.013219945 0.39800003 4280699182
0.11906912 -0.013219945 0.39800003 4281356599
0.12036183 -0.013219945 0.39800003 4285237364
0.12196019 -0.013253161 0.39900002 4286421640
0.12325615 -0.013253161 0.39900002 4286223747
0.1245521 -0.013253161 0.39900002 4286289286
0.056459725 -0.011297498 0.377 4279840528
0.057684224 -0.011297498 0.377 4278923793
0.05875247 -0.011267532 0.37600002 4278794004
0.059973713 -0.011267532 0.37600002 4278598421
0.061194964 -0.011267532 0.37600002 4278993949
0.062416214 -0.011267532 0.37600002 4278664984
0.063637458 -0.011267532 0.37600002 4278663960
0.064858705 -0.011267532 0.37600002 4279059490
0.066079959 -0.011267532 0.37600002 4278993695
0.067301206 -0.011267532 0.37600002 4278927902
0.068704695 -0.011297498 0.377 4278993695
0.06992919 -0.011297498 0.377 4279125535
0.071153685 -0.011297498 0.377 4278928156
0.072378181 -0.011297498 0.377 4278928670
0.073797919 -0.011327466 0.37800002 4279126562
0.075025663 -0.011327466 0.37800002 4279061537
0.076253399 -0.011327466 0.37800002 4278732572
0.077686124 -0.011357432 0.37900001 4278600986
0.079125345 -0.011387399 0.38000003 4279126560
0.080571055 -0.011417366 0.38100001 4279192353
0.082023263 -0.011447333 0.38200003 4279323939
0.083481967 -0.0114773 0.38300002 4279389732
0.084947169 -0.011507266 0.384 4279192353
0.086418867 -0.011537233 0.38500002 4279258146
0.087897062 -0.0115672 0.38600001 4279455012
0.089381754 -0.011597168 0.38700002 4280045350
0.090638727 -0.011597168 0.38700002 4278991894
0.092133157 -0.011627134 0.38800001 4278725138
0.093393385 -0.011627134 0.38800001 4278526476
0.094897561 -0.011657101 0.38900003 4278199816
0.096408233 -0.011687067 0.39000002 4279912998
0.097674951 -0.011687067 0.39000002 4279385117
0.099195376 -0.011717035 0.39100003 4278856724
0.10046534 -0.011717035 0.39100003 4279581217
0.10199551 -0.011747002 0.39200002 4280699950
0.10326872 -0.011747002 0.39200002 4279779361
0.10480863 -0.011776968 0.39300001 4280239912
0.10608509 -0.011776968 0.39300001 4279977256
0.10763474 -0.011806935 0.39400002 4279977256
0.10891445 -0.011806935 0.39400002 4278595601
0.11047384 -0.011836901 0.39500001 4280503598
0.11203974 -0.011866868 0.39600003 4280700463
0.11332595 -0.011866868 0.39600003 4280832049
0.11490158 -0.011896836 0.39700001 4280568112
0.11619103 -0.011896836 0.39700001 4284317545
0.11777641 -0.011926803 0.39800003 4286553996
0.11906912 -0.011926803 0.39800003 4286158468
0.12036183 -0.011926803 0.39800003 4286289027
0.12196019 -0.011956769 0.39900002 4286289027
0.12325615 -0.011956769 0.39900002 4286222980
0.1245521 -0.011956769 0.39900002 4286222980
0.056459725 -0.010072587 0.377 4279644434
0.057684224 -0.010072587 0.377 4279186195
0.05875247 -0.010045869 0.37600002 4278923793
0.059973713 -0.010045869 0.37600002 4278465552
0.061194964 -0.010045869 0.37600002 4278795287
0.062416214 -0.010045869 0.37600002 4278664984
0.063637458 -0.010045869 0.37600002 4279980844
0.064858705 -0.010045869 0.37600002 4281691976
0.066079959 -0.010045869 0.37600002 4279125535
0.067301206 -0.010045869 0.37600002 4278993949
0.068522453 -0.010045869 0.37600002 4279059742
0.06992919 -0.010072587 0.377 4279191842
0.071153685 -0.010072587 0.377 4279191842
0.072378181 -0.010072587 0.377 4278862875
0.073797919 -0.010099305 0.37800002 4279060767
0.075025663 -0.010099305 0.37800002 4278797595
0.076455131 -0.010126023 0.37900001 4279126560
0.077686124 -0.010126023 0.37900001 4278862875
0.079125345 -0.01015274 0.38000003 4279126047
0.080571055 -0.010179458 0.38100001 4279191840
0.082023263 -0.010206176 0.38200003 4279323426
0.083481967 -0.010232894 0.38300002 4279717670
0.085168391 -0.010286329 0.38500002 4279190558
0.086418867 -0.010286329 0.38500002 4278331917
0.087897062 -0.010313047 0.38600001 4278594576
0.089381754 -0.010339765 0.38700002 4278854929
0.090638727 -0.010339765 0.38700002 4279183381
0.092133157 -0.010366483 0.38800001 4279775518
0.093393385 -0.010366483 0.38800001 4279117588
0.094897561 -0.0103932 0.38900003 4280371500
0.096408233 -0.010419918 0.39000002 4279780647
0.097674951 -0.010419918 0.39000002 4279183892
0.099195376 -0.010446636 0.39100003 4279314967
0.10046534 -0.010446636 0.39100003 4281226296
0.10199551 -0.010473354 0.39200002 4280634672
0.10326872 -0.010473354 0.39200002 4278858261
0.10480863 -0.010500071 0.39300001 4278661396
0.10608509 -0.010500071 0.39300001 4280766772
0.10763474 -0.010526789 0.39400002 4280766772
0.10891445 -0.010526789 0.39400002 4280306221
0.11047384 -0.010553506 0.39500001 4281028917
0.11203974 -0.010580225 0.39600003 4283264857
0.11332595 -0.010580225 0.39600003 4286225544
0.11490158 -0.010606942 0.39700001 4286158214
0.11619103 -0.010606942 0.39700001 4286026628
0.11777641 -0.01063366 0.39800003 4286222980
0.11906912 -0.01063366 0.39800003 4286354566
0.12036183 -0.01063366 0.39800003 4286354820
0.12196019 -0.010660377 0.39900002 4286223234
0.12325615 -0.010660377 0.39900002 4286288773
0.055381749 -0.0088711446 0.37800002 4279905553
0.056609489 -0.0088711446 0.37800002 4279513363
0.057684224 -0.0088476753 0.377 4279318297
0.058908723 -0.0088476753 0.377 4279318297
0.059973713 -0.0088242069 0.37600002 4278858773
0.061194964 -0.0088242069 0.37600002 4278794517
0.062416214 -0.0088242069 0.37600002 4278927384
0.063637458 -0.0088242069 0.37600002 4278466833
0.064858705 -0.0088242069 0.37600002 4278599189
0.066079959 -0.0088242069 0.37600002 4278665496
0.067301206 -0.0088242069 0.37600002 4278533910
0.068704695 -0.0088476753 0.377 4278665496
0.06992919 -0.0088476753 0.377 4278862875
0.071153685 -0.0088476753 0.377 4278994461
0.072570167 -0.0088711446 0.37800002 4278862875
0.073797919 -0.0088711446 0.37800002 4278928668
0.075224139 -0.0088946121 0.37900001 4279388705
0.076455131 -0.0088946121 0.37900001 4278795798
0.077891104 -0.0089180814 0.38000003 4279254555
0.079333566 -0.0089415498 0.38100001 4279386141
0.080782533 -0.0089650191 0.38200003 4279649826
0.082237981 -0.0089884875 0.38300002 4278200329
0.083699934 -0.0090119559 0.384 4278658062
0.085168391 -0.0090354243 0.38500002 4278854414
0.086643331 -0.0090588927 0.38600001 4278985232
0.087897062 -0.0090588927 0.38600001 4281025583
0.089381754 -0.0090823621 0.38700002 4279775516
0.090872936 -0.0091058305 0.38800001 4279709725
0.092133157 -0.0091058305 0.38800001 4280104994
0.093634091 -0.0091292998 0.38900003 4279315480
0.094897561 -0.0091292998 0.38900003 4280372014
0.096408233 -0.0091527672 0.39000002 4279845670
0.097674951 -0.0091527672 0.39000002 4280369452
0.099195376 -0.0091762366 0.39100003 4279316762
0.10072229 -0.009199705 0.39200002 4279647777
0.10225569 -0.0092231734 0.39300001 4280569393
0.10353216 -0.0092231734 0.39300001 4280635956
0.10480863 -0.0092231734 0.39300001 4280701749
0.10608509 -0.0092231734 0.39300001 4280699952
0.10763474 -0.0092466427 0.39400002 4283264342
0.10891445 -0.0092466427 0.39400002 4286487179
0.11047384 -0.0092701111 0.39500001 4286092421
0.11203974 -0.0092935795 0.39600003 4286355593
0.11332595 -0.0092935795 0.39600003 4286026628
0.11490158 -0.0093170479 0.39700001 4286158214
0.11619103 -0.0093170479 0.39700001 4286223493
0.11777641 -0.0093405172 0.39800003 4286420359
0.11906912 -0.0093405172 0.39800003 4286288773
0.12036183 -0.0093405172 0.39800003 4286354566
0.12196019 -0.0093639856 0.39900002 4286354566
0.055528257 -0.0076632029 0.37900001 4279775250
0.056609489 -0.0076429839 0.37800002 4279250703
0.057684224 -0.007622764 0.377 4278989845
0.058908723 -0.007622764 0.377 4279187224
0.060133215 -0.007622764 0.377 4278661394
0.061357714 -0.007622764 0.377 4278925590
0.06258221 -0.007622764 0.377 4279255064
0.063806705 -0.007622764 0.377 4279255064
0.065031201 -0.007622764 0.377 4279585312
0.066255704 -0.007622764 0.377 4279387935
0.067480199 -0.007622764 0.377 4279256349
0.068704695 -0.007622764 0.377 4279256349
0.06992919 -0.007622764 0.377 4279256349
0.071153685 -0.007622764 0.377 4279256349
0.072570167 -0.0076429839 0.37800002 4279256349
0.073797919 -0.0076429839 0.37800002 4279387935
0.075224139 -0.0076632029 0.37900001 4279255836
0.076656863 -0.0076834229 0.38000003 4279584033
0.077891104 -0.0076834229 0.38000003 4279516191
0.079333566 -0.0077036424 0.38100001 4279910947
0.080782533 -0.0077238623 0.38200003 4278592269
0.082237981 -0.0077440813 0.38300002 4278723343
0.083699934 -0.0077643008 0.384 4279972127
0.085168391 -0.0077845207 0.38500002 4280432678
0.086643331 -0.0078047398 0.38600001 4278919439
0.088124774 -0.0078249592 0.38700002 4280234786
0.089381754 -0.0078249592 0.38700002 4279577369
0.090872936 -0.0078451792 0.38800001 4279380760
0.092133157 -0.0078451792 0.38800001 4279052308
0.093634091 -0.0078653991 0.38900003 4280830001
0.094897561 -0.0078653991 0.38900003 4278397456
0.096408233 -0.0078856181 0.39000002 4279977002
0.097925402 -0.0079058381 0.39100003 4281161530
0.099195376 -0.0079058381 0.39100003 4280898358
0.10072229 -0.0079260571 0.39200002 4280437807
0.10225569 -0.0079462761 0.39300001 4280305967
0.10353216 -0.0079462761 0.39300001 4282606414
0.10480863 -0.0079462761 0.39300001 4286224259
0.10608509 -0.0079462761 0.39300001 4286223234
0.10763474 -0.0079664961 0.39400002 4286288773
0.10891445 -0.0079664961 0.39400002 4286223495
0.11047384 -0.007986716 0.39500001 4286289288
0.11203974 -0.0080069359 0.39600003 4286223495
0.11332595 -0.0080069359 0.39600003 4286223495
0.11490158 -0.008027155 0.39700001 4286289286
0.11619103 -0.008027155 0.39700001 4286223493
0.11777641 -0.0080473749 0.39800003 4286354566
0.11906912 -0.0080473749 0.39800003 4286420359
0.12036183 -0.0080473749 0.39800003 4286288773
0.12196019 -0.0080675939 0.39900002 4286420359
0.054583795 -0.006465734 0.38100001 4280101903
0.055528257 -0.0064317929 0.37900001 4279381777
0.056759246 -0.0064317929 0.37900001 4279317268
0.057837237 -0.0064148228 0.37800002 4278858259
0.059064981 -0.0064148228 0.37800002 4278792466
0.060292721 -0.0064148228 0.37800002 4278727187
0.061520468 -0.0064148228 0.37800002 4279187990
0.062748216 -0.0064148228 0.37800002 4279123480
0.063975953 -0.0064148228 0.37800002 4279649824
0.065031201 -0.0063978522 0.377 4279715617
0.066255704 -0.0063978522 0.377 4279453215
0.067480199 -0.0063978522 0.377 4279190043
0.068704695 -0.0063978522 0.377 4279255836
0.07011468 -0.0064148228 0.37800002 4279519008
0.071342431 -0.0064148228 0.37800002 4279453215
0.072570167 -0.0064148228 0.37800002 4279519008
0.073993146 -0.0064317929 0.37900001 4279519008
0.075422622 -0.0064487639 0.38000003 4279781412
0.076656863 -0.0064487639 0.38000003 4278397195
0.078096077 -0.006465734 0.38100001 4280502832
0.079541795 -0.0064827045 0.38200003 4279450144
0.080994003 -0.0064996746 0.38300002 4278987031
0.0824527 -0.0065166452 0.384 4279776031
0.083917908 -0.0065336158 0.38500002 4280960303
0.085168391 -0.0065336158 0.38500002 4279380758
0.086643331 -0.0065505859 0.38600001 4279444500
0.088124774 -0.0065675569 0.38700002 4279576086
0.089381754 -0.0065675569 0.38700002 4279182100
0.090872936 -0.006584527 0.38800001 4279973412
0.092133157 -0.006584527 0.38800001 4280897079
0.093634091 -0.0066014975 0.38900003 4280503346
0.094897561 -0.0066014975 0.38900003 4280109358
0.096408233 -0.0066184676 0.39000002 4280438577
0.097925402 -0.0066354387 0.39100003 4280699182
0.099449068 -0.0066524087 0.39200002 4282540621
0.10072229 -0.0066524087 0.39200002 4286027398
0.10251589 -0.0066863499 0.39400002 4285960835
0.10405904 -0.00670332 0.39500001 4286091907
0.10534201 -0.00670332 0.39500001 4286289540
0.054583795 -0.0052278261 0.38100001 4280037139
0.055674773 -0.0052141049 0.38000003 4279382037
0.056759246 -0.0052003837 0.37900001 4279383320
0.057990242 -0.0052003837 0.37900001 4279120918
0.059221238 -0.0052003837 0.37900001 4278989845
0.060452227 -0.0052003837 0.37900001 4279121685
0.061683219 -0.0052003837 0.37900001 4279254555
0.062914215 -0.0052003837 0.37900001 4279189273
0.063975953 -0.0051866625 0.37800002 4279912996
0.065203704 -0.0051866625 0.37800002 4279649826
0.066431448 -0.0051866625 0.37800002 4279320607
0.067659192 -0.0051866625 0.37800002 4279321377
0.068886936 -0.0051866625 0.37800002 4279255584
0.07011468 -0.0051866625 0.37800002 4279452447
0.071531162 -0.0052003837 0.37900001 4279452447
0.072762154 -0.0052003837 0.37900001 4279649826
0.074188381 -0.0052141049 0.38000003 4279649826
0.075422622 -0.0052141049 0.38000003 4280503084
0.076858588 -0.0052278261 0.38100001 4279317529
0.078301057 -0.0052415477 0.38200003 4280503084
0.079541795 -0.0052415477 0.38200003 4278198534
0.080994003 -0.0052552689 0.38300002 4279116820
0.0824527 -0.0052689901 0.384 4279182100
0.083917908 -0.0052827117 0.38500002 4279182098
0.085389607 -0.0052964329 0.38600001 4278853646
0.086643331 -0.0052964329 0.38600001 4280369452
0.088124774 -0.0053101545 0.38700002 4281093688
0.089381754 -0.0053101545 0.38700002 4280371760
0.090872936 -0.0053238757 0.38800001 4280700725
0.092133157 -0.0053238757 0.38800001 4280240174
0.093634091 -0.0053375969 0.38900003 4280700727
0.094897561 -0.0053375969 0.38900003 4283133273
0.096408233 -0.005351318 0.39000002 4286027652
0.10277608 -0.0054199249 0.39500001 4286026628
0.054727063 -0.0040003904 0.38200003 4279644436
0.055821285 -0.0039899182 0.38100001 4279317016
0.05690901 -0.0039794459 0.38000003 4279383322
0.058143254 -0.0039794459 0.38000003 4279120920
0.059377495 -0.0039794459 0.38000003 4279055127
0.060611732 -0.0039794459 0.38000003 4279319578
0.061845973 -0.0039794459 0.38000003 4279188762
0.063080214 -0.0039794459 0.38000003 4279584031
0.064314455 -0.0039794459 0.38000003 4279715617
0.0653762 -0.0039689736 0.37900001 4279452447
0.066607192 -0.0039689736 0.37900001 4279386654
0.067838185 -0.0039689736 0.37900001 4279321631
0.069069177 -0.0039689736 0.37900001 4279453217
0.070300169 -0.0039689736 0.37900001 4279519010
0.0717199 -0.0039794459 0.38000003 4279453217
0.072954141 -0.0039794459 0.38000003 4279453217
0.074383609 -0.0039899182 0.38100001 4279321631
0.075621098 -0.0039899182 0.38100001 4278198534
0.077060319 -0.0040003904 0.38200003 4279581471
0.078301057 -0.0040003904 0.38200003 4280173608
0.079750016 -0.0040108627 0.38300002 4278198281
0.081205472 -0.0040213349 0.384 4279709725
0.0824527 -0.0040213349 0.384 4280894510
0.083917908 -0.0040318072 0.38500002 4280568364
0.085389607 -0.0040422794 0.38600001 4280108840
0.086643331 -0.0040422794 0.38600001 4280570163
0.088124774 -0.0040527517 0.38700002 4280503346
0.089381754 -0.0040527517 0.38700002 4281093686
0.090872936 -0.004063224 0.38800001 4284909171
0.053626336 -0.0027664567 0.38300002 4279644184
0.054870322 -0.0027664567 0.38300002 4279382039
0.0559678 -0.0027592336 0.38200003 4279186713
0.05705877 -0.0027520105 0.38100001 4279252506
0.058296259 -0.0027520105 0.38100001 4278857748
0.059533749 -0.0027520105 0.38100001 4279121433
0.060771234 -0.0027520105 0.38100001 4279188762
0.062008724 -0.0027520105 0.38100001 4279320348
0.063246213 -0.0027520105 0.38100001 4280044584
0.064483702 -0.0027520105 0.38100001 4279649826
0.065721191 -0.0027520105 0.38100001 4279584033
0.066782936 -0.0027447874 0.38000003 4279386654
0.068017177 -0.0027447874 0.38000003 4279649826
0.069251418 -0.0027447874 0.38000003 4279584033
0.070485659 -0.0027447874 0.38000003 4279452447
0.071908638 -0.0027520105 0.38100001 4279584033
0.07314612 -0.0027520105 0.38100001 4279519010
0.074578844 -0.0027592336 0.38200003 4279782182
0.075819589 -0.0027592336 0.38200003 4279317529
0.077262044 -0.0027664567 0.38300002 4280239914
0.07850603 -0.0027664567 0.38300002 4279978024
0.079750016 -0.0027664567 0.38300002 4279978024
0.081205472 -0.0027736798 0.384 4280306991
0.0824527 -0.0027736798 0.384 4280109612
0.083917908 -0.0027809029 0.38500002 4280108074
0.085389607 -0.002788126 0.38600001 4282081351
0.086643331 -0.002788126 0.38600001 4285961089
0.054870322 -0.0015220506 0.38300002 4279184406
0.056114309 -0.0015220506 0.38300002 4279186713
0.057208531 -0.0015180766 0.38200003 4279252506
0.058449272 -0.0015180766 0.38200003 4278989847
0.05969001 -0.0015180766 0.38200003 4279581982
0.06093074 -0.0015180766 0.38200003 4279319324
0.062171482 -0.0015180766 0.38200003 4278925336
0.063412219 -0.0015180766 0.38200003 4279846951
0.06465295 -0.0015180766 0.38200003 4279649572
0.065893687 -0.0015180766 0.38200003 4279584033
0.066958681 -0.0015141026 0.38100001 4279452447
0.06819617 -0.0015141026 0.38100001 4279584033
0.069433659 -0.0015141026 0.38100001 4279715619
0.070856638 -0.0015180766 0.38200003 4279584033
0.072097376 -0.0015180766 0.38200003 4279584033
0.073338106 -0.0015180766 0.38200003 4279452447
0.074774079 -0.0015220506 0.38300002 4278925849
0.076018065 -0.0015220506 0.38300002 4279647523
0.077262044 -0.0015220506 0.38300002 4280043049
0.078711003 -0.0015260245 0.384 4279912231
0.079958238 -0.0015260245 0.384 4280503346
0.081205472 -0.0015260245 0.384 4283528029
0.0824527 -0.0015260245 0.384 4286421640
0.05626082 -0.00027836935 0.384 4279514395
0.057508048 -0.00027836935 0.384 4279384092
0.058602277 -0.00027764443 0.38300002 4279253017
0.059846263 -0.00027764443 0.38300002 4279319324
0.061090246 -0.00027764443 0.38300002 4279319324
0.062334232 -0.00027764443 0.38300002 4279649059
0.063578218 -0.00027764443 0.38300002 4279780645
0.064822197 -0.00027764443 0.38300002 4279714852
0.066066183 -0.00027764443 0.38300002 4279714852
0.067134425 -0.00027691954 0.38200003 4279649059
0.06837517 -0.00027691954 0.38200003 4279847205
0.069798134 -0.00027764443 0.38300002 4279781412
0.07104212 -0.00027764443 0.38300002 4279715619
0.072286114 -0.00027764443 0.38300002 4279781158
0.073530093 -0.00027764443 0.38300002 4280043049
0.074969307 -0.00027836935 0.384 4280634418
0.076216541 -0.00027836935 0.384 4281686597
0.077463768 -0.00027836935 0.384 4284713075
0.056407336 0.00097181014 0.38500002 4282408263
0.057657812 0.00097181014 0.38500002 4279513625
0.058908295 0.00097181014 0.38500002 4279385119
0.060002517 0.0009692859 0.384 4279450910
0.061249748 0.0009692859 0.384 4279582496
0.062496983 0.0009692859 0.384 4280043047
0.063744217 0.0009692859 0.384 4279649059
0.064991444 0.0009692859 0.384 4279714852
0.066238679 0.0009692859 0.384 4279386400
0.067310169 0.00096676173 0.38300002 4279781158
0.068554156 0.00096676173 0.38300002 4279715106
0.069980375 0.0009692859 0.384 4279846692
0.07122761 0.0009692859 0.384 4279844643
0.072474845 0.0009692859 0.384 4282607179
0.075164542 0.00097181014 0.38500002 4286027398
0.060158778 0.0022227145 0.38500002 4279514908
0.061409254 0.0022227145 0.38500002 4279647777
0.062659733 0.0022227145 0.38500002 4280372014
0.063910216 0.0022227145 0.38500002 4279846440
0.065160699 0.0022227145 0.38500002 4279912233
0.066411175 0.0022227145 0.38500002 4279714602
0.067485914 0.002216941 0.384 4280371762
0.068733148 0.002216941 0.384 4283199064
0.066411175 0.0034736188 0.38500002 4286027911
0.067661658 0.0034736188 0.38500002 4286159751
0.08940693 -0.011058324 0.38702628 4294967295
0.08940693 -0.011058324 0.38702628 4294901760
0.089324281 -0.011549222 0.38697949 4294901760
0.089241639 -0.012040121 0.38693273 4294901760
0.089158989 -0.01253102 0.38688594 4294901760
0.089076348 -0.013021918 0.38683915 4294901760
0.088993698 -0.013512816 0.38679236 4294901760
0.088911057 -0.014003715 0.3867456 4294901760
0.088828407 -0.014494613 0.38669881 4294901760
0.088745765 -0.014985511 0.38665202 4294901760
0.088663116 -0.015476409 0.38660526 4294901760
0.088580474 -0.015967308 0.38655847 4294901760
0.088497825 -0.016458206 0.38651168 4294901760
0.088415183 -0.016949106 0.38646492 4294901760
0.088332534 -0.017440002 0.38641813 4294901760
0.088249892 -0.017930903 0.38637134 4294901760
0.088167243 -0.018421801 0.38632458 4294901760
0.088084601 -0.018912699 0.38627779 4294901760
0.088001952 -0.019403597 0.38623101 4294901760
0.087919302 -0.019894496 0.38618422 4294901760
0.08783666 -0.020385394 0.38613746 4294901760
0.087754011 -0.020876292 0.38609067 4294901760
0.087671369 -0.02136719 0.38604388 4294901760
0.08758872 -0.021858089 0.38599712 4294901760
0.087506078 -0.022348989 0.38595033 4294901760
0.087423429 -0.022839885 0.38590354 4294901760
0.087340787 -0.023330785 0.38585675 4294901760
0.087258138 -0.023821682 0.38580999 4294901760
0.087175496 -0.024312582 0.3857632 4294901760
0.087092847 -0.02480348 0.38571641 4294901760
0.087010205 -0.025294378 0.38566965 4294901760
0.086927556 -0.025785277 0.38562286 4294901760
0.086844914 -0.026276175 0.38557607 4294901760
0.086762264 -0.026767071 0.38552931 4294901760
0.086679623 -0.027257971 0.38548252 4294901760
0.086596973 -0.027748872 0.38543573 4294901760
0.086514324 -0.028239768 0.38538897 4294901760
0.086431682 -0.028730668 0.38534218 4294901760
0.086349033 -0.029221565 0.38529539 4294901760
0.086266391 -0.029712465 0.3852486 4294901760
0.086183742 -0.030203361 0.38520184 4294901760
0.0861011 -0.030694261 0.38515505 4294901760
0.086018451 -0.031185158 0.38510826 4294901760
0.085935809 -0.031676058 0.3850615 4294901760
0.085853159 -0.032166958 0.38501471 4294901760
0.085770518 -0.032657854 0.38496792 4294901760
0.085687868 -0.033148751 0.38492113 4294901760
0.085605226 -0.033639651 0.38487437 4294901760
0.085522577 -0.034130551 0.38482758 4294901760
0.085439935 -0.034621447 0.38478079 4294901760
0.085357286 -0.035112347 0.38473403 4294901760
0.085274637 -0.035603244 0.38468724 4294901760
0.085191995 -0.036094144 0.38464046 4294901760
0.085109346 -0.03658504 0.3845937 4294901760
0.085026704 -0.037075937 0.38454691 4294901760
0.084944054 -0.037566841 0.38450012 4294901760
0.084861413 -0.038057737 0.38445336 4294901760
0.084778763 -0.038548637 0.38440657 4294901760
0.084696122 -0.039039534 0.38435978 4294901760
0.084613472 -0.03953043 0.38431299 4294901760
0.08453083 -0.04002133 0.38426623 4294901760
0.084448181 -0.04051223 0.38421944 4294901760
0.084365539 -0.041003127 0.38417265 4294901760
0.08428289 -0.041494027 0.38412589 4294901760
0.084200248 -0.041984923 0.3840791 4294901760
0.084117599 -0.04247582 0.38403231 4294901760
0.084034957 -0.04296672 0.38398552 4294901760
0.083952308 -0.04345762 0.38393876 4294901760
0.083869666 -0.043948516 0.38389197 4294901760
0.083787017 -0.044439416 0.38384518 4294901760
0.083704367 -0.044930313 0.38379842 4294901760
0.083621725 -0.045421213 0.38375163 4294901760
0.083539076 -0.045912109 0.38370484 4294901760
0.083456434 -0.046403009 0.38365808 4294901760
0.083373785 -0.04689391 0.38361129 4294901760
0.083291143 -0.047384806 0.3835645 4294901760
0.083208494 -0.047875702 0.38351774 4294901760
0.083125852 -0.048366603 0.38347095 4294901760
0.083043203 -0.048857499 0.38342416 4294901760
0.082960561 -0.049348399 0.38337737 4294901760
0.082877912 -0.049839299 0.38333061 4294901760
0.08279527 -0.050330196 0.38328382 4294901760
0.08271262 -0.050821096 0.38323703 4294901760
0.082629979 -0.051311992 0.38319027 4294901760
0.082547329 -0.051802892 0.38314348 4294901760
0.08246468 -0.052293789 0.38309669 4294901760
0.082382038 -0.052784689 0.38304991 4294901760
0.082299389 -0.053275589 0.38300315 4294901760
0.082216747 -0.053766485 0.38295636 4294901760
0.082134098 -0.054257382 0.38290957 4294901760
0.082051456 -0.054748282 0.38286281 4294901760
0.081968807 -0.055239178 0.38281602 4294901760
0.081886165 -0.055730078 0.38276923 4294901760
0.081803516 -0.056220978 0.38272247 4294901760
0.081720874 -0.056711875 0.38267568 4294901760
0.081638224 -0.057202775 0.38262889 4294901760
0.081555583 -0.057693671 0.38258213 4294901760
0.081472933 -0.058184572 0.38253534 4294901760
0.081390291 -0.058675472 0.38248855 4294901760
0.081307642 -0.059166368 0.38244176 4294901760
0.081224993 -0.059657268 0.382395 4294901760
0.081142351 -0.060148165 0.38234821 4294901760
0.08940693 -0.011058324 0.38702628 4278255360
0.089873105 -0.011151566 0.38718116 4278255360
0.090339281 -0.011244809 0.38733602 4278255360
0.090805456 -0.011338051 0.3874909 4278255360
0.091271631 -0.011431294 0.38764578 4278255360
0.091737807 -0.011524537 0.38780066 4278255360
0.092203982 -0.011617779 0.38795552 4278255360
0.092670158 -0.011711022 0.3881104 4278255360
0.093136333 -0.011804264 0.38826528 4278255360
0.093602508 -0.011897507 0.38842016 4278255360
0.094068684 -0.011990749 0.38857502 4278255360
0.094534859 -0.012083991 0.3887299 4278255360
0.095001034 -0.012177235 0.38888478 4278255360
0.09546721 -0.012270477 0.38903964 4278255360
0.095933385 -0.012363719 0.38919452 4278255360
0.096399561 -0.012456962 0.3893494 4278255360
0.096865736 -0.012550204 0.38950428 4278255360
0.097331911 -0.012643447 0.38965914 4278255360
0.097798094 -0.012736689 0.38981402 4278255360
0.098264262 -0.012829931 0.3899689 4278255360
0.098730445 -0.012923175 0.39012378 4278255360
0.09919662 -0.013016417 0.39027864 4278255360
0.099662796 -0.01310966 0.39043352 4278255360
0.10012897 -0.013202902 0.3905884 4278255360
0.10059515 -0.013296144 0.39074329 4278255360
0.10106132 -0.013389387 0.39089814 4278255360
0.1015275 -0.013482629 0.39105302 4278255360
0.10199367 -0.013575872 0.3912079 4278255360
0.10245985 -0.013669115 0.39136276 4278255360
0.10292602 -0.013762357 0.39151764 4278255360
0.1033922 -0.0138556 0.39167252 4278255360
0.10385837 -0.013948842 0.3918274 4278255360
0.10432455 -0.014042085 0.39198226 4278255360
0.10479072 -0.014135327 0.39213714 4278255360
0.1052569 -0.014228569 0.39229202 4278255360
0.10572308 -0.014321811 0.39244691 4278255360
0.10618925 -0.014415055 0.39260176 4278255360
0.10665543 -0.014508298 0.39275664 4278255360
0.1071216 -0.01460154 0.39291152 4278255360
0.10758778 -0.014694782 0.39306638 4278255360
0.10805395 -0.014788025 0.39322126 4278255360
0.10852013 -0.014881267 0.39337614 4278255360
0.1089863 -0.014974509 0.39353102 4278255360
0.10945248 -0.015067752 0.39368588 4278255360
0.10991865 -0.015160995 0.39384076 4278255360
0.11038483 -0.015254237 0.39399564 4278255360
0.110851 -0.01534748 0.39415053 4278255360
0.11131719 -0.015440723 0.39430538 4278255360
0.11178336 -0.015533965 0.39446026 4278255360
0.11224954 -0.015627207 0.39461514 4278255360
0.11271571 -0.015720449 0.39477003 4278255360
0.11318189 -0.015813693 0.39492488 4278255360
0.11364806 -0.015906934 0.39507976 4278255360
0.11411424 -0.016000178 0.39523464 4278255360
0.11458042 -0.01609342 0.3953895 4278255360
0.11504659 -0.016186662 0.39554438 4278255360
0.11551277 -0.016279906 0.39569926 4278255360
0.11597894 -0.016373146 0.39585415 4278255360
0.11644512 -0.01646639 0.396009 4278255360
0.11691129 -0.016559632 0.39616388 4278255360
0.11737747 -0.016652875 0.39631876 4278255360
0.11784364 -0.016746119 0.39647365 4278255360
0.11830982 -0.016839359 0.3966285 4278255360
0.11877599 -0.016932603 0.39678338 4278255360
0.11924217 -0.017025845 0.39693826 4278255360
0.11970834 -0.017119087 0.39709312 4278255360
0.12017452 -0.017212331 0.397248 4278255360
0.1206407 -0.017305573 0.39740288 4278255360
0.12110687 -0.017398816 0.39755777 4278255360
0.12157305 -0.017492058 0.39771262 4278255360
0.12203922 -0.0175853 0.3978675 4278255360
0.1225054 -0.017678542 0.39802238 4278255360
0.12297158 -0.017771786 0.39817727 4278255360
0.12343775 -0.017865028 0.39833212 4278255360
0.12390393 -0.01795827 0.398487 4278255360
0.1243701 -0.018051513 0.39864188 4278255360
0.12483627 -0.018144755 0.39879674 4278255360
0.12530245 -0.018237997 0.39895162 4278255360
0.12576863 -0.018331241 0.3991065 4278255360
0.1262348 -0.018424483 0.39926139 4278255360
0.12670098 -0.018517725 0.39941624 4278255360
0.12716715 -0.018610967 0.39957112 4278255360
0.12763333 -0.018704209 0.399726 4278255360
0.1280995 -0.018797453 0.39988089 4278255360
0.12856568 -0.018890694 0.40003574 4278255360
0.12903185 -0.018983938 0.40019062 4278255360
0.12949803 -0.019077182 0.4003455 4278255360
0.1299642 -0.019170422 0.40050036 4278255360
0.13043039 -0.019263666 0.40065524 4278255360
0.13089655 -0.019356908 0.40081012 4278255360
0.13136274 -0.01945015 0.40096501 4278255360
0.1318289 -0.019543394 0.40111986 4278255360
0.13229509 -0.019636635 0.40127474 4278255360
0.13276127 -0.019729879 0.40142962 4278255360
0.13322744 -0.019823121 0.40158451 4278255360
0.13369361 -0.019916363 0.40173936 4278255360
0.13415979 -0.020009605 0.40189424 4278255360
0.13462597 -0.020102847 0.40204912 4278255360
0.13509214 -0.020196091 0.40220401 4278255360
0.13555831 -0.020289334 0.40235886 4278255360
0.13602449 -0.020382576 0.40251374 4278255360
0.08940693 -0.011058324 0.38702628 4278190335
0.089230329 -0.011073146 0.38749382 4278190335
0.08905372 -0.011087969 0.38796136 4278190335
0.088877119 -0.011102791 0.3884289 4278190335
0.088700518 -0.011117614 0.38889644 4278190335
0.088523917 -0.011132436 0.38936397 4278190335
0.088347308 -0.011147258 0.38983151 4278190335
0.088170707 -0.011162081 0.39029905 4278190335
0.087994106 -0.011176903 0.39076659 4278190335
0.087817498 -0.011191726 0.39123413 4278190335
0.087640896 -0.011206548 0.39170167 4278190335
0.087464295 -0.01122137 0.39216921 4278190335
0.087287694 -0.011236193 0.39263675 4278190335
0.087111086 -0.011251015 0.39310429 4278190335
0.086934485 -0.011265838 0.39357182 4278190335
0.086757883 -0.01128066 0.39403936 4278190335
0.086581275 -0.011295482 0.3945069 4278190335
0.086404674 -0.011310305 0.39497441 4278190335
0.086228073 -0.011325127 0.39544195 4278190335
0.086051464 -0.011339949 0.39590949 4278190335
0.085874863 -0.011354771 0.39637703 4278190335
0.085698262 -0.011369593 0.39684457 4278190335
0.085521661 -0.011384416 0.3973121 4278190335
0.085345052 -0.011399238 0.39777964 4278190335
0.085168451 -0.011414061 0.39824718 4278190335
0.08499185 -0.011428883 0.39871472 4278190335
0.084815249 -0.011443705 0.39918226 4278190335
0.08463864 -0.011458528 0.3996498 4278190335
0.084462039 -0.01147335 0.40011734 4278190335
0.084285438 -0.011488173 0.40058488 4278190335
0.084108829 -0.011502995 0.40105242 4278190335
0.083932228 -0.011517817 0.40151995 4278190335
0.083755627 -0.01153264 0.40198749 4278190335
0.083579019 -0.011547462 0.40245503 4278190335
0.083402418 -0.011562285 0.40292257 4278190335
0.083225816 -0.011577107 0.40339011 4278190335
0.083049208 -0.011591929 0.40385765 4278190335
0.082872607 -0.011606752 0.40432519 4278190335
0.082696006 -0.011621574 0.40479273 4278190335
0.082519405 -0.011636397 0.40526026 4278190335
0.082342796 -0.011651219 0.4057278 4278190335
0.082166195 -0.011666041 0.40619534 4278190335
0.081989594 -0.011680864 0.40666288 4278190335
0.081812993 -0.011695686 0.40713042 4278190335
0.081636384 -0.011710509 0.40759796 4278190335
0.081459783 -0.011725331 0.4080655 4278190335
0.081283182 -0.011740153 0.40853304 4278190335
0.081106573 -0.011754976 0.40900058 4278190335
0.080929972 -0.011769798 0.40946811 4278190335
0.080753371 -0.011784621 0.40993565 4278190335
0.080576763 -0.011799443 0.41040319 4278190335
0.080400161 -0.011814265 0.4108707 4278190335
0.08022356 -0.011829088 0.41133824 4278190335
0.080046959 -0.01184391 0.41180578 4278190335
0.079870351 -0.011858732 0.41227332 4278190335
0.07969375 -0.011873554 0.41274086 4278190335
0.079517148 -0.011888376 0.4132084 4278190335
0.079340547 -0.011903199 0.41367593 4278190335
0.079163939 -0.011918021 0.41414347 4278190335
0.078987338 -0.011932844 0.41461101 4278190335
0.078810737 -0.011947666 0.41507855 4278190335
0.078634128 -0.011962488 0.41554609 4278190335
0.078457527 -0.011977311 0.41601363 4278190335
0.078280926 -0.011992133 0.41648117 4278190335
0.078104317 -0.012006956 0.41694871 4278190335
0.077927716 -0.012021778 0.41741624 4278190335
0.077751115 -0.012036601 0.41788378 4278190335
0.077574506 -0.012051423 0.41835132 4278190335
0.077397905 -0.012066245 0.41881886 4278190335
0.077221304 -0.012081068 0.4192864 4278190335
0.077044703 -0.01209589 0.41975394 4278190335
0.076868102 -0.012110712 0.42022148 4278190335
0.076691493 -0.012125535 0.42068902 4278190335
0.076514892 -0.012140357 0.42115656 4278190335
0.076338291 -0.01215518 0.42162409 4278190335
0.076161683 -0.012170002 0.42209163 4278190335
0.075985081 -0.012184824 0.42255917 4278190335
0.07580848 -0.012199647 0.42302671 4278190335
0.075631872 -0.012214469 0.42349425 4278190335
0.075455271 -0.012229292 0.42396179 4278190335
0.07527867 -0.012244114 0.42442933 4278190335
0.075102061 -0.012258936 0.42489687 4278190335
0.07492546 -0.012273759 0.42536438 4278190335
0.074748859 -0.012288581 0.42583191 4278190335
0.074572258 -0.012303403 0.42629945 4278190335
0.074395649 -0.012318226 0.42676699 4278190335
0.074219048 -0.012333048 0.42723453 4278190335
0.074042447 -0.012347871 0.42770207 4278190335
0.073865846 -0.012362693 0.42816961 4278190335
0.073689237 -0.012377515 0.42863715 4278190335
0.073512636 -0.012392337 0.42910469 4278190335
0.073336035 -0.012407159 0.42957222 4278190335
0.073159426 -0.012421982 0.43003976 4278190335
0.072982825 -0.012436804 0.4305073 4278190335
0.072806224 -0.012451627 0.43097484 4278190335
0.072629616 -0.012466449 0.43144238 4278190335
0.072453015 -0.012481271 0.43190992 4278190335
0.072276413 -0.012496094 0.43237746 4278190335
0.072099805 -0.012510916 0.432845 4278190335
0.071923204 -0.012525739 0.43331254 4278190335
0.071746603 -0.012540561 0.43378007 4278190335
0.08940693 -0.011058324 0.38702628 4294967295
0.090466551 -0.01096939 0.38422105 4294967295
0.091526173 -0.010880455 0.38141581 4294967295
0.092585787 -0.010791522 0.37861061 4294967295
0.093645409 -0.010702587 0.37580538 4294967295
0.09470503 -0.010613653 0.37300014 4294967295
0.095764652 -0.010524719 0.37019491 4294967295
0.096824266 -0.010435784 0.36738968 4294967295
0.097883888 -0.01034685 0.36458448 4294967295
0.098943509 -0.010257916 0.36177924 4294967295
0.10000313 -0.010168982 0.35897401 4294967295
0.10106274 -0.010080048 0.35616878 4294967295
0.10212237 -0.0099911131 0.35336357 4294967295
0.10318199 -0.0099021792 0.35055834 4294967295
0.10424161 -0.0098132445 0.34775311 4294967295
0.10530123 -0.0097243106 0.34494787 4294967295
0.10636085 -0.0096353767 0.34214264 4294967295
0.10742047 -0.009546442 0.33933741 4294967295
0.10848009 -0.0094575081 0.33653221 4294967295
0.1095397 -0.0093685733 0.33372697 4294967295
0.11059932 -0.0092796395 0.33092174 4294967295
0.11165895 -0.0091907056 0.32811654 4294967295
0.11271857 -0.0091017708 0.3253113 4294967295
0.11377819 -0.009012837 0.32250607 4294967295
0.11483781 -0.0089239031 0.31970084 4294967295
0.11589742 -0.0088349683 0.3168956 4294967295
0.11695705 -0.0087460345 0.31409037 4294967295
0.11801667 -0.0086570997 0.31128514 4294967295
0.11907628 -0.0085681658 0.30847993 4294967295
0.1201359 -0.008479232 0.3056747 4294967295
0.12119552 -0.0083902972 0.30286947 4294967295
0.12225515 -0.0083013624 0.30006427 4294967295
0.12331477 -0.0082124285 0.29725903 4294967295
0.12437439 -0.0081234947 0.2944538 4294967295
0.12543401 -0.0080345599 0.29164857 4294967295
0.12649363 -0.007945626 0.28884333 4294967295
0.12755325 -0.0078566913 0.2860381 4294967295
0.12861286 -0.0077677574 0.2832329 4294967295
0.12967248 -0.0076788235 0.28042766 4294967295
0.1307321 -0.0075898892 0.27762243 4294967295
0.13179173 -0.0075009549 0.2748172 4294967295
0.13285135 -0.007412021 0.272012 4294967295
0.13391095 -0.0073230863 0.26920676 4294967295
0.13497058 -0.0072341524 0.26640153 4294967295
0.1360302 -0.0071452181 0.2635963 4294967295
0.13708982 -0.0070562838 0.26079106 4294967295
0.13814944 -0.0069673494 0.25798583 4294967295
0.13920906 -0.0068784151 0.25518063 4294967295
0.14026868 -0.0067894813 0.25237539 4294967295
0.14132831 -0.0067005469 0.24957016 4294967295
0.14238793 -0.0066116126 0.24676494 4294967295
0.14344755 -0.0065226783 0.24395972 4294967295
0.14450717 -0.0064337444 0.24115449 4294967295
0.14556678 -0.0063448101 0.23834927 4294967295
0.14662641 -0.0062558753 0.23554403 4294967295
0.14768602 -0.0061669415 0.23273881 4294967295
0.14874564 -0.0060780072 0.22993357 4294967295
0.14980526 -0.0059890733 0.22712836 4294967295
