# .PCD v0.7 - Point Cloud Data file format
VERSION 0.7
FIELDS x y z rgb
SIZE 4 4 4 4
TYPE F F F U
COUNT 1 1 1 1
WIDTH 1043
HEIGHT 1
VIEWPOINT 0 0 0 1 0 0 0
POINTS 1043
DATA ascii
0.048982475 0.021717353 0.37600002 4278994461
0.050203726 0.021717353 0.37600002 4279125533
0.051561739 0.021775112 0.377 4279453728
0.052786235 0.021775112 0.377 4279190304
0.054010734 0.021775112 0.377 4279255584
0.055235233 0.021775112 0.377 4279321379
0.056459725 0.021775112 0.377 4280307250
0.057684224 0.021775112 0.377 4282081864
-0.020181682 0.023854136 0.39100003 4280167971
-0.018814977 0.02373212 0.38900003 4279377428
-0.017461266 0.023610104 0.38700002 4279574037
-0.016162418 0.023549095 0.38600001 4279510293
-0.014831441 0.023427079 0.384 4279445783
-0.013584209 0.023427079 0.384 4279186713
-0.012304849 0.023366071 0.38300002 4278793750
-0.011060865 0.023366071 0.38300002 4278597908
-0.0097912485 0.023305064 0.38200003 4278795287
-0.0085505117 0.023305064 0.38200003 4278599189
-0.0073097749 0.023305064 0.38200003 4278533396
-0.0060690381 0.023305064 0.38200003 4278598419
-0.0048283017 0.023305064 0.38200003 4278335247
-0.0035875649 0.023305064 0.38200003 4278532628
-0.0023406844 0.023244055 0.38100001 4278335249
-0.0011031957 0.023244055 0.38100001 4278664214
0.00013394043 0.023183048 0.38000003 4278466835
0.0013681811 0.023183048 0.38000003 4278532115
0.0025955732 0.023122039 0.37900001 4278400529
0.0038265658 0.023122039 0.37900001 4278858773
0.0050575584 0.023122039 0.37900001 4278198534
0.0062719584 0.023061031 0.37800002 4278858261
0.0074997037 0.023061031 0.37800002 4278596373
0.0087274481 0.023061031 0.37800002 4278197766
0.0099551929 0.023061031 0.37800002 4278197256
0.011182938 0.023061031 0.37800002 4278196228
0.012410683 0.023061031 0.37800002 4278195714
0.013638427 0.023061031 0.37800002 4278196742
0.014866171 0.023061031 0.37800002 4278197253
0.016093915 0.023061031 0.37800002 4278462990
0.017321661 0.023061031 0.37800002 4278791955
0.021060463 0.023122039 0.37900001 4278464785
0.022291455 0.023122039 0.37900001 4278793750
0.023522448 0.023122039 0.37900001 4278399505
0.02475344 0.023122039 0.37900001 4278531345
0.025984434 0.023122039 0.37900001 4278400527
0.027143618 0.023061031 0.37800002 4278334734
0.028371362 0.023061031 0.37800002 4278597906
0.029520802 0.023000022 0.377 4278334734
0.030745298 0.023000022 0.377 4278532113
0.031884998 0.022939015 0.37600002 4278663699
0.033106245 0.022939015 0.37600002 4278597906
0.034327492 0.022939015 0.37600002 4278400527
0.035548743 0.022939015 0.37600002 4278532624
0.03676999 0.022939015 0.37600002 4278466831
0.037991241 0.022939015 0.37600002 4278335247
0.039212488 0.022939015 0.37600002 4278466833
0.0403262 0.022878008 0.37500003 4278466833
0.041544203 0.022878008 0.37500003 4278269454
0.042762201 0.022878008 0.37500003 4278336017
0.043980204 0.022878008 0.37500003 4278664982
0.045198202 0.022878008 0.37500003 4278664982
0.046539977 0.022939015 0.37600002 4278665496
0.047761224 0.022939015 0.37600002 4278665496
0.048982475 0.022939015 0.37600002 4278797082
0.050337244 0.023000022 0.377 4278928668
0.051561739 0.023000022 0.377 4278928668
0.052786235 0.023000022 0.377 4278797082
0.054154001 0.023061031 0.37800002 4278862875
0.055381749 0.023061031 0.37800002 4278797082
0.056609489 0.023061031 0.37800002 4278994463
0.057837237 0.023061031 0.37800002 4278797084
0.059377495 0.023183048 0.38000003 4278862877
0.060611732 0.023183048 0.38000003 4278927386
0.062008724 0.023244055 0.38100001 4279386148
0.063246213 0.023244055 0.38100001 4283857766
-0.020181682 0.025124537 0.39100003 4279970592
-0.018814977 0.024996022 0.38900003 4279443221
-0.017461266 0.024867509 0.38700002 4279837209
-0.016120547 0.024738993 0.38500002 4279641879
-0.014831441 0.024674736 0.384 4279774746
-0.013548833 0.024610478 0.38300002 4279187224
-0.012304849 0.024610478 0.38300002 4278794004
-0.011031985 0.024546223 0.38200003 4278729492
-0.0097912485 0.024546223 0.38200003 4278795798
-0.0085505117 0.024546223 0.38200003 4278730005
-0.0073097749 0.024546223 0.38200003 4278598419
-0.0060690381 0.024546223 0.38200003 4278532626
-0.0048156618 0.024481965 0.38100001 4278466833
-0.0035781732 0.024481965 0.38100001 4278532626
-0.0023406844 0.024481965 0.38100001 4278466833
-0.0011003002 0.024417708 0.38000003 4278466833
0.00013394043 0.024417708 0.38000003 4278335247
0.0013645806 0.02435345 0.37900001 4278532115
0.0025955732 0.02435345 0.37900001 4278532115
0.0038265658 0.02435345 0.37900001 4278657548
0.0050442144 0.024289194 0.37800002 4278590472
0.0062719584 0.024289194 0.37800002 4278660369
0.0074997037 0.024289194 0.37800002 4278990359
0.0087274481 0.024289194 0.37800002 4278458890
0.0099551929 0.024289194 0.37800002 4278458123
0.011182938 0.024289194 0.37800002 4278654220
0.012410683 0.024289194 0.37800002 4278720013
0.013638427 0.024289194 0.37800002 4278522634
0.014866171 0.024289194 0.37800002 4278654220
0.016136492 0.02435345 0.37900001 4278785804
0.017367486 0.02435345 0.37900001 4278654218
0.018598478 0.02435345 0.37900001 4278391814
0.019829469 0.02435345 0.37900001 4278523400
0.021060463 0.02435345 0.37900001 4278392584
0.022291455 0.02435345 0.37900001 4278392584
0.023522448 0.02435345 0.37900001 4278194944
0.02475344 0.02435345 0.37900001 4278199818
0.025984434 0.02435345 0.37900001 4278196224
0.027143618 0.024289194 0.37800002 4278197763
0.028371362 0.024289194 0.37800002 4278197509
0.029599108 0.024289194 0.37800002 4278265357
0.030745298 0.024224935 0.377 4278331917
0.031969797 0.024224935 0.377 4278726673
0.033194292 0.024224935 0.377 4278726673
0.034418788 0.024224935 0.377 4278858773
0.035643287 0.024224935 0.377 4278530832
0.03676999 0.024160679 0.37600002 4278728211
0.037991241 0.024160679 0.37600002 4278531345
0.039212488 0.024160679 0.37600002 4278531345
0.040433735 0.024160679 0.37600002 4278400529
0.041654985 0.024160679 0.37600002 4278729494
0.042876232 0.024160679 0.37600002 4278466581
0.044097483 0.024160679 0.37600002 4278466581
0.04531873 0.024160679 0.37600002 4278598421
0.046539977 0.024160679 0.37600002 4278466835
0.047888249 0.024224935 0.377 4278532628
0.049112748 0.024224935 0.377 4278335249
0.050470769 0.024289194 0.37800002 4278664212
0.05169851 0.024289194 0.37800002 4278664982
0.052926257 0.024289194 0.37800002 4278665496
0.054297265 0.02435345 0.37900001 4278665496
0.055528257 0.02435345 0.37900001 4278731289
0.056759246 0.02435345 0.37900001 4278862875
0.058143254 0.024417708 0.38000003 4278928668
0.059533749 0.024481965 0.38100001 4278928668
0.060771234 0.024481965 0.38100001 4278994461
0.062171482 0.024546223 0.38200003 4278862875
0.063412219 0.024546223 0.38200003 4279386402
-0.020181682 0.026394935 0.39100003 4280233764
-0.018814977 0.026259923 0.38900003 4279771416
-0.017461266 0.02612491 0.38700002 4280034588
-0.016120547 0.025989898 0.38500002 4279707674
-0.014831441 0.02592239 0.384 4279708953
-0.013548833 0.025854886 0.38300002 4278530578
-0.012304849 0.025854886 0.38300002 4278728722
-0.011031985 0.02578738 0.38200003 4278597906
-0.0097912485 0.02578738 0.38200003 4278795285
-0.0085505117 0.02578738 0.38200003 4278730005
-0.0073097749 0.02578738 0.38200003 4278532626
-0.0060531502 0.025719872 0.38100001 4278664212
-0.0048156618 0.025719872 0.38100001 4278335247
-0.0035781732 0.025719872 0.38100001 4278335247
-0.0023406844 0.025719872 0.38100001 4278466833
-0.0011003002 0.025652368 0.38000003 4278532626
0.00013394043 0.025652368 0.38000003 4278334734
0.0013645806 0.02558486 0.37900001 4278532115
0.0025955732 0.02558486 0.37900001 4278531345
0.0038265658 0.02558486 0.37900001 4279250201
0.0050442144 0.025517354 0.37800002 4278853648
0.0062719584 0.025517354 0.37800002 4278660882
0.0074997037 0.025517354 0.37800002 4278858261
0.0087274481 0.025517354 0.37800002 4278588939
0.0099551929 0.025517354 0.37800002 4278786318
0.011182938 0.025517354 0.37800002 4278720013
0.012410683 0.025517354 0.37800002 4278851086
0.013638427 0.025517354 0.37800002 4278654220
0.014905499 0.02558486 0.37900001 4278720013
0.016136492 0.02558486 0.37900001 4278720011
0.017367486 0.02558486 0.37900001 4278720011
0.018598478 0.02558486 0.37900001 4278654218
0.019829469 0.02558486 0.37900001 4278654218
0.021060463 0.02558486 0.37900001 4278587912
0.022291455 0.02558486 0.37900001 4278785291
0.023522448 0.02558486 0.37900001 4278196999
0.02475344 0.02558486 0.37900001 4278923541
0.025984434 0.02558486 0.37900001 4278858261
0.027215425 0.02558486 0.37900001 4279055640
0.028446417 0.02558486 0.37900001 4279054873
0.029599108 0.025517354 0.37800002 4279054873
0.030826852 0.025517354 0.37800002 4278988310
0.032054599 0.025517354 0.37800002 4278790931
0.033282343 0.025517354 0.37800002 4278527500
0.034510083 0.025517354 0.37800002 4278196482
0.035643287 0.025449846 0.377 4278195456
0.036867782 0.025449846 0.377 4278195456
0.038092278 0.025449846 0.377 4278194176
0.039316773 0.025449846 0.377 4278194432
0.040541269 0.025449846 0.377 4278196225
0.041765768 0.025449846 0.377 4278196482
0.042990264 0.025449846 0.377 4278198022
0.044214763 0.025449846 0.377 4278397456
0.045439258 0.025449846 0.377 4278200591
0.046663754 0.025449846 0.377 4278595603
0.048015274 0.025517354 0.37800002 4278924566
0.049243022 0.025517354 0.37800002 4278727957
0.050604288 0.02558486 0.37900001 4278399505
0.051835276 0.02558486 0.37900001 4278662677
0.053066269 0.02558486 0.37900001 4278400275
0.054440532 0.025652368 0.38000003 4278334995
0.055674773 0.025652368 0.38000003 4278532374
0.05690901 0.025652368 0.38000003 4278598421
0.058296259 0.025719872 0.38100001 4278532626
0.059533749 0.025719872 0.38100001 4278796568
0.06093074 0.02578738 0.38200003 4278993947
0.062334232 0.025854886 0.38300002 4278928668
0.063578218 0.025854886 0.38300002 4278928156
0.064991444 0.02592239 0.384 4278598937
-0.020130066 0.027594578 0.39000002 4280101664
-0.01876661 0.027453067 0.38800001 4279705110
-0.017416146 0.027311556 0.38600001 4279903002
-0.016120547 0.027240802 0.38500002 4279707672
-0.014831441 0.027170045 0.384 4279577367
-0.013548833 0.027099291 0.38300002 4279121431
-0.012304849 0.027099291 0.38300002 4278925590
-0.011031985 0.027028536 0.38200003 4278795283
-0.0097912485 0.027028536 0.38200003 4278730003
-0.0085505117 0.027028536 0.38200003 4278598419
-0.0073097749 0.027028536 0.38200003 4278598419
-0.0060531502 0.02695778 0.38100001 4278466833
-0.0048156618 0.02695778 0.38100001 4278466833
-0.0035781732 0.02695778 0.38100001 4278335247
-0.0023345409 0.026887026 0.38000003 4278335247
-0.0011003002 0.026887026 0.38000003 4278532628
0.00013394043 0.026887026 0.38000003 4278466835
0.0013645806 0.026816269 0.37900001 4278597908
0.0025955732 0.026816269 0.37900001 4278597908
0.0038164693 0.026745515 0.37800002 4278395662
0.0050442144 0.026745515 0.37800002 4278722832
0.0062719584 0.026745515 0.37800002 4278858775
0.0074997037 0.026745515 0.37800002 4278792468
0.0087274481 0.026745515 0.37800002 4278589193
0.0099551929 0.026745515 0.37800002 4280102178
0.011182938 0.026745515 0.37800002 4278918674
0.012410683 0.026745515 0.37800002 4278983697
0.013674506 0.026816269 0.37900001 4279444502
0.014905499 0.026816269 0.37900001 4279049744
0.016136492 0.026816269 0.37900001 4278985234
0.017367486 0.026816269 0.37900001 4280037922
0.018598478 0.026816269 0.37900001 4278589963
0.019829469 0.026816269 0.37900001 4279116307
0.021116031 0.026887026 0.38000003 4279575834
0.022350272 0.026887026 0.38000003 4278522632
0.023522448 0.026816269 0.37900001 4278657550
0.02475344 0.026816269 0.37900001 4278989845
0.025984434 0.026816269 0.37900001 4278727187
0.027215425 0.026816269 0.37900001 4278529808
0.028446417 0.026816269 0.37900001 4278726162
0.029677412 0.026816269 0.37900001 4278858261
0.030908404 0.026816269 0.37900001 4278727189
0.032139398 0.026816269 0.37900001 4279056154
0.033282343 0.026745515 0.37800002 4278726675
0.034510083 0.026745515 0.37800002 4278989847
0.035737831 0.026745515 0.37800002 4279055640
0.036965575 0.026745515 0.37800002 4278989847
0.038193323 0.026745515 0.37800002 4279055640
0.039421067 0.026745515 0.37800002 4279187226
0.040648807 0.026745515 0.37800002 4279647264
0.041876554 0.026745515 0.37800002 4279055127
0.043104298 0.026745515 0.37800002 4279185943
0.044332046 0.026745515 0.37800002 4278922771
0.04555979 0.026745515 0.37800002 4278790931
0.04678753 0.026745515 0.37800002 4278658832
0.048142299 0.026816269 0.37900001 4278197511
0.049373291 0.026816269 0.37900001 4278197513
0.050737809 0.026887026 0.38000003 4278195971
0.051972046 0.026887026 0.38000003 4278195200
0.053206287 0.026887026 0.38000003 4278194176
0.054583795 0.02695778 0.38100001 4278197255
0.055821285 0.02695778 0.38100001 4278531093
0.05705877 0.02695778 0.38100001 4278662677
0.058449272 0.027028536 0.38200003 4278334736
0.05969001 0.027028536 0.38200003 4278532113
0.061090246 0.027099291 0.38300002 4278532113
0.062334232 0.027099291 0.38300002 4278730005
0.063744217 0.027170045 0.384 4278993177
0.065160699 0.027240802 0.38500002 4278730007
0.066411175 0.027240802 0.38500002 4279910697
-0.020130066 0.028861728 0.39000002 4280298014
-0.01876661 0.028713718 0.38800001 4279639830
-0.017416146 0.028565709 0.38600001 4280034842
-0.016120547 0.028491706 0.38500002 4279707670
-0.014831441 0.028417701 0.384 4279578391
-0.013548833 0.028343696 0.38300002 4279713822
-0.012304849 0.028343696 0.38300002 4278794004
-0.011031985 0.028269693 0.38200003 4278597906
-0.0097912485 0.028269693 0.38200003 4278730005
-0.0085505117 0.028269693 0.38200003 4278664212
-0.0073097749 0.028269693 0.38200003 4278598419
-0.0060531502 0.028195687 0.38100001 4278203147
-0.0048156618 0.028195687 0.38100001 4278466833
-0.0035781732 0.028195687 0.38100001 4278598419
-0.0023345409 0.028121684 0.38000003 4278335247
-0.0011003002 0.028121684 0.38000003 4278400527
0.00013358794 0.028047679 0.37900001 4278532113
0.0013645806 0.028047679 0.37900001 4278532115
0.0025955732 0.028047679 0.37900001 4278400529
0.0038164693 0.027973674 0.37800002 4278195456
0.0050442144 0.027973674 0.37800002 4279249174
0.0062719584 0.027973674 0.37800002 4278793750
0.0074997037 0.027973674 0.37800002 4278792468
0.0087274481 0.027973674 0.37800002 4278524170
0.0099551929 0.027973674 0.37800002 4279840030
0.011182938 0.027973674 0.37800002 4278853648
0.012410683 0.027973674 0.37800002 4278919441
0.013674506 0.028047679 0.37900001 4279051025
0.014905499 0.028047679 0.37900001 4278392582
0.016136492 0.028047679 0.37900001 4278986002
0.017367486 0.028047679 0.37900001 4278262281
0.018598478 0.028047679 0.37900001 4278458123
0.019881791 0.028121684 0.38000003 4278984980
0.021116031 0.028121684 0.38000003 4278657039
0.022350272 0.028121684 0.38000003 4278589193
0.023584513 0.028121684 0.38000003 4279250199
0.024818754 0.028121684 0.38000003 4278858259
0.026052997 0.028121684 0.38000003 4278397710
0.027287235 0.028121684 0.38000003 4278197254
0.028446417 0.028047679 0.37900001 4278260998
0.029677412 0.028047679 0.37900001 4278524681
0.030908404 0.028047679 0.37900001 4278725392
0.032139398 0.028047679 0.37900001 4278396427
0.033370391 0.028047679 0.37900001 4278198791
0.034601379 0.028047679 0.37900001 4278923539
0.035832375 0.028047679 0.37900001 4278397708
0.037063368 0.028047679 0.37900001 4278197248
0.03829436 0.028047679 0.37900001 4278200331
0.039525352 0.028047679 0.37900001 4278924568
0.040648807 0.027973674 0.37800002 4278793752
0.041876554 0.027973674 0.37800002 4278596371
0.043104298 0.027973674 0.37800002 4278530578
0.044449326 0.028047679 0.37900001 4278727957
0.045680314 0.028047679 0.37900001 4278596371
0.046911307 0.028047679 0.37900001 4278793750
0.048269324 0.028121684 0.38000003 4278924566
0.049503569 0.028121684 0.38000003 4278858773
0.050871328 0.028195687 0.38100001 4278858259
0.052108813 0.028195687 0.38100001 4279121433
0.053346302 0.028195687 0.38100001 4279055127
0.054727063 0.028269693 0.38200003 4278198024
0.0559678 0.028269693 0.38200003 4278464017
0.057208531 0.028269693 0.38200003 4278728470
0.058602277 0.028343696 0.38300002 4278597908
0.059846263 0.028343696 0.38300002 4278597908
0.061249748 0.028417701 0.384 4278597908
0.062496983 0.028417701 0.384 4278597908
0.063744217 0.028417701 0.384 4278663701
0.065160699 0.028491706 0.38500002 4278597908
0.066583671 0.028565709 0.38600001 4278594322
-0.020130066 0.030128878 0.39000002 4280232221
-0.01876661 0.029974369 0.38800001 4279903256
-0.017416146 0.029819863 0.38600001 4280036125
-0.016078675 0.029665355 0.384 4279774746
-0.014792819 0.029588103 0.38300002 4279315732
-0.013548833 0.029588103 0.38300002 4279319578
-0.012272721 0.02951085 0.38200003 4278530832
-0.011031985 0.02951085 0.38200003 4278861078
-0.0097912485 0.02951085 0.38200003 4279321629
-0.0085505117 0.02951085 0.38200003 4278795285
-0.0073097749 0.02951085 0.38200003 4278663699
-0.0060531502 0.029433595 0.38100001 4278532113
-0.0048156618 0.029433595 0.38100001 4278532626
-0.0035781732 0.029433595 0.38100001 4278466833
-0.0023345409 0.029356342 0.38000003 4278532113
-0.0011003002 0.029356342 0.38000003 4278662929
0.00013358794 0.029279089 0.37900001 4278663699
0.0013645806 0.029279089 0.37900001 4278334736
0.0025955732 0.029279089 0.37900001 4278662931
0.0038164693 0.029201835 0.37800002 4278393093
0.0050442144 0.029201835 0.37800002 4278195200
0.0062719584 0.029201835 0.37800002 4278792466
0.0074997037 0.029201835 0.37800002 4278397197
0.0087274481 0.029201835 0.37800002 4278654986
0.0099551929 0.029201835 0.37800002 4278654218
0.011212522 0.029279089 0.37900001 4278654472
0.012443515 0.029279089 0.37900001 4278654986
0.013674506 0.029279089 0.37900001 4278589193
0.014905499 0.029279089 0.37900001 4278391814
0.016136492 0.029279089 0.37900001 4278720525
0.017367486 0.029279089 0.37900001 4278523146
0.018647552 0.029356342 0.38000003 4279445272
0.019881791 0.029356342 0.38000003 4279314969
0.021116031 0.029356342 0.38000003 4279643932
0.022350272 0.029356342 0.38000003 4278523146
0.023584513 0.029356342 0.38000003 4279382039
0.024818754 0.029356342 0.38000003 4278858261
0.026052997 0.029356342 0.38000003 4278328583
0.027287235 0.029356342 0.38000003 4278523400
0.028521474 0.029356342 0.38000003 4278720779
0.029755717 0.029356342 0.38000003 4278259974
0.030989956 0.029356342 0.38000003 4278196740
0.032224201 0.029356342 0.38000003 4279054355
0.033458438 0.029356342 0.38000003 4279055127
0.034692679 0.029356342 0.38000003 4278923541
0.035832375 0.029279089 0.37900001 4278198536
0.037063368 0.029279089 0.37900001 4278923541
0.03829436 0.029279089 0.37900001 4278197765
0.039525352 0.029279089 0.37900001 4278856724
0.040756345 0.029279089 0.37900001 4278529042
0.041987337 0.029279089 0.37900001 4278198789
0.04321833 0.029279089 0.37900001 4278595087
0.044449326 0.029279089 0.37900001 4278660880
0.045800846 0.029356342 0.38000003 4278200329
0.047035087 0.029356342 0.38000003 4278397708
0.048269324 0.029356342 0.38000003 4278595601
0.049633838 0.029433595 0.38100001 4278595601
0.050871328 0.029433595 0.38100001 4278398992
0.052245583 0.02951085 0.38200003 4278727957
0.053486321 0.02951085 0.38200003 4278858773
0.054727063 0.02951085 0.38200003 4278198791
0.056114309 0.029588103 0.38300002 4278990361
0.057358291 0.029588103 0.38300002 4278728211
0.058602277 0.029588103 0.38300002 4278530832
0.060002517 0.029665355 0.384 4278531345
0.061249748 0.029665355 0.384 4278531345
0.062496983 0.029665355 0.384 4278662931
0.063910216 0.02974261 0.38500002 4278597654
0.065160699 0.02974261 0.38500002 4278400275
0.066583671 0.029819863 0.38600001 4278462736
0.067837402 0.029819863 0.38600001 4284908917
-0.024237026 0.031798538 0.39500001 4279311889
-0.022895953 0.031718038 0.39400002 4279180301
-0.021561377 0.031637534 0.39300001 4280036125
-0.020130066 0.031396028 0.39000002 4282470212
-0.01876661 0.031235021 0.38800001 4278916877
-0.017371027 0.030993514 0.38500002 4279837463
-0.016078675 0.03091301 0.384 4279708953
-0.014792819 0.030832509 0.38300002 4279579418
-0.013548833 0.030832509 0.38300002 4279121945
-0.012272721 0.030752007 0.38200003 4278859795
-0.011031985 0.030752007 0.38200003 4278860308
-0.0097912485 0.030752007 0.38200003 4278861078
-0.0085505117 0.030752007 0.38200003 4278664212
-0.0073097749 0.030752007 0.38200003 4278203404
-0.0060531502 0.030671503 0.38100001 4278532626
-0.0048156618 0.030671503 0.38100001 4278598419
-0.0035781732 0.030671503 0.38100001 4278664212
-0.0023345409 0.030591002 0.38000003 4278466833
-0.0011003002 0.030591002 0.38000003 4278597906
0.00013358794 0.030510496 0.37900001 4278597906
0.0013645806 0.030510496 0.37900001 4278532113
0.0025955732 0.030510496 0.37900001 4278662929
0.0038164693 0.030429995 0.37800002 4278723855
0.0050442144 0.030429995 0.37800002 4279381785
0.0062719584 0.030429995 0.37800002 4278858773
0.0074997037 0.030429995 0.37800002 4278594576
0.0087274481 0.030429995 0.37800002 4278720011
0.0099815289 0.030510496 0.37900001 4278785804
0.011212522 0.030510496 0.37900001 4278719500
0.012443515 0.030510496 0.37900001 4278719500
0.013674506 0.030510496 0.37900001 4278654220
0.014905499 0.030510496 0.37900001 4278719500
0.016136492 0.030510496 0.37900001 4278720013
0.017413311 0.030591002 0.38000003 4278654220
0.018647552 0.030591002 0.38000003 4278654218
0.019881791 0.030591002 0.38000003 4278522632
0.021116031 0.030591002 0.38000003 4278391560
0.022350272 0.030591002 0.38000003 4278523146
0.023584513 0.030591002 0.38000003 4279448602
0.024818754 0.030591002 0.38000003 4278792468
0.026052997 0.030591002 0.38000003 4278722828
0.027287235 0.030591002 0.38000003 4278720265
0.028521474 0.030591002 0.38000003 4278720265
0.029755717 0.030591002 0.38000003 4279049744
0.030989956 0.030591002 0.38000003 4278396173
0.032224201 0.030591002 0.38000003 4278791185
0.033458438 0.030591002 0.38000003 4278199045
0.034692679 0.030591002 0.38000003 4278726160
0.035926919 0.030591002 0.38000003 4278396427
0.03716116 0.030591002 0.38000003 4278858007
0.038395401 0.030591002 0.38000003 4278198793
0.039525352 0.030510496 0.37900001 4279054873
0.040756345 0.030510496 0.37900001 4278330382
0.042098124 0.030591002 0.38000003 4278592271
0.043332364 0.030591002 0.38000003 4278263558
0.044566605 0.030591002 0.38000003 4278330121
0.045800846 0.030591002 0.38000003 4278725392
0.04715886 0.030671503 0.38100001 4278527759
0.048396349 0.030671503 0.38100001 4278461968
0.049633838 0.030671503 0.38100001 4278856724
0.051004853 0.030752007 0.38200003 4278461966
0.052245583 0.030752007 0.38200003 4278858773
0.053626336 0.030832509 0.38300002 4278727187
0.054870322 0.030832509 0.38300002 4278196992
0.056114309 0.030832509 0.38300002 4278792466
0.057358291 0.030832509 0.38300002 4278728470
0.058755282 0.03091301 0.384 4278728724
0.060002517 0.03091301 0.384 4278662931
0.061249748 0.03091301 0.384 4278662931
0.062659733 0.030993514 0.38500002 4278860310
0.063910216 0.030993514 0.38500002 4278662677
0.065160699 0.030993514 0.38500002 4278662677
0.066583671 0.031074015 0.38600001 4278989847
0.067837402 0.031074015 0.38600001 4284975475
-0.017371027 0.032244418 0.38500002 4283328342
-0.016078675 0.032160666 0.384 4279314967
-0.014792819 0.032076914 0.38300002 4279382557
-0.013548833 0.032076914 0.38300002 4279187740
-0.012272721 0.031993162 0.38200003 4278728211
-0.011031985 0.031993162 0.38200003 4278861080
-0.0097912485 0.031993162 0.38200003 4278861080
-0.0085505117 0.031993162 0.38200003 4278598419
-0.0073097749 0.031993162 0.38200003 4278532626
-0.0060531502 0.03190941 0.38100001 4278598419
-0.0048156618 0.03190941 0.38100001 4278532626
-0.0035687818 0.031825658 0.38000003 4278466833
-0.0023345409 0.031825658 0.38000003 4278598419
-0.0011003002 0.031825658 0.38000003 4278532113
0.00013358794 0.031741906 0.37900001 4278597906
0.0013645806 0.031741906 0.37900001 4278663699
0.0025955732 0.031741906 0.37900001 4278198784
0.0038265658 0.031741906 0.37900001 4278396425
0.0050442144 0.031658158 0.37800002 4278197763
0.0062719584 0.031658158 0.37800002 4278858773
0.0075195436 0.031741906 0.37900001 4278727187
0.0087505365 0.031741906 0.37900001 4278923541
0.0099815289 0.031741906 0.37900001 4278987027
0.011212522 0.031741906 0.37900001 4279249176
0.012443515 0.031741906 0.37900001 4278590222
0.013674506 0.031741906 0.37900001 4278588939
0.014944828 0.031825658 0.38000003 4278588939
0.01617907 0.031825658 0.38000003 4278456839
0.017413311 0.031825658 0.38000003 4278522632
0.018647552 0.031825658 0.38000003 4278456839
0.019881791 0.031825658 0.38000003 4278522632
0.021116031 0.031825658 0.38000003 4278720011
0.022350272 0.031825658 0.38000003 4278654218
0.023584513 0.031825658 0.38000003 4278987281
0.024818754 0.031825658 0.38000003 4278594576
0.026052997 0.031825658 0.38000003 4279513625
0.027287235 0.031825658 0.38000003 4279381012
0.028521474 0.031825658 0.38000003 4279708953
0.029755717 0.031825658 0.38000003 4279709723
0.030989956 0.031825658 0.38000003 4279185943
0.032224201 0.031825658 0.38000003 4278923541
0.033458438 0.031825658 0.38000003 4279187224
0.034692679 0.031825658 0.38000003 4278989845
0.035926919 0.031825658 0.38000003 4279121431
0.03716116 0.031825658 0.38000003 4278266124
0.038395401 0.031825658 0.38000003 4279055640
0.039629642 0.031825658 0.38000003 4279055386
0.040863883 0.031825658 0.38000003 4278462736
0.042098124 0.031825658 0.38000003 4278923289
0.043332364 0.031825658 0.38000003 4278527761
0.044566605 0.031825658 0.38000003 4278988310
0.045921374 0.03190941 0.38100001 4278197766
0.04715886 0.03190941 0.38100001 4278197767
0.048396349 0.03190941 0.38100001 4278725138
0.049764112 0.031993162 0.38200003 4278527759
0.051004853 0.031993162 0.38200003 4278197767
0.05238235 0.032076914 0.38300002 4278857748
0.053626336 0.032076914 0.38300002 4278727187
0.054870322 0.032076914 0.38300002 4278196480
0.056114309 0.032076914 0.38300002 4278727187
0.057508048 0.032160666 0.384 4278531091
0.058755282 0.032160666 0.384 4278860310
0.060002517 0.032160666 0.384 4278662931
0.061249748 0.032160666 0.384 4278532115
0.062659733 0.032244418 0.38500002 4278532115
0.063910216 0.032244418 0.38500002 4278400275
0.065160699 0.032244418 0.38500002 4278663447
0.066583671 0.03232817 0.38600001 4279516191
0.067837402 0.03232817 0.38600001 4284843891
-0.016036803 0.033321321 0.38300002 4279709727
-0.014792819 0.033321321 0.38300002 4279315482
-0.013548833 0.033321321 0.38300002 4279450912
-0.012272721 0.033234321 0.38200003 4279056922
-0.011031985 0.033234321 0.38200003 4278991896
-0.0097912485 0.033234321 0.38200003 4278861080
-0.0085505117 0.033234321 0.38200003 4278729492
-0.0073097749 0.033234321 0.38200003 4278729492
-0.0060531502 0.033147316 0.38100001 4278532113
-0.0048156618 0.033147316 0.38100001 4278597906
-0.0035687818 0.03306032 0.38000003 4278532113
-0.0023345409 0.03306032 0.38000003 4278532113
-0.0011003002 0.03306032 0.38000003 4278794515
0.00013358794 0.032973316 0.37900001 4278531343
0.0013645806 0.032973316 0.37900001 4278465550
0.0025955732 0.032973316 0.37900001 4278662931
0.0038265658 0.032973316 0.37900001 4278857748
0.0050575584 0.032973316 0.37900001 4278923541
0.0062885508 0.032973316 0.37900001 4278858773
0.0075195436 0.032973316 0.37900001 4278596371
0.0087505365 0.032973316 0.37900001 4278727957
0.0099815289 0.032973316 0.37900001 4278727957
0.011212522 0.032973316 0.37900001 4278858773
0.012476347 0.03306032 0.38000003 4278990359
0.013710587 0.03306032 0.38000003 4279055638
0.014944828 0.03306032 0.38000003 4279055125
0.01617907 0.03306032 0.38000003 4279252504
0.017413311 0.03306032 0.38000003 4279120920
0.018647552 0.03306032 0.38000003 4279054357
0.019881791 0.03306032 0.38000003 4279317016
0.021116031 0.03306032 0.38000003 4279250199
0.022350272 0.03306032 0.38000003 4279184406
0.023584513 0.03306032 0.38000003 4279054103
0.024818754 0.03306032 0.38000003 4278593552
0.026052997 0.03306032 0.38000003 4278197511
0.027287235 0.03306032 0.38000003 4278196742
0.028521474 0.03306032 0.38000003 4278195714
0.029755717 0.03306032 0.38000003 4278195715
0.030989956 0.03306032 0.38000003 4278195456
0.032224201 0.03306032 0.38000003 4278195712
0.033458438 0.03306032 0.38000003 4278195969
0.034692679 0.03306032 0.38000003 4278196736
0.035926919 0.03306032 0.38000003 4278330634
0.03716116 0.03306032 0.38000003 4278593806
0.038395401 0.03306032 0.38000003 4278791955
0.039629642 0.03306032 0.38000003 4279581471
0.040863883 0.03306032 0.38000003 4279055640
0.042098124 0.03306032 0.38000003 4278989847
0.043332364 0.03306032 0.38000003 4278858775
0.044566605 0.03306032 0.38000003 4278924568
0.045921374 0.033147316 0.38100001 4278727189
0.04715886 0.033147316 0.38100001 4278727189
0.048523374 0.033234321 0.38200003 4278858773
0.049764112 0.033234321 0.38200003 4278727187
0.051004853 0.033234321 0.38200003 4278923541
0.05238235 0.033321321 0.38300002 4278989845
0.053626336 0.033321321 0.38300002 4278857748
0.054870322 0.033321321 0.38300002 4278196996
0.056114309 0.033321321 0.38300002 4278858773
0.057358291 0.033321321 0.38300002 4278663447
0.058755282 0.033408321 0.384 4278532115
0.060002517 0.033408321 0.384 4278663701
0.061249748 0.033408321 0.384 4278400529
0.062659733 0.033495322 0.38500002 4278597908
0.063910216 0.033495322 0.38500002 4278597654
0.065160699 0.033495322 0.38500002 4278663449
0.066583671 0.033582322 0.38600001 4278529042
-0.016036803 0.034565728 0.38300002 4284117858
-0.014792819 0.034565728 0.38300002 4283459928
-0.013548833 0.034565728 0.38300002 4278527761
-0.012304849 0.034565728 0.38300002 4279252765
-0.011031985 0.034475479 0.38200003 4279320096
-0.0097912485 0.034475479 0.38200003 4279320096
-0.0085505117 0.034475479 0.38200003 4279123230
-0.0073097749 0.034475479 0.38200003 4279189023
-0.0060531502 0.034385227 0.38100001 4278860828
-0.0048156618 0.034385227 0.38100001 4278860826
-0.0035687818 0.034294982 0.38000003 4278992412
-0.0023345409 0.034294982 0.38000003 4278729240
-0.0011003002 0.034294982 0.38000003 4278926103
0.00013358794 0.034204729 0.37900001 4278662931
0.0013645806 0.034204729 0.37900001 4278926103
0.0025955732 0.034204729 0.37900001 4278728470
0.0038265658 0.034204729 0.37900001 4278728470
0.0050575584 0.034204729 0.37900001 4278860056
0.0062885508 0.034204729 0.37900001 4278596371
0.0075195436 0.034204729 0.37900001 4278596371
0.0087505365 0.034204729 0.37900001 4278727957
0.0099815289 0.034204729 0.37900001 4278794004
0.011242107 0.034294982 0.38000003 4278728211
0.012476347 0.034294982 0.38000003 4278794004
0.013710587 0.034294982 0.38000003 4278596625
0.014944828 0.034294982 0.38000003 4278530832
0.016221646 0.034385227 0.38100001 4278794004
0.017459134 0.034385227 0.38100001 4278794004
0.018696623 0.034385227 0.38100001 4278794004
0.01993411 0.034385227 0.38100001 4278990613
0.0211716 0.034385227 0.38100001 4278859027
0.022409089 0.034385227 0.38100001 4278924820
0.023646578 0.034385227 0.38100001 4278859027
0.024884066 0.034385227 0.38100001 4278924566
0.026121555 0.034385227 0.38100001 4278727187
0.027287235 0.034294982 0.38000003 4278858773
0.028521474 0.034294982 0.38000003 4279187224
0.029755717 0.034294982 0.38000003 4278989845
0.030989956 0.034294982 0.38000003 4279055125
0.032224201 0.034294982 0.38000003 4279120918
0.033458438 0.034294982 0.38000003 4278923541
0.034692679 0.034294982 0.38000003 4279055127
0.035926919 0.034294982 0.38000003 4279382809
0.037063368 0.034204729 0.37900001 4279316762
0.03829436 0.034204729 0.37900001 4278922004
0.039525352 0.034204729 0.37900001 4278790418
0.040863883 0.034294982 0.38000003 4278197511
0.042098124 0.034294982 0.38000003 4278197256
0.043332364 0.034294982 0.38000003 4278195713
0.044566605 0.034294982 0.38000003 4278195200
0.045921374 0.034385227 0.38100001 4278194432
0.04715886 0.034385227 0.38100001 4278194944
0.048523374 0.034475479 0.38200003 4278195456
0.049764112 0.034475479 0.38200003 4278196227
0.051004853 0.034475479 0.38200003 4278198024
0.05238235 0.034565728 0.38300002 4278593039
0.053626336 0.034565728 0.38300002 4278790418
0.054870322 0.034565728 0.38300002 4278592269
0.056114309 0.034565728 0.38300002 4278858775
0.057358291 0.034565728 0.38300002 4278531091
0.058602277 0.034565728 0.38300002 4278795287
0.060002517 0.034655977 0.384 4278597908
0.061249748 0.034655977 0.384 4278597908
0.062496983 0.034655977 0.384 4278597908
0.063910216 0.03474623 0.38500002 4278729240
0.065160699 0.03474623 0.38500002 4278794263
0.066583671 0.034836479 0.38600001 4282277451
-0.016036803 0.035810135 0.38300002 4284117604
-0.014792819 0.035810135 0.38300002 4284117858
-0.013548833 0.035810135 0.38300002 4284184162
-0.012304849 0.035810135 0.38300002 4284776299
-0.011060865 0.035810135 0.38300002 4283001174
-0.0097912485 0.035716638 0.38200003 4279909414
-0.0085505117 0.035716638 0.38200003 4278725140
-0.0073097749 0.035716638 0.38200003 4278922519
-0.0060531502 0.035623137 0.38100001 4279055902
-0.0048156618 0.035623137 0.38100001 4279384867
-0.0035687818 0.03552964 0.38000003 4279254049
-0.0023345409 0.03552964 0.38000003 4278925084
-0.0011003002 0.03552964 0.38000003 4279056670
0.00013358794 0.035436139 0.37900001 4278991131
0.0013645806 0.035436139 0.37900001 4279123230
0.0025955732 0.035436139 0.37900001 4278925851
0.0038265658 0.035436139 0.37900001 4278728472
0.0050575584 0.035436139 0.37900001 4278925851
0.0062885508 0.035436139 0.37900001 4278859545
0.0075195436 0.035436139 0.37900001 4278925336
0.0087505365 0.035436139 0.37900001 4278925336
0.010007866 0.03552964 0.38000003 4278991129
0.011242107 0.03552964 0.38000003 4278793750
0.012476347 0.03552964 0.38000003 4279188508
0.013710587 0.03552964 0.38000003 4279057176
0.014984156 0.035623137 0.38100001 4278728211
0.016221646 0.035623137 0.38100001 4278991383
0.017459134 0.035623137 0.38100001 4278794004
0.018696623 0.035623137 0.38100001 4278794004
0.01993411 0.035623137 0.38100001 4278925590
0.0211716 0.035623137 0.38100001 4278662931
0.022409089 0.035623137 0.38100001 4278531345
0.023646578 0.035623137 0.38100001 4278662931
0.024884066 0.035623137 0.38100001 4278662931
0.026121555 0.035623137 0.38100001 4278662931
0.027287235 0.03552964 0.38000003 4278728724
0.028521474 0.03552964 0.38000003 4278662931
0.029755717 0.03552964 0.38000003 4278531345
0.030989956 0.03552964 0.38000003 4278794517
0.032224201 0.03552964 0.38000003 4278728724
0.033458438 0.03552964 0.38000003 4278728724
0.034601379 0.035436139 0.37900001 4278662931
0.035832375 0.035436139 0.37900001 4278794004
0.037063368 0.035436139 0.37900001 4278728211
0.03829436 0.035436139 0.37900001 4278858773
0.039525352 0.035436139 0.37900001 4278858773
0.040756345 0.035436139 0.37900001 4278990359
0.042098124 0.03552964 0.38000003 4278858773
0.043332364 0.03552964 0.38000003 4278924566
0.044566605 0.03552964 0.38000003 4278924566
0.045921374 0.035623137 0.38100001 4279055638
0.04715886 0.035623137 0.38100001 4278857748
0.048523374 0.035716638 0.38200003 4279054873
0.049764112 0.035716638 0.38200003 4278857494
0.051004853 0.035716638 0.38200003 4279712033
0.052245583 0.035716638 0.38200003 4279316762
0.053626336 0.035810135 0.38300002 4279579934
0.054870322 0.035810135 0.38300002 4279251482
0.056114309 0.035810135 0.38300002 4278596373
0.057358291 0.035810135 0.38300002 4278662677
0.058602277 0.035810135 0.38300002 4278728470
0.059846263 0.035810135 0.38300002 4278531861
0.061249748 0.035903633 0.384 4278729240
0.062496983 0.035903633 0.384 4278663447
0.063910216 0.035997134 0.38500002 4278795033
0.065160699 0.035997134 0.38500002 4278464785
0.066583671 0.036090631 0.38600001 4285171573
-0.016036803 0.037054539 0.38300002 4284182881
-0.014792819 0.037054539 0.38300002 4284248674
-0.013548833 0.037054539 0.38300002 4284315237
-0.012304849 0.037054539 0.38300002 4284446823
-0.011060865 0.037054539 0.38300002 4284644715
-0.0097912485 0.036957793 0.38200003 4284710508
-0.0085505117 0.036957793 0.38200003 4284973167
-0.0073097749 0.036957793 0.38200003 4285236339
-0.0060531502 0.036861043 0.38100001 4285236852
-0.0048156618 0.036861043 0.38100001 4285302905
-0.0035687818 0.036764298 0.38000003 4285039733
-0.0023345409 0.036764298 0.38000003 4284053608
-0.0011003002 0.036764298 0.38000003 4282935640
0.00013358794 0.036667548 0.37900001 4281685573
0.0013645806 0.036667548 0.37900001 4280435760
0.0025955732 0.036667548 0.37900001 4279448865
0.0038265658 0.036667548 0.37900001 4278594324
0.0050575584 0.036667548 0.37900001 4278397458
0.0062885508 0.036667548 0.37900001 4278529044
0.0075195436 0.036667548 0.37900001 4278989595
0.0087736258 0.036764298 0.38000003 4278792468
0.010007866 0.036764298 0.38000003 4279055640
0.011242107 0.036764298 0.38000003 4279056154
0.012476347 0.036764298 0.38000003 4278990107
0.013746668 0.036861043 0.38100001 4278924314
0.014984156 0.036861043 0.38100001 4278990877
0.016221646 0.036861043 0.38100001 4278925338
0.017459134 0.036861043 0.38100001 4278925338
0.018696623 0.036861043 0.38100001 4278859545
0.01993411 0.036861043 0.38100001 4278925338
0.0211716 0.036861043 0.38100001 4278793750
0.022409089 0.036861043 0.38100001 4278859797
0.023646578 0.036861043 0.38100001 4278859797
0.024884066 0.036861043 0.38100001 4278859797
0.026121555 0.036861043 0.38100001 4278794004
0.027287235 0.036764298 0.38000003 4278728724
0.028521474 0.036764298 0.38000003 4278794517
0.029755717 0.036764298 0.38000003 4278531345
0.030989956 0.036764298 0.38000003 4278728470
0.032224201 0.036764298 0.38000003 4278662677
0.033370391 0.036667548 0.37900001 4278662677
0.034601379 0.036667548 0.37900001 4278728470
0.035832375 0.036667548 0.37900001 4278662677
0.037063368 0.036667548 0.37900001 4278662677
0.03829436 0.036667548 0.37900001 4278728724
0.039525352 0.036667548 0.37900001 4278662677
0.040756345 0.036667548 0.37900001 4278662679
0.042098124 0.036764298 0.38000003 4278662677
0.043332364 0.036764298 0.38000003 4278662677
0.044566605 0.036764298 0.38000003 4278728470
0.045921374 0.036861043 0.38100001 4278728470
0.04715886 0.036861043 0.38100001 4278728470
0.048523374 0.036957793 0.38200003 4278793750
0.049764112 0.036957793 0.38200003 4278793752
0.051004853 0.036957793 0.38200003 4278793752
0.052245583 0.036957793 0.38200003 4278727959
0.053486321 0.036957793 0.38200003 4278793752
0.054727063 0.036957793 0.38200003 4278793752
0.0559678 0.036957793 0.38200003 4278728472
0.057358291 0.037054539 0.38300002 4278794263
0.058602277 0.037054539 0.38300002 4278662677
0.059846263 0.037054539 0.38300002 4278662677
0.061090246 0.037054539 0.38300002 4278597654
0.062496983 0.037151288 0.384 4278597654
0.063744217 0.037151288 0.384 4279056154
0.065160699 0.037248038 0.38500002 4281948484
-0.013548833 0.038298946 0.38300002 4284117604
-0.012304849 0.038298946 0.38300002 4284314983
-0.011060865 0.038298946 0.38300002 4284578155
-0.0097912485 0.038198952 0.38200003 4284841327
0.0062885508 0.037898958 0.37900001 4283592287
0.0075393845 0.037998956 0.38000003 4283855459
0.0087736258 0.037998956 0.38000003 4282606416
0.010007866 0.037998956 0.38000003 4283528031
0.011242107 0.037998956 0.38000003 4283593570
0.01250918 0.03809895 0.38100001 4282606675
0.013746668 0.03809895 0.38100001 4281948484
0.014984156 0.03809895 0.38100001 4280369965
0.016221646 0.03809895 0.38100001 4279317279
0.017459134 0.03809895 0.38100001 4279054877
0.018696623 0.03809895 0.38100001 4278594585
0.01993411 0.03809895 0.38100001 4278660378
0.0211716 0.03809895 0.38100001 4278858009
0.022409089 0.03809895 0.38100001 4278792214
0.023646578 0.03809895 0.38100001 4278792214
0.024884066 0.03809895 0.38100001 4279055386
0.026121555 0.03809895 0.38100001 4279187486
0.027287235 0.037998956 0.38000003 4279121693
0.028521474 0.037998956 0.38000003 4278859545
0.029755717 0.037998956 0.38000003 4278991131
0.030989956 0.037998956 0.38000003 4278925338
0.032139398 0.037898958 0.37900001 4278925338
0.033370391 0.037898958 0.37900001 4278859545
0.034601379 0.037898958 0.37900001 4278925338
0.035832375 0.037898958 0.37900001 4279056924
0.037063368 0.037898958 0.37900001 4278925336
0.03829436 0.037898958 0.37900001 4278925336
0.039525352 0.037898958 0.37900001 4278859545
0.040756345 0.037898958 0.37900001 4278991131
0.041987337 0.037898958 0.37900001 4278794265
0.043332364 0.037998956 0.38000003 4278991642
0.044566605 0.037998956 0.38000003 4278925336
0.045921374 0.03809895 0.38100001 4278991129
0.04715886 0.03809895 0.38100001 4278925336
0.048396349 0.03809895 0.38100001 4279188510
0.049764112 0.038198952 0.38200003 4278859545
0.051004853 0.038198952 0.38200003 4278925338
0.052245583 0.038198952 0.38200003 4278991131
0.053486321 0.038198952 0.38200003 4278991131
0.054727063 0.038198952 0.38200003 4278991131
0.0559678 0.038198952 0.38200003 4278925338
0.057208531 0.038198952 0.38200003 4278991131
0.058602277 0.038298946 0.38300002 4278991129
0.059846263 0.038298946 0.38300002 4278925336
0.061090246 0.038298946 0.38300002 4279188508
0.062496983 0.038398944 0.384 4279187738
0.063744217 0.038398944 0.384 4281289786
-0.0097912485 0.039440107 0.38200003 4284841327
0.024884066 0.03933686 0.38100001 4284647028
0.026121555 0.03933686 0.38100001 4283922022
0.027287235 0.039233614 0.38000003 4283067226
0.028521474 0.039233614 0.38000003 4282146124
0.029755717 0.039233614 0.38000003 4281356608
0.030989956 0.039233614 0.38000003 4280764725
0.032139398 0.039130367 0.37900001 4280304174
0.033370391 0.039130367 0.37900001 4279974955
0.034601379 0.039130367 0.37900001 4279711783
0.035832375 0.039130367 0.37900001 4279383588
0.037063368 0.039130367 0.37900001 4278923291
0.03829436 0.039130367 0.37900001 4279186463
0.039525352 0.039130367 0.37900001 4279054877
0.040756345 0.039130367 0.37900001 4278858011
0.041987337 0.039130367 0.37900001 4278791964
0.043332364 0.039233614 0.38000003 4278726171
0.044566605 0.039233614 0.38000003 4278726171
0.045921374 0.03933686 0.38100001 4278989343
0.04715886 0.03933686 0.38100001 4278726171
0.048396349 0.03933686 0.38100001 4278857757
0.049764112 0.039440107 0.38200003 4278331413
0.051004853 0.039440107 0.38200003 4278792218
0.052245583 0.039440107 0.38200003 4278923291
0.053486321 0.039440107 0.38200003 4278791703
0.054727063 0.039440107 0.38200003 4278396945
0.0559678 0.039440107 0.38200003 4278857496
0.057208531 0.039440107 0.38200003 4278791703
0.058449272 0.039440107 0.38200003 4278857496
0.059846263 0.039543353 0.38300002 4279054875
0.061090246 0.039543353 0.38300002 4281224509
0.062334232 0.039543353 0.38300002 4284579182
0.020797346 0.028863413 0.38088998 4294967295
0.020797346 0.028863413 0.38088998 4294901760
0.020797346 0.028863413 0.38138998 4294901760
0.020797346 0.028863413 0.38188997 4294901760
0.020797346 0.028863413 0.38238999 4294901760
0.020797346 0.028863413 0.38288999 4294901760
0.020797346 0.028863413 0.38338998 4294901760
0.020797346 0.028863413 0.38388997 4294901760
0.020797346 0.028863413 0.38439 4294901760
0.020797346 0.028863413 0.38488999 4294901760
0.020797346 0.028863413 0.38538998 4294901760
0.020797346 0.028863413 0.38588998 4294901760
0.020797346 0.028863413 0.38638997 4294901760
0.020797346 0.028863413 0.38688999 4294901760
0.020797346 0.028863413 0.38738999 4294901760
0.020797346 0.028863413 0.38788998 4294901760
0.020797346 0.028863413 0.38838997 4294901760
0.020797346 0.028863413 0.38888997 4294901760
0.020797346 0.028863413 0.38938999 4294901760
0.020797346 0.028863413 0.38988999 4294901760
0.020797346 0.028863413 0.39038998 4294901760
0.020797346 0.028863413 0.39088997 4294901760
0.020797346 0.028863413 0.39139 4294901760
0.020797346 0.028863413 0.39188999 4294901760
0.020797346 0.028863413 0.39238998 4294901760
0.020797346 0.028863413 0.39288998 4294901760
0.020797346 0.028863413 0.39339 4294901760
0.020797346 0.028863413 0.39388999 4294901760
0.020797346 0.028863413 0.39438999 4294901760
0.020797346 0.028863413 0.39488998 4294901760
0.020797346 0.028863413 0.39538997 4294901760
0.020797346 0.028863413 0.39589 4294901760
0.020797346 0.028863413 0.39638999 4294901760
0.020797346 0.028863413 0.39688998 4294901760
0.020797346 0.028863413 0.39738998 4294901760
0.020797346 0.028863413 0.39788997 4294901760
0.020797346 0.028863413 0.39839 4294901760
0.020797346 0.028863413 0.39888999 4294901760
0.020797346 0.028863413 0.39938998 4294901760
0.020797346 0.028863413 0.39988998 4294901760
0.020797346 0.028863413 0.40039 4294901760
0.020797346 0.028863413 0.40088999 4294901760
0.020797346 0.028863413 0.40138999 4294901760
0.020797346 0.028863413 0.40188998 4294901760
0.020797346 0.028863413 0.40239 4294901760
0.020797346 0.028863413 0.40289 4294901760
0.020797346 0.028863413 0.40338999 4294901760
0.020797346 0.028863413 0.40388998 4294901760
0.020797346 0.028863413 0.40438998 4294901760
0.020797346 0.028863413 0.40489 4294901760
0.020797346 0.028863413 0.40538999 4294901760
0.020797346 0.028863413 0.40588999 4294901760
0.020797346 0.028863413 0.40638998 4294901760
0.020797346 0.028863413 0.40688998 4294901760
0.020797346 0.028863413 0.40739 4294901760
0.020797346 0.028863413 0.40788999 4294901760
0.020797346 0.028863413 0.40838999 4294901760
0.020797346 0.028863413 0.40888998 4294901760
0.020797346 0.028863413 0.40938997 4294901760
0.020797346 0.028863413 0.40989 4294901760
0.020797346 0.028863413 0.41038999 4294901760
0.020797346 0.028863413 0.41088998 4294901760
0.020797346 0.028863413 0.41138998 4294901760
0.020797346 0.028863413 0.41189 4294901760
0.020797346 0.028863413 0.41238999 4294901760
0.020797346 0.028863413 0.41288999 4294901760
0.020797346 0.028863413 0.41338998 4294901760
0.020797346 0.028863413 0.41389 4294901760
0.020797346 0.028863413 0.41439 4294901760
0.020797346 0.028863413 0.41488999 4294901760
0.020797346 0.028863413 0.41538998 4294901760
0.020797346 0.028863413 0.41588998 4294901760
0.020797346 0.028863413 0.41639 4294901760
0.020797346 0.028863413 0.41689 4294901760
0.020797346 0.028863413 0.41738999 4294901760
0.020797346 0.028863413 0.41788998 4294901760
0.020797346 0.028863413 0.41838998 4294901760
0.020797346 0.028863413 0.41889 4294901760
0.020797346 0.028863413 0.41938999 4294901760
0.020797346 0.028863413 0.41988999 4294901760
0.020797346 0.028863413 0.42038998 4294901760
0.020797346 0.028863413 0.42089 4294901760
0.020797346 0.028863413 0.42139 4294901760
0.020797346 0.028863413 0.42188999 4294901760
0.020797346 0.028863413 0.42238998 4294901760
0.020797346 0.028863413 0.42288998 4294901760
0.020797346 0.028863413 0.42339 4294901760
0.020797346 0.028863413 0.42388999 4294901760
0.020797346 0.028863413 0.42438999 4294901760
0.020797346 0.028863413 0.42488998 4294901760
0.020797346 0.028863413 0.42539001 4294901760
0.020797346 0.028863413 0.42589 4294901760
0.020797346 0.028863413 0.42638999 4294901760
0.020797346 0.028863413 0.42688999 4294901760
0.020797346 0.028863413 0.42738998 4294901760
0.020797346 0.028863413 0.42789 4294901760
0.020797346 0.028863413 0.42839 4294901760
0.020797346 0.028863413 0.42888999 4294901760
0.020797346 0.028863413 0.42938998 4294901760
0.020797346 0.028863413 0.42989001 4294901760
0.020797346 0.028863413 0.43039 4294901760
0.020797346 0.028863413 0.43088999 4294901760
0.020797346 0.028863413 0.38088998 4278255360
0.02077825 0.028812107 0.38138697 4278255360
0.020759154 0.0287608 0.38188398 4278255360
0.02074006 0.028709494 0.38238096 4278255360
0.020720964 0.028658187 0.38287795 4278255360
0.020701868 0.028606879 0.38337496 4278255360
0.020682773 0.028555572 0.38387194 4278255360
0.020663677 0.028504265 0.38436893 4278255360
0.020644583 0.028452959 0.38486594 4278255360
0.020625487 0.028401652 0.38536292 4278255360
0.020606391 0.028350346 0.38585991 4278255360
0.020587295 0.028299039 0.38635692 4278255360
0.020568199 0.028247733 0.3868539 4278255360
0.020549104 0.028196426 0.38735092 4278255360
0.02053001 0.028145118 0.3878479 4278255360
0.020510914 0.028093811 0.38834488 4278255360
0.020491818 0.028042505 0.3888419 4278255360
0.020472722 0.027991198 0.38933888 4278255360
0.020453626 0.027939891 0.38983586 4278255360
0.020434532 0.027888585 0.39033288 4278255360
0.020415436 0.027837278 0.39082986 4278255360
0.020396341 0.027785972 0.39132684 4278255360
0.020377245 0.027734665 0.39182386 4278255360
0.020358149 0.027683357 0.39232084 4278255360
0.020339055 0.02763205 0.39281783 4278255360
0.020319959 0.027580744 0.39331484 4278255360
