# .PCD v0.7 - Point Cloud Data file format
VERSION 0.7
FIELDS x y z rgb
SIZE 4 4 4 4
TYPE F F F U
COUNT 1 1 1 1
WIDTH 963
HEIGHT 1
VIEWPOINT 0 0 0 1 0 0 0
POINTS 963
DATA ascii
0.056565877 -0.015179685 0.45700002 4286356617
0.05792319 -0.01514647 0.45600003 4286422410
0.05940428 -0.01514647 0.45600003 4285961859
0.060751848 -0.015113253 0.45500001 4286093445
0.062092919 -0.015080038 0.45400003 4286553996
0.063567512 -0.015080038 0.45400003 4286357130
0.065042108 -0.015080038 0.45400003 4286488716
0.055202074 -0.013724813 0.45800003 4280705090
0.056565877 -0.013694846 0.45700002 4280573504
0.058050212 -0.013694846 0.45700002 4280375610
0.05940428 -0.013664879 0.45600003 4280375610
0.060751848 -0.013634912 0.45500001 4280309817
0.062229685 -0.013634912 0.45500001 4280573502
0.06370753 -0.013634912 0.45500001 4280442686
0.065328635 -0.013664879 0.45600003 4279982648
0.067102753 -0.013724813 0.45800003 4280246590
0.068740092 -0.013754779 0.45900002 4281099850
0.033606384 -0.012503901 0.46800002 4287278748
0.035201505 -0.012530619 0.46900001 4286753171
0.036724817 -0.012530619 0.46900001 4285964169
0.038329683 -0.012557337 0.47000003 4283991408
0.039856248 -0.012557337 0.47000003 4282677085
0.041382805 -0.012557337 0.47000003 4281559886
0.042909365 -0.012557337 0.47000003 4280442688
0.044341382 -0.012530619 0.46900001 4280376893
0.045766901 -0.012503901 0.46800002 4280311613
0.047185928 -0.012477184 0.46700001 4279194670
0.048494168 -0.012423749 0.46500003 4279655221
0.049896948 -0.01239703 0.46400002 4279786805
0.051182456 -0.012343595 0.46200001 4279721012
0.052568998 -0.012316878 0.46100003 4279260976
0.053949047 -0.012290159 0.46000001 4279195953
0.055322599 -0.012263442 0.45900002 4278933294
0.056689657 -0.012236725 0.45800003 4279393843
0.058050212 -0.012210007 0.45700002 4279394097
0.059534553 -0.012210007 0.45700002 4279130925
0.060885374 -0.012183289 0.45600003 4279064619
0.062366456 -0.012183289 0.45600003 4279327791
0.063847549 -0.012183289 0.45600003 4279130671
0.065471902 -0.012210007 0.45700002 4278999085
0.067102753 -0.012236725 0.45800003 4279262257
0.068740092 -0.012263442 0.45900002 4279459123
0.033606384 -0.010983321 0.46800002 4280311354
0.035126448 -0.010983321 0.46800002 4279851568
0.036724817 -0.011006789 0.46900001 4280377910
0.038329683 -0.011030259 0.47000003 4278931750
0.039856248 -0.011030259 0.47000003 4278800423
0.041382805 -0.011030259 0.47000003 4279524146
0.042909365 -0.011030259 0.47000003 4279459123
0.044246837 -0.010983321 0.46800002 4279327791
0.045669109 -0.010959852 0.46700001 4279393582
0.047084887 -0.010936384 0.46600002 4278407970
0.048389878 -0.010889446 0.46400002 4278737449
0.049789414 -0.010865978 0.46300003 4278868519
0.05107167 -0.010819041 0.46100003 4278933542
0.052454963 -0.010795572 0.46000001 4278670370
0.053831767 -0.010772103 0.45900002 4278801956
0.055202074 -0.010748635 0.45800003 4278802728
0.056689657 -0.010748635 0.45800003 4278407970
0.058050212 -0.010725167 0.45700002 4278539556
0.059534553 -0.010725167 0.45700002 4278736935
0.061018892 -0.010725167 0.45700002 4278604577
0.062503226 -0.010725167 0.45700002 4278538784
0.063987561 -0.010725167 0.45700002 4278670370
0.06561517 -0.010748635 0.45800003 4278670370
0.067249268 -0.010772103 0.45900002 4278801958
0.068889849 -0.010795572 0.46000001 4278933031
0.070689954 -0.01084251 0.46200001 4279191338
0.0093046604 -0.0081484718 0.40300003 4279389221
0.010639941 -0.0081686918 0.40400001 4279062052
0.011981719 -0.0081889117 0.40500003 4279326506
0.01329716 -0.0081889117 0.40500003 4279326508
0.033606384 -0.0094627421 0.46800002 4278998826
0.035126448 -0.0094627421 0.46800002 4279591472
0.036724817 -0.0094829611 0.46900001 4279065128
0.038329683 -0.0095031811 0.47000003 4278999335
0.039856248 -0.0095031811 0.47000003 4278801956
0.041382805 -0.0095031811 0.47000003 4278999335
0.042818066 -0.0094829611 0.46900001 4278867749
0.044246837 -0.0094627421 0.46800002 4278539554
0.045669109 -0.0094425222 0.46700001 4278802980
0.046983849 -0.0094020832 0.46500003 4278539808
0.048285592 -0.0093616443 0.46300003 4278342429
0.049574342 -0.0093212053 0.46100003 4278408222
0.050739318 -0.0092605464 0.45800003 4278210075
0.052226901 -0.0092605464 0.45800003 4278604577
0.053714488 -0.0092605464 0.45800003 4278472991
0.055081543 -0.0092403265 0.45700002 4278406685
0.056565877 -0.0092403265 0.45700002 4278472478
0.058050212 -0.0092403265 0.45700002 4278538271
0.059534553 -0.0092403265 0.45700002 4278604064
0.061018892 -0.0092403265 0.45700002 4278800673
0.062503226 -0.0092403265 0.45700002 4278800673
0.063987561 -0.0092403265 0.45700002 4278800162
0.06561517 -0.0092605464 0.45800003 4278734369
0.067249268 -0.0092807664 0.45900002 4279129127
0.068889849 -0.0093009854 0.46000001 4279260713
0.070536949 -0.0093212053 0.46100003 4279256617
0.010692614 -0.0068899947 0.40600002 4279061537
0.012040887 -0.0069069648 0.40700001 4278603296
0.013362825 -0.0069069648 0.40700001 4278998054
0.014793002 -0.0069578765 0.41000003 4279525166
0.016124683 -0.0069578765 0.41000003 4283209576
0.033606384 -0.0079421615 0.46800002 4278737187
0.035126448 -0.0079421615 0.46800002 4278802980
0.036724817 -0.0079591321 0.46900001 4278276636
0.038329683 -0.0079761026 0.47000003 4278737187
0.039856248 -0.0079761026 0.47000003 4278474015
0.041382805 -0.0079761026 0.47000003 4278539038
0.042909365 -0.0079761026 0.47000003 4278539038
0.044152293 -0.007925191 0.46700001 4278670624
0.045571316 -0.0079082204 0.46600002 4278735904
0.046983849 -0.0078912508 0.46500003 4278735904
0.048285592 -0.0078573097 0.46300003 4278670111
0.049466804 -0.007806398 0.46000001 4278472732
0.050517749 -0.0077385162 0.45600003 4278735650
0.051998835 -0.0077385162 0.45600003 4278734880
0.053479929 -0.0077385162 0.45600003 4278800673
0.054961015 -0.0077385162 0.45600003 4278734367
0.056442104 -0.0077385162 0.45600003 4278668574
0.05792319 -0.0077385162 0.45600003 4278931232
0.05940428 -0.0077385162 0.45600003 4278798363
0.060885374 -0.0077385162 0.45600003 4278200578
0.062503226 -0.0077554868 0.45700002 4278199296
0.063987561 -0.0077554868 0.45700002 4278200067
0.06561517 -0.0077724573 0.45800003 4280178737
0.067249268 -0.0077894274 0.45900002 4279918129
0.068889849 -0.007806398 0.46000001 4279720750
0.070536949 -0.0078233685 0.46100003 4279584814
0.009397014 -0.0055845808 0.40700001 4279583779
0.010745288 -0.005598302 0.40800002 4278862877
0.012070472 -0.005598302 0.40800002 4278601501
0.01342849 -0.0056120232 0.40900001 4278733085
0.014829082 -0.005639466 0.41100001 4278866466
0.01616401 -0.005639466 0.41100001 4278866466
0.017584093 -0.0056669088 0.41300002 4278998826
0.018925518 -0.0056669088 0.41300002 4279064878
0.020316016 -0.0056806304 0.41400003 4279525681
0.021660689 -0.0056806304 0.41400003 4279197484
0.023060929 -0.0056943516 0.41500002 4278408222
0.043126505 -0.0060511059 0.44100001 4278932000
0.044760954 -0.0060785487 0.44300002 4279063072
0.046408396 -0.0061059915 0.44500002 4279260451
0.048176363 -0.0061471551 0.44800001 4279391785
0.050074611 -0.0062020407 0.45200002 4279062050
0.051656738 -0.0062157619 0.45300001 4278203403
0.053245366 -0.0062294835 0.45400003 4278200065
0.054719958 -0.0062294835 0.45400003 4278196992
0.056318324 -0.0062432047 0.45500001 4278597654
0.057796162 -0.0062432047 0.45500001 4279650596
0.059274007 -0.0062432047 0.45500001 4279716902
0.060885374 -0.0062569259 0.45600003 4279586600
0.062366456 -0.0062569259 0.45600003 4279850285
0.063987561 -0.006270647 0.45700002 4279125795
0.065471902 -0.006270647 0.45700002 4279849518
0.067102753 -0.0062843687 0.45800003 4279456810
0.068740092 -0.0062980899 0.45900002 4279654189
0.070383936 -0.006311811 0.46000001 4280504379
0.0094431909 -0.0042831404 0.40900001 4279319324
0.010797961 -0.0042936131 0.41000003 4279189791
0.012129641 -0.0042936131 0.41000003 4278665498
0.013494154 -0.0043040849 0.41100001 4278732572
0.014865164 -0.0043145572 0.41200003 4278865439
0.01620334 -0.0043145572 0.41200003 4278931746
0.017584093 -0.0043250294 0.41300002 4278867236
0.018971344 -0.0043355017 0.41400003 4278670370
0.020316016 -0.0043355017 0.41400003 4278670372
0.021713009 -0.004345974 0.41500002 4278670372
0.023060929 -0.004345974 0.41500002 4278867749
0.024467666 -0.0043564462 0.41600001 4278407452
0.025880901 -0.0043669185 0.41700003 4278999076
0.027300628 -0.0043773907 0.41800001 4279064869
0.028726855 -0.004387863 0.41900003 4278203399
0.030087767 -0.004387863 0.41900003 4279063334
0.031523734 -0.0043983352 0.42000002 4279063845
0.03498603 -0.0044925851 0.42900002 4278866720
0.036464226 -0.0045030573 0.43000001 4278800927
0.038036961 -0.0045240019 0.43200001 4278734369
0.039622691 -0.0045449464 0.43400002 4278536476
0.041221414 -0.0045658909 0.43600002 4279191840
0.042930916 -0.0045973072 0.43900001 4278205201
0.044659916 -0.0046287244 0.44200003 4278199808
0.04630411 -0.0046496685 0.44400004 4278200839
0.047961291 -0.004670613 0.44600001 4279123998
0.051314641 -0.004712502 0.45000002 4279717672
0.053010803 -0.0047334465 0.45200002 4279322914
0.054599427 -0.0047439183 0.45300001 4279718186
0.056070771 -0.0047439183 0.45300001 4279191842
0.05766914 -0.004754391 0.45400003 4279192353
0.059274007 -0.0047648628 0.45500001 4279192353
0.060751848 -0.0047648628 0.45500001 4278204943
0.062366456 -0.0047753355 0.45600003 4278997027
0.063847549 -0.0047753355 0.45600003 4278201353
0.065471902 -0.0047858073 0.45700002 4279456045
0.067102753 -0.0047962801 0.45800003 4279456556
0.068590336 -0.0047962801 0.45800003 4279719217
0.070383936 -0.0048172241 0.46000001 4284582516
0.0094893686 -0.0029687041 0.41100001 4279517473
0.010824297 -0.0029687041 0.41100001 4279387937
0.012159226 -0.0029687041 0.41100001 4278862875
0.013526988 -0.0029759274 0.41200003 4279258146
0.014865164 -0.0029759274 0.41200003 4278996255
0.016242668 -0.0029831503 0.41300002 4279062048
0.017626671 -0.0029903736 0.41400003 4278865953
0.018971344 -0.0029903736 0.41400003 4278604064
0.020365089 -0.0029975967 0.41500002 4278604066
0.021713009 -0.0029975967 0.41500002 4278669859
0.023116497 -0.0030048196 0.41600001 4278406687
0.024526484 -0.003012043 0.41700003 4278669859
0.025880901 -0.003012043 0.41700003 4278735652
0.027300628 -0.0030192661 0.41800001 4278669089
0.028726855 -0.0030264892 0.41900003 4278205206
0.030159576 -0.0030337123 0.42000002 4278929699
0.031598791 -0.0030409356 0.42100003 4279127332
0.033279419 -0.0030698278 0.42500001 4278203406
0.03490448 -0.0030914973 0.42800003 4278199044
0.036464226 -0.0031059433 0.43000001 4278199046
0.037948914 -0.0031131667 0.43100002 4278198539
0.039531395 -0.0031276129 0.43300003 4278460687
0.04112687 -0.0031420593 0.43500003 4278656267
0.044457834 -0.0031781748 0.44000003 4279652393
0.046095531 -0.0031926211 0.44200003 4280310323
0.047746222 -0.0032070675 0.44400004 4279455014
0.04952069 -0.0032287366 0.44700003 4278203660
0.051086575 -0.0032359597 0.44800001 4278599187
0.052776244 -0.0032504059 0.45000002 4278203660
0.054358374 -0.0032576292 0.45100003 4278731289
0.056070771 -0.0032720752 0.45300001 4278336531
0.05766914 -0.0032792985 0.45400003 4278270740
0.059143737 -0.0032792985 0.45400003 4278204176
0.060751848 -0.0032865216 0.45500001 4278665498
0.062366456 -0.0032937448 0.45600003 4279783979
0.063847549 -0.0032937448 0.45600003 4278203666
0.065471902 -0.0033009679 0.45700002 4279456558
0.066956237 -0.0033009679 0.45700002 4279457328
0.068440571 -0.0033009679 0.45700002 4279192619
0.0095124571 -0.0016372973 0.41200003 4279254814
0.010850633 -0.0016372973 0.41200003 4279058718
0.012218395 -0.0016412713 0.41300002 4278797082
0.01355982 -0.0016412713 0.41300002 4279060765
0.014901243 -0.0016412713 0.41300002 4279061789
0.016281998 -0.0016452454 0.41400003 4279193375
0.017626671 -0.0016452454 0.41400003 4278865693
0.019017167 -0.0016492193 0.41500002 4278866466
0.020365089 -0.0016492193 0.41500002 4278406685
0.021765329 -0.0016531934 0.41600001 4278538271
0.023116497 -0.0016531934 0.41600001 4278604066
0.024526484 -0.0016571674 0.41700003 4278734882
0.025942964 -0.0016611414 0.41800001 4278931746
0.027365942 -0.0016651155 0.41900003 4278865953
0.028795416 -0.0016690894 0.42000002 4278665498
0.030231385 -0.0016730635 0.42100003 4279717932
0.031673849 -0.0016770376 0.42200002 4278200079
0.033279419 -0.0016889595 0.42500001 4278788371
0.03490448 -0.0017008816 0.42800003 4278983697
0.036379423 -0.0017048557 0.42900002 4278918674
0.037948914 -0.0017128037 0.43100002 4278524429
0.039531395 -0.0017207518 0.43300003 4279050773
0.04112687 -0.0017286999 0.43500003 4278329099
0.042735331 -0.0017366478 0.43700001 4280175403
0.044356793 -0.0017445958 0.43900001 4279190306
0.045991242 -0.001752544 0.44100001 4278200076
0.047638681 -0.001760492 0.44300002 4278729492
0.049299117 -0.00176844 0.44500002 4278992664
0.050972544 -0.0017763881 0.44700003 4278927384
0.052658964 -0.0017843362 0.44900003 4278795798
0.054237843 -0.0017883101 0.45000002 4278201609
0.055946995 -0.0017962581 0.45200002 4278201612
0.057542115 -0.0018002321 0.45300001 4278201353
0.059143737 -0.0018042063 0.45400003 4280308785
0.060751848 -0.0018081802 0.45500001 4279059488
0.062366456 -0.0018121543 0.45600003 4280441141
0.063847549 -0.0018121543 0.45600003 4279389998
0.065328635 -0.0018121543 0.45600003 4279391281
0.066956237 -0.0018161283 0.45700002 4279654707
0.068440571 -0.0018161283 0.45700002 4280375100
0.0095355455 -0.00029939206 0.41300002 4279321377
0.010876969 -0.00029939206 0.41300002 4279058718
0.012218395 -0.00029939206 0.41300002 4278928154
0.013592653 -0.00030011698 0.41400003 4278928666
0.014937324 -0.00030011698 0.41400003 4279193375
0.016321326 -0.0003008419 0.41500002 4278996509
0.017669247 -0.0003008419 0.41500002 4278734621
0.019062992 -0.00030156682 0.41600001 4279064099
0.020414161 -0.00030156682 0.41600001 4278734880
0.021817649 -0.00030229174 0.41700003 4278734880
0.023172066 -0.00030229174 0.41700003 4278800673
0.024585299 -0.00030301666 0.41800001 4279063332
0.025942964 -0.00030301666 0.41800001 4278931746
0.027365942 -0.00030374157 0.41900003 4278470681
0.028795416 -0.00030446649 0.42000002 4278400277
0.030231385 -0.00030519141 0.42100003 4280242479
0.031748902 -0.00030664125 0.42300001 4278658066
0.033279419 -0.00030809108 0.42500001 4279183129
0.034822926 -0.00030954092 0.42700002 4279710240
0.036379423 -0.00031099078 0.42900002 4280368682
0.037948914 -0.00031244062 0.43100002 4278526480
0.039440095 -0.00031316554 0.43200001 4279513375
0.041032325 -0.00031461538 0.43400002 4278196483
0.042637542 -0.00031606521 0.43600002 4280175916
0.044255752 -0.00031751505 0.43800002 4278396943
0.045782663 -0.00031823997 0.43900001 4278330382
0.047531147 -0.00032041475 0.44200003 4278992666
0.049188334 -0.00032186459 0.44400004 4278927386
0.050858509 -0.00032331442 0.44600001 4278201864
0.052541681 -0.00032476426 0.44800001 4279388707
0.054237843 -0.0003262141 0.45000002 4279322662
0.057542115 -0.00032838885 0.45300001 4279520039
0.059143737 -0.0003291138 0.45400003 4278729753
0.060751848 -0.00032983869 0.45500001 4278201611
0.062366456 -0.00033056363 0.45600003 4278200583
0.063847549 -0.00033056363 0.45600003 4279586861
0.065328635 -0.00033056363 0.45600003 4279456558
0.066956237 -0.00033128855 0.45700002 4279783475
0.068440571 -0.00033128855 0.45700002 4285965200
0.0082139615 0.0010450114 0.41400003 4279646494
0.0095586339 0.0010450114 0.41400003 4279255584
0.010903306 0.0010450114 0.41400003 4279190558
0.01224798 0.0010450114 0.41400003 4279125533
0.013592653 0.0010450114 0.41400003 4279191838
0.014973405 0.0010475356 0.41500002 4279127841
0.016321326 0.0010475356 0.41500002 4279129125
0.017711822 0.0010500597 0.41600001 4278669087
0.019062992 0.0010500597 0.41600001 4278800673
0.020463234 0.0010525839 0.41700003 4279063845
0.021817649 0.0010525839 0.41700003 4278734880
0.023227634 0.0010551082 0.41800001 4278800673
0.024644116 0.0010576323 0.41900003 4279129125
0.02600503 0.0010576323 0.41900003 4278865953
0.027431253 0.0010601565 0.42000002 4279785771
0.028863978 0.0010626807 0.42100003 4280177199
0.030303193 0.0010652049 0.42200002 4278729242
0.031748902 0.001067729 0.42300001 4279448865
0.033279419 0.0010727773 0.42500001 4279053853
0.034822926 0.0010778258 0.42700002 4280368684
0.036379423 0.0010828741 0.42900002 4279644961
0.037948914 0.0010879225 0.43100002 4279843108
0.041032325 0.0010954951 0.43400002 4278726423
0.042539749 0.0010980192 0.43500003 4280044332
0.044154711 0.0011030675 0.43700001 4278199309
0.049077548 0.0011182127 0.44300002 4279783211
0.050744478 0.0011232611 0.44500002 4279058720
0.052424401 0.0011283094 0.44700003 4278201355
0.054237843 0.0011358819 0.45000002 4278198530
0.055946995 0.0011409303 0.45200002 4278201357
0.057542115 0.0011434545 0.45300001 4280374067
0.059143737 0.0011459787 0.45400003 4280505651
0.060751848 0.0011485028 0.45500001 4280045867
0.062366456 0.001151027 0.45600003 4279849258
0.063847549 0.001151027 0.45600003 4279586600
0.065471902 0.0011535512 0.45700002 4279125535
0.0082139615 0.0023901397 0.41400003 4279648037
0.0095586339 0.0023901397 0.41400003 4279255584
0.010929643 0.002395913 0.41500002 4279058972
0.012277564 0.002395913 0.41500002 4278993947
0.013625485 0.002395913 0.41500002 4279389732
0.014973405 0.002395913 0.41500002 4279325992
0.016360654 0.0024016863 0.41600001 4278865441
0.0177544 0.0024074595 0.41700003 4278734367
0.019108817 0.0024074595 0.41700003 4278800673
0.020512305 0.0024132328 0.41800001 4278866466
0.021869969 0.0024132328 0.41800001 4278603294
0.023283204 0.0024190061 0.41900003 4278866466
0.024644116 0.0024190061 0.41900003 4278800673
0.026067093 0.0024247793 0.42000002 4278931746
0.027431253 0.0024247793 0.42000002 4278203403
0.028863978 0.0024305528 0.42100003 4279914797
0.030303193 0.0024363259 0.42200002 4278200585
0.031823963 0.0024478727 0.42400002 4279250203
0.033279419 0.0024536457 0.42500001 4278263308
0.034822926 0.0024651925 0.42700002 4278920724
0.036379423 0.002476739 0.42900002 4278722578
0.037860863 0.0024825123 0.43000001 4278787601
0.039440095 0.0024940588 0.43200001 4278657039
0.040937781 0.0024998321 0.43300003 4279911211
0.042539749 0.0025113788 0.43500003 4279386402
0.04405367 0.0025171519 0.43600002 4278201101
0.045678377 0.0025286984 0.43800002 4278198274
0.047316074 0.0025402452 0.44000003 4278465300
0.048966765 0.0025517917 0.44200003 4279321379
0.050744478 0.0025691115 0.44500002 4279717420
0.052424401 0.0025806581 0.44700003 4279388969
0.054117315 0.0025922046 0.44900003 4279454762
0.055946995 0.0026095244 0.45200002 4279652139
0.05766914 0.0026210712 0.45400003 4279587113
0.059274007 0.0026268442 0.45500001 4279652906
0.060751848 0.0026268442 0.45500001 4279191588
0.062366456 0.0026326177 0.45600003 4279650857
0.063987561 0.002638391 0.45700002 4283989865
0.065471902 0.002638391 0.45700002 4286555027
0.0082338015 0.0037442902 0.41500002 4279648039
0.0095817223 0.0037442902 0.41500002 4279256099
0.010929643 0.0037442902 0.41500002 4279058972
0.012277564 0.0037442902 0.41500002 4278994461
0.013658317 0.0037533126 0.41600001 4279126560
0.015009484 0.0037533126 0.41600001 4278997027
0.016399983 0.0037623351 0.41700003 4278734369
0.0177544 0.0037623351 0.41700003 4278669089
0.01915464 0.0037713575 0.41800001 4278998052
0.020561378 0.0037803799 0.41900003 4278734880
0.02192229 0.0037803799 0.41900003 4278669087
0.023283204 0.0037803799 0.41900003 4278734880
0.024702933 0.0037894021 0.42000002 4278866466
0.026067093 0.0037894021 0.42000002 4279062820
0.027496567 0.0037984247 0.42100003 4278200840
0.028932538 0.0038074469 0.42200002 4279848234
0.030375 0.0038164693 0.42300001 4278198274
0.031823963 0.0038254918 0.42400002 4278985234
0.033357725 0.0038435366 0.42600003 4278984467
0.034822926 0.0038525588 0.42700002 4278918674
0.036379423 0.0038706036 0.42900002 4278721297
0.037860863 0.003879626 0.43000001 4278393865
0.039440095 0.0038976707 0.43200001 4278921236
0.040937781 0.0039066933 0.43300003 4279913516
0.04405367 0.0039337603 0.43600002 4279586086
0.045574088 0.0039427825 0.43700001 4279454500
0.047316074 0.00396985 0.44000003 4279191840
0.048966765 0.0039878949 0.44200003 4279258146
0.050744478 0.0040149619 0.44500002 4279127330
0.052424401 0.0040330067 0.44700003 4279061539
0.054117315 0.0040510516 0.44900003 4279127332
0.055946995 0.0040781186 0.45200002 4278469150
0.05766914 0.0040961634 0.45400003 4280374330
0.059274007 0.0041051856 0.45500001 4284055918
0.060885374 0.0041142083 0.45600003 4286488716
0.062366456 0.0041142083 0.45600003 4286356617
0.063987561 0.0041232305 0.45700002 4286356876
0.0068858806 0.0050926679 0.41500002 4279581219
0.0082338015 0.0050926679 0.41500002 4279714600
0.0095817223 0.0050926679 0.41500002 4279256099
0.010929643 0.0050926679 0.41500002 4279059488
0.012277564 0.0050926679 0.41500002 4278928668
0.013658317 0.005104939 0.41600001 4279127330
0.015009484 0.005104939 0.41600001 4278997027
0.016399983 0.005117211 0.41700003 4278800162
0.017796976 0.0051294821 0.41800001 4278800675
0.01915464 0.0051294821 0.41800001 4278800675
0.020561378 0.0051417537 0.41900003 4279063847
0.02197461 0.0051540253 0.42000002 4278800675
0.023338772 0.0051540253 0.42000002 4278800675
0.024702933 0.0051540253 0.42000002 4278734882
0.02612916 0.0051662968 0.42100003 4279258916
0.027496567 0.0051662968 0.42100003 4278729240
0.028932538 0.0051785684 0.42200002 4280440371
0.030375 0.0051908395 0.42300001 4278597656
0.031823963 0.0052031111 0.42400002 4278923289
0.033357725 0.0052276542 0.42600003 4280042283
0.034822926 0.0052399258 0.42700002 4280373043
0.036379423 0.0052644685 0.42900002 4279715883
0.037860863 0.0052767401 0.43000001 4279586600
0.0393488 0.0052890116 0.43100002 4279455012
0.040937781 0.0053135548 0.43300003 4279323939
0.042441957 0.0053258259 0.43400002 4279521318
0.04405367 0.005350369 0.43600002 4279323939
0.045574088 0.0053626406 0.43700001 4279323939
0.047316074 0.0053994553 0.44000003 4279323939
0.048966765 0.005423998 0.44200003 4278929181
0.050630447 0.0054485411 0.44400004 4279585064
0.052424401 0.0054853554 0.44700003 4280965952
0.054117315 0.0055098985 0.44900003 4284582516
0.055946995 0.0055467128 0.45200002 4286226827
0.05766914 0.0055712559 0.45400003 4286225290
0.0068858806 0.0064410456 0.41500002 4279911209
0.0082338015 0.0064410456 0.41500002 4279386402
0.0095817223 0.0064410456 0.41500002 4279125281
0.010929643 0.0064410456 0.41500002 4278993695
0.012307148 0.0064565656 0.41600001 4278863390
0.013658317 0.0064565656 0.41600001 4279193636
0.015045566 0.0064720865 0.41700003 4279063334
0.016399983 0.0064720865 0.41700003 4279260713
0.017796976 0.006487607 0.41800001 4278800675
0.019200467 0.006503128 0.41900003 4278866468
0.020610452 0.006518648 0.42000002 4278734882
0.02197461 0.006518648 0.42000002 4278800675
0.023394341 0.006534169 0.42100003 4278734882
0.024761749 0.006534169 0.42100003 4278800675
0.02612916 0.006534169 0.42100003 4278601499
0.027561879 0.0065496895 0.42200002 4278204431
0.028932538 0.0065496895 0.42200002 4279389732
0.030375 0.0065652099 0.42300001 4279587881
0.031823963 0.0065807309 0.42400002 4279258916
0.033279419 0.0065962509 0.42500001 4279127330
0.034822926 0.0066272924 0.42700002 4279390504
0.036379423 0.0066583334 0.42900002 4279258918
0.037860863 0.0066738538 0.43000001 4279258916
0.0393488 0.0066893748 0.43100002 4279127330
0.040937781 0.0067204162 0.43300003 4279258914
0.042441957 0.0067359363 0.43400002 4279521318
0.045469798 0.0067669777 0.43600002 4279650857
0.047316074 0.0068290601 0.44000003 4281687622
0.052424401 0.0069377045 0.44700003 4286356876
0.05766914 0.0070463484 0.45400003 4286356617
0.0055513047 0.0078081922 0.41600001 4279974946
0.0069024726 0.0078081922 0.41600001 4279780647
0.0082338015 0.0077894228 0.41500002 4279583781
0.0095817223 0.0077894228 0.41500002 4279848486
0.010929643 0.0077894228 0.41500002 4278993947
0.012307148 0.0078081922 0.41600001 4279060767
0.013658317 0.0078081922 0.41600001 4279325222
0.015045566 0.0078269625 0.41700003 4279062820
0.016399983 0.0078269625 0.41700003 4278865953
0.017796976 0.0078457315 0.41800001 4278604064
0.019200467 0.0078645013 0.41900003 4278735650
0.020610452 0.0078832712 0.42000002 4278734880
0.022026932 0.0079020411 0.42100003 4278800673
0.023394341 0.0079020411 0.42100003 4278866468
0.024761749 0.0079020411 0.42100003 4278865955
0.02612916 0.0079020411 0.42100003 4278798367
0.027561879 0.007920811 0.42200002 4279652906
0.028932538 0.007920811 0.42200002 4279127843
0.030375 0.0079395799 0.42300001 4278996257
0.031823963 0.0079583498 0.42400002 4278996257
0.033279419 0.0079771196 0.42500001 4279258916
0.034741372 0.0079958895 0.42600003 4279784490
0.037860863 0.0080709681 0.43000001 4279717418
0.0393488 0.008089738 0.43100002 4279716396
0.040937781 0.0081272777 0.43300003 4281884999
0.0055513047 0.0091598183 0.41600001 4279251232
0.0069024726 0.0091598183 0.41600001 4279582244
0.0082536414 0.0091598183 0.41600001 4279517475
0.0095817223 0.0091378 0.41500002 4279190304
0.010955979 0.0091598183 0.41600001 4279256351
0.012307148 0.0091598183 0.41600001 4279586600
0.013658317 0.0091598183 0.41600001 4279258918
0.015045566 0.0091818376 0.41700003 4279127843
0.016399983 0.0091818376 0.41700003 4279194406
0.017796976 0.0092038559 0.41800001 4279063332
0.019200467 0.0092258751 0.41900003 4278933029
0.020610452 0.0092478935 0.42000002 4278866466
0.022026932 0.0092699127 0.42100003 4278998054
0.023394341 0.0092699127 0.42100003 4278800162
0.024761749 0.0092699127 0.42100003 4279260199
0.026191223 0.0092919311 0.42200002 4279391017
0.027561879 0.0092919311 0.42200002 4280048434
0.028932538 0.0092919311 0.42200002 4280047664
0.030375 0.0093139503 0.42300001 4279718445
0.031823963 0.0093359696 0.42400002 4279715883
0.033279419 0.0093579879 0.42500001 4281622599
0.034741372 0.0093800072 0.42600003 4283924070
0.0096048107 0.010511445 0.41600001 4279582244
0.010955979 0.010511445 0.41600001 4279649574
0.012307148 0.010511445 0.41600001 4279520039
0.013658317 0.010511445 0.41600001 4279717932
0.015045566 0.010536713 0.41700003 4279522090
0.016399983 0.010536713 0.41700003 4279588396
0.017796976 0.01056198 0.41800001 4279851566
0.019200467 0.010587249 0.41900003 4279654957
0.020610452 0.010612517 0.42000002 4279457580
0.022026932 0.010637784 0.42100003 4279785521
0.023394341 0.010637784 0.42100003 4280113205
0.024820566 0.010663052 0.42200002 4280111154
0.026191223 0.010663052 0.42200002 4281293636
0.027561879 0.010663052 0.42200002 4284056172
0.015045566 0.01189159 0.41700003 4279650344
0.016399983 0.01189159 0.41700003 4279716135
0.017796976 0.011920106 0.41800001 4280175664
0.019200467 0.011948623 0.41900003 4281162563
0.020610452 0.01197714 0.42000002 4284121449
0.037366595 -0.0011331069 0.43596458 4294967295
0.037366595 -0.0011331069 0.43596458 4294901760
0.037445463 -0.0015954287 0.43579125 4294901760
0.037524328 -0.0020577505 0.43561795 4294901760
0.037603196 -0.0025200723 0.43544462 4294901760
0.03768206 -0.0029823943 0.43527132 4294901760
0.037760928 -0.0034447161 0.43509799 4294901760
0.037839793 -0.0039070379 0.43492469 4294901760
0.037918661 -0.0043693595 0.43475136 4294901760
0.037997525 -0.0048316815 0.43457806 4294901760
0.038076393 -0.0052940035 0.43440473 4294901760
0.038155258 -0.0057563251 0.43423143 4294901760
0.038234126 -0.0062186467 0.4340581 4294901760
0.03831299 -0.0066809682 0.4338848 4294901760
0.038391858 -0.0071432907 0.43371147 4294901760
0.038470723 -0.0076056123 0.43353814 4294901760
0.038549591 -0.0080679348 0.43336484 4294901760
0.038628455 -0.0085302563 0.43319151 4294901760
0.038707323 -0.0089925779 0.43301821 4294901760
0.038786191 -0.0094548995 0.43284488 4294901760
0.038865056 -0.009917221 0.43267158 4294901760
0.038943924 -0.010379544 0.43249825 4294901760
0.039022788 -0.010841865 0.43232495 4294901760
0.039101657 -0.011304187 0.43215162 4294901760
0.039180521 -0.011766509 0.43197832 4294901760
0.039259389 -0.01222883 0.43180498 4294901760
0.039338253 -0.012691152 0.43163168 4294901760
0.039417122 -0.013153474 0.43145835 4294901760
0.039495986 -0.013615796 0.43128502 4294901760
0.039574854 -0.014078118 0.43111172 4294901760
0.039653718 -0.014540439 0.43093839 4294901760
0.039732587 -0.015002762 0.43076509 4294901760
0.039811451 -0.015465084 0.43059176 4294901760
0.039890319 -0.015927406 0.43041846 4294901760
0.039969184 -0.016389728 0.43024513 4294901760
0.040048052 -0.016852049 0.43007183 4294901760
0.04012692 -0.017314371 0.4298985 4294901760
0.040205784 -0.017776692 0.4297252 4294901760
0.040284652 -0.018239014 0.42955187 4294901760
0.040363517 -0.018701335 0.42937854 4294901760
0.040442385 -0.019163657 0.42920524 4294901760
0.040521249 -0.01962598 0.42903191 4294901760
0.040600117 -0.020088302 0.42885861 4294901760
0.040678982 -0.020550624 0.42868528 4294901760
0.04075785 -0.021012945 0.42851198 4294901760
0.040836714 -0.021475267 0.42833865 4294901760
0.040915582 -0.021937588 0.42816535 4294901760
0.040994447 -0.022399912 0.42799202 4294901760
0.041073315 -0.022862233 0.42781872 4294901760
0.041152179 -0.023324553 0.42764539 4294901760
0.041231047 -0.023786876 0.42747208 4294901760
0.041309915 -0.024249198 0.42729875 4294901760
0.04138878 -0.024711519 0.42712542 4294901760
0.041467644 -0.025173841 0.42695212 4294901760
0.041546512 -0.025636163 0.42677879 4294901760
0.041625381 -0.026098486 0.42660549 4294901760
0.041704245 -0.026560808 0.42643216 4294901760
0.041783113 -0.027023129 0.42625886 4294901760
0.041861977 -0.027485451 0.42608553 4294901760
0.041940846 -0.027947772 0.42591223 4294901760
0.04201971 -0.028410094 0.4257389 4294901760
0.042098578 -0.028872417 0.4255656 4294901760
0.042177442 -0.029334739 0.42539227 4294901760
0.042256311 -0.02979706 0.42521897 4294901760
0.042335175 -0.030259382 0.42504564 4294901760
0.042414043 -0.030721704 0.42487231 4294901760
0.042492907 -0.031184025 0.42469901 4294901760
0.042571776 -0.031646349 0.42452568 4294901760
0.04265064 -0.032108672 0.42435238 4294901760
0.042729508 -0.032570992 0.42417905 4294901760
0.042808376 -0.033033311 0.42400575 4294901760
0.042887241 -0.033495635 0.42383242 4294901760
0.042966109 -0.033957954 0.42365912 4294901760
0.043044973 -0.034420278 0.42348579 4294901760
0.043123841 -0.034882601 0.42331249 4294901760
0.043202706 -0.035344921 0.42313915 4294901760
0.043281574 -0.035807244 0.42296582 4294901760
0.043360438 -0.036269564 0.42279252 4294901760
0.043439306 -0.036731888 0.42261919 4294901760
0.043518171 -0.037194207 0.42244589 4294901760
0.043597039 -0.037656531 0.42227256 4294901760
0.043675903 -0.038118854 0.42209926 4294901760
0.043754771 -0.038581174 0.42192593 4294901760
0.043833636 -0.039043497 0.42175263 4294901760
0.043912504 -0.039505817 0.4215793 4294901760
0.043991372 -0.03996814 0.421406 4294901760
0.044070236 -0.040430464 0.42123267 4294901760
0.044149105 -0.040892784 0.42105937 4294901760
0.044227969 -0.041355107 0.42088604 4294901760
0.044306837 -0.041817427 0.42071271 4294901760
0.044385701 -0.04227975 0.42053941 4294901760
0.04446457 -0.04274207 0.42036608 4294901760
0.044543434 -0.043204393 0.42019278 4294901760
0.044622302 -0.043666717 0.42001945 4294901760
0.044701166 -0.044129036 0.41984615 4294901760
0.044780035 -0.04459136 0.41967282 4294901760
0.044858899 -0.045053679 0.41949952 4294901760
0.044937767 -0.045515999 0.41932619 4294901760
0.045016631 -0.045978326 0.41915289 4294901760
0.0450955 -0.046440646 0.41897956 4294901760
0.045174368 -0.046902969 0.41880625 4294901760
0.045253232 -0.047365289 0.41863292 4294901760
0.037366595 -0.0011331069 0.43596458 4278255360
0.037703373 -0.0012110823 0.43632582 4278255360
0.038040154 -0.0012890578 0.43668708 4278255360
0.038376931 -0.0013670332 0.43704832 4278255360
0.038713709 -0.0014450087 0.43740958 4278255360
0.03905049 -0.0015229841 0.43777081 4278255360
0.039387267 -0.0016009596 0.43813208 4278255360
0.039724045 -0.001678935 0.43849331 4278255360
0.040060826 -0.0017569105 0.43885458 4278255360
0.040397603 -0.001834886 0.43921581 4278255360
0.04073438 -0.0019128615 0.43957707 4278255360
0.041071162 -0.001990837 0.43993831 4278255360
0.041407939 -0.0020688125 0.44029957 4278255360
0.041744716 -0.0021467879 0.4406608 4278255360
0.042081498 -0.0022247634 0.44102207 4278255360
0.042418275 -0.0023027388 0.4413833 4278255360
0.042755056 -0.0023807143 0.44174457 4278255360
0.043091834 -0.0024586897 0.4421058 4278255360
0.043428611 -0.0025366652 0.44246703 4278255360
0.043765392 -0.0026146406 0.4428283 4278255360
0.04410217 -0.0026926161 0.44318953 4278255360
0.044438947 -0.0027705915 0.4435508 4278255360
0.044775728 -0.002848567 0.44391203 4278255360
0.045112506 -0.0029265424 0.44427329 4278255360
0.045449283 -0.0030045179 0.44463453 4278255360
0.045786064 -0.0030824933 0.44499579 4278255360
0.046122842 -0.0031604688 0.44535702 4278255360
0.046459623 -0.0032384442 0.44571829 4278255360
0.0467964 -0.0033164197 0.44607952 4278255360
0.047133178 -0.0033943951 0.44644079 4278255360
0.047469959 -0.0034723708 0.44680202 4278255360
0.047806736 -0.003550346 0.44716328 4278255360
0.048143514 -0.0036283215 0.44752452 4278255360
0.048480295 -0.0037062971 0.44788578 4278255360
0.048817072 -0.0037842724 0.44824702 4278255360
0.049153849 -0.0038622478 0.44860825 4278255360
0.049490631 -0.0039402237 0.44896951 4278255360
0.049827408 -0.0040181987 0.44933075 4278255360
0.050164185 -0.0040961741 0.44969201 4278255360
0.050500967 -0.0041741496 0.45005324 4278255360
0.050837744 -0.0042521255 0.45041451 4278255360
0.051174521 -0.0043301005 0.45077574 4278255360
0.051511303 -0.0044080759 0.45113701 4278255360
0.05184808 -0.0044860514 0.45149824 4278255360
0.052184857 -0.0045640273 0.4518595 4278255360
0.052521639 -0.0046420023 0.45222074 4278255360
0.052858416 -0.0047199782 0.452582 4278255360
0.053195193 -0.0047979532 0.45294324 4278255360
0.053531975 -0.0048759291 0.4533045 4278255360
0.053868752 -0.0049539041 0.45366573 4278255360
0.054205529 -0.00503188 0.454027 4278255360
0.054542311 -0.005109855 0.45438823 4278255360
0.054879088 -0.0051878309 0.45474946 4278255360
0.055215865 -0.0052658059 0.45511073 4278255360
0.055552647 -0.0053437818 0.45547196 4278255360
0.055889428 -0.0054217568 0.45583323 4278255360
0.056226201 -0.0054997327 0.45619446 4278255360
0.056562982 -0.0055777077 0.45655572 4278255360
0.05689976 -0.0056556836 0.45691696 4278255360
0.057236537 -0.0057336586 0.45727822 4278255360
0.057573318 -0.0058116345 0.45763946 4278255360
0.0579101 -0.0058896095 0.45800072 4278255360
0.058246873 -0.0059675854 0.45836195 4278255360
0.058583654 -0.0060455604 0.45872322 4278255360
0.058920436 -0.0061235363 0.45908445 4278255360
0.059257209 -0.0062015112 0.45944571 4278255360
0.05959399 -0.0062794872 0.45980695 4278255360
0.059930772 -0.0063574631 0.46016818 4278255360
0.060267549 -0.0064354381 0.46052945 4278255360
0.060604326 -0.006513413 0.46089068 4278255360
0.060941108 -0.006591389 0.46125194 4278255360
0.061277881 -0.0066693639 0.46161318 4278255360
0.061614662 -0.0067473399 0.46197444 4278255360
0.061951444 -0.0068253158 0.46233568 4278255360
0.062288221 -0.0069032907 0.46269694 4278255360
0.062624998 -0.0069812657 0.46305817 4278255360
0.06296178 -0.0070592416 0.46341944 4278255360
0.063298553 -0.0071372166 0.46378067 4278255360
0.063635334 -0.0072151925 0.46414194 4278255360
0.063972116 -0.0072931685 0.46450317 4278255360
0.064308897 -0.0073711434 0.46486443 4278255360
0.06464567 -0.0074491194 0.46522567 4278255360
0.064982451 -0.0075270943 0.46558693 4278255360
0.065319225 -0.0076050693 0.46594816 4278255360
0.065656006 -0.0076830452 0.4663094 4278255360
0.065992787 -0.0077610211 0.46667066 4278255360
0.066329569 -0.0078389961 0.4670319 4278255360
0.066666342 -0.007916972 0.46739316 4278255360
0.067003123 -0.007994947 0.46775439 4278255360
0.067339897 -0.0080729229 0.46811566 4278255360
0.067676678 -0.0081508979 0.46847689 4278255360
0.068013459 -0.0082288738 0.46883816 4278255360
0.068350241 -0.0083068488 0.46919939 4278255360
0.068687022 -0.0083848247 0.46956065 4278255360
0.069023795 -0.0084627997 0.46992189 4278255360
0.069360569 -0.0085407756 0.47028315 4278255360
0.06969735 -0.0086187506 0.47064438 4278255360
0.070034131 -0.0086967265 0.47100565 4278255360
0.070370913 -0.0087747015 0.47136688 4278255360
0.070707694 -0.0088526774 0.47172815 4278255360
0.071044467 -0.0089306524 0.47208938 4278255360
0.037366595 -0.0011331069 0.43596458 4278190335
0.037170056 -0.0013235118 0.43638307 4278190335
0.036973517 -0.0015139168 0.43680152 4278190335
0.036776975 -0.0017043217 0.43722001 4278190335
0.036580436 -0.0018947268 0.43763846 4278190335
0.036383897 -0.0020851318 0.43805695 4278190335
0.036187358 -0.0022755368 0.4384754 4278190335
0.035990819 -0.0024659417 0.43889388 4278190335
0.03579428 -0.0026563467 0.43931234 4278190335
0.035597738 -0.0028467518 0.43973082 4278190335
0.035401199 -0.0030371565 0.44014931 4278190335
0.03520466 -0.0032275615 0.44056776 4278190335
0.035008121 -0.0034179664 0.44098625 4278190335
0.034811582 -0.0036083714 0.4414047 4278190335
0.034615044 -0.0037987765 0.44182318 4278190335
0.034418501 -0.0039891815 0.44224164 4278190335
0.034221962 -0.0041795867 0.44266012 4278190335
0.034025423 -0.0043699914 0.44307861 4278190335
0.033828884 -0.0045603965 0.44349706 4278190335
0.033632345 -0.0047508013 0.44391555 4278190335
0.033435807 -0.0049412064 0.444334 4278190335
0.033239264 -0.0051316107 0.44475248 4278190335
0.033042725 -0.0053220158 0.44517094 4278190335
0.032846186 -0.005512421 0.44558942 4278190335
0.032649647 -0.0057028262 0.44600788 4278190335
0.032453109 -0.0058932314 0.44642636 4278190335
0.032256566 -0.0060836356 0.44684485 4278190335
0.032060027 -0.0062740417 0.4472633 4278190335
0.031863488 -0.006464446 0.44768178 4278190335
0.031666949 -0.0066548511 0.44810024 4278190335
0.031470411 -0.0068452563 0.44851872 4278190335
0.031273872 -0.0070356606 0.44893718 4278190335
0.031077331 -0.0072260657 0.44935566 4278190335
0.03088079 -0.0074164709 0.44977415 4278190335
0.030684251 -0.0076068761 0.4501926 4278190335
0.030487712 -0.0077972803 0.45061108 4278190335
0.030291172 -0.0079876864 0.45102954 4278190335
0.030094633 -0.0081780907 0.45144802 4278190335
0.029898094 -0.0083684959 0.45186648 4278190335
0.029701553 -0.0085589001 0.45228496 4278190335
0.029505014 -0.0087493062 0.45270342 4278190335
0.029308476 -0.0089397104 0.4531219 4278190335
0.029111937 -0.0091301147 0.45354038 4278190335
0.028915396 -0.0093205208 0.45395884 4278190335
0.028718855 -0.009510925 0.45437732 4278190335
0.028522316 -0.0097013302 0.45479578 4278190335
0.028325778 -0.0098917354 0.45521426 4278190335
0.028129239 -0.010082141 0.45563272 4278190335
0.0279327 -0.010272545 0.4560512 4278190335
0.027736157 -0.01046295 0.45646966 4278190335
0.027539618 -0.010653355 0.45688814 4278190335
0.027343079 -0.01084376 0.45730662 4278190335
0.027146541 -0.011034165 0.45772508 4278190335
0.026950002 -0.01122457 0.45814356 4278190335
0.026753461 -0.011414976 0.45856202 4278190335
0.02655692 -0.01160538 0.4589805 4278190335
0.026360381 -0.011795785 0.45939896 4278190335
0.026163843 -0.01198619 0.45981744 4278190335
0.025967304 -0.012176595 0.46023589 4278190335
0.025770765 -0.012366999 0.46065438 4278190335
0.025574222 -0.012557405 0.46107286 4278190335
0.025377683 -0.01274781 0.46149132 4278190335
0.025181144 -0.012938214 0.4619098 4278190335
0.024984606 -0.01312862 0.46232826 4278190335
0.024788067 -0.013319025 0.46274674 4278190335
0.024591528 -0.013509429 0.46316519 4278190335
0.024394985 -0.013699835 0.46358368 4278190335
0.024198446 -0.01389024 0.46400216 4278190335
0.024001908 -0.014080645 0.46442062 4278190335
0.023805369 -0.01427105 0.4648391 4278190335
0.02360883 -0.014461454 0.46525756 4278190335
0.023412291 -0.014651859 0.46567604 4278190335
0.023215748 -0.014842265 0.46609449 4278190335
0.02301921 -0.01503267 0.46651298 4278190335
0.022822671 -0.015223075 0.46693143 4278190335
0.022626132 -0.01541348 0.46734992 4278190335
0.022429593 -0.015603884 0.46776837 4278190335
0.022233054 -0.01579429 0.46818686 4278190335
0.022036513 -0.015984694 0.46860534 4278190335
0.021839973 -0.016175101 0.46902379 4278190335
0.021643434 -0.016365506 0.46944228 4278190335
0.021446895 -0.016555909 0.46986073 4278190335
0.021250354 -0.016746314 0.47027922 4278190335
0.021053815 -0.016936719 0.4706977 4278190335
0.020857276 -0.017127123 0.47111616 4278190335
0.020660736 -0.01731753 0.47153464 4278190335
0.020464197 -0.017507935 0.47195309 4278190335
0.020267656 -0.017698338 0.47237158 4278190335
0.020071117 -0.017888743 0.47279003 4278190335
0.019874578 -0.018079149 0.47320852 4278190335
0.019678039 -0.018269554 0.47362697 4278190335
0.019481499 -0.018459959 0.47404546 4278190335
0.01928496 -0.018650364 0.47446394 4278190335
0.019088419 -0.018840769 0.47488239 4278190335
0.01889188 -0.019031174 0.47530088 4278190335
0.018695341 -0.019221578 0.47571933 4278190335
0.018498803 -0.019411983 0.47613782 4278190335
0.018302262 -0.01960239 0.47655627 4278190335
0.018105721 -0.019792793 0.47697476 4278190335
0.017909182 -0.019983198 0.47739321 4278190335
0.017712643 -0.020173604 0.47781169 4278190335
0.037366595 -0.0011331069 0.43596458 4294967295
0.038545832 9.3230046e-06 0.43345377 4294967295
0.039725069 0.0011517529 0.43094292 4294967295
0.040904306 0.0022941825 0.42843211 4294967295
0.042083543 0.0034366127 0.42592126 4294967295
0.04326278 0.0045790421 0.42341045 4294967295
0.044442017 0.0057214722 0.42089963 4294967295
0.045621254 0.0068639023 0.41838878 4294967295
0.04680049 0.0080063324 0.41587797 4294967295
0.047979727 0.0091487626 0.41336712 4294967295
0.049158968 0.010291192 0.41085631 4294967295
0.050338201 0.011433622 0.40834549 4294967295
0.051517442 0.012576051 0.40583465 4294967295
0.052696675 0.013718481 0.40332383 4294967295
0.053875916 0.014860911 0.40081298 4294967295
0.055055153 0.016003342 0.39830217 4294967295
0.05623439 0.017145772 0.39579135 4294967295
0.057413623 0.018288201 0.39328051 4294967295
0.058592863 0.019430632 0.39076969 4294967295
0.059772097 0.020573061 0.38825887 4294967295
0.060951337 0.02171549 0.38574803 4294967295
0.06213057 0.022857919 0.38323721 4294967295
0.063309811 0.02400035 0.38072637 4294967295
0.064489052 0.025142781 0.37821555 4294967295
0.065668285 0.026285209 0.37570474 4294967295
0.066847518 0.02742764 0.37319389 4294967295
0.068026759 0.028570069 0.37068307 4294967295
0.069205999 0.0297125 0.36817223 4294967295
0.070385233 0.030854929 0.36566141 4294967295
0.071564466 0.031997357 0.3631506 4294967295
0.072743714 0.033139791 0.36063975 4294967295
0.073922947 0.034282219 0.35812894 4294967295
0.07510218 0.03542465 0.35561812 4294967295
0.076281421 0.036567081 0.35310727 4294967295
0.077460654 0.037709508 0.35059646 4294967295
0.078639895 0.038851939 0.34808564 4294967295
0.079819128 0.03999437 0.3455748 4294967295
0.080998369 0.041136798 0.34306395 4294967295
0.082177602 0.042279229 0.34055313 4294967295
0.083356842 0.043421656 0.33804232 4294967295
0.084536076 0.044564087 0.33553147 4294967295
0.085715316 0.045706518 0.33302066 4294967295
0.086894549 0.046848945 0.33050984 4294967295
0.08807379 0.047991376 0.327999 4294967295
0.089253023 0.049133807 0.32548818 4294967295
0.090432256 0.050276235 0.32297736 4294967295
0.091611505 0.05141867 0.32046652 4294967295
0.092790738 0.052561097 0.3179557 4294967295
0.093969971 0.053703524 0.31544486 4294967295
0.095149212 0.054845959 0.31293404 4294967295
0.096328452 0.055988386 0.3104232 4294967295
0.097507685 0.057130814 0.30791238 4294967295
0.098686919 0.058273245 0.30540156 4294967295
0.099866152 0.059415672 0.30289072 4294967295
0.1010454 0.060558107 0.3003799 4294967295
0.10222463 0.061700538 0.29786909 4294967295
0.10340387 0.062842965 0.29535824 4294967295
0.10458311 0.063985392 0.29284742 4294967295
0.10576235 0.06512782 0.29033661 4294967295
0.10694158 0.066270255 0.28782576 4294967295
0.10812083 0.067412689 0.28531492 4294967295
0.10930006 0.068555117 0.2828041 4294967295
0.1104793 0.069697544 0.28029329 4294967295
0.11165853 0.070839971 0.27778244 4294967295
0.11283776 0.071982406 0.27527162 4294967295
0.11401699 0.073124833 0.27276081 4294967295
0.11519624 0.074267268 0.27024996 4294967295
0.11637548 0.075409696 0.26773912 4294967295
0.11755471 0.076552123 0.26522833 4294967295
0.11873396 0.07769455 0.26271749 4294967295
0.11991319 0.078836985 0.26020667 4294967295
0.12109242 0.079979412 0.25769585 4294967295
0.12227167 0.081121847 0.25518501 4294967295
0.12345091 0.082264274 0.25267416 4294967295
0.12463014 0.083406702 0.25016335 4294967295
0.12580937 0.084549136 0.24765253 4294967295
0.1269886 0.085691564 0.2451417 4294967295
0.12816785 0.086833991 0.24263087 4294967295
0.12934709 0.087976418 0.24012005 4294967295
0.13052632 0.089118853 0.23760921 4294967295
0.13170557 0.090261281 0.23509838 4294967295
0.1328848 0.091403715 0.23258756 4294967295
0.13406403 0.092546143 0.23007673 4294967295
0.13524327 0.09368857 0.22756591 4294967295
0.1364225 0.094830997 0.22505508 4294967295
0.13760175 0.095973432 0.22254424 4294967295
0.13878098 0.097115859 0.22003342 4294967295
0.13996021 0.098258294 0.21752259 4294967295
0.14113946 0.099400721 0.21501176 4294967295
0.1423187 0.10054315 0.21250094 4294967295
0.14349793 0.10168558 0.20999011 4294967295
0.14467718 0.10282801 0.20747928 4294967295
0.14585641 0.10397045 0.20496845 4294967295
0.14703564 0.10511287 0.20245762 4294967295
0.14821488 0.1062553 0.19994681 4294967295
0.14939411 0.10739773 0.19743598 4294967295
0.15057336 0.10854015 0.19492514 4294967295
0.15175259 0.10968259 0.19241431 4294967295
0.15293182 0.11082502 0.18990348 4294967295
0.15411107 0.11196745 0.18739267 4294967295
0.15529031 0.11310988 0.18488184 4294967295
