# .PCD v0.7 - Point Cloud Data file format
VERSION 0.7
FIELDS x y z rgb
SIZE 4 4 4 4
TYPE F F F U
COUNT 1 1 1 1
WIDTH 682
HEIGHT 1
VIEWPOINT 0 0 0 1 0 0 0
POINTS 682
DATA ascii
-0.14041933 0.019188333 0.54800004 4280438057
-0.13863944 0.019188333 0.54800004 4280241959
-0.13685954 0.019188333 0.54800004 4279848738
-0.13532612 0.019223347 0.54900002 4279980324
-0.13427271 0.019328393 0.55200005 4280177703
-0.1327198 0.019363409 0.55300003 4280111397
-0.12982804 0.019468455 0.55600005 4281031729
-0.1282524 0.019503469 0.55700004 4281030964
-0.1253054 0.019608514 0.56 4279251988
-0.12392754 0.019678546 0.56200004 4279053326
-0.1225367 0.019748574 0.56400001 4279314447
-0.12113286 0.019818606 0.56600004 4279379727
-0.14142078 0.020854047 0.54500002 4282275400
-0.13939437 0.020815782 0.54400003 4279782180
-0.13762747 0.020815782 0.54400003 4279651105
-0.13586056 0.020815782 0.54400003 4279455010
-0.13434014 0.020854047 0.54500002 4279323424
-0.1337862 0.021045368 0.55000001 4279323937
-0.13247982 0.021121899 0.55200005 4279126558
-0.13092367 0.021160161 0.55300003 4279258398
-0.12959452 0.02123669 0.55500001 4279192605
-0.12802215 0.021274956 0.55600005 4279324191
-0.12667027 0.021351483 0.55800003 4279324191
-0.12508164 0.021389747 0.55900002 4279323937
-0.12392754 0.02150454 0.56200004 4279455010
-0.1225367 0.021581069 0.56400001 4279717668
-0.12113286 0.021657597 0.56600004 4279914277
-0.13836941 0.02241724 0.54000002 4279649826
-0.1366155 0.02241724 0.54000002 4279453726
-0.13354295 0.02279086 0.54900002 4279257631
-0.1322398 0.022873886 0.551 4279126045
-0.13068692 0.022915402 0.55200005 4279388703
-0.12936102 0.022998428 0.55400002 4279125531
-0.12802215 0.023081455 0.55600005 4278929179
-0.12644327 0.023122968 0.55700004 4279060765
-0.12485788 0.023164481 0.55800003 4279126558
-0.12370703 0.023289023 0.56100005 4279126558
-0.1225367 0.023413561 0.56400001 4279257631
-0.12113286 0.023496589 0.56600004 4279192092
-0.11950525 0.023538101 0.56700003 4279192092
-0.11807866 0.023621129 0.56900001 4279257885
-0.13734446 0.023992704 0.53600001 4279715102
-0.13535054 0.023947943 0.53500003 4279584799
-0.13361286 0.023947943 0.53500003 4279388957
-0.13068692 0.024708906 0.55200005 4278859027
-0.12936102 0.024798431 0.55400002 4279453215
-0.12644327 0.024932718 0.55700004 4278994461
-0.12485788 0.024977481 0.55800003 4278928666
-0.12370703 0.025111768 0.56100005 4278928666
-0.12231943 0.025201293 0.56300002 4278994459
-0.12113286 0.02533558 0.56600004 4278928666
-0.11950525 0.025380343 0.56700003 4278994459
-0.11807866 0.025469868 0.56900001 4278928666
-0.088430658 0.022202205 0.49600002 4279652904
-0.086819649 0.022202205 0.49600002 4280047664
-0.085036851 0.022157442 0.49500003 4280374578
-0.13657574 0.025590193 0.53300005 4279584029
-0.13433857 0.025494168 0.53100002 4279519260
-0.13236414 0.025446156 0.53000003 4279388187
-0.13014971 0.025350131 0.528 4279256601
-0.12648879 0.024966041 0.52000004 4279125015
-0.12431981 0.024870016 0.51800001 4279650846
-0.12216385 0.024773993 0.51600003 4279911715
-0.12002087 0.024677968 0.514 4279452447
-0.11812114 0.024629958 0.51300001 4278860826
-0.11622792 0.024581946 0.51200002 4279715365
-0.11434118 0.024533935 0.51100004 4279584803
-0.11246094 0.024485925 0.51000005 4279124763
-0.12231943 0.027030539 0.56300002 4278993177
-0.12113286 0.027174575 0.56600004 4279124763
-0.11950525 0.027222585 0.56700003 4279124763
-0.088430658 0.02381376 0.49600002 4278863388
-0.086644612 0.02376575 0.49500003 4279126560
-0.084865063 0.023717737 0.49400002 4278863388
-0.082923457 0.023621714 0.49200001 4279521318
-0.081325442 0.023621714 0.49200001 4279652904
-0.079565383 0.023573702 0.49100003 4279850031
-0.077970609 0.023573702 0.49100003 4280310069
-0.13804744 0.027270699 0.53200001 4281092655
-0.13580702 0.027168179 0.53000003 4279715617
-0.13357958 0.027065657 0.528 4279584799
-0.13136517 0.026963137 0.52600002 4279519519
-0.12941022 0.026911877 0.52500004 4279190554
-0.12624554 0.026604313 0.51900005 4279256347
-0.12407982 0.02650179 0.51700002 4278400527
-0.1219271 0.02639927 0.51500005 4278196224
-0.12002087 0.026348006 0.514 4279976740
-0.11812114 0.026296746 0.51300001 4278723341
-0.11600091 0.026194226 0.51100004 4278722830
-0.11411743 0.026142966 0.51000005 4278853648
-0.11224042 0.026091704 0.509 4278459660
-0.11015267 0.025989184 0.50700003 4278262792
-0.10829192 0.025937922 0.50600004 4278196997
-0.10643765 0.02588666 0.505 4278197764
-0.10458989 0.0258354 0.50400001 4279319064
-0.10274863 0.02578414 0.50300002 4278794515
-0.10111488 0.02578414 0.50300002 4279123480
-0.099283367 0.02573288 0.50200003 4279124765
-0.097458348 0.02568162 0.50100005 4278928154
-0.095448531 0.025579097 0.49900001 4279059740
-0.093639746 0.025527837 0.49800003 4279059740
-0.091837466 0.025476575 0.49700001 4279257119
-0.090041667 0.025425315 0.49600002 4279059738
-0.088252373 0.025374055 0.49500003 4279257371
-0.086469568 0.025322793 0.49400002 4278994713
-0.084865063 0.025322793 0.49400002 4278862873
-0.082923457 0.025220271 0.49200001 4279126045
-0.081325442 0.025220271 0.49200001 4279126047
-0.079565383 0.025169011 0.49100003 4278994461
-0.077970609 0.025169011 0.49100003 4279191840
-0.076375842 0.025169011 0.49100003 4279257633
-0.074781075 0.025169011 0.49100003 4279323939
-0.073186301 0.025169011 0.49100003 4279981869
-0.13752846 0.028890204 0.53000003 4281092909
-0.13529454 0.028781181 0.528 4279649824
-0.13307361 0.028672164 0.52600002 4279387935
-0.13086569 0.028563146 0.52400005 4279256349
-0.12867074 0.028454125 0.52200001 4279453728
-0.12600228 0.028236084 0.51800001 4279387935
-0.12407982 0.028181575 0.51700002 4280307756
-0.1219271 0.028072556 0.51500005 4280502571
-0.11978737 0.027963536 0.51300001 4280437291
-0.11789089 0.027909027 0.51200002 4278920209
-0.11600091 0.027854517 0.51100004 4278853135
-0.11411743 0.027800009 0.51000005 4278983951
-0.11224042 0.027745496 0.509 4278983951
-0.11015267 0.027636478 0.50700003 4278655756
-0.10829192 0.027581969 0.50600004 4278721295
-0.10643765 0.027527457 0.505 4278655502
-0.10458989 0.027472947 0.50400001 4279511576
-0.10274863 0.027418438 0.50300002 4279713822
-0.10111488 0.027418438 0.50300002 4279516957
-0.099283367 0.027363928 0.50200003 4279187738
-0.097458348 0.02730942 0.50100005 4278198787
-0.095448531 0.027200399 0.49900001 4278198016
-0.093639746 0.027145889 0.49800003 4278197248
-0.091837466 0.027091378 0.49700001 4278198018
-0.090041667 0.02703687 0.49600002 4278266122
-0.088252373 0.02698236 0.49500003 4279385369
-0.086469568 0.026927849 0.49400002 4279649311
-0.084693268 0.026873341 0.49300003 4279584801
-0.082923457 0.026818831 0.49200001 4279321629
-0.081160143 0.02676432 0.49100003 4279058968
-0.079565383 0.02676432 0.49100003 4279387933
-0.077970609 0.02676432 0.49100003 4279585312
-0.076375842 0.02676432 0.49100003 4279453726
-0.074781075 0.02676432 0.49100003 4279257117
-0.073186301 0.02676432 0.49100003 4278797593
-0.071591534 0.02676432 0.49100003 4278600988
-0.069996759 0.02676432 0.49100003 4278732320
-0.068402 0.02676432 0.49100003 4284191092
-0.066807225 0.02676432 0.49100003 4279321127
-0.13752846 0.030612227 0.53000003 4280633128
-0.1350383 0.03043895 0.52700001 4279321629
-0.13282062 0.030323433 0.52500004 4279387935
-0.13061593 0.030207913 0.523 4279453728
-0.12842424 0.030092398 0.52100003 4279519521
-0.12600228 0.02991912 0.51800001 4279387933
-0.12383982 0.029803602 0.51600003 4279715617
-0.12169035 0.029688083 0.514 4279779615
-0.11978737 0.029630324 0.51300001 4280240166
-0.11789089 0.029572567 0.51200002 4278920211
-0.11577391 0.029457049 0.51000005 4280170276
-0.11389366 0.029399289 0.509 4280695850
-0.11201991 0.02934153 0.50800002 4278919439
-0.11015267 0.029283771 0.50700003 4279708955
-0.10829192 0.029226014 0.50600004 4279116818
-0.10643765 0.029168252 0.505 4280169254
-0.10458989 0.029110495 0.50400001 4279380762
-0.10274863 0.029052736 0.50300002 4279254814
-0.10091387 0.028994977 0.50200003 4278267406
-0.099283367 0.028994977 0.50200003 4278398222
-0.097458348 0.028937221 0.50100005 4279320094
-0.09563981 0.028879458 0.5 4279451680
-0.093639746 0.028763942 0.49800003 4279649826
-0.091837466 0.028706182 0.49700001 4279714852
-0.090041667 0.028648423 0.49600002 4279517473
-0.088252373 0.028590666 0.49500003 4280306473
-0.086469568 0.028532906 0.49400002 4280108580
-0.084693268 0.028475147 0.49300003 4279121431
-0.082923457 0.028417388 0.49200001 4278595089
-0.081325442 0.028417388 0.49200001 4278198532
-0.079565383 0.028359629 0.49100003 4278198274
-0.077970609 0.028359629 0.49100003 4278199559
-0.076375842 0.028359629 0.49100003 4278660880
-0.074781075 0.028359629 0.49100003 4279387935
-0.073186301 0.028359629 0.49100003 4279256349
-0.071591534 0.028359629 0.49100003 4278994461
-0.069996759 0.028359629 0.49100003 4279126047
-0.068262681 0.028301869 0.49000001 4279191840
-0.066671163 0.028301869 0.49000001 4279191842
-0.065079637 0.028301869 0.49000001 4279384865
-0.13752846 0.032334249 0.53000003 4280632358
-0.1350383 0.032151226 0.52700001 4279321629
-0.13282062 0.032029212 0.52500004 4279453726
-0.13036619 0.031846184 0.52200001 4279256347
-0.12817775 0.03172417 0.52000004 4279519519
-0.12600228 0.031602152 0.51800001 4279387933
-0.12383982 0.031480137 0.51600003 4278201095
-0.12169035 0.031358119 0.514 4278791953
-0.11978737 0.031297114 0.51300001 4280239399
-0.11766063 0.031175099 0.51100004 4278985232
-0.11577391 0.031114092 0.51000005 4278195716
-0.11389366 0.031053081 0.509 4280301862
-0.1117994 0.030931067 0.50700003 4278919439
-0.10993541 0.03087006 0.50600004 4278720779
-0.10807789 0.030809049 0.505 4280761643
-0.10643765 0.030809049 0.505 4278525453
-0.10458989 0.030748041 0.50400001 4279710238
-0.10274863 0.030687034 0.50300002 4279056922
-0.10091387 0.030626027 0.50200003 4278461455
-0.099283367 0.030626027 0.50200003 4278329351
-0.097458348 0.03056502 0.50100005 4278593806
-0.09563981 0.030504009 0.5 4278990361
-0.093639746 0.030381994 0.49800003 4279121945
-0.091837466 0.030320985 0.49700001 4278924566
-0.090041667 0.030259978 0.49600002 4279780645
-0.088252373 0.030198971 0.49500003 4279584029
-0.086469568 0.030137962 0.49400002 4279321627
-0.084693268 0.030076955 0.49300003 4279190045
-0.082923457 0.030015945 0.49200001 4279190045
-0.081325442 0.030015945 0.49200001 4279386654
-0.079565383 0.029954938 0.49100003 4279584033
-0.077970609 0.029954938 0.49100003 4279780899
-0.076375842 0.029954938 0.49100003 4279647775
-0.074781075 0.029954938 0.49100003 4279847203
-0.073186301 0.029954938 0.49100003 4279190556
-0.071591534 0.029954938 0.49100003 4279059740
-0.069996759 0.029954938 0.49100003 4278993947
-0.068262681 0.029893929 0.49000001 4278993947
-0.066671163 0.029893929 0.49000001 4278928154
-0.065079637 0.029893929 0.49000001 4279254814
-0.13778795 0.034120534 0.53100002 4279909918
-0.13529454 0.033927761 0.528 4279649824
-0.13282062 0.033734992 0.52500004 4279256347
-0.13036619 0.03354222 0.52200001 4279453980
-0.12817775 0.033413704 0.52000004 4279257371
-0.12600228 0.033285189 0.51800001 4278993947
-0.12383982 0.033156678 0.51600003 4279584033
-0.12169035 0.033028159 0.514 4280503084
-0.11955387 0.032899648 0.51200002 4280568877
-0.11766063 0.03283539 0.51100004 4278985232
-0.11554689 0.032706875 0.509 4278983951
-0.1136699 0.032642618 0.50800002 4279115023
-0.1117994 0.032578364 0.50700003 4278983437
-0.10993541 0.032514106 0.50600004 4278983437
-0.10807789 0.032449845 0.505 4279115023
-0.10622688 0.032385591 0.50400001 4278853133
-0.10458989 0.032385591 0.50400001 4280499752
-0.10274863 0.032321334 0.50300002 4279515676
-0.10091387 0.032257076 0.50200003 4278657550
-0.099085592 0.032192823 0.50100005 4278722830
-0.097458348 0.032192823 0.50100005 4278725138
-0.09563981 0.032128561 0.5 4279516191
-0.093639746 0.03200005 0.49800003 4278989847
-0.091837466 0.031935789 0.49700001 4279713568
-0.090041667 0.031871535 0.49600002 4278595087
-0.088252373 0.031807277 0.49500003 4279121431
-0.086469568 0.03174302 0.49400002 4279253017
-0.084693268 0.031678762 0.49300003 4279319324
-0.082923457 0.031614505 0.49200001 4278595601
-0.081325442 0.031614505 0.49200001 4279845668
-0.079565383 0.031550247 0.49100003 4278398222
-0.077970609 0.031550247 0.49100003 4279386400
-0.076375842 0.031550247 0.49100003 4279254301
-0.074781075 0.031550247 0.49100003 4279584033
-0.073186301 0.031550247 0.49100003 4279125535
-0.071591534 0.031550247 0.49100003 4278993949
-0.069996759 0.031550247 0.49100003 4278993949
-0.068262681 0.03148599 0.49000001 4278993949
-0.066671163 0.03148599 0.49000001 4278862363
-0.065079637 0.03148599 0.49000001 4279123228
-0.13830693 0.035980821 0.53300005 4279909916
-0.13580702 0.035778299 0.53000003 4279453215
-0.13307361 0.035508275 0.52600002 4279321627
-0.13061593 0.035305757 0.523 4279387933
-0.12817775 0.035103239 0.52000004 4279059738
-0.12600228 0.034968223 0.51800001 4279387933
-0.12383982 0.034833215 0.51600003 4278398474
-0.12169035 0.034698199 0.514 4279122199
-0.11955387 0.034563188 0.51200002 4279649313
-0.11766063 0.034495682 0.51100004 4279779875
-0.11554689 0.03436067 0.509 4279779363
-0.1136699 0.034293164 0.50800002 4279712287
-0.1117994 0.034225658 0.50700003 4279316762
-0.10993541 0.034158152 0.50600004 4278393867
-0.10807789 0.034090642 0.505 4278524683
-0.10622688 0.034023136 0.50400001 4278327304
-0.10438237 0.033955634 0.50300002 4280171303
-0.10274863 0.033955634 0.50300002 4279252504
-0.10091387 0.033888128 0.50200003 4279908383
-0.099085592 0.033820622 0.50100005 4280105508
-0.097458348 0.033820622 0.50100005 4279909666
-0.09563981 0.033753112 0.5 4280108326
-0.093639746 0.0336181 0.49800003 4279845922
-0.091837466 0.033550594 0.49700001 4278266122
-0.090041667 0.033483088 0.49600002 4279910947
-0.088252373 0.033415582 0.49500003 4278397708
-0.086469568 0.033348076 0.49400002 4278331402
-0.084693268 0.03328057 0.49300003 4278660367
-0.083092004 0.03328057 0.49300003 4279055125
-0.081325442 0.033213064 0.49200001 4279055127
-0.079727426 0.033213064 0.49200001 4279252765
-0.077970609 0.033145558 0.49100003 4279451680
-0.076375842 0.033145558 0.49100003 4278596371
-0.074781075 0.033145558 0.49100003 4279715619
-0.073186301 0.033145558 0.49100003 4279387937
-0.071591534 0.033145558 0.49100003 4279257121
-0.069996759 0.033145558 0.49100003 4279059742
-0.068262681 0.033078052 0.49000001 4279190556
-0.066671163 0.033078052 0.49000001 4278993177
-0.065079637 0.033078052 0.49000001 4279190045
-0.1333266 0.037288059 0.52700001 4279452445
-0.13086569 0.037075795 0.52400005 4279190041
-0.12842424 0.036863528 0.52100003 4279255834
-0.12600228 0.036651257 0.51800001 4279321627
-0.12383982 0.036509749 0.51600003 4279453213
-0.12169035 0.036368236 0.514 4279452443
-0.11978737 0.036297482 0.51300001 4279320857
-0.11766063 0.036155973 0.51100004 4279386652
-0.11554689 0.03601446 0.509 4279452445
-0.11344614 0.035872951 0.50700003 4279255836
-0.1115789 0.035802197 0.50600004 4279255836
-0.10971814 0.035731439 0.505 4279386654
-0.10807789 0.035731439 0.505 4279451680
-0.10622688 0.035660684 0.50400001 4279385889
-0.10438237 0.03558993 0.50300002 4279451682
-0.10274863 0.03558993 0.50300002 4279582498
-0.10091387 0.035519175 0.50200003 4279779363
-0.099085592 0.035448421 0.50100005 4279251736
-0.097263813 0.035377663 0.5 4278856978
-0.09563981 0.035377663 0.5 4278197250
-0.093639746 0.035236154 0.49800003 4278196224
-0.091837466 0.035165396 0.49700001 4278264587
-0.090041667 0.035094641 0.49600002 4278791701
-0.088252373 0.035023887 0.49500003 4279516189
-0.086469568 0.034953132 0.49400002 4279845668
-0.084693268 0.034882378 0.49300003 4279516957
-0.083092004 0.034882378 0.49300003 4279845922
-0.081325442 0.03481162 0.49200001 4279516957
-0.079727426 0.03481162 0.49200001 4279779875
-0.078129411 0.03481162 0.49200001 4279516703
-0.076375842 0.034740865 0.49100003 4278595601
-0.074781075 0.034740865 0.49100003 4279584033
-0.073186301 0.034740865 0.49100003 4279453217
-0.071591534 0.034740865 0.49100003 4279256351
-0.069996759 0.034740865 0.49100003 4279256351
-0.068402 0.034740865 0.49100003 4279190558
-0.066807225 0.034740865 0.49100003 4279058972
-0.065079637 0.034670111 0.49000001 4279189275
-0.12842424 0.038556308 0.52100003 4279647512
-0.12600228 0.038334295 0.51800001 4279582232
-0.12383982 0.038186286 0.51600003 4279516953
-0.1219271 0.038112283 0.51500005 4279320344
-0.11978737 0.037964273 0.51300001 4279386137
-0.11789089 0.037890267 0.51200002 4279255064
-0.11554689 0.037668254 0.509 4279255064
-0.11344614 0.037520245 0.50700003 4279124248
-0.1115789 0.037446242 0.50600004 4278861076
-0.10971814 0.037372235 0.505 4279124248
-0.10786388 0.037298232 0.50400001 4279255834
-0.10622688 0.037298232 0.50400001 4279190556
-0.10438237 0.037224229 0.50300002 4279124763
-0.10274863 0.037224229 0.50300002 4279124763
-0.10091387 0.037150223 0.50200003 4279256349
-0.099085592 0.03707622 0.50100005 4279255836
-0.097263813 0.037002213 0.5 4279584031
-0.095448531 0.03692821 0.49900001 4279451932
-0.093639746 0.036854208 0.49800003 4279517727
-0.091837466 0.036780201 0.49700001 4279649313
-0.090041667 0.036706198 0.49600002 4279715106
-0.088252373 0.036632195 0.49500003 4279977254
-0.086469568 0.036558188 0.49400002 4280240426
-0.084693268 0.036484186 0.49300003 4278792466
-0.083092004 0.036484186 0.49300003 4278529294
-0.081325442 0.036410179 0.49200001 4278197760
-0.079727426 0.036410179 0.49200001 4278196736
-0.078129411 0.036410179 0.49200001 4278265611
-0.076375842 0.036336176 0.49100003 4278196480
-0.074781075 0.036336176 0.49100003 4279386400
-0.073186301 0.036336176 0.49100003 4279453476
-0.071591534 0.036336176 0.49100003 4279387683
-0.069996759 0.036336176 0.49100003 4279124511
-0.068402 0.036336176 0.49100003 4279190558
-0.066807225 0.036336176 0.49100003 4279058972
-0.065212458 0.036336176 0.49100003 4279056154
-0.12600228 0.040017329 0.51800001 4279969549
-0.12383982 0.039862823 0.51600003 4279378182
-0.12216385 0.039862823 0.51600003 4279314186
-0.12002087 0.039708313 0.514 4280038422
-0.11812114 0.039631061 0.51300001 4280040219
-0.11554689 0.039322045 0.509 4280173088
-0.11344614 0.039167542 0.50700003 4279516439
-0.1115789 0.039090287 0.50600004 4279385367
-0.10971814 0.039013032 0.505 4279385367
-0.10786388 0.038935781 0.50400001 4279254551
-0.10622688 0.038935781 0.50400001 4278991894
-0.10438237 0.038858525 0.50300002 4279123480
-0.10254437 0.038781274 0.50200003 4279058457
-0.10091387 0.038781274 0.50200003 4279321629
-0.099085592 0.038704023 0.50100005 4279255836
-0.097263813 0.038626764 0.5 4279519008
-0.095448531 0.038549513 0.49900001 4279584031
-0.093639746 0.038472258 0.49800003 4279584031
-0.091837466 0.038395002 0.49700001 4279649824
-0.090041667 0.038317751 0.49600002 4279715619
-0.088252373 0.0382405 0.49500003 4279519010
-0.086469568 0.038163245 0.49400002 4279519010
-0.084693268 0.038085993 0.49300003 4279519010
-0.083092004 0.038085993 0.49300003 4279649826
-0.081325442 0.038008738 0.49200001 4279584033
-0.079727426 0.038008738 0.49200001 4279452447
-0.078129411 0.038008738 0.49200001 4279911461
-0.076531388 0.038008738 0.49200001 4279714852
-0.074781075 0.037931483 0.49100003 4279649572
-0.073186301 0.037931483 0.49100003 4279452963
-0.071591534 0.037931483 0.49100003 4279256097
-0.069996759 0.037931483 0.49100003 4279190304
-0.068402 0.037931483 0.49100003 4279058972
-0.066807225 0.037931483 0.49100003 4279058972
-0.065212458 0.037931483 0.49100003 4278790933
-0.1224006 0.04161986 0.51700002 4279639819
-0.11344614 0.040814836 0.50700003 4279246857
-0.1115789 0.040734332 0.50600004 4279181064
-0.10971814 0.040653829 0.505 4279314188
-0.10786388 0.040573325 0.50400001 4279447057
-0.10622688 0.040573325 0.50400001 4279513877
-0.10438237 0.040492825 0.50300002 4279119889
-0.10254437 0.040412322 0.50200003 4279513877
-0.10091387 0.040412322 0.50200003 4280238883
-0.099085592 0.040331822 0.50100005 4279976740
-0.097263813 0.040251315 0.5 4279976740
-0.095448531 0.040170815 0.49900001 4280042787
-0.093639746 0.040090311 0.49800003 4279911715
-0.091837466 0.040009808 0.49700001 4279714852
-0.090041667 0.039929304 0.49600002 4279780645
-0.088252373 0.039848804 0.49500003 4279781158
-0.086469568 0.039768301 0.49400002 4279583779
-0.084693268 0.039687797 0.49300003 4279518756
-0.083092004 0.039687797 0.49300003 4279584549
-0.081325442 0.039607294 0.49200001 4279650342
-0.079727426 0.039607294 0.49200001 4279518756
-0.078129411 0.039607294 0.49200001 4279715365
-0.076375842 0.039526794 0.49100003 4279715365
-0.074781075 0.039526794 0.49100003 4279583779
-0.073186301 0.039526794 0.49100003 4279518756
-0.071591534 0.039526794 0.49100003 4279452963
-0.069996759 0.039526794 0.49100003 4279255584
-0.068402 0.039526794 0.49100003 4279518756
-0.066807225 0.039526794 0.49100003 4279254303
-0.065212458 0.039526794 0.49100003 4282209861
-0.10971814 0.042294625 0.505 4280100370
-0.093639746 0.041708365 0.49800003 4284710508
-0.091837466 0.041624609 0.49700001 4283724125
-0.090041667 0.041540861 0.49600002 4283000402
-0.088252373 0.041457109 0.49500003 4281751618
-0.086469568 0.041373357 0.49400002 4281356860
-0.084693268 0.041289605 0.49300003 4280369965
-0.082923457 0.041205853 0.49200001 4280106793
-0.081325442 0.041205853 0.49200001 4280172073
-0.079727426 0.041205853 0.49200001 4279843108
-0.078129411 0.041205853 0.49200001 4279975207
-0.076375842 0.041122101 0.49100003 4279712803
-0.074781075 0.041122101 0.49100003 4279713318
-0.073186301 0.041122101 0.49100003 4279647527
-0.071591534 0.041122101 0.49100003 4279582248
-0.069996759 0.041122101 0.49100003 4279516455
-0.068402 0.041122101 0.49100003 4279318562
-0.066807225 0.041122101 0.49100003 4282539853
-0.082923457 0.042804409 0.49200001 4285827704
-0.081325442 0.042804409 0.49200001 4285631097
-0.079727426 0.042804409 0.49200001 4285828989
-0.078129411 0.042804409 0.49200001 4285828474
-0.076375842 0.042717412 0.49100003 4285696888
-0.074781075 0.042717412 0.49100003 4286354818
-0.073186301 0.042717412 0.49100003 4286157439
-0.071591534 0.042717412 0.49100003 4285960060
-0.069996759 0.042717412 0.49100003 4285631095
-0.068402 0.042717412 0.49100003 4285367923
-0.10071566 0.031746864 0.50800633 4294967295
-0.10071566 0.031746864 0.50800633 4294901760
-0.10071566 0.031746864 0.50850636 4294901760
-0.10071566 0.031746864 0.50900632 4294901760
-0.10071566 0.031746864 0.50950634 4294901760
-0.10071566 0.031746864 0.51000631 4294901760
-0.10071566 0.031746864 0.51050633 4294901760
-0.10071566 0.031746864 0.51100636 4294901760
-0.10071566 0.031746864 0.51150632 4294901760
-0.10071566 0.031746864 0.51200634 4294901760
-0.10071566 0.031746864 0.51250631 4294901760
-0.10071566 0.031746864 0.51300633 4294901760
-0.10071566 0.031746864 0.51350635 4294901760
-0.10071566 0.031746864 0.51400632 4294901760
-0.10071566 0.031746864 0.51450634 4294901760
-0.10071566 0.031746864 0.51500636 4294901760
-0.10071566 0.031746864 0.51550633 4294901760
-0.10071566 0.031746864 0.51600635 4294901760
-0.10071566 0.031746864 0.51650631 4294901760
-0.10071566 0.031746864 0.51700634 4294901760
-0.10071566 0.031746864 0.51750636 4294901760
-0.10071566 0.031746864 0.51800632 4294901760
-0.10071566 0.031746864 0.51850635 4294901760
-0.10071566 0.031746864 0.51900631 4294901760
-0.10071566 0.031746864 0.51950634 4294901760
-0.10071566 0.031746864 0.52000636 4294901760
-0.10071566 0.031746864 0.52050632 4294901760
-0.10071566 0.031746864 0.52100635 4294901760
-0.10071566 0.031746864 0.52150631 4294901760
-0.10071566 0.031746864 0.52200633 4294901760
-0.10071566 0.031746864 0.52250636 4294901760
-0.10071566 0.031746864 0.52300632 4294901760
-0.10071566 0.031746864 0.52350634 4294901760
-0.10071566 0.031746864 0.52400637 4294901760
-0.10071566 0.031746864 0.52450633 4294901760
-0.10071566 0.031746864 0.52500635 4294901760
-0.10071566 0.031746864 0.52550632 4294901760
-0.10071566 0.031746864 0.52600634 4294901760
-0.10071566 0.031746864 0.52650636 4294901760
-0.10071566 0.031746864 0.52700633 4294901760
-0.10071566 0.031746864 0.52750635 4294901760
-0.10071566 0.031746864 0.52800632 4294901760
-0.10071566 0.031746864 0.52850634 4294901760
-0.10071566 0.031746864 0.52900636 4294901760
-0.10071566 0.031746864 0.52950633 4294901760
-0.10071566 0.031746864 0.53000635 4294901760
-0.10071566 0.031746864 0.53050631 4294901760
-0.10071566 0.031746864 0.53100634 4294901760
-0.10071566 0.031746864 0.53150636 4294901760
-0.10071566 0.031746864 0.53200632 4294901760
-0.10071566 0.031746864 0.53250635 4294901760
-0.10071566 0.031746864 0.53300631 4294901760
-0.10071566 0.031746864 0.53350633 4294901760
-0.10071566 0.031746864 0.53400636 4294901760
-0.10071566 0.031746864 0.53450632 4294901760
-0.10071566 0.031746864 0.53500634 4294901760
-0.10071566 0.031746864 0.53550637 4294901760
-0.10071566 0.031746864 0.53600633 4294901760
-0.10071566 0.031746864 0.53650635 4294901760
-0.10071566 0.031746864 0.53700632 4294901760
-0.10071566 0.031746864 0.53750634 4294901760
-0.10071566 0.031746864 0.53800637 4294901760
-0.10071566 0.031746864 0.53850633 4294901760
-0.10071566 0.031746864 0.53900635 4294901760
-0.10071566 0.031746864 0.53950632 4294901760
-0.10071566 0.031746864 0.54000634 4294901760
-0.10071566 0.031746864 0.54050636 4294901760
-0.10071566 0.031746864 0.54100633 4294901760
-0.10071566 0.031746864 0.54150635 4294901760
-0.10071566 0.031746864 0.54200637 4294901760
-0.10071566 0.031746864 0.54250634 4294901760
-0.10071566 0.031746864 0.54300636 4294901760
-0.10071566 0.031746864 0.54350632 4294901760
-0.10071566 0.031746864 0.54400635 4294901760
-0.10071566 0.031746864 0.54450637 4294901760
-0.10071566 0.031746864 0.54500633 4294901760
-0.10071566 0.031746864 0.54550636 4294901760
-0.10071566 0.031746864 0.54600632 4294901760
-0.10071566 0.031746864 0.54650635 4294901760
-0.10071566 0.031746864 0.54700637 4294901760
-0.10071566 0.031746864 0.54750633 4294901760
-0.10071566 0.031746864 0.54800636 4294901760
-0.10071566 0.031746864 0.54850632 4294901760
-0.10071566 0.031746864 0.54900634 4294901760
-0.10071566 0.031746864 0.54950637 4294901760
-0.10071566 0.031746864 0.55000633 4294901760
-0.10071566 0.031746864 0.55050635 4294901760
-0.10071566 0.031746864 0.55100632 4294901760
-0.10071566 0.031746864 0.55150634 4294901760
-0.10071566 0.031746864 0.55200636 4294901760
-0.10071566 0.031746864 0.55250633 4294901760
-0.10071566 0.031746864 0.55300635 4294901760
-0.10071566 0.031746864 0.55350637 4294901760
-0.10071566 0.031746864 0.55400634 4294901760
-0.10071566 0.031746864 0.55450636 4294901760
-0.10071566 0.031746864 0.55500633 4294901760
-0.10071566 0.031746864 0.55550635 4294901760
-0.10071566 0.031746864 0.55600637 4294901760
-0.10071566 0.031746864 0.55650634 4294901760
-0.10071566 0.031746864 0.55700636 4294901760
-0.10071566 0.031746864 0.55750632 4294901760
-0.10071566 0.031746864 0.55800635 4294901760
-0.10071566 0.031746864 0.50800633 4278255360
-0.10047342 0.031757779 0.50844359 4278255360
-0.10023117 0.031768695 0.50888085 4278255360
-0.09998893 0.031779606 0.50931811 4278255360
-0.099746689 0.031790521 0.50975537 4278255360
-0.099504441 0.031801436 0.51019263 4278255360
-0.0992622 0.031812351 0.51062989 4278255360
-0.099019952 0.031823263 0.51106715 4278255360
-0.098777711 0.031834178 0.51150441 4278255360
-0.098535471 0.031845093 0.51194173 4278255360
-0.098293222 0.031856008 0.51237899 4278255360
-0.098050982 0.031866923 0.51281625 4278255360
-0.097808741 0.031877834 0.51325351 4278255360
-0.097566493 0.031888749 0.51369077 4278255360
-0.097324252 0.031899665 0.51412803 4278255360
-0.097082004 0.03191058 0.51456529 4278255360
-0.096839763 0.031921491 0.51500255 4278255360
-0.096597522 0.031932406 0.51543981 4278255360
-0.096355274 0.031943321 0.51587707 4278255360
-0.096113034 0.031954236 0.51631433 4278255360
-0.095870793 0.031965151 0.51675159 4278255360
-0.095628545 0.031976063 0.51718885 4278255360
-0.095386304 0.031986978 0.51762611 4278255360
-0.095144063 0.031997893 0.51806337 4278255360
-0.094901815 0.032008808 0.51850063 4278255360
-0.094659574 0.032019719 0.51893795 4278255360
-0.094417326 0.032030635 0.51937521 4278255360
-0.094175085 0.03204155 0.51981246 4278255360
-0.093932845 0.032052465 0.52024972 4278255360
-0.093690597 0.03206338 0.52068698 4278255360
-0.093448356 0.032074291 0.52112424 4278255360
-0.093206108 0.032085206 0.5215615 4278255360
-0.092963867 0.032096121 0.52199876 4278255360
-0.092721626 0.032107037 0.52243602 4278255360
-0.092479378 0.032117952 0.52287328 4278255360
-0.092237137 0.032128863 0.52331054 4278255360
-0.091994897 0.032139778 0.5237478 4278255360
-0.091752648 0.032150693 0.52418506 4278255360
-0.091510408 0.032161608 0.52462232 4278255360
-0.091268167 0.03217252 0.52505958 4278255360
-0.091025919 0.032183435 0.52549684 4278255360
-0.090783678 0.03219435 0.5259341 4278255360
-0.090541437 0.032205265 0.52637136 4278255360
-0.090299189 0.03221618 0.52680868 4278255360
-0.090056948 0.032227091 0.52724594 4278255360
-0.0898147 0.032238007 0.5276832 4278255360
-0.089572459 0.032248922 0.52812046 4278255360
-0.089330219 0.032259837 0.52855772 4278255360
-0.089087971 0.032270748 0.52899498 4278255360
-0.08884573 0.032281663 0.52943224 4278255360
-0.088603482 0.032292578 0.5298695 4278255360
-0.088361241 0.032303493 0.53030676 4278255360
-0.088119 0.032314409 0.53074402 4278255360
-0.087876752 0.03232532 0.53118128 4278255360
-0.087634511 0.032336235 0.53161854 4278255360
-0.087392271 0.03234715 0.5320558 4278255360
-0.087150022 0.032358065 0.53249305 4278255360
-0.086907782 0.032368977 0.53293031 4278255360
-0.086665541 0.032379892 0.53336757 4278255360
-0.086423293 0.032390807 0.53380489 4278255360
-0.086181052 0.032401722 0.53424215 4278255360
-0.085938804 0.032412637 0.53467941 4278255360
-0.085696563 0.032423548 0.53511667 4278255360
-0.085454322 0.032434464 0.53555393 4278255360
-0.085212074 0.032445379 0.53599119 4278255360
-0.084969833 0.032456294 0.53642845 4278255360
-0.084727585 0.032467205 0.53686571 4278255360
-0.084485345 0.03247812 0.53730297 4278255360
-0.084243104 0.032489035 0.53774023 4278255360
-0.084000856 0.03249995 0.53817749 4278255360
-0.083758615 0.032510865 0.53861475 4278255360
-0.083516374 0.032521777 0.53905201 4278255360
-0.083274126 0.032532692 0.53948927 4278255360
-0.083031885 0.032543607 0.53992653 4278255360
-0.082789645 0.032554522 0.54036379 4278255360
-0.082547396 0.032565437 0.54080105 4278255360
-0.082305156 0.032576349 0.54123837 4278255360
-0.082062915 0.032587264 0.54167563 4278255360
-0.081820667 0.032598179 0.54211289 4278255360
-0.081578426 0.032609094 0.54255015 4278255360
-0.081336178 0.032620005 0.54298741 4278255360
-0.081093937 0.03263092 0.54342467 4278255360
-0.080851696 0.032641836 0.54386193 4278255360
-0.080609448 0.032652751 0.54429919 4278255360
-0.080367208 0.032663666 0.54473644 4278255360
-0.080124959 0.032674577 0.5451737 4278255360
-0.079882719 0.032685492 0.54561096 4278255360
-0.079640478 0.032696407 0.54604822 4278255360
-0.07939823 0.032707322 0.54648548 4278255360
-0.079155989 0.032718234 0.54692274 4278255360
-0.078913748 0.032729149 0.54736 4278255360
-0.0786715 0.032740064 0.54779732 4278255360
-0.078429259 0.032750979 0.54823458 4278255360
-0.078187019 0.032761894 0.54867184 4278255360
-0.07794477 0.032772806 0.5491091 4278255360
-0.07770253 0.032783721 0.54954636 4278255360
-0.077460289 0.032794636 0.54998362 4278255360
-0.077218041 0.032805551 0.55042088 4278255360
-0.0769758 0.032816462 0.55085814 4278255360
-0.076733552 0.032827377 0.5512954 4278255360
-0.076491311 0.032838292 0.55173266 4278255360
