# .PCD v0.7 - Point Cloud Data file format
VERSION 0.7
FIELDS x y z rgb
SIZE 4 4 4 4
TYPE F F F U
COUNT 1 1 1 1
WIDTH 1009
HEIGHT 1
VIEWPOINT 0 0 0 1 0 0 0
POINTS 1009
DATA ascii
0.0031160575 0.038107038 0.45500001 4278731287
0.0045938981 0.038107038 0.45500001 4278533908
0.0060583949 0.038023289 0.45400003 4278533908
0.0075163944 0.037939534 0.45300001 4278927382
0.0089877397 0.037939534 0.45300001 4278199811
0.00016178592 0.039933383 0.45900002 4278928152
0.0016454178 0.039759383 0.45700002 4278797080
0.003122906 0.039672382 0.45600003 4278797080
0.0045938981 0.039585378 0.45500001 4278665494
0.0060583949 0.039498381 0.45400003 4278731287
0.0075163944 0.039411377 0.45300001 4279058970
0.0089877397 0.039411377 0.45300001 4278197760
0.010435997 0.039324377 0.45200002 4278991894
0.011877757 0.03923738 0.45100003 4278992662
0.013342606 0.03923738 0.45100003 4278196992
0.014774622 0.039150376 0.45000002 4278197504
0.016200142 0.039063375 0.44900003 4278397195
0.044627659 0.036105346 0.41500002 4282874714
0.045975581 0.036105346 0.41500002 4285506180
0.047551569 0.036279351 0.41700003 4286361482
0.048905987 0.036279351 0.41700003 4284387699
0.05038093 0.036366347 0.41800001 4281096253
0.051738594 0.036366347 0.41800001 4280175151
-0.0043952363 0.042236976 0.46800002 4279451934
-0.002856741 0.041966226 0.46500003 4279124761
-0.001340629 0.041785724 0.46300003 4278928152
0.0001621384 0.041514974 0.46000001 4278993945
0.0016490183 0.041334476 0.45800003 4278928154
0.003122906 0.041153975 0.45600003 4278993947
0.0045938981 0.041063726 0.45500001 4278796568
0.0060583949 0.040973477 0.45400003 4278796568
0.0075163944 0.040883224 0.45300001 4278861080
0.0089877397 0.040883224 0.45300001 4278196482
0.010435997 0.040792976 0.45200002 4278859027
0.011877757 0.040702727 0.45100003 4278859797
0.013313021 0.040612474 0.45000002 4278655754
0.014774622 0.040612474 0.45000002 4278786570
0.016200142 0.040522225 0.44900003 4278786058
0.017579837 0.040341727 0.44700003 4278720779
0.018989118 0.040251475 0.44600001 4278589963
0.020391902 0.040161226 0.44500002 4278589963
0.021788191 0.040070977 0.44400004 4278195459
0.023230303 0.040070977 0.44400004 4278195972
0.024616847 0.039980724 0.44300002 4278196226
0.025996897 0.039890476 0.44200003 4278200331
0.027432514 0.039890476 0.44200003 4278531861
0.028802816 0.039800227 0.44100001 4278925849
0.030235186 0.039800227 0.44100001 4279058459
0.031595748 0.039709978 0.44000003 4278598421
0.033024866 0.039709978 0.44000003 4278599189
0.035393793 0.039168477 0.43400002 4278468117
0.036718626 0.039078228 0.43300003 4278468117
0.039992332 0.038175724 0.42300001 4278402837
0.041366238 0.038175724 0.42300001 4278468630
0.042639103 0.038085476 0.42200002 4278731802
0.043592606 0.037724476 0.41800001 4278994461
0.044950269 0.037724476 0.41800001 4278797084
0.046307936 0.037724476 0.41800001 4278994463
0.047779635 0.037814729 0.41900003 4278731037
0.049140546 0.037814729 0.41900003 4279125029
0.050621986 0.037904978 0.42000002 4281163583
0.051986147 0.037904978 0.42000002 4284781944
-0.0043952363 0.043757554 0.46800002 4279452447
-0.002856741 0.043477058 0.46500003 4278797082
-0.0013377335 0.043196559 0.46200001 4278797082
0.0001621384 0.043009561 0.46000001 4278665496
0.0016490183 0.042822566 0.45800003 4278797084
0.003122906 0.042635567 0.45600003 4278862877
0.0045938981 0.042542066 0.45500001 4278665498
0.0060583949 0.042448569 0.45400003 4278533912
0.0075163944 0.042355068 0.45300001 4278795800
0.0089678997 0.042261571 0.45200002 4278195456
0.010435997 0.042261571 0.45200002 4278991383
0.011877757 0.04216807 0.45100003 4278464269
0.013313021 0.042074572 0.45000002 4278195205
0.01474179 0.041981071 0.44900003 4278589193
0.016164061 0.041887574 0.44800001 4278654732
0.017579837 0.041794073 0.44700003 4278720525
0.018989118 0.041700576 0.44600001 4278654732
0.020391902 0.041607074 0.44500002 4278523146
0.021788191 0.041513577 0.44400004 4278720525
0.023230303 0.041513577 0.44400004 4278654732
0.024616847 0.041420076 0.44300002 4278720525
0.026055712 0.041420076 0.44300002 4278393865
0.027432514 0.041326579 0.44200003 4278859545
0.028802816 0.041233078 0.44100001 4278530580
0.030235186 0.041233078 0.44100001 4278595349
0.031595748 0.04113958 0.44000003 4278197250
0.032949809 0.041046079 0.43900001 4278196224
0.034219075 0.040859081 0.43700001 4278196480
0.035393793 0.040578585 0.43400002 4278198790
0.036718626 0.040485088 0.43300003 4279121433
0.037948914 0.040298089 0.43100002 4278793750
0.039257504 0.040204588 0.43000001 4279058459
0.040275969 0.039830595 0.42600003 4278927384
0.041561823 0.039737094 0.42500001 4278533396
0.042841185 0.039643597 0.42400002 4278468117
0.043905474 0.039363101 0.42100003 4278665496
0.045272879 0.039363101 0.42100003 4278533908
0.046640292 0.039363101 0.42100003 4278665496
0.048121728 0.039456598 0.42200002 4278665498
0.049492389 0.039456598 0.42200002 4278533912
0.050863042 0.039456598 0.42200002 4278993949
0.052357472 0.039550096 0.42300001 4279059740
0.054112453 0.039830595 0.42600003 4278993177
0.055756651 0.040017594 0.42800003 4279584551
0.057280317 0.040111091 0.42900002 4280176688
0.058810472 0.040204588 0.43000001 4284321393
0.060347132 0.040298089 0.43100002 4284979836
0.061747022 0.040298089 0.43100002 4279782959
0.063293427 0.040391587 0.43200001 4279453224
-0.0043858448 0.045181382 0.46700001 4278794517
-0.002856741 0.044987891 0.46500003 4278731291
-0.0013377335 0.044697642 0.46200001 4278797597
0.0001621384 0.044504147 0.46000001 4278600218
0.0016490183 0.044310652 0.45800003 4278731804
0.0031297544 0.044213902 0.45700002 4278731804
0.0045938981 0.044020407 0.45500001 4278797084
0.0060583949 0.043923661 0.45400003 4278533912
0.0075163944 0.043826912 0.45300001 4279255838
0.0089678997 0.043730162 0.45200002 4278198787
0.010435997 0.043730162 0.45200002 4279123482
0.011877757 0.043633416 0.45100003 4278200326
0.013313021 0.043536667 0.45000002 4278195202
0.01474179 0.043439921 0.44900003 4279249176
0.016164061 0.043343168 0.44800001 4278328074
0.017579837 0.043246422 0.44700003 4279445785
0.018989118 0.043149672 0.44600001 4278194433
0.020391902 0.043052927 0.44500002 4279577369
0.021837264 0.043052927 0.44500002 4279379992
0.023230303 0.042956181 0.44400004 4279445785
0.024616847 0.042859428 0.44300002 4279050514
0.026055712 0.042859428 0.44300002 4278986004
0.027432514 0.042762682 0.44200003 4278794263
0.028802816 0.042665932 0.44100001 4278795033
0.030166626 0.042569187 0.44000003 4278662677
0.031595748 0.042569187 0.44000003 4279056922
0.032949809 0.042472437 0.43900001 4279056922
0.034219075 0.042278938 0.43700001 4279320094
0.035475347 0.042085446 0.43500003 4278991129
0.036803428 0.041988697 0.43400002 4279779875
0.038036961 0.041795198 0.43200001 4279056154
0.0393488 0.041698452 0.43100002 4278595089
0.040465057 0.041408207 0.42800003 4278265611
0.041757409 0.041311458 0.42700002 4278196480
0.043043267 0.041214712 0.42600003 4278196736
0.044218339 0.041021217 0.42400002 4278198789
0.045595489 0.041021217 0.42400002 4278661394
0.046972644 0.041021217 0.42400002 4279121945
0.048349794 0.041021217 0.42400002 4279451934
0.049726948 0.041021217 0.42400002 4279320861
0.051224627 0.041117962 0.42500001 4278795285
0.052605029 0.041117962 0.42500001 4278992664
0.054366503 0.041408207 0.42800003 4278927384
0.055886921 0.041504957 0.42900002 4278993177
0.057413835 0.041601703 0.43000001 4278862361
0.058810472 0.041601703 0.43000001 4278928154
0.060347132 0.041698452 0.43100002 4279059742
0.061890285 0.041795198 0.43200001 4278993949
0.063293427 0.041795198 0.43200001 4279126049
0.064546801 0.041698452 0.43100002 4278928670
0.065946691 0.041698452 0.43100002 4278596373
-0.0043858448 0.046698716 0.46700001 4279649826
-0.002856741 0.046498723 0.46500003 4278862361
-0.0013377335 0.046198729 0.46200001 4278666011
0.0001621384 0.045998733 0.46000001 4278666011
0.0016490183 0.045798741 0.45800003 4278666011
0.0031297544 0.045698743 0.45700002 4278731804
0.0045938981 0.045498747 0.45500001 4278731804
0.0060583949 0.045398753 0.45400003 4278666011
0.0075163944 0.045298751 0.45300001 4278398992
0.0089678997 0.045198757 0.45200002 4278196742
0.010435997 0.045198757 0.45200002 4278991383
0.011877757 0.045098759 0.45100003 4278198787
0.013313021 0.044998761 0.45000002 4278919439
0.01474179 0.044898767 0.44900003 4278524683
0.016164061 0.044798765 0.44800001 4279314969
0.017579837 0.044698771 0.44700003 4279380760
0.018989118 0.044598773 0.44600001 4278195461
0.020391902 0.044498775 0.44500002 4278458890
0.021837264 0.044498775 0.44500002 4278327304
0.023230303 0.044398781 0.44400004 4279315480
0.024616847 0.044298783 0.44300002 4278195718
0.026055712 0.044298783 0.44300002 4279578139
0.027432514 0.044198785 0.44200003 4278728724
0.028802816 0.044098787 0.44100001 4278200328
0.030166626 0.043998789 0.44000003 4278460683
0.031595748 0.043998789 0.44000003 4278196994
0.032949809 0.043898791 0.43900001 4278858259
0.034219075 0.043698795 0.43700001 4278197248
0.035556898 0.043598801 0.43600002 4278727957
0.036888227 0.043498803 0.43500003 4279123228
0.038125012 0.043298811 0.43300003 4278728470
0.039440095 0.043198809 0.43200001 4279254814
0.040654145 0.042998817 0.43000001 4279254553
0.041952994 0.042898819 0.42900002 4279254553
0.043245349 0.042798825 0.42800003 4279320348
0.044531204 0.042698827 0.42700002 4279386141
0.045810562 0.042598829 0.42600003 4280109864
0.047194213 0.042598829 0.42600003 4278990359
0.04857786 0.042598829 0.42600003 4279186711
0.049961511 0.042598829 0.42600003 4278594574
0.051465686 0.042698827 0.42700002 4278197762
0.052852582 0.042698827 0.42700002 4278196736
0.054493528 0.042898819 0.42900002 4278199815
0.055886921 0.042898819 0.42900002 4279190045
0.057413835 0.042998817 0.43000001 4278993947
0.058947243 0.043098815 0.43100002 4278928154
0.060347132 0.043098815 0.43100002 4278862361
0.061890285 0.043198809 0.43200001 4278796568
0.063293427 0.043198809 0.43200001 4278664982
0.064546801 0.043098815 0.43100002 4278862361
0.065946691 0.043098815 0.43100002 4279058970
0.06734658 0.043098815 0.43100002 4280568879
-0.0043952363 0.048319291 0.46800002 4279255838
-0.002856741 0.048009556 0.46500003 4278993949
-0.0013377335 0.047699813 0.46200001 4278731802
0.0001621384 0.04749332 0.46000001 4278731802
0.0016490183 0.047286831 0.45800003 4278666009
0.0031297544 0.047183581 0.45700002 4278666009
0.004603995 0.047080338 0.45600003 4278600216
0.0060583949 0.046873845 0.45400003 4278731289
0.0075163944 0.046770595 0.45300001 4278991129
0.0089877397 0.046770595 0.45300001 4278856724
0.010435997 0.046667352 0.45200002 4278991129
0.011877757 0.046564106 0.45100003 4278199046
0.013313021 0.046460856 0.45000002 4278721549
0.01474179 0.046357613 0.44900003 4278720779
0.016164061 0.046254363 0.44800001 4278851851
0.017579837 0.04615112 0.44700003 4278851851
0.018989118 0.04604787 0.44600001 4278786058
0.020391902 0.045944627 0.44500002 4278851597
0.021837264 0.045944627 0.44500002 4278589963
0.023230303 0.045841381 0.44400004 4278854418
0.024616847 0.045738135 0.44300002 4278656269
0.026055712 0.045738135 0.44300002 4279578652
0.027432514 0.045634888 0.44200003 4279385371
0.028802816 0.045531642 0.44100001 4278263558
0.030166626 0.045428395 0.44000003 4278852361
0.031595748 0.045428395 0.44000003 4278524681
0.032949809 0.045325149 0.43900001 4278396173
0.034297381 0.045221902 0.43800002 4279516191
0.035556898 0.04501541 0.43600002 4278198273
0.036888227 0.044912163 0.43500003 4278198790
0.038213059 0.044808917 0.43400002 4278990361
0.039531395 0.04470567 0.43300003 4278198532
0.040748693 0.044499177 0.43100002 4278399505
0.042050786 0.044395931 0.43000001 4278992412
0.043447427 0.044395931 0.43000001 4278861080
0.044739779 0.044292685 0.42900002 4278992664
0.046025638 0.044189438 0.42800003 4278992664
0.047415782 0.044189438 0.42800003 4279190043
0.048805926 0.044189438 0.42800003 4279386650
0.050196074 0.044189438 0.42800003 4279320859
0.051586218 0.044189438 0.42800003 4279320861
0.053100135 0.044292685 0.42900002 4279255068
0.054620549 0.044395931 0.43000001 4278660369
0.05601719 0.044395931 0.43000001 4279187740
0.057547357 0.044499177 0.43100002 4278993947
0.058947243 0.044499177 0.43100002 4278862361
0.060487147 0.044602424 0.43200001 4278664980
0.061890285 0.044602424 0.43200001 4278664980
0.063146912 0.044499177 0.43100002 4278599187
0.064546801 0.044499177 0.43100002 4278467601
0.065946691 0.044499177 0.43100002 4278664212
0.06734658 0.044499177 0.43100002 4278200839
-0.0043952363 0.049839873 0.46800002 4279255066
-0.002856741 0.049520388 0.46500003 4278862361
-0.001340629 0.049307395 0.46300003 4278797595
0.00016249088 0.049094405 0.46100003 4278666009
0.0016526188 0.048881412 0.45900002 4278600216
0.0031297544 0.048668422 0.45700002 4278600216
0.004603995 0.048561927 0.45600003 4278600216
0.0060717394 0.048455428 0.45500001 4278336531
0.0075329873 0.048348937 0.45400003 4278200071
0.0089877397 0.048242439 0.45300001 4278331404
0.010435997 0.048135944 0.45200002 4278860826
0.011877757 0.048029449 0.45100003 4279123998
0.013313021 0.047922954 0.45000002 4279778850
0.01474179 0.047816459 0.44900003 4278461453
0.016164061 0.04770996 0.44800001 4278853131
0.017579837 0.047603469 0.44700003 4278851849
0.018989118 0.047496971 0.44600001 4278852365
0.020391902 0.047390476 0.44500002 4278786318
0.021837264 0.047390476 0.44500002 4278983183
0.023230303 0.047283981 0.44400004 4278851597
0.024616847 0.047177486 0.44300002 4278786318
0.026055712 0.047177486 0.44300002 4280039203
0.027432514 0.047070991 0.44200003 4278924566
0.028802816 0.046964493 0.44100001 4278330121
0.030166626 0.046858002 0.44000003 4278786572
0.031523935 0.046751503 0.43900001 4278656267
0.032949809 0.046751503 0.43900001 4278660369
0.034297381 0.046645008 0.43800002 4279055127
0.035638448 0.046538509 0.43700001 4278199301
0.036973029 0.046432018 0.43600002 4278266122
0.038301107 0.046325523 0.43500003 4279187740
0.039622691 0.046219025 0.43400002 4278266638
0.040937781 0.04611253 0.43300003 4279450658
0.042246372 0.046006035 0.43200001 4278200334
0.043548469 0.04589954 0.43100002 4278594835
0.044844069 0.045793042 0.43000001 4278595089
0.046240706 0.045793042 0.43000001 4278266124
0.047637347 0.045793042 0.43000001 4278198530
0.048919957 0.04568655 0.42900002 4279057176
0.050313354 0.04568655 0.42900002 4278596625
0.051827271 0.045793042 0.43000001 4279386654
0.053223912 0.045793042 0.43000001 4279123482
0.054620549 0.045793042 0.43000001 4278727189
0.056147467 0.04589954 0.43100002 4279582498
0.057547357 0.04589954 0.43100002 4278993175
0.059084009 0.046006035 0.43200001 4278993175
0.060487147 0.046006035 0.43200001 4278599187
0.061890285 0.046006035 0.43200001 4278664980
0.063146912 0.04589954 0.43100002 4278467601
0.064546801 0.04589954 0.43100002 4278336017
0.065946691 0.04589954 0.43100002 4278597908
0.067190319 0.045793042 0.43000001 4278333712
-0.0044140196 0.051579941 0.47000003 4279319576
-0.0028628844 0.05114096 0.46600002 4279058457
-0.0013435245 0.050921474 0.46400002 4278402326
0.00016249088 0.05059224 0.46100003 4278402326
0.0016562191 0.050482493 0.46000001 4278533912
0.0031366032 0.050263006 0.45800003 4278402326
0.004603995 0.050043516 0.45600003 4278336531
0.0060717394 0.049933773 0.45500001 4278402324
0.0075329873 0.049824029 0.45400003 4278795800
0.0089877397 0.049714282 0.45300001 4278860826
0.010435997 0.049604539 0.45200002 4279058718
0.011904093 0.049604539 0.45200002 4278664730
0.013313021 0.049385048 0.45000002 4278795800
0.01474179 0.049275305 0.44900003 4278927386
0.016164061 0.049165558 0.44800001 4278992666
0.017579837 0.049055815 0.44700003 4278991642
0.018989118 0.048946071 0.44600001 4279319324
0.020391902 0.048836328 0.44500002 4279648289
0.021837264 0.048836328 0.44500002 4279581217
0.023230303 0.048726585 0.44400004 4278988310
0.024616847 0.048616838 0.44300002 4278657550
0.026055712 0.048616838 0.44300002 4279316762
0.027432514 0.048507094 0.44200003 4278195456
0.028802816 0.048397347 0.44100001 4278461453
0.030166626 0.048287604 0.44000003 4279184408
0.031523935 0.048177857 0.43900001 4279644959
0.032874752 0.048068114 0.43800002 4279253019
0.034219075 0.04795837 0.43700001 4279121431
0.035556898 0.047848627 0.43600002 4279121945
0.036973029 0.047848627 0.43600002 4279319324
0.038301107 0.047738884 0.43500003 4278924566
0.039622691 0.047629137 0.43400002 4279385117
0.040937781 0.047519393 0.43300003 4278859543
0.042344164 0.047519393 0.43300003 4278595603
0.04364951 0.047409646 0.43200001 4278199307
0.044948358 0.047299903 0.43100002 4280107561
0.046348244 0.047299903 0.43100002 4279121179
0.047748134 0.047299903 0.43100002 4278462990
0.049148023 0.047299903 0.43100002 4278331402
0.050430629 0.047190156 0.43000001 4279515678
0.051947802 0.047299903 0.43100002 4278530578
0.053347688 0.047299903 0.43100002 4279189021
0.054747578 0.047299903 0.43100002 4278727187
0.056147467 0.047299903 0.43100002 4279517475
0.057680875 0.047409646 0.43200001 4279124763
0.059084009 0.047409646 0.43200001 4279124763
0.060487147 0.047409646 0.43200001 4278862359
0.061890285 0.047409646 0.43200001 4278664980
0.063293427 0.047409646 0.43200001 4278664982
0.064546801 0.047299903 0.43100002 4278467603
0.065946691 0.047299903 0.43100002 4278729492
0.067190319 0.047190156 0.43000001 4278728724
-0.00134642 0.052542049 0.46500003 4279450650
0.00016284335 0.052203067 0.46200001 4278794004
0.0016562191 0.051977079 0.46000001 4278926103
0.0031366032 0.051751096 0.45800003 4279189275
0.004614091 0.0516381 0.45700002 4278861080
0.0060850838 0.051525109 0.45600003 4278532628
0.0075329873 0.051299121 0.45400003 4278533398
0.0090075806 0.051299121 0.45400003 4278796570
0.010459085 0.051186126 0.45300001 4278928156
0.011904093 0.051073134 0.45200002 4278796570
0.013342606 0.050960138 0.45100003 4278664984
0.01474179 0.050734151 0.44900003 4278862363
0.016164061 0.050621156 0.44800001 4278664984
0.017579837 0.050508164 0.44700003 4278796570
0.018989118 0.050395168 0.44600001 4278796570
0.020391902 0.050282177 0.44500002 4278795798
0.021837264 0.050282177 0.44500002 4279058970
0.023230303 0.050169185 0.44400004 4278795798
0.024616847 0.050056189 0.44300002 4278992664
0.025996897 0.049943198 0.44200003 4278991894
0.027370447 0.049830202 0.44100001 4279057176
0.028802816 0.049830202 0.44100001 4279648543
0.030166626 0.04971721 0.44000003 4279976740
0.031523935 0.049604215 0.43900001 4279055638
0.032874752 0.049491223 0.43800002 4278726162
0.034219075 0.049378227 0.43700001 4278198533
0.035556898 0.049265232 0.43600002 4278196992
0.036888227 0.04915224 0.43500003 4278196224
0.038301107 0.04915224 0.43500003 4278198022
0.039622691 0.049039245 0.43400002 4278265357
0.041032325 0.049039245 0.43400002 4279121947
0.042344164 0.048926253 0.43300003 4279319324
0.04364951 0.048813257 0.43200001 4279255068
0.045052644 0.048813257 0.43200001 4279123482
0.046455778 0.048813257 0.43200001 4279584033
0.047748134 0.048700266 0.43100002 4279780899
0.049148023 0.048700266 0.43100002 4279582496
0.050547913 0.048700266 0.43100002 4278200072
0.051947802 0.048700266 0.43100002 4278858773
0.053347688 0.048700266 0.43100002 4279255068
0.054747578 0.048700266 0.43100002 4278196736
0.056277737 0.048813257 0.43200001 4279715106
0.057680875 0.048813257 0.43200001 4278993947
0.059084009 0.048813257 0.43200001 4278796568
0.060487147 0.048813257 0.43200001 4278533396
0.061890285 0.048813257 0.43200001 4278796568
0.063293427 0.048813257 0.43200001 4278599189
0.064546801 0.048700266 0.43100002 4278466833
0.065946691 0.048700266 0.43100002 4278663701
0.067190319 0.04858727 0.43000001 4278531345
0.004614091 0.053122938 0.45700002 4278658314
0.0060850838 0.053006697 0.45600003 4279053842
0.0075495797 0.052890453 0.45500001 4279319324
0.0090075806 0.052774213 0.45400003 4278990359
0.010459085 0.052657969 0.45300001 4279189021
0.011904093 0.052541725 0.45200002 4279320607
0.013342606 0.052425485 0.45100003 4279386400
0.01474179 0.052192997 0.44900003 4279189791
0.016164061 0.052076753 0.44800001 4278992925
0.017579837 0.051960513 0.44700003 4278992925
0.018989118 0.051844269 0.44600001 4279058972
0.020437727 0.051844269 0.44600001 4278927386
0.021837264 0.051728029 0.44500002 4278927384
0.023230303 0.051611785 0.44400004 4278927384
0.024616847 0.051495541 0.44300002 4278599189
0.025996897 0.051379301 0.44200003 4278664982
0.027370447 0.051263057 0.44100001 4278927384
0.028737504 0.051146813 0.44000003 4278927384
0.030098066 0.051030569 0.43900001 4278927384
0.031452131 0.050914329 0.43800002 4278795798
0.032799695 0.050798085 0.43700001 4278400527
0.034140769 0.050681841 0.43600002 4278992664
0.035556898 0.050681841 0.43600002 4278926103
0.036888227 0.0505656 0.43500003 4279057176
0.038301107 0.0505656 0.43500003 4279056152
0.039622691 0.050449356 0.43400002 4279385117
0.041032325 0.050449356 0.43400002 4279055638
0.042344164 0.050333116 0.43300003 4278923539
0.043750551 0.050333116 0.43300003 4278197763
0.045156933 0.050333116 0.43300003 4278194944
0.046455778 0.050216869 0.43200001 4278196992
0.04785892 0.050216869 0.43200001 4278199047
0.049262054 0.050216869 0.43200001 4279055640
0.050665192 0.050216869 0.43200001 4279713568
0.052068327 0.050216869 0.43200001 4279648543
0.053471465 0.050216869 0.43200001 4279977508
0.054874599 0.050216869 0.43200001 4278197248
0.056277737 0.050216869 0.43200001 4279451934
0.057680875 0.050216869 0.43200001 4279190554
0.059084009 0.050216869 0.43200001 4278993175
0.060487147 0.050216869 0.43200001 4278928152
0.061890285 0.050216869 0.43200001 4278928152
0.063293427 0.050216869 0.43200001 4278467603
0.064546801 0.050100628 0.43100002 4278466833
0.065946691 0.050100628 0.43100002 4278662931
0.067190319 0.049984384 0.43000001 4278333199
0.010459085 0.054129809 0.45300001 4285631606
0.011930429 0.054129809 0.45300001 4284711022
0.013401774 0.054129809 0.45300001 4282212941
0.01474179 0.053651847 0.44900003 4279647527
0.016164061 0.053532351 0.44800001 4279252252
0.017579837 0.053412862 0.44700003 4279910949
0.018989118 0.053293366 0.44600001 4279385635
0.020437727 0.053293366 0.44600001 4279451428
0.021837264 0.053173877 0.44500002 4279320609
0.023230303 0.053054389 0.44400004 4279320607
0.024616847 0.052934892 0.44300002 4279190304
0.025996897 0.052815404 0.44200003 4278927132
0.027370447 0.052695908 0.44100001 4278795800
0.028737504 0.052576419 0.44000003 4278466835
0.030098066 0.052456923 0.43900001 4278730005
0.031452131 0.052337434 0.43800002 4278730005
0.032799695 0.052217942 0.43700001 4278730005
0.034140769 0.052098449 0.43600002 4278795798
0.035475347 0.051978961 0.43500003 4279058970
0.036888227 0.051978961 0.43500003 4278795798
0.038213059 0.051859464 0.43400002 4278730005
0.039622691 0.051859464 0.43400002 4278730003
0.041032325 0.051859464 0.43400002 4278795796
0.042344164 0.051739976 0.43300003 4278861078
0.043750551 0.051739976 0.43300003 4279189275
0.045156933 0.051739976 0.43300003 4278991896
0.04656332 0.051739976 0.43300003 4279188762
0.04785892 0.051620483 0.43200001 4279320348
0.049262054 0.051620483 0.43200001 4279845668
0.050665192 0.051620483 0.43200001 4280042533
0.052068327 0.051620483 0.43200001 4278199561
0.053471465 0.051620483 0.43200001 4278196736
0.054874599 0.051620483 0.43200001 4279253017
0.056277737 0.051620483 0.43200001 4279320859
0.057680875 0.051620483 0.43200001 4279255834
0.059084009 0.051620483 0.43200001 4279124248
0.060487147 0.051620483 0.43200001 4278993175
0.061890285 0.051620483 0.43200001 4278927382
0.063293427 0.051620483 0.43200001 4278730003
0.064696558 0.051620483 0.43200001 4278532626
0.065946691 0.051500991 0.43100002 4278794263
0.06734658 0.051500991 0.43100002 4279186459
0.017579837 0.054865211 0.44700003 4285697917
0.018989118 0.054742467 0.44600001 4285895296
0.020391902 0.054619726 0.44500002 4285105778
0.021837264 0.054619726 0.44500002 4283067478
0.023230303 0.054496989 0.44400004 4280897079
0.024616847 0.054374244 0.44300002 4279186974
0.025996897 0.054251507 0.44200003 4278990109
0.027370447 0.054128762 0.44100001 4279055900
0.02867219 0.053883281 0.43900001 4279451682
0.030029505 0.05376054 0.43800002 4279386400
0.031380318 0.053637799 0.43700001 4279254814
0.032724638 0.053515058 0.43600002 4279189275
0.034140769 0.053515058 0.43600002 4279189275
0.035475347 0.053392321 0.43500003 4278992666
0.036803428 0.053269576 0.43400002 4279058459
0.038213059 0.053269576 0.43400002 4278795287
0.039622691 0.053269576 0.43400002 4278861078
0.041032325 0.053269576 0.43400002 4278597906
0.042344164 0.053146835 0.43300003 4278795800
0.043750551 0.053146835 0.43300003 4278993179
0.045156933 0.053146835 0.43300003 4279058459
0.04656332 0.053146835 0.43300003 4278861080
0.047969706 0.053146835 0.43300003 4279058459
0.049376089 0.053146835 0.43300003 4279058459
0.050665192 0.053024095 0.43200001 4278927386
0.052068327 0.053024095 0.43200001 4279058972
0.053471465 0.053024095 0.43200001 4279058459
0.054874599 0.053024095 0.43200001 4279124252
0.056277737 0.053024095 0.43200001 4279124250
0.057814401 0.053146835 0.43300003 4279124248
0.05922078 0.053146835 0.43300003 4279058968
0.060627166 0.053146835 0.43300003 4279058968
0.062033553 0.053146835 0.43300003 4278795796
0.063293427 0.053024095 0.43200001 4278795796
0.064696558 0.053024095 0.43200001 4278532626
0.066099696 0.053024095 0.43200001 4278726935
0.024561279 0.05568761 0.44200003 4284907885
0.025938079 0.055561621 0.44100001 4285565815
0.027308384 0.055435631 0.44000003 4284644713
0.02867219 0.055309638 0.43900001 4285105778
0.030029505 0.055183649 0.43800002 4283724895
0.031380318 0.05505766 0.43700001 4281685825
0.032724638 0.05493167 0.43600002 4279581219
0.034062468 0.054805681 0.43500003 4279120668
0.035475347 0.054805681 0.43500003 4278726935
0.036803428 0.054679688 0.43400002 4278596119
0.038213059 0.054679688 0.43400002 4279648289
0.039622691 0.054679688 0.43400002 4279516703
0.041032325 0.054679688 0.43400002 4279386400
0.042441957 0.054679688 0.43400002 4279189021
0.043750551 0.054553702 0.43300003 4279386400
0.045156933 0.054553702 0.43300003 4279386400
0.04656332 0.054553702 0.43300003 4279123482
0.047969706 0.054553702 0.43300003 4279320861
0.049376089 0.054553702 0.43300003 4279124252
0.050665192 0.054427709 0.43200001 4279058972
0.052068327 0.054427709 0.43200001 4279190558
0.053471465 0.054427709 0.43200001 4279058459
0.054874599 0.054427709 0.43200001 4279058457
0.056277737 0.054427709 0.43200001 4278861078
0.057814401 0.054553702 0.43300003 4279058457
0.05922078 0.054553702 0.43300003 4278927384
0.060627166 0.054553702 0.43300003 4278795796
0.062033553 0.054553702 0.43300003 4278927382
0.063439943 0.054553702 0.43300003 4278795283
0.064846322 0.054553702 0.43300003 4279123480
0.066099696 0.054427709 0.43200001 4278527763
0.032724638 0.056348275 0.43600002 4284381541
0.034062468 0.056219038 0.43500003 4284644713
0.035475347 0.056219038 0.43500003 4284644713
0.036803428 0.056089796 0.43400002 4284315748
0.038213059 0.056089796 0.43400002 4284579434
0.039622691 0.056089796 0.43400002 4284974962
0.041032325 0.056089796 0.43400002 4284646512
0.042441957 0.056089796 0.43400002 4284120168
0.043851592 0.056089796 0.43400002 4283659617
0.045156933 0.055960558 0.43300003 4282804306
0.04656332 0.055960558 0.43300003 4281685825
0.047969706 0.055960558 0.43300003 4281027895
0.049376089 0.055960558 0.43300003 4279910697
0.050782476 0.055960558 0.43300003 4279319074
0.052068327 0.055831317 0.43200001 4279516453
0.053471465 0.055831317 0.43200001 4279252765
0.054874599 0.055831317 0.43200001 4279515678
0.056408014 0.055960558 0.43300003 4279515678
0.057814401 0.055960558 0.43300003 4279582498
0.05922078 0.055960558 0.43300003 4279779877
0.060627166 0.055960558 0.43300003 4279385889
0.062033553 0.055960558 0.43300003 4279254303
0.063439943 0.055960558 0.43300003 4278924568
0.064846322 0.055960558 0.43300003 4280698930
0.066252708 0.055960558 0.43300003 4283789152
0.05922078 0.057367422 0.43300003 4285106550
0.060627166 0.057367422 0.43300003 4284843376
0.063439943 0.057367422 0.43300003 4284645997
0.064846322 0.057367422 0.43300003 4283593311
0.033720586 0.047235806 0.43959388 4294967295
0.033720586 0.047235806 0.43959388 4294901760
0.033748876 0.046737526 0.43962416 4294901760
0.033777166 0.046239246 0.43965444 4294901760
0.033805456 0.045740966 0.43968472 4294901760
0.033833742 0.045242686 0.439715 4294901760
0.033862032 0.044744406 0.43974528 4294901760
0.033890322 0.044246126 0.43977559 4294901760
0.033918612 0.043747846 0.43980587 4294901760
0.033946902 0.043249566 0.43983614 4294901760
0.033975191 0.042751286 0.43986642 4294901760
0.034003478 0.04225301 0.4398967 4294901760
0.034031767 0.04175473 0.43992698 4294901760
0.034060057 0.04125645 0.43995726 4294901760
0.034088347 0.04075817 0.43998754 4294901760
0.034116637 0.04025989 0.44001782 4294901760
0.034144927 0.03976161 0.4400481 4294901760
0.034173213 0.03926333 0.44007838 4294901760
0.034201503 0.03876505 0.44010869 4294901760
0.034229793 0.038266771 0.44013897 4294901760
0.034258083 0.037768491 0.44016925 4294901760
0.034286372 0.037270211 0.44019952 4294901760
0.034314662 0.036771931 0.4402298 4294901760
0.034342948 0.036273651 0.44026008 4294901760
0.034371238 0.035775371 0.44029036 4294901760
0.034399528 0.035277091 0.44032064 4294901760
0.034427818 0.034778811 0.44035092 4294901760
0.034456108 0.034280531 0.4403812 4294901760
0.034484398 0.033782251 0.44041148 4294901760
0.034512687 0.033283971 0.44044179 4294901760
0.034540974 0.032785691 0.44047207 4294901760
0.034569263 0.032287411 0.44050235 4294901760
0.034597553 0.031789131 0.44053262 4294901760
0.034625843 0.031290852 0.4405629 4294901760
0.034654133 0.030792573 0.44059318 4294901760
0.034682423 0.030294294 0.44062346 4294901760
0.034710709 0.029796015 0.44065374 4294901760
0.034738999 0.029297734 0.44068402 4294901760
0.034767289 0.028799456 0.4407143 4294901760
0.034795579 0.028301176 0.44074458 4294901760
0.034823868 0.027802896 0.44077489 4294901760
0.034852158 0.027304616 0.44080517 4294901760
0.034880444 0.026806336 0.44083545 4294901760
0.034908734 0.026308058 0.44086573 4294901760
0.034937024 0.025809776 0.440896 4294901760
0.034965314 0.025311496 0.44092628 4294901760
0.034993604 0.024813218 0.44095656 4294901760
0.035021894 0.024314936 0.44098684 4294901760
0.03505018 0.023816658 0.44101712 4294901760
0.03507847 0.023318378 0.4410474 4294901760
0.03510676 0.022820098 0.44107768 4294901760
0.035135049 0.022321818 0.44110799 4294901760
0.035163339 0.021823538 0.44113827 4294901760
0.035191629 0.02132526 0.44116855 4294901760
0.035219915 0.02082698 0.44119883 4294901760
0.035248205 0.020328699 0.4412291 4294901760
0.035276495 0.019830419 0.44125938 4294901760
0.035304785 0.019332141 0.44128966 4294901760
0.035333075 0.018833861 0.44131994 4294901760
0.035361364 0.018335581 0.44135022 4294901760
0.035389654 0.017837303 0.4413805 4294901760
0.03541794 0.017339019 0.44141078 4294901760
0.03544623 0.016840741 0.44144106 4294901760
0.03547452 0.016342461 0.44147137 4294901760
0.03550281 0.015844181 0.44150165 4294901760
0.0355311 0.015345901 0.44153193 4294901760
0.03555939 0.014847625 0.44156221 4294901760
0.035587676 0.014349341 0.44159248 4294901760
0.035615966 0.013851061 0.44162276 4294901760
0.035644256 0.013352782 0.44165304 4294901760
0.035672545 0.012854502 0.44168332 4294901760
0.035700835 0.012356225 0.4417136 4294901760
0.035729125 0.011857945 0.44174388 4294901760
0.035757415 0.011359662 0.44177416 4294901760
0.035785701 0.010861382 0.44180447 4294901760
0.035813991 0.010363106 0.44183475 4294901760
0.035842281 0.0098648258 0.44186503 4294901760
0.035870571 0.0093665458 0.44189531 4294901760
0.035898861 0.0088682659 0.44192559 4294901760
0.035927147 0.008369986 0.44195586 4294901760
0.035955437 0.007871706 0.44198614 4294901760
0.035983726 0.0073734261 0.44201642 4294901760
0.036012016 0.0068751462 0.4420467 4294901760
0.036040306 0.0063768663 0.44207698 4294901760
0.036068596 0.0058785863 0.44210726 4294901760
0.036096886 0.0053803101 0.44213757 4294901760
0.036125172 0.0048820265 0.44216785 4294901760
0.036153462 0.0043837465 0.44219813 4294901760
0.036181752 0.0038854666 0.44222841 4294901760
0.036210041 0.0033871867 0.44225869 4294901760
0.036238331 0.0028889105 0.44228896 4294901760
0.036266621 0.0023906305 0.44231924 4294901760
0.036294907 0.0018923469 0.44234952 4294901760
0.036323197 0.001394067 0.4423798 4294901760
0.036351487 0.00089579076 0.44241008 4294901760
0.036379777 0.00039751083 0.44244036 4294901760
0.036408067 -0.0001007691 0.44247067 4294901760
0.036436357 -0.00059904903 0.44250095 4294901760
0.036464646 -0.0010973327 0.44253123 4294901760
0.036492933 -0.0015956089 0.44256151 4294901760
0.036521222 -0.0020938888 0.44259179 4294901760
0.036549512 -0.0025921687 0.44262207 4294901760
0.033720586 0.047235806 0.43959388 4278255360
0.034164928 0.047247116 0.43936491 4278255360
0.034609266 0.047258426 0.43913591 4278255360
0.035053607 0.047269739 0.43890694 4278255360
0.035497945 0.047281049 0.43867794 4278255360
0.035942286 0.047292359 0.43844897 4278255360
0.036386624 0.047303669 0.43821996 4278255360
0.036830965 0.047314979 0.43799099 4278255360
0.037275307 0.047326293 0.43776199 4278255360
0.037719645 0.047337603 0.43753302 4278255360
0.038163986 0.047348913 0.43730402 4278255360
0.038608324 0.047360223 0.43707505 4278255360
0.039052665 0.047371536 0.43684605 4278255360
0.039497003 0.047382846 0.43661708 4278255360
0.039941344 0.047394156 0.43638808 4278255360
0.040385686 0.047405466 0.4361591 4278255360
0.040830024 0.047416776 0.4359301 4278255360
0.041274365 0.04742809 0.43570113 4278255360
0.041718703 0.0474394 0.43547216 4278255360
0.042163044 0.04745071 0.43524316 4278255360
0.042607382 0.04746202 0.43501419 4278255360
0.043051723 0.04747333 0.43478519 4278255360
0.043496065 0.047484644 0.43455622 4278255360
0.043940403 0.047495954 0.43432721 4278255360
0.04438474 0.047507264 0.43409824 4278255360
0.044829082 0.047518574 0.43386924 4278255360
0.045273423 0.047529884 0.43364027 4278255360
0.045717761 0.047541197 0.43341127 4278255360
0.046162102 0.047552507 0.4331823 4278255360
0.046606444 0.047563817 0.4329533 4278255360
0.047050782 0.047575127 0.43272433 4278255360
0.047495123 0.047586441 0.43249533 4278255360
0.047939461 0.047597751 0.43226635 4278255360
0.048383802 0.047609061 0.43203735 4278255360
0.04882814 0.047620371 0.43180838 4278255360
0.049272481 0.047631681 0.43157941 4278255360
0.049716823 0.047642995 0.43135041 4278255360
0.050161161 0.047654305 0.43112144 4278255360
0.050605498 0.047665615 0.43089244 4278255360
0.05104984 0.047676925 0.43066347 4278255360
0.051494181 0.047688235 0.43043447 4278255360
0.051938519 0.047699548 0.43020549 4278255360
0.05238286 0.047710858 0.42997649 4278255360
0.052827202 0.047722168 0.42974752 4278255360
0.05327154 0.047733478 0.42951852 4278255360
0.053715877 0.047744788 0.42928955 4278255360
0.054160222 0.047756102 0.42906055 4278255360
0.05460456 0.047767412 0.42883158 4278255360
0.055048898 0.047778722 0.42860258 4278255360
0.055493239 0.047790032 0.42837361 4278255360
0.055937581 0.047801346 0.42814463 4278255360
0.056381918 0.047812656 0.42791563 4278255360
0.056826256 0.047823966 0.42768666 4278255360
0.057270598 0.047835276 0.42745766 4278255360
0.057714939 0.047846586 0.42722869 4278255360
0.058159277 0.047857899 0.42699969 4278255360
0.058603618 0.047869209 0.42677072 4278255360
0.05904796 0.047880519 0.42654172 4278255360
0.059492297 0.047891829 0.42631274 4278255360
0.059936635 0.047903139 0.42608374 4278255360
0.06038098 0.047914453 0.42585477 4278255360
0.060825318 0.047925763 0.42562577 4278255360
0.061269656 0.047937073 0.4253968 4278255360
0.061713997 0.047948383 0.4251678 4278255360
0.062158339 0.047959693 0.42493883 4278255360
0.062602676 0.047971006 0.42470983 4278255360
0.063047022 0.047982316 0.42448086 4278255360
0.063491359 0.047993626 0.42425185 4278255360
0.063935697 0.048004936 0.42402288 4278255360
0.064380035 0.048016246 0.42379391 4278255360
0.064824373 0.04802756 0.42356491 4278255360
0.06526871 0.04803887 0.42333594 4278255360
0.065713055 0.04805018 0.42310694 4278255360
0.066157401 0.04806149 0.42287797 4278255360
0.066601738 0.048072804 0.42264897 4278255360
0.067046076 0.048084114 0.42242 4278255360
0.067490414 0.048095424 0.42219099 4278255360
0.067934752 0.048106734 0.42196202 4278255360
0.068379089 0.048118044 0.42173302 4278255360
0.068823434 0.048129357 0.42150405 4278255360
0.06926778 0.048140667 0.42127505 4278255360
0.069712117 0.048151977 0.42104608 4278255360
0.070156455 0.048163287 0.42081708 4278255360
0.070600793 0.048174597 0.42058811 4278255360
0.07104513 0.048185911 0.42035913 4278255360
0.071489476 0.048197221 0.42013013 4278255360
0.071933813 0.048208531 0.41990116 4278255360
0.072378159 0.048219841 0.41967216 4278255360
0.072822496 0.048231151 0.41944319 4278255360
0.073266834 0.048242465 0.41921419 4278255360
0.073711172 0.048253775 0.41898522 4278255360
0.074155509 0.048265085 0.41875622 4278255360
0.074599855 0.048276395 0.41852725 4278255360
0.075044192 0.048287708 0.41829824 4278255360
0.075488538 0.048299018 0.41806927 4278255360
0.075932875 0.048310328 0.41784027 4278255360
0.076377213 0.048321638 0.4176113 4278255360
0.076821551 0.048332948 0.4173823 4278255360
0.077265888 0.048344262 0.41715333 4278255360
0.077710234 0.048355572 0.41692433 4278255360
0.078154571 0.048366882 0.41669536 4278255360
0.033720586 0.047235806 0.43959388 4278190335
0.033983264 0.047276456 0.44001737 4278190335
0.034245942 0.047317106 0.44044086 4278190335
0.034508616 0.047357757 0.44086435 4278190335
0.034771293 0.047398407 0.44128788 4278190335
0.035033971 0.047439057 0.44171137 4278190335
0.035296649 0.047479708 0.44213486 4278190335
0.035559326 0.047520358 0.44255835 4278190335
0.035822 0.047561008 0.44298184 4278190335
0.036084678 0.047601659 0.44340533 4278190335
0.036347356 0.047642309 0.44382882 4278190335
0.036610033 0.04768296 0.44425234 4278190335
0.036872707 0.04772361 0.44467583 4278190335
0.037135385 0.04776426 0.44509932 4278190335
0.037398063 0.047804911 0.44552281 4278190335
0.03766074 0.047845561 0.44594631 4278190335
0.037923418 0.047886211 0.4463698 4278190335
0.038186096 0.047926862 0.44679332 4278190335
0.03844877 0.047967512 0.44721681 4278190335
0.038711447 0.048008163 0.4476403 4278190335
0.038974125 0.048048813 0.44806379 4278190335
0.039236799 0.048089463 0.44848728 4278190335
0.039499477 0.048130114 0.44891077 4278190335
0.039762154 0.048170764 0.44933426 4278190335
0.040024832 0.048211414 0.44975778 4278190335
0.04028751 0.048252061 0.45018128 4278190335
0.040550187 0.048292711 0.45060477 4278190335
0.040812861 0.048333362 0.45102826 4278190335
0.041075539 0.048374012 0.45145175 4278190335
0.041338217 0.048414662 0.45187524 4278190335
0.041600894 0.048455313 0.45229876 4278190335
0.041863568 0.048495963 0.45272225 4278190335
0.042126246 0.048536614 0.45314574 4278190335
0.042388923 0.048577264 0.45356923 4278190335
0.042651601 0.048617914 0.45399272 4278190335
0.042914279 0.048658565 0.45441622 4278190335
0.043176956 0.048699215 0.45483971 4278190335
0.04343963 0.048739865 0.45526323 4278190335
0.043702308 0.048780516 0.45568672 4278190335
0.043964986 0.048821166 0.45611021 4278190335
0.044227663 0.048861817 0.4565337 4278190335
0.044490337 0.048902467 0.45695719 4278190335
0.044753015 0.048943117 0.45738068 4278190335
0.045015693 0.048983768 0.45780417 4278190335
0.04527837 0.049024418 0.45822769 4278190335
0.045541048 0.049065068 0.45865119 4278190335
0.045803726 0.049105719 0.45907468 4278190335
0.0460664 0.049146369 0.45949817 4278190335
0.046329077 0.049187019 0.45992166 4278190335
0.046591755 0.04922767 0.46034515 4278190335
0.046854429 0.04926832 0.46076864 4278190335
0.047117107 0.049308971 0.46119216 4278190335
0.047379784 0.049349621 0.46161565 4278190335
0.047642462 0.049390271 0.46203914 4278190335
0.04790514 0.049430922 0.46246263 4278190335
0.048167817 0.049471572 0.46288612 4278190335
0.048430491 0.049512222 0.46330962 4278190335
0.048693169 0.049552873 0.46373314 4278190335
0.048955847 0.049593523 0.46415663 4278190335
0.049218521 0.049634174 0.46458012 4278190335
0.049481198 0.049674824 0.46500361 4278190335
0.049743876 0.049715474 0.4654271 4278190335
0.050006554 0.049756125 0.46585059 4278190335
0.050269231 0.049796775 0.46627408 4278190335
0.050531909 0.049837425 0.4666976 4278190335
0.050794583 0.049878076 0.46712109 4278190335
0.051057264 0.049918726 0.46754459 4278190335
0.051319938 0.049959376 0.46796808 4278190335
0.051582616 0.050000027 0.46839157 4278190335
0.05184529 0.050040677 0.46881506 4278190335
0.052107967 0.050081328 0.46923858 4278190335
0.052370645 0.050121978 0.46966207 4278190335
0.052633323 0.050162628 0.47008556 4278190335
0.052896 0.050203279 0.47050905 4278190335
0.053158678 0.050243929 0.47093254 4278190335
0.053421352 0.050284579 0.47135603 4278190335
0.05368403 0.05032523 0.47177953 4278190335
0.053946704 0.050365876 0.47220302 4278190335
0.054209381 0.050406527 0.47262654 4278190335
0.054472059 0.050447177 0.47305003 4278190335
0.054734737 0.050487828 0.47347352 4278190335
0.054997414 0.050528478 0.47389701 4278190335
0.055260092 0.050569128 0.4743205 4278190335
0.05552277 0.050609779 0.47474399 4278190335
0.055785444 0.050650429 0.47516751 4278190335
0.056048125 0.050691079 0.475591 4278190335
0.056310799 0.05073173 0.47601449 4278190335
0.056573477 0.05077238 0.47643799 4278190335
0.056836151 0.05081303 0.47686148 4278190335
0.057098828 0.050853681 0.47728497 4278190335
0.057361506 0.050894331 0.47770846 4278190335
0.057624184 0.050934982 0.47813198 4278190335
0.057886861 0.050975632 0.47855547 4278190335
0.058149539 0.051016282 0.47897896 4278190335
0.058412213 0.051056933 0.47940245 4278190335
0.058674891 0.051097583 0.47982594 4278190335
0.058937564 0.051138233 0.48024943 4278190335
0.059200246 0.051178884 0.48067296 4278190335
0.05946292 0.051219534 0.48109645 4278190335
0.059725598 0.051260184 0.48151994 4278190335
0.059988275 0.051300835 0.48194343 4278190335
0.033720586 0.047235806 0.43959388 4294967295
0.032144524 0.046991903 0.43705291 4294967295
0.030568464 0.046748001 0.43451193 4294967295
0.028992403 0.046504099 0.43197095 4294967295
0.027416341 0.0462602 0.42942998 4294967295
0.025840279 0.046016298 0.426889 4294967295
0.02426422 0.045772396 0.42434806 4294967295
0.022688158 0.045528494 0.42180708 4294967295
0.021112096 0.045284592 0.4192661 4294967295
0.019536033 0.045040689 0.41672513 4294967295
0.017959973 0.044796787 0.41418415 4294967295
0.016383912 0.044552885 0.41164318 4294967295
0.014807852 0.044308987 0.4091022 4294967295
0.013231792 0.044065084 0.40656123 4294967295
0.011655729 0.043821182 0.40402025 4294967295
0.010079667 0.04357728 0.40147927 4294967295
0.0085036065 0.043333378 0.3989383 4294967295
0.0069275443 0.043089475 0.39639735 4294967295
0.005351482 0.042845573 0.39385635 4294967295
0.0037754234 0.042601675 0.3913154 4294967295
0.0021993592 0.042357773 0.38877442 4294967295
0.00062330067 0.04211387 0.38623345 4294967295
-0.00095276162 0.041869968 0.38369247 4294967295
-0.0025288239 0.041626066 0.3811515 4294967295
-0.0041048825 0.041382164 0.37861052 4294967295
-0.0056809448 0.041138262 0.37606955 4294967295
-0.0072570033 0.040894363 0.3735286 4294967295
-0.0088330694 0.040650461 0.37098759 4294967295
-0.010409128 0.040406559 0.36844665 4294967295
-0.01198519 0.040162656 0.36590567 4294967295
-0.013561253 0.039918754 0.3633647 4294967295
-0.015137311 0.039674852 0.36082372 4294967295
-0.016713373 0.03943095 0.35828274 4294967295
-0.018289436 0.039187048 0.35574177 4294967295
-0.019865498 0.038943149 0.35320079 4294967295
-0.021441557 0.038699247 0.35065982 4294967295
-0.023017623 0.038455345 0.34811884 4294967295
-0.024593681 0.038211443 0.34557787 4294967295
-0.02616974 0.03796754 0.34303689 4294967295
-0.027745798 0.037723638 0.34049594 4294967295
-0.029321868 0.037479736 0.33795494 4294967295
-0.030897927 0.037235834 0.33541399 4294967295
-0.032473985 0.036991935 0.33287302 4294967295
-0.034050051 0.036748033 0.33033204 4294967295
-0.03562611 0.036504131 0.32779106 4294967295
-0.037202168 0.036260229 0.32525009 4294967295
-0.038778234 0.036016326 0.32270911 4294967295
-0.040354293 0.035772424 0.32016814 4294967295
-0.041930351 0.035528526 0.31762719 4294967295
-0.043506417 0.035284624 0.31508619 4294967295
-0.045082476 0.035040721 0.31254524 4294967295
-0.046658535 0.034796819 0.31000423 4294967295
-0.048234593 0.034552917 0.30746329 4294967295
-0.049810652 0.034309015 0.30492231 4294967295
-0.051386725 0.034065112 0.30238134 4294967295
-0.052962784 0.03382121 0.29984036 4294967295
-0.054538842 0.033577308 0.29729939 4294967295
-0.056114901 0.03333341 0.29475841 4294967295
-0.057690967 0.033089507 0.29221743 4294967295
-0.059267025 0.032845605 0.28967649 4294967295
-0.060843091 0.032601703 0.28713548 4294967295
-0.06241915 0.032357801 0.28459454 4294967295
-0.063995212 0.032113899 0.28205353 4294967295
-0.065571278 0.03187 0.27951258 4294967295
-0.067147329 0.031626098 0.27697161 4294967295
-0.068723395 0.031382196 0.27443063 4294967295
-0.070299461 0.031138292 0.27188963 4294967295
-0.071875513 0.030894391 0.26934868 4294967295
-0.073451579 0.030650489 0.26680771 4294967295
-0.075027645 0.030406589 0.26426673 4294967295
-0.076603696 0.030162686 0.26172578 4294967295
-0.078179762 0.029918784 0.25918478 4294967295
-0.079755828 0.029674882 0.2566438 4294967295
-0.081331894 0.02943098 0.25410283 4294967295
-0.082907945 0.02918708 0.25156188 4294967295
-0.084484011 0.028943177 0.2490209 4294967295
-0.086060062 0.028699277 0.24647993 4294967295
-0.087636128 0.028455375 0.24393895 4294967295
-0.089212179 0.028211473 0.24139799 4294967295
-0.09078826 0.02796757 0.238857 4294967295
-0.092364326 0.027723668 0.23631603 4294967295
-0.093940377 0.027479768 0.23377506 4294967295
-0.095516443 0.027235866 0.23123409 4294967295
-0.097092494 0.026991965 0.22869311 4294967295
-0.09866856 0.026748063 0.22615215 4294967295
-0.10024463 0.026504161 0.22361116 4294967295
-0.10182069 0.026260259 0.22107019 4294967295
-0.10339674 0.026016356 0.21852922 4294967295
-0.10497281 0.025772456 0.21598825 4294967295
-0.10654886 0.025528554 0.21344727 4294967295
-0.10812493 0.025284654 0.21090631 4294967295
-0.10970099 0.025040749 0.20836532 4294967295
-0.11127706 0.024796849 0.20582435 4294967295
-0.11285311 0.024552947 0.20328338 4294967295
-0.11442918 0.024309045 0.20074241 4294967295
-0.11600523 0.024065144 0.19820143 4294967295
-0.11758129 0.023821242 0.19566047 4294967295
-0.11915736 0.02357734 0.19311948 4294967295
-0.12073343 0.023333438 0.19057851 4294967295
-0.12230948 0.023089537 0.18803754 4294967295
-0.12388554 0.022845635 0.18549657 4294967295
