# .PCD v0.7 - Point Cloud Data file format
VERSION 0.7
FIELDS x y z rgb
SIZE 4 4 4 4
TYPE F F F U
COUNT 1 1 1 1
WIDTH 1027
HEIGHT 1
VIEWPOINT 0 0 0 1 0 0 0
POINTS 1027
DATA ascii
0.09337727 -0.051663373 0.41600001 4285173626
0.094956152 -0.051787566 0.41700003 4281884489
0.096310571 -0.051787566 0.41700003 4281098049
0.097664982 -0.051787566 0.41700003 4280310584
0.099256858 -0.051911756 0.41800001 4280377399
0.10061453 -0.051911756 0.41800001 4280311606
0.10197219 -0.051911756 0.41800001 4280179766
0.087549657 -0.050069869 0.41400003 4286684558
0.08889433 -0.050069869 0.41400003 4287409051
0.09045697 -0.050190806 0.41500002 4284713334
0.0920261 -0.050311748 0.41600001 4281096770
0.09337727 -0.050311748 0.41600001 4280704061
0.094956152 -0.050432693 0.41700003 4280573756
0.096310571 -0.050432693 0.41700003 4279523633
0.097664982 -0.050432693 0.41700003 4279589939
0.099019401 -0.050432693 0.41700003 4279919158
0.10037382 -0.050432693 0.41700003 4279721777
0.10172824 -0.050432693 0.41700003 4279983922
0.10332985 -0.050553631 0.41800001 4280308785
0.083313905 -0.048607044 0.41300002 4286816146
0.08465533 -0.048607044 0.41300002 4286947730
0.085996754 -0.048607044 0.41300002 4287211672
0.087549657 -0.048724741 0.41400003 4283332195
0.08889433 -0.048724741 0.41400003 4281360712
0.09045697 -0.04884243 0.41500002 4280705342
0.091804892 -0.04884243 0.41500002 4280048695
0.09337727 -0.048960123 0.41600001 4279852086
0.09472844 -0.048960123 0.41600001 4279523633
0.096310571 -0.049077816 0.41700003 4279065132
0.097664982 -0.049077816 0.41700003 4279262511
0.099019401 -0.049077816 0.41700003 4279130410
0.10037382 -0.049077816 0.41700003 4279327789
0.10172824 -0.049077816 0.41700003 4280900922
0.10308266 -0.049077816 0.41700003 4284845170
0.081774004 -0.04715072 0.41200003 4286487949
0.083313905 -0.047265165 0.41300002 4287277719
0.08465533 -0.047265165 0.41300002 4283462236
0.085996754 -0.047265165 0.41300002 4281162046
0.087338179 -0.047265165 0.41300002 4280836161
0.08889433 -0.047379609 0.41400003 4280048182
0.090239003 -0.047379609 0.41400003 4279523885
0.091804892 -0.04749405 0.41500002 4279655982
0.093152806 -0.04749405 0.41500002 4279327787
0.09472844 -0.047608491 0.41600001 4279327789
0.09607961 -0.047608491 0.41600001 4279065130
0.097430773 -0.047608491 0.41600001 4278867751
0.099019401 -0.047722939 0.41700003 4280115510
0.10037382 -0.047722939 0.41700003 4280640830
0.10172824 -0.047722939 0.41700003 4281228093
0.079097643 -0.045812089 0.41200003 4286882707
0.080435827 -0.045812089 0.41200003 4286422669
0.081774004 -0.045812089 0.41200003 4283068248
0.083112173 -0.045812089 0.41200003 4281556286
0.084450357 -0.045812089 0.41200003 4280639288
0.085788533 -0.045812089 0.41200003 4280048434
0.087338179 -0.045923285 0.41300002 4279720752
0.088679604 -0.045923285 0.41300002 4279392299
0.090239003 -0.046034481 0.41400003 4279064617
0.091583677 -0.046034481 0.41400003 4279064617
0.093152806 -0.046145674 0.41500002 4279130410
0.094500728 -0.046145674 0.41500002 4279327019
0.09607961 -0.046256866 0.41600001 4280773438
0.097430773 -0.046256866 0.41600001 4280115508
0.098781943 -0.046256866 0.41600001 4280509498
0.10037382 -0.046368062 0.41700003 4281034305
0.10172824 -0.046368062 0.41700003 4282212939
0.076235801 -0.044365514 0.41100001 4286817681
0.07719326 -0.044149622 0.40900001 4286028681
0.078713678 -0.04425757 0.41000003 4281820239
0.080240592 -0.044365514 0.41100001 4281295430
0.08157552 -0.044365514 0.41100001 4280442420
0.082910441 -0.044365514 0.41100001 4279918129
0.084450357 -0.044473462 0.41200003 4279590961
0.085788533 -0.044473462 0.41200003 4279196203
0.08712671 -0.044473462 0.41200003 4279327787
0.088679604 -0.044581406 0.41300002 4279327787
0.090021029 -0.044581406 0.41300002 4279130408
0.091583677 -0.044689354 0.41400003 4279064615
0.092928343 -0.044689354 0.41400003 4280048945
0.094500728 -0.044797298 0.41500002 4280443190
0.09607961 -0.044905242 0.41600001 4278598421
0.097430773 -0.044905242 0.41600001 4280901946
0.098781943 -0.044905242 0.41600001 4280902460
0.10013311 -0.044905242 0.41600001 4281887306
0.076050319 -0.04292544 0.41000003 4282148941
0.07700453 -0.042716045 0.40800002 4280966463
0.078521691 -0.04282074 0.40900001 4280179768
0.079850122 -0.04282074 0.40900001 4279982900
0.081377044 -0.04292544 0.41000003 4280247606
0.082708716 -0.04292544 0.41000003 4279327787
0.084245376 -0.043030132 0.41100001 4279262507
0.085580304 -0.043030132 0.41100001 4279130921
0.08712671 -0.043134831 0.41200003 4278933542
0.088464886 -0.043134831 0.41200003 4279064615
0.090021029 -0.043239526 0.41300002 4279787055
0.091362454 -0.043239526 0.41300002 4280575289
0.092928343 -0.043344226 0.41400003 4279586598
0.094500728 -0.043448918 0.41500002 4280769588
0.09584865 -0.043448918 0.41500002 4280307756
0.097430773 -0.043553613 0.41600001 4281360960
0.098781943 -0.043553613 0.41600001 4281426753
0.10013311 -0.043553613 0.41600001 4283201113
0.068481132 -0.040274493 0.39700001 4286883220
0.069946341 -0.040375941 0.39800003 4286620818
0.07141804 -0.040477388 0.39900002 4281754700
0.072896227 -0.040578835 0.40000001 4281033028
0.074566409 -0.040781729 0.40200001 4280114488
0.076627053 -0.041187517 0.40600002 4279654959
0.078137718 -0.041288964 0.40700001 4279458605
0.079654895 -0.041390412 0.40800002 4279524398
0.081178561 -0.041491859 0.40900001 4279328302
0.082506984 -0.041491859 0.40900001 4279130921
0.084040403 -0.041593306 0.41000003 4278868003
0.085372083 -0.041593306 0.41000003 4278802210
0.086915232 -0.041694753 0.41100001 4279720748
0.088464886 -0.0417962 0.41200003 4280180016
0.089803062 -0.0417962 0.41200003 4279323426
0.091362454 -0.041897647 0.41300002 4279717670
0.092928343 -0.041999094 0.41400003 4280770106
0.094273016 -0.041999094 0.41400003 4280506166
0.09584865 -0.042100541 0.41500002 4281426753
0.097196564 -0.042100541 0.41500002 4281360960
0.098781943 -0.042201988 0.41600001 4281489981
0.067022428 -0.038886402 0.39600003 4287147162
0.068481132 -0.0389846 0.39700001 4281885771
0.069946341 -0.039082799 0.39800003 4280637498
0.07141804 -0.039180998 0.39900002 4280443453
0.072896227 -0.039279193 0.40000001 4279523633
0.074380919 -0.039377391 0.40100002 4279327791
0.076249577 -0.039671987 0.40400001 4279327791
0.077753752 -0.039770186 0.40500003 4279196203
0.07945966 -0.03996658 0.40700001 4279196203
0.080781594 -0.03996658 0.40700001 4279065130
0.08230526 -0.040064778 0.40800002 4279130410
0.083835423 -0.040162977 0.40900001 4280247608
0.085372083 -0.040261175 0.41000003 4280443701
0.086703762 -0.040261175 0.41000003 4280507186
0.08825016 -0.04035937 0.41100001 4280045865
0.089803062 -0.040457573 0.41200003 4281032247
0.091362454 -0.040555768 0.41300002 4280505903
0.092703879 -0.040555768 0.41300002 4281098301
0.094273016 -0.040653966 0.41400003 4279519269
0.09584865 -0.040752165 0.41500002 4281360192
0.097196564 -0.040752165 0.41500002 4281228093
0.062685288 -0.03731491 0.39300001 4286685841
0.06412451 -0.037409861 0.39400002 4287212955
0.065404221 -0.037409861 0.39400002 4283005283
0.066853181 -0.037504807 0.39500001 4280967237
0.068308644 -0.037599761 0.39600003 4280048695
0.069770597 -0.037694708 0.39700001 4279786291
0.071239047 -0.037789658 0.39800003 4279261228
0.072713986 -0.037884604 0.39900002 4279196205
0.074380919 -0.038074505 0.40100002 4279131693
0.076060846 -0.038264401 0.40300003 4278934314
0.077561766 -0.038359348 0.40400001 4278538786
0.079264425 -0.038549248 0.40600002 4279590961
0.080781594 -0.038644195 0.40700001 4279852850
0.082103528 -0.038644195 0.40700001 4280114738
0.08363045 -0.038739145 0.40800002 4280376116
0.085163854 -0.038834091 0.40900001 4279586086
0.086703762 -0.038929045 0.41000003 4281164348
0.088035442 -0.038929045 0.41000003 4280638004
0.089585088 -0.039023992 0.41100001 4279649826
0.091141239 -0.039118942 0.41200003 4280834100
0.092703879 -0.039213888 0.41300002 4280767540
0.094273016 -0.039308839 0.41400003 4281425470
0.059979353 -0.035946317 0.39200002 4286620048
0.061252572 -0.035946317 0.39200002 4287014806
0.062685288 -0.036038015 0.39300001 4283397988
0.063961752 -0.036038015 0.39300001 4280308537
0.065404221 -0.036129717 0.39400002 4280378176
0.066853181 -0.036221415 0.39500001 4279458355
0.068308644 -0.036313117 0.39600003 4279195951
0.069770597 -0.036404815 0.39700001 4279393843
0.071239047 -0.036496516 0.39800003 4279130923
0.072713986 -0.036588214 0.39900002 4278999337
0.074380919 -0.036771614 0.40100002 4278934314
0.075872101 -0.036863312 0.40200001 4279394863
0.077561766 -0.037046712 0.40400001 4279984947
0.079069197 -0.037138414 0.40500003 4279786541
0.080583118 -0.037230112 0.40600002 4280310832
0.082103528 -0.03732181 0.40700001 4278993947
0.08363045 -0.037413511 0.40800002 4280900922
0.084955633 -0.037413511 0.40800002 4280374578
0.086492293 -0.037505209 0.40900001 4280242479
0.088035442 -0.037596911 0.41000003 4280703284
0.089585088 -0.037688609 0.41100001 4281623103
0.091141239 -0.037780311 0.41200003 4280240426
0.092703879 -0.037872009 0.41300002 4281225272
0.057286412 -0.034584217 0.39100003 4286620048
0.058556378 -0.034584217 0.39100003 4286818197
0.059826348 -0.034584217 0.39100003 4284055918
0.061252572 -0.034672666 0.39200002 4280965182
0.062525786 -0.034672666 0.39200002 4280178998
0.063961752 -0.034761116 0.39300001 4279720498
0.065404221 -0.034849569 0.39400002 4279064619
0.066853181 -0.034938019 0.39500001 4279393584
0.068308644 -0.035026472 0.39600003 4279131693
0.069770597 -0.035114922 0.39700001 4278868521
0.071239047 -0.035203371 0.39800003 4278934314
0.072713986 -0.035291821 0.39900002 4279130923
0.07419543 -0.03538027 0.40000001 4279721777
0.075872101 -0.035557173 0.40200001 4280181815
0.077369787 -0.035645626 0.40300003 4279983152
0.079069197 -0.035822526 0.40500003 4278862361
0.080583118 -0.035910975 0.40600002 4281689405
0.082103528 -0.035999425 0.40700001 4279321627
0.08342547 -0.035999425 0.40700001 4280045102
0.084955633 -0.036087878 0.40800002 4280307504
0.086492293 -0.036176328 0.40900001 4281491776
0.087820716 -0.036176328 0.40900001 4280175403
0.089585088 -0.03635323 0.41100001 4281424702
0.090920024 -0.03635323 0.41100001 4283134039
0.052607097 -0.033569422 0.39400002 4286685841
0.053613268 -0.033399019 0.39200002 4286620048
0.054746471 -0.033313818 0.39100003 4286620048
0.055873174 -0.033228617 0.39000002 4286883220
0.0571399 -0.033228617 0.39000002 4285108346
0.058406614 -0.033228617 0.39000002 4281294147
0.059826348 -0.033313818 0.39100003 4279851834
0.061096318 -0.033313818 0.39100003 4279392049
0.062525786 -0.033399019 0.39200002 4279327537
0.063961752 -0.033484221 0.39300001 4279195951
0.065404221 -0.033569422 0.39400002 4279328302
0.066853181 -0.033654623 0.39500001 4279328302
0.068308644 -0.033739828 0.39600003 4278999337
0.069770597 -0.033825029 0.39700001 4278604579
0.071239047 -0.03391023 0.39800003 4279525168
0.072713986 -0.033995431 0.39900002 4279852850
0.074380919 -0.034165833 0.40100002 4280377912
0.075872101 -0.034251034 0.40200001 4279192101
0.077369787 -0.034336239 0.40300003 4281164096
0.079069197 -0.034506641 0.40500003 4280834618
0.080583118 -0.034591842 0.40600002 4280571696
0.082103528 -0.034677044 0.40700001 4280637489
0.08342547 -0.034677044 0.40700001 4280834616
0.084955633 -0.034762245 0.40800002 4280045100
0.086280823 -0.034762245 0.40800002 4281687874
0.087820716 -0.034847446 0.40900001 4281687106
0.033194292 -0.030896083 0.377 4279714602
0.034418788 -0.030896083 0.377 4280769088
0.035548743 -0.030814132 0.37600002 4285569927
0.051327381 -0.032289278 0.39400002 4286751634
0.052473575 -0.032207321 0.39300001 4287014806
0.053476501 -0.03204342 0.39100003 4286817427
0.054606453 -0.031961467 0.39000002 4285634436
0.055873174 -0.031961467 0.39000002 4281491274
0.0571399 -0.031961467 0.39000002 4280311615
0.058406614 -0.031961467 0.39000002 4279655221
0.059673335 -0.031961467 0.39000002 4279130671
0.061096318 -0.03204342 0.39100003 4279064878
0.062525786 -0.032125372 0.39200002 4279130923
0.063961752 -0.032207321 0.39300001 4279328302
0.065404221 -0.032289278 0.39400002 4279130923
0.066853181 -0.032371227 0.39500001 4279130921
0.068308644 -0.032453183 0.39600003 4280314682
0.069770597 -0.032535132 0.39700001 4279327019
0.071239047 -0.032617088 0.39800003 4279852336
0.072896227 -0.03278099 0.40000001 4279389219
0.074380919 -0.032862943 0.40100002 4280506164
0.075872101 -0.032944895 0.40200001 4280900922
0.077561766 -0.033108801 0.40400001 4280900411
0.079069197 -0.033190753 0.40500003 4280570676
0.080583118 -0.033272706 0.40600002 4280702262
0.082103528 -0.033354659 0.40700001 4280504883
0.08342547 -0.033354659 0.40700001 4280307504
0.084955633 -0.033436611 0.40800002 4281293116
0.086280823 -0.033436611 0.40800002 4285501304
0.087605998 -0.033436611 0.40800002 4286947984
0.033194292 -0.02967117 0.377 4280765491
0.034418788 -0.02967117 0.377 4280440119
0.035548743 -0.029592467 0.37600002 4280245822
0.03676999 -0.029592467 0.37600002 4281889366
0.037991241 -0.029592467 0.37600002 4287016089
0.039212488 -0.029592467 0.37600002 4286752404
0.051327381 -0.031009128 0.39400002 4286882707
0.052473575 -0.030930424 0.39300001 4286818197
0.053202964 -0.030615611 0.38900003 4282016335
0.054466438 -0.030615611 0.38900003 4280178744
0.055729914 -0.030615611 0.38900003 4279720246
0.056993388 -0.030615611 0.38900003 4279130160
0.058256857 -0.030615611 0.38900003 4279065132
0.059673335 -0.030694313 0.39000002 4278934316
0.061096318 -0.030773019 0.39100003 4279329074
0.062525786 -0.030851722 0.39200002 4279000107
0.063961752 -0.030930424 0.39300001 4279065130
0.065404221 -0.031009128 0.39400002 4279655984
0.066853181 -0.031087831 0.39500001 4279984436
0.068308644 -0.031166535 0.39600003 4279852336
0.069770597 -0.031245237 0.39700001 4279127078
0.07141804 -0.031402644 0.39900002 4280835129
0.072896227 -0.031481348 0.40000001 4280506418
0.074380919 -0.031560052 0.40100002 4279056924
0.075872101 -0.031638753 0.40200001 4279911461
0.077561766 -0.031796161 0.40400001 4280768307
0.079264425 -0.03195357 0.40600002 4280702514
0.080781594 -0.03203227 0.40700001 4280570674
0.08230526 -0.032110974 0.40800002 4281425472
0.08363045 -0.032110974 0.40800002 4283200861
0.084955633 -0.032110974 0.40800002 4287147416
0.086280823 -0.032110974 0.40800002 4286685582
0.034418788 -0.028446259 0.377 4280304424
0.035643287 -0.028446259 0.377 4279655221
0.036867782 -0.028446259 0.377 4279721527
0.038092278 -0.028446259 0.377 4280441918
0.039316773 -0.028446259 0.377 4285110913
0.040648807 -0.028521713 0.37800002 4286950296
0.041876554 -0.028521713 0.37800002 4286686611
0.04321833 -0.028597167 0.37900001 4286817427
0.044449326 -0.028597167 0.37900001 4286883220
0.050024655 -0.028974438 0.384 4282674519
0.051405411 -0.029049894 0.38500002 4280309557
0.052929427 -0.029200802 0.38700002 4280573756
0.054326419 -0.029276256 0.38800001 4279524146
0.055586647 -0.029276256 0.38800001 4279459377
0.056846872 -0.029276256 0.38800001 4279394097
0.058256857 -0.029351711 0.38900003 4279920441
0.059673335 -0.029427165 0.39000002 4279000109
0.061096318 -0.029502621 0.39100003 4278539558
0.062525786 -0.029578073 0.39200002 4279525681
0.063961752 -0.029653527 0.39300001 4279721777
0.065404221 -0.029728983 0.39400002 4280246324
0.066853181 -0.029804435 0.39500001 4279850283
0.068308644 -0.02987989 0.39600003 4279055892
0.069946341 -0.0300308 0.39800003 4279055127
0.07141804 -0.030106254 0.39900002 4281030712
0.072896227 -0.030181706 0.40000001 4279713570
0.074380919 -0.030257162 0.40100002 4279187740
0.076060846 -0.030408071 0.40300003 4280964151
0.077753752 -0.030558979 0.40500003 4280110125
0.079654895 -0.030785341 0.40800002 4281688903
0.080980077 -0.030785341 0.40800002 4282016839
0.082506984 -0.030860795 0.40900001 4286621583
0.08363045 -0.030785341 0.40800002 4286685841
0.084955633 -0.030785341 0.40800002 4286751634
0.086280823 -0.030785341 0.40800002 4286751121
0.033370391 -0.027365757 0.37900001 4282931779
0.035737831 -0.027293554 0.37800002 4279127332
0.036965575 -0.027293554 0.37800002 4279064619
0.038193323 -0.027293554 0.37800002 4279262257
0.039421067 -0.027293554 0.37800002 4279853883
0.040756345 -0.027365757 0.37900001 4280639299
0.041987337 -0.027365757 0.37900001 4286163349
0.043332364 -0.027437964 0.38000003 4287278748
0.044566605 -0.027437964 0.38000003 4287147162
0.045921374 -0.027510168 0.38100001 4286818197
0.04728264 -0.027582375 0.38200003 4283398242
0.048650399 -0.027654579 0.38300002 4281032510
0.050024655 -0.027726782 0.384 4280442168
0.051405411 -0.02779899 0.38500002 4279130671
0.052792657 -0.027871193 0.38600001 4278999085
0.054186404 -0.027943401 0.38700002 4279130921
0.055443384 -0.027943401 0.38700002 4279000105
0.056846872 -0.028015604 0.38800001 4279131691
0.058256857 -0.028087812 0.38900003 4279000107
0.059673335 -0.028160015 0.39000002 4279723062
0.061096318 -0.028232221 0.39100003 4279525170
0.062525786 -0.028304426 0.39200002 4279721262
0.063961752 -0.02837663 0.39300001 4280179248
0.065404221 -0.028448837 0.39400002 4279647264
0.066853181 -0.02852104 0.39500001 4279054357
0.068481132 -0.028665451 0.39700001 4280961587
0.069946341 -0.028737657 0.39800003 4280567342
0.07141804 -0.028809862 0.39900002 4281029176
0.072896227 -0.028882066 0.40000001 4280436526
0.074566409 -0.029026477 0.40200001 4280239914
0.076060846 -0.029098682 0.40300003 4281425472
0.077753752 -0.029243093 0.40500003 4281096768
0.080045357 -0.029604118 0.41000003 4284977274
0.081377044 -0.029604118 0.41000003 4287080340
0.082910441 -0.029676324 0.41100001 4286817168
0.083835423 -0.029531913 0.40900001 4286816914
0.085163854 -0.029531913 0.40900001 4286881937
0.034601379 -0.026134348 0.37900001 4282932803
0.035832375 -0.026134348 0.37900001 4279649826
0.037063368 -0.026134348 0.37900001 4278931236
0.03829436 -0.026134348 0.37900001 4279328304
0.039525352 -0.026134348 0.37900001 4278868523
0.040863883 -0.026203305 0.38000003 4278933294
0.042098124 -0.026203305 0.38000003 4279787068
0.043332364 -0.026203305 0.38000003 4280969032
0.044683885 -0.02627226 0.38100001 4279718967
0.046041902 -0.026341219 0.38200003 4280443201
0.047406413 -0.026410174 0.38300002 4279852086
0.048650399 -0.026410174 0.38300002 4279261228
0.050024655 -0.026479129 0.384 4279196203
0.051405411 -0.026548086 0.38500002 4278869035
0.052792657 -0.026617041 0.38600001 4279198000
0.054186404 -0.026685998 0.38700002 4279000621
0.055443384 -0.026685998 0.38700002 4278671656
0.056846872 -0.026754953 0.38800001 4279459886
0.058256857 -0.02682391 0.38900003 4279590189
0.059673335 -0.026892865 0.39000002 4280048943
0.061096318 -0.026961822 0.39100003 4280508981
0.062525786 -0.027030777 0.39200002 4279582236
0.063961752 -0.027099732 0.39300001 4278988049
0.06557022 -0.027237644 0.39500001 4281290036
0.067022428 -0.027306603 0.39600003 4280895024
0.068481132 -0.027375558 0.39700001 4280369963
0.069946341 -0.027444515 0.39800003 4281489981
0.07141804 -0.027513471 0.39900002 4279649061
0.072896227 -0.027582426 0.40000001 4281688644
0.074380919 -0.027651383 0.40100002 4281556288
0.076060846 -0.027789295 0.40300003 4283135068
0.080631055 -0.028478855 0.41300002 4287015060
0.08197248 -0.028478855 0.41300002 4287080340
0.083313905 -0.028478855 0.41300002 4287079570
0.03716116 -0.024968646 0.38000003 4279126047
0.038395401 -0.024968646 0.38000003 4278406687
0.039733931 -0.025034353 0.38100001 4278670372
0.040971417 -0.025034353 0.38100001 4279329072
0.042208906 -0.025034353 0.38100001 4279854394
0.043446396 -0.025034353 0.38100001 4279786805
0.044801168 -0.025100062 0.38200003 4279523635
0.04616243 -0.025165766 0.38300002 4279459636
0.047406413 -0.025165766 0.38300002 4279197234
0.04877742 -0.025231473 0.384 4279197486
0.050154928 -0.025297182 0.38500002 4279263793
0.051405411 -0.025297182 0.38500002 4279263791
0.052792657 -0.025362886 0.38600001 4278342689
0.054186404 -0.025428595 0.38700002 4279328300
0.055586647 -0.025494302 0.38800001 4279525168
0.056846872 -0.025494302 0.38800001 4279194406
0.058256857 -0.02556001 0.38900003 4280179248
0.059673335 -0.025625715 0.39000002 4279385887
0.061252572 -0.02575713 0.39200002 4279251482
0.062685288 -0.025822837 0.39300001 4280172071
0.06412451 -0.025888544 0.39400002 4280829231
0.06557022 -0.02595425 0.39500001 4280039717
0.067022428 -0.026019959 0.39600003 4280039717
0.068481132 -0.026085664 0.39700001 4279647523
0.069946341 -0.026151372 0.39800003 4281096507
0.07141804 -0.026217079 0.39900002 4281294399
0.072896227 -0.026282785 0.40000001 4282213964
0.074380919 -0.026348492 0.40100002 4286226314
0.082170963 -0.027202684 0.41400003 4286882707
0.083515637 -0.027202684 0.41400003 4286882707
0.036116011 -0.023858905 0.38200003 4279911199
0.037356745 -0.023858905 0.38200003 4279124250
0.038597483 -0.023858905 0.38200003 4278206741
0.039838221 -0.023858905 0.38200003 4278668576
0.041078955 -0.023858905 0.38200003 4278604579
0.042319693 -0.023858905 0.38200003 4278211104
0.043674462 -0.023921361 0.38300002 4280645194
0.044918448 -0.023921361 0.38300002 4283671158
0.046282958 -0.023983818 0.384 4279790139
0.047530189 -0.023983818 0.384 4279461685
0.048904449 -0.024046278 0.38500002 4279659064
0.050154928 -0.024046278 0.38500002 4278737447
0.051538929 -0.024108734 0.38600001 4279131175
0.052929427 -0.024171194 0.38700002 4279591213
0.054186404 -0.024171194 0.38700002 4279786543
0.055586647 -0.02423365 0.38800001 4278930212
0.056993388 -0.024296109 0.38900003 4280441395
0.058406614 -0.024358567 0.39000002 4280966454
0.059826348 -0.024421025 0.39100003 4279778850
0.061252572 -0.024483481 0.39200002 4279974946
0.062685288 -0.02454594 0.39300001 4281157682
0.06412451 -0.024608398 0.39400002 4279907104
0.06557022 -0.024670856 0.39500001 4279710240
0.067022428 -0.024733314 0.39600003 4281882693
0.068481132 -0.024795771 0.39700001 4281425472
0.069946341 -0.024858231 0.39800003 4280899128
0.037552327 -0.022736164 0.384 4279190043
0.038799562 -0.022736164 0.384 4278731289
0.040046792 -0.022736164 0.384 4278666779
0.041294027 -0.022736164 0.384 4278865953
0.042541262 -0.022736164 0.384 4278999335
0.043788493 -0.022736164 0.384 4278868519
0.045035727 -0.022736164 0.384 4279000619
0.046403486 -0.022795374 0.38500002 4278605861
0.047653969 -0.022795374 0.38500002 4278540068
0.04903147 -0.022854581 0.38600001 4279525679
0.050285202 -0.022854581 0.38600001 4279459373
0.051672455 -0.022913791 0.38700002 4279984947
0.053066194 -0.022972999 0.38800001 4279984434
0.054326419 -0.022972999 0.38800001 4280246324
0.055729914 -0.023032209 0.38900003 4279125283
0.0571399 -0.023091417 0.39000002 4280438575
0.058556378 -0.023150627 0.39100003 4278924566
0.059826348 -0.023150627 0.39100003 4280172838
0.061252572 -0.023209834 0.39200002 4279383322
0.062685288 -0.023269042 0.39300001 4279512859
0.06412451 -0.023328252 0.39400002 4281816126
0.06557022 -0.02338746 0.39500001 4281556804
0.066853181 -0.02338746 0.39500001 4281030462
0.036494188 -0.021600427 0.38600001 4279452447
0.037747912 -0.021600427 0.38600001 4278993177
0.039001644 -0.021600427 0.38600001 4278928152
0.040151086 -0.02154447 0.38500002 4278797080
0.041401565 -0.02154447 0.38500002 4278339099
0.042652048 -0.02154447 0.38500002 4279129642
0.043902528 -0.02154447 0.38500002 4279130410
0.045153007 -0.02154447 0.38500002 4279919926
0.046524014 -0.021600427 0.38600001 4279130408
0.047777742 -0.021600427 0.38600001 4279523883
0.049158495 -0.021656388 0.38700002 4279787057
0.050415475 -0.021656388 0.38700002 4279984436
0.051805973 -0.021712348 0.38800001 4279918129
0.053066194 -0.021712348 0.38800001 4280377910
0.054466438 -0.021768307 0.38900003 4280376116
0.055873174 -0.021824267 0.39000002 4278992412
0.0571399 -0.021824267 0.39000002 4281294399
0.058556378 -0.021880228 0.39100003 4279252765
0.059979353 -0.021936186 0.39200002 4279579168
0.061252572 -0.021936186 0.39200002 4280501038
0.062685288 -0.021992145 0.39300001 4281491524
0.06412451 -0.022048106 0.39400002 4280768053
0.06557022 -0.022104066 0.39500001 4283397726
0.036588732 -0.020398986 0.38700002 4279847203
0.037845708 -0.020398986 0.38700002 4279124763
0.039102685 -0.020398986 0.38700002 4278928152
0.040359661 -0.020398986 0.38700002 4278993945
0.041509099 -0.020346273 0.38600001 4279062048
0.042762831 -0.020346273 0.38600001 4279129125
0.044016559 -0.020346273 0.38600001 4279129642
0.045270287 -0.020346273 0.38600001 4279655473
0.046644546 -0.020398986 0.38700002 4279655471
0.047901522 -0.020398986 0.38700002 4279787055
0.04928552 -0.020451695 0.38800001 4280115506
0.050545745 -0.020451695 0.38800001 4279918127
0.051939495 -0.020504406 0.38900003 4280312115
0.053202964 -0.020504406 0.38900003 4280048430
0.054606453 -0.020557117 0.39000002 4280901176
0.055873174 -0.020557117 0.39000002 4280505651
0.057286412 -0.020609828 0.39100003 4279780393
0.058556378 -0.020609828 0.39100003 4280240176
0.059979353 -0.020662537 0.39200002 4281556034
0.061252572 -0.020662537 0.39200002 4281556804
0.036683276 -0.019191043 0.38800001 4279124765
0.037943501 -0.019191043 0.38800001 4278928154
0.039203726 -0.019191043 0.38800001 4278797082
0.04046395 -0.019191043 0.38800001 4279389217
0.041616637 -0.019141583 0.38700002 4279062048
0.042873617 -0.019141583 0.38700002 4278931748
0.04413059 -0.019141583 0.38700002 4280247608
0.04538757 -0.019141583 0.38700002 4279852336
0.046765074 -0.019191043 0.38800001 4279984434
0.048025295 -0.019191043 0.38800001 4279787055
0.049412545 -0.019240506 0.38900003 4280246324
0.050676022 -0.019240506 0.38900003 4280575289
0.052073013 -0.019289967 0.39000002 4280443190
0.053339731 -0.019289967 0.39000002 4280639799
0.054746471 -0.019339429 0.39100003 4279189539
0.056016441 -0.019339429 0.39100003 4280571446
0.057286412 -0.019339429 0.39100003 4280834616
0.058706135 -0.01938889 0.39200002 4281229374
0.059979353 -0.01938889 0.39200002 4282016587
0.035423048 -0.017930392 0.38800001 4280240166
0.03677782 -0.017976604 0.38900003 4279387935
0.038041294 -0.017976604 0.38900003 4278862361
0.039304767 -0.017976604 0.38900003 4278862875
0.04046395 -0.017930392 0.38800001 4279258146
0.041724171 -0.017930392 0.38800001 4279325222
0.0429844 -0.017930392 0.38800001 4279194922
0.044244621 -0.017930392 0.38800001 4280247608
0.045504849 -0.017930392 0.38800001 4279392299
0.046765074 -0.017930392 0.38800001 4279984436
0.048149075 -0.017976604 0.38900003 4279852850
0.049412545 -0.017976604 0.38900003 4280181303
0.050806291 -0.018022817 0.39000002 4280443705
0.052073013 -0.018022817 0.39000002 4280639801
0.053476501 -0.018069031 0.39100003 4280704827
0.054746471 -0.018069031 0.39100003 4280504629
0.056016441 -0.018069031 0.39100003 4281426755
0.057286412 -0.018069031 0.39100003 4281753667
0.058706135 -0.018115241 0.39200002 4286489484
0.034250874 -0.016712705 0.38900003 4280107043
0.035514347 -0.016712705 0.38900003 4279517473
0.03677782 -0.016712705 0.38900003 4279190556
0.038041294 -0.016712705 0.38900003 4278928152
0.039304767 -0.016712705 0.38900003 4278928666
0.04056824 -0.016712705 0.38900003 4279192351
0.041831709 -0.016712705 0.38900003 4279391013
0.043095186 -0.016712705 0.38900003 4278931236
0.044358656 -0.016712705 0.38900003 4279918131
0.045622133 -0.016712705 0.38900003 4279787059
0.046885602 -0.016712705 0.38900003 4279589678
0.048272848 -0.016755667 0.39000002 4279721264
0.04953957 -0.016755667 0.39000002 4280115510
0.050936565 -0.01679863 0.39100003 4280509498
0.052206539 -0.01679863 0.39100003 4280508985
0.053476501 -0.01679863 0.39100003 4280573495
0.054886486 -0.016841594 0.39200002 4280964930
0.056159705 -0.016841594 0.39200002 4285437573
0.031642377 -0.01540909 0.38800001 4280170276
0.032987405 -0.015448804 0.38900003 4280302625
0.034250874 -0.015448804 0.38900003 4279582496
0.035514347 -0.015448804 0.38900003 4279321377
0.03677782 -0.015448804 0.38900003 4279190558
0.038041294 -0.015448804 0.38900003 4278796570
0.039304767 -0.015448804 0.38900003 4279060765
0.04056824 -0.015448804 0.38900003 4279456293
0.041831709 -0.015448804 0.38900003 4279391783
0.043095186 -0.015448804 0.38900003 4280115508
0.044358656 -0.015448804 0.38900003 4279983924
0.045622133 -0.015448804 0.38900003 4279983924
0.04700613 -0.015488517 0.39000002 4280115508
0.048272848 -0.015488517 0.39000002 4280247094
0.04953957 -0.015488517 0.39000002 4280312887
0.050936565 -0.015528233 0.39100003 4280641084
0.052206539 -0.015528233 0.39100003 4280834364
0.053476501 -0.015528233 0.39100003 4285371518
0.032987405 -0.014184902 0.38900003 4280960819
0.034250874 -0.014184902 0.38900003 4279779875
0.035514347 -0.014184902 0.38900003 4279518756
0.03677782 -0.014184902 0.38900003 4279059742
0.038139086 -0.014221366 0.39000002 4279125535
0.039405808 -0.014221366 0.39000002 4279192605
0.040672526 -0.014221366 0.39000002 4279390754
0.041939247 -0.014221366 0.39000002 4279391013
0.043205969 -0.014221366 0.39000002 4280247094
0.044472687 -0.014221366 0.39000002 4279918131
0.045739412 -0.014221366 0.39000002 4280115510
0.04700613 -0.014221366 0.39000002 4280115256
0.048272848 -0.014221366 0.39000002 4280247096
0.049666595 -0.014257832 0.39100003 4280704313
0.035514347 -0.012921002 0.38900003 4279450398
0.036872365 -0.012954217 0.39000002 4279519269
0.038139086 -0.012954217 0.39000002 4279520293
0.039405808 -0.012954217 0.39000002 4279521316
0.040672526 -0.012954217 0.39000002 4279587879
0.041939247 -0.012954217 0.39000002 4279457060
0.043205969 -0.012954217 0.39000002 4280181299
0.044472687 -0.012954217 0.39000002 4279983922
0.045739412 -0.012954217 0.39000002 4280115508
0.04700613 -0.012954217 0.39000002 4280639288
0.048272848 -0.012954217 0.39000002 4282609746
0.038139086 -0.011687067 0.39000002 4279845670
0.039405808 -0.011687067 0.39000002 4279783211
0.040672526 -0.011687067 0.39000002 4279784492
0.041939247 -0.011687067 0.39000002 4280837950
0.043205969 -0.011687067 0.39000002 4280443192
0.044472687 -0.011687067 0.39000002 4280573754
0.065191254 -0.03084119 0.39718443 4294967295
0.065191254 -0.03084119 0.39718443 4294901760
0.065039769 -0.031303212 0.39706787 4294901760
0.064888276 -0.031765237 0.39695132 4294901760
0.064736791 -0.032227259 0.39683476 4294901760
0.064585306 -0.032689281 0.39671817 4294901760
0.064433821 -0.033151306 0.39660162 4294901760
0.064282328 -0.033613328 0.39648506 4294901760
0.064130843 -0.03407535 0.3963685 4294901760
0.063979357 -0.034537375 0.39625195 4294901760
0.063827865 -0.034999397 0.39613539 4294901760
0.06367638 -0.035461418 0.39601883 4294901760
0.063524894 -0.035923444 0.39590228 4294901760
0.063373409 -0.036385465 0.39578569 4294901760
0.063221917 -0.036847487 0.39566913 4294901760
0.063070431 -0.037309512 0.39555258 4294901760
0.062918946 -0.037771534 0.39543602 4294901760
0.062767461 -0.038233556 0.39531946 4294901760
0.062615968 -0.038695581 0.3952029 4294901760
0.062464483 -0.039157607 0.39508635 4294901760
0.062312994 -0.039619625 0.39496979 4294901760
0.062161509 -0.04008165 0.3948532 4294901760
0.06201002 -0.040543672 0.39473665 4294901760
0.061858535 -0.041005697 0.39462009 4294901760
0.061707046 -0.041467719 0.39450353 4294901760
0.061555561 -0.04192974 0.39438698 4294901760
0.061404072 -0.042391766 0.39427042 4294901760
0.061252587 -0.042853788 0.39415386 4294901760
0.061101098 -0.043315813 0.39403728 4294901760
0.060949609 -0.043777835 0.39392072 4294901760
0.060798123 -0.044239856 0.39380416 4294901760
0.060646635 -0.044701882 0.39368761 4294901760
0.060495149 -0.045163903 0.39357105 4294901760
0.06034366 -0.045625925 0.39345449 4294901760
0.060192175 -0.04608795 0.39333794 4294901760
0.060040686 -0.046549972 0.39322138 4294901760
0.059889197 -0.047011994 0.39310479 4294901760
0.059737712 -0.047474019 0.39298823 4294901760
0.059586223 -0.047936041 0.39287168 4294901760
0.059434738 -0.048398063 0.39275512 4294901760
0.059283249 -0.048860088 0.39263856 4294901760
0.059131764 -0.04932211 0.39252201 4294901760
0.058980275 -0.049784131 0.39240545 4294901760
0.058828786 -0.050246157 0.39228889 4294901760
0.058677301 -0.050708178 0.39217231 4294901760
0.058525812 -0.0511702 0.39205575 4294901760
0.058374327 -0.051632226 0.39193919 4294901760
0.058222838 -0.052094247 0.39182264 4294901760
0.058071353 -0.052556269 0.39170608 4294901760
0.057919864 -0.053018294 0.39158952 4294901760
0.057768375 -0.05348032 0.39147297 4294901760
0.057616889 -0.053942338 0.39135641 4294901760
0.057465404 -0.054404363 0.39123982 4294901760
0.057313915 -0.054866385 0.39112327 4294901760
0.057162426 -0.055328406 0.39100671 4294901760
0.057010941 -0.055790432 0.39089015 4294901760
0.056859452 -0.056252457 0.39077359 4294901760
0.056707967 -0.056714475 0.39065704 4294901760
0.056556478 -0.057176501 0.39054048 4294901760
0.056404993 -0.057638522 0.39042389 4294901760
0.056253504 -0.058100544 0.39030734 4294901760
0.056102015 -0.058562569 0.39019078 4294901760
0.05595053 -0.059024595 0.39007422 4294901760
0.055799041 -0.059486616 0.38995767 4294901760
0.055647556 -0.059948638 0.38984111 4294901760
0.055496067 -0.06041066 0.38972455 4294901760
0.055344582 -0.060872681 0.389608 4294901760
0.055193093 -0.061334707 0.38949141 4294901760
0.055041604 -0.061796732 0.38937485 4294901760
0.054890119 -0.062258754 0.3892583 4294901760
0.05473863 -0.062720776 0.38914174 4294901760
0.054587144 -0.063182801 0.38902518 4294901760
0.054435655 -0.063644826 0.38890862 4294901760
0.05428417 -0.064106852 0.38879207 4294901760
0.054132681 -0.06456887 0.38867551 4294901760
0.053981192 -0.065030888 0.38855892 4294901760
0.053829707 -0.065492913 0.38844237 4294901760
0.053678222 -0.065954939 0.38832581 4294901760
0.053526733 -0.066416964 0.38820925 4294901760
0.053375244 -0.066878982 0.3880927 4294901760
0.053223759 -0.067341007 0.38797614 4294901760
0.05307227 -0.067803025 0.38785958 4294901760
0.052920785 -0.068265051 0.387743 4294901760
0.052769296 -0.068727076 0.38762644 4294901760
0.052617811 -0.069189101 0.38750988 4294901760
0.052466322 -0.069651119 0.38739333 4294901760
0.052314833 -0.070113145 0.38727677 4294901760
0.052163348 -0.070575163 0.38716021 4294901760
0.052011859 -0.071037188 0.38704365 4294901760
0.051860373 -0.071499214 0.3869271 4294901760
0.051708885 -0.071961239 0.38681051 4294901760
0.051557399 -0.072423257 0.38669395 4294901760
0.05140591 -0.072885282 0.3865774 4294901760
0.051254421 -0.0733473 0.38646084 4294901760
0.051102936 -0.073809326 0.38634428 4294901760
0.050951447 -0.074271351 0.38622773 4294901760
0.050799962 -0.074733377 0.38611117 4294901760
0.050648473 -0.075195394 0.38599461 4294901760
0.050496988 -0.07565742 0.38587803 4294901760
0.050345499 -0.076119445 0.38576147 4294901760
0.05019401 -0.076581463 0.38564491 4294901760
0.050042525 -0.077043489 0.38552836 4294901760
0.065191254 -0.03084119 0.39718443 4278255360
0.065591119 -0.031030972 0.39741701 4278255360
0.065990984 -0.031220755 0.39764959 4278255360
0.06639085 -0.031410534 0.39788216 4278255360
0.066790715 -0.031600319 0.39811474 4278255360
0.06719058 -0.0317901 0.39834732 4278255360
0.067590445 -0.031979881 0.3985799 4278255360
0.06799031 -0.032169662 0.39881244 4278255360
0.068390176 -0.032359444 0.39904502 4278255360
0.068790033 -0.032549225 0.3992776 4278255360
0.069189899 -0.032739006 0.39951017 4278255360
0.069589764 -0.032928791 0.39974275 4278255360
0.069989629 -0.033118572 0.39997533 4278255360
0.070389494 -0.033308353 0.40020791 4278255360
0.07078936 -0.033498134 0.40044048 4278255360
0.071189225 -0.033687916 0.40067306 4278255360
0.07158909 -0.033877697 0.40090564 4278255360
0.071988955 -0.034067482 0.40113822 4278255360
0.07238882 -0.034257263 0.40137079 4278255360
0.072788686 -0.034447044 0.40160334 4278255360
0.073188551 -0.034636825 0.40183592 4278255360
0.073588416 -0.034826607 0.4020685 4278255360
0.073988281 -0.035016388 0.40230107 4278255360
0.074388146 -0.035206169 0.40253365 4278255360
0.074788004 -0.035395954 0.40276623 4278255360
0.075187877 -0.035585735 0.40299881 4278255360
0.075587735 -0.035775516 0.40323138 4278255360
0.075987607 -0.035965297 0.40346396 4278255360
0.076387465 -0.036155079 0.40369654 4278255360
0.07678733 -0.03634486 0.40392911 4278255360
0.077187195 -0.036534645 0.40416169 4278255360
0.077587061 -0.036724426 0.40439427 4278255360
0.077986926 -0.036914207 0.40462682 4278255360
0.078386791 -0.037103988 0.40485939 4278255360
0.078786656 -0.037293769 0.40509197 4278255360
0.079186521 -0.037483551 0.40532455 4278255360
0.079586387 -0.037673332 0.40555713 4278255360
0.079986252 -0.037863117 0.4057897 4278255360
0.080386117 -0.038052898 0.40602228 4278255360
0.080785982 -0.038242679 0.40625486 4278255360
0.081185848 -0.03843246 0.40648744 4278255360
0.081585705 -0.038622241 0.40672001 4278255360
0.081985578 -0.038812023 0.40695259 4278255360
0.082385436 -0.039001808 0.40718517 4278255360
0.082785301 -0.039191589 0.40741771 4278255360
0.083185166 -0.03938137 0.40765029 4278255360
0.083585031 -0.039571151 0.40788287 4278255360
0.083984897 -0.039760932 0.40811545 4278255360
0.084384762 -0.039950714 0.40834802 4278255360
0.084784627 -0.040140495 0.4085806 4278255360
0.085184492 -0.040330276 0.40881318 4278255360
0.085584357 -0.040520057 0.40904576 4278255360
0.085984223 -0.040709842 0.40927833 4278255360
0.086384088 -0.040899623 0.40951091 4278255360
0.086783953 -0.041089404 0.40974349 4278255360
0.087183818 -0.041279186 0.40997607 4278255360
0.087583683 -0.04146897 0.41020864 4278255360
0.087983549 -0.041658752 0.41044119 4278255360
0.088383406 -0.041848533 0.41067377 4278255360
0.088783272 -0.042038314 0.41090634 4278255360
0.089183137 -0.042228095 0.41113892 4278255360
0.089583009 -0.042417876 0.4113715 4278255360
0.089982867 -0.042607658 0.41160408 4278255360
0.090382732 -0.042797439 0.41183665 4278255360
0.090782598 -0.04298722 0.41206923 4278255360
0.091182463 -0.043177005 0.41230181 4278255360
0.091582328 -0.043366786 0.41253439 4278255360
0.091982193 -0.043556567 0.41276696 4278255360
0.092382059 -0.043746348 0.41299954 4278255360
0.092781924 -0.04393613 0.41323209 4278255360
0.093181789 -0.044125915 0.41346467 4278255360
0.093581647 -0.044315696 0.41369724 4278255360
0.093981519 -0.044505477 0.41392982 4278255360
0.094381385 -0.044695258 0.4141624 4278255360
0.09478125 -0.044885039 0.41439497 4278255360
0.095181108 -0.045074821 0.41462755 4278255360
0.09558098 -0.045264602 0.41486013 4278255360
0.095980838 -0.045454383 0.41509271 4278255360
0.096380703 -0.045644164 0.41532528 4278255360
0.096780568 -0.045833949 0.41555786 4278255360
0.097180441 -0.04602373 0.41579044 4278255360
0.097580299 -0.046213511 0.41602302 4278255360
0.097980164 -0.046403293 0.41625556 4278255360
0.098380029 -0.046593077 0.41648814 4278255360
0.098779894 -0.046782859 0.41672072 4278255360
0.09917976 -0.04697264 0.4169533 4278255360
0.099579625 -0.047162421 0.41718587 4278255360
0.09997949 -0.047352202 0.41741845 4278255360
0.10037935 -0.047541983 0.41765103 4278255360
0.10077922 -0.047731765 0.4178836 4278255360
0.10117908 -0.047921546 0.41811618 4278255360
0.10157895 -0.048111331 0.41834876 4278255360
0.10197881 -0.048301112 0.41858134 4278255360
0.10237868 -0.048490893 0.41881391 4278255360
0.10277854 -0.048680674 0.41904646 4278255360
0.1031784 -0.048870455 0.41927904 4278255360
0.10357827 -0.04906024 0.41951162 4278255360
0.10397814 -0.049250022 0.41974419 4278255360
0.104378 -0.049439803 0.41997677 4278255360
0.10477787 -0.049629584 0.42020935 4278255360
0.10517773 -0.049819365 0.42044193 4278255360
0.065191254 -0.03084119 0.39718443 4278190335
0.064903751 -0.030850101 0.39759341 4278190335
0.064616241 -0.03085901 0.39800239 4278190335
0.064328738 -0.030867921 0.39841136 4278190335
0.064041227 -0.030876832 0.39882034 4278190335
0.063753724 -0.030885741 0.39922932 4278190335
0.063466214 -0.030894652 0.3996383 4278190335
0.063178711 -0.030903563 0.40004724 4278190335
0.0628912 -0.030912474 0.40045622 4278190335
0.062603697 -0.030921383 0.4008652 4278190335
0.062316187 -0.030930294 0.40127417 4278190335
0.06202868 -0.030939205 0.40168315 4278190335
0.061741173 -0.030948114 0.40209213 4278190335
0.061453667 -0.030957025 0.40250111 4278190335
0.06116616 -0.030965935 0.40291008 4278190335
0.060878653 -0.030974846 0.40331906 4278190335
0.060591146 -0.030983755 0.40372804 4278190335
0.06030364 -0.030992666 0.40413702 4278190335
0.060016133 -0.031001577 0.40454599 4278190335
0.059728626 -0.031010486 0.40495494 4278190335
0.059441119 -0.031019397 0.40536392 4278190335
0.059153616 -0.031028308 0.40577289 4278190335
0.058866106 -0.031037217 0.40618187 4278190335
0.058578599 -0.031046128 0.40659085 4278190335
0.058291093 -0.031055039 0.40699983 4278190335
0.05800359 -0.031063948 0.4074088 4278190335
0.057716083 -0.031072859 0.40781778 4278190335
0.057428576 -0.03108177 0.40822676 4278190335
0.057141066 -0.031090681 0.40863574 4278190335
0.056853563 -0.03109959 0.40904471 4278190335
0.056566052 -0.0311085 0.40945369 4278190335
0.056278549 -0.031117411 0.40986267 4278190335
0.055991042 -0.03112632 0.41027161 4278190335
0.055703536 -0.031135231 0.41068059 4278190335
0.055416029 -0.031144142 0.41108957 4278190335
0.055128522 -0.031153053 0.41149855 4278190335
0.054841012 -0.031161962 0.41190752 4278190335
0.054553509 -0.031170873 0.4123165 4278190335
0.054266002 -0.031179784 0.41272548 4278190335
0.053978495 -0.031188693 0.41313446 4278190335
0.053690989 -0.031197604 0.41354343 4278190335
0.053403482 -0.031206515 0.41395241 4278190335
0.053115975 -0.031215424 0.41436139 4278190335
0.052828468 -0.031224335 0.41477036 4278190335
0.052540962 -0.031233246 0.41517931 4278190335
0.052253455 -0.031242155 0.41558829 4278190335
0.051965948 -0.031251065 0.41599727 4278190335
0.051678441 -0.031259976 0.41640624 4278190335
0.051390935 -0.031268887 0.41681522 4278190335
0.051103428 -0.031277798 0.4172242 4278190335
0.050815921 -0.031286709 0.41763318 4278190335
0.050528415 -0.031295616 0.41804215 4278190335
0.050240908 -0.031304527 0.41845113 4278190335
0.049953401 -0.031313438 0.41886011 4278190335
0.049665894 -0.031322349 0.41926908 4278190335
0.049378388 -0.03133126 0.41967806 4278190335
0.049090881 -0.031340171 0.42008704 4278190335
0.048803374 -0.031349078 0.42049599 4278190335
0.048515871 -0.031357989 0.42090496 4278190335
0.048228361 -0.0313669 0.42131394 4278190335
0.047940854 -0.031375811 0.42172292 4278190335
0.047653347 -0.031384721 0.4221319 4278190335
0.047365841 -0.031393632 0.42254087 4278190335
0.047078334 -0.031402543 0.42294985 4278190335
0.046790831 -0.03141145 0.42335883 4278190335
0.04650332 -0.031420361 0.42376781 4278190335
0.046215814 -0.031429272 0.42417678 4278190335
0.045928307 -0.031438183 0.42458576 4278190335
0.045640804 -0.031447094 0.42499474 4278190335
0.045353293 -0.031456005 0.42540371 4278190335
0.04506579 -0.031464912 0.42581266 4278190335
0.04477828 -0.031473823 0.42622164 4278190335
0.044490773 -0.031482734 0.42663062 4278190335
0.044203267 -0.031491645 0.42703959 4278190335
0.043915763 -0.031500556 0.42744857 4278190335
0.043628253 -0.031509466 0.42785755 4278190335
0.04334075 -0.031518377 0.42826653 4278190335
0.04305324 -0.031527285 0.4286755 4278190335
0.042765737 -0.031536195 0.42908448 4278190335
0.042478226 -0.031545106 0.42949346 4278190335
0.042190723 -0.031554017 0.42990243 4278190335
0.041903213 -0.031562928 0.43031138 4278190335
0.04161571 -0.031571839 0.43072036 4278190335
0.041328203 -0.03158075 0.43112934 4278190335
0.041040696 -0.031589657 0.43153831 4278190335
0.040753186 -0.031598568 0.43194729 4278190335
0.040465683 -0.031607479 0.43235627 4278190335
0.040178172 -0.03161639 0.43276525 4278190335
0.039890669 -0.031625301 0.43317422 4278190335
0.039603163 -0.031634212 0.4335832 4278190335
0.039315656 -0.031643122 0.43399218 4278190335
0.039028145 -0.03165203 0.43440115 4278190335
0.038740642 -0.03166094 0.43481013 4278190335
0.038453136 -0.031669851 0.43521911 4278190335
0.038165629 -0.031678762 0.43562806 4278190335
0.037878122 -0.031687673 0.43603703 4278190335
0.037590615 -0.031696584 0.43644601 4278190335
0.037303105 -0.031705491 0.43685499 4278190335
0.037015602 -0.031714402 0.43726397 4278190335
0.036728095 -0.031723313 0.43767294 4278190335
0.036440589 -0.031732224 0.43808192 4278190335
0.065191254 -0.03084119 0.39718443 4294967295
0.066916294 -0.030787729 0.39473057 4294967295
0.068641335 -0.030734265 0.39227673 4294967295
0.070366375 -0.030680804 0.38982287 4294967295
0.072091416 -0.030627342 0.38736904 4294967295
0.073816456 -0.03057388 0.38491517 4294967295
0.075541496 -0.030520417 0.38246134 4294967295
0.077266537 -0.030466955 0.38000748 4294967295
0.078991577 -0.030413494 0.37755364 4294967295
0.08071661 -0.030360032 0.37509978 4294967295
0.082441658 -0.030306568 0.37264594 4294967295
0.084166691 -0.030253107 0.37019208 4294967295
0.085891731 -0.030199645 0.36773825 4294967295
0.087616771 -0.030146183 0.36528438 4294967295
0.089341812 -0.03009272 0.36283052 4294967295
0.091066852 -0.030039258 0.36037669 4294967295
0.092791893 -0.029985797 0.35792282 4294967295
0.094516933 -0.029932335 0.35546899 4294967295
0.096241973 -0.029878872 0.35301512 4294967295
0.097967014 -0.02982541 0.35056129 4294967295
0.099692054 -0.029771948 0.34810743 4294967295
0.10141709 -0.029718487 0.34565359 4294967295
0.10314213 -0.029665023 0.34319973 4294967295
0.10486718 -0.029611561 0.34074587 4294967295
0.10659221 -0.0295581 0.33829203 4294967295
0.10831726 -0.029504638 0.33583817 4294967295
0.11004229 -0.029451175 0.33338434 4294967295
0.11176734 -0.029397713 0.33093047 4294967295
0.11349237 -0.029344251 0.32847664 4294967295
0.11521741 -0.029290788 0.32602277 4294967295
0.11694245 -0.029237326 0.32356894 4294967295
0.11866749 -0.029183865 0.32111508 4294967295
0.12039253 -0.029130403 0.31866121 4294967295
0.12211758 -0.029076939 0.31620738 4294967295
0.12384261 -0.029023478 0.31375355 4294967295
0.12556764 -0.028970016 0.31129968 4294967295
0.12729269 -0.028916555 0.30884582 4294967295
0.12901774 -0.028863091 0.30639198 4294967295
0.13074277 -0.028809629 0.30393812 4294967295
0.13246781 -0.028756168 0.30148429 4294967295
0.13419285 -0.028702706 0.29903042 4294967295
0.13591789 -0.028649243 0.29657659 4294967295
0.13764292 -0.028595781 0.29412273 4294967295
0.13936797 -0.028542319 0.29166889 4294967295
0.14109302 -0.028488858 0.28921503 4294967295
0.14281805 -0.028435394 0.28676116 4294967295
0.14454308 -0.028381933 0.28430733 4294967295
0.14626813 -0.028328471 0.2818535 4294967295
0.14799318 -0.028275009 0.27939963 4294967295
0.14971821 -0.028221546 0.27694577 4294967295
0.15144324 -0.028168084 0.27449194 4294967295
0.15316829 -0.028114622 0.2720381 4294967295
0.15489332 -0.028061159 0.26958424 4294967295
0.15661836 -0.028007697 0.26713037 4294967295
0.1583434 -0.027954236 0.26467651 4294967295
0.16006845 -0.027900774 0.26222268 4294967295
0.1617935 -0.027847311 0.25976884 4294967295
0.16351852 -0.027793849 0.25731498 4294967295
0.16524357 -0.027740387 0.25486112 4294967295
0.16696861 -0.027686926 0.25240728 4294967295
0.16869366 -0.027633462 0.24995342 4294967295
0.17041869 -0.02758 0.24749957 4294967295
0.17214373 -0.027526539 0.24504572 4294967295
0.17386878 -0.027473077 0.24259187 4294967295
0.17559381 -0.027419614 0.24013802 4294967295
0.17731884 -0.027366152 0.23768419 4294967295
0.17904389 -0.02731269 0.23523033 4294967295
0.18076894 -0.027259227 0.23277648 4294967295
0.18249397 -0.027205765 0.23032263 4294967295
0.184219 -0.027152304 0.22786878 4294967295
0.18594405 -0.027098842 0.22541493 4294967295
0.18766908 -0.02704538 0.22296108 4294967295
0.18939413 -0.026991917 0.22050722 4294967295
0.19111918 -0.026938455 0.21805337 4294967295
0.19284421 -0.026884994 0.21559952 4294967295
0.19456924 -0.02683153 0.21314567 4294967295
0.19629429 -0.026778068 0.21069182 4294967295
0.19801933 -0.026724607 0.20823798 4294967295
0.19974436 -0.026671145 0.20578413 4294967295
0.20146941 -0.026617683 0.20333028 4294967295
0.20319445 -0.02656422 0.20087643 4294967295
0.20491949 -0.026510758 0.19842258 4294967295
0.20664452 -0.026457297 0.19596873 4294967295
0.20836957 -0.026403833 0.19351488 4294967295
0.2100946 -0.026350372 0.19106103 4294967295
0.21181965 -0.02629691 0.18860717 4294967295
0.2135447 -0.026243448 0.18615332 4294967295
0.21526973 -0.026189985 0.18369947 4294967295
0.21699476 -0.026136523 0.18124563 4294967295
