# .PCD v0.7 - Point Cloud Data file format
VERSION 0.7
FIELDS x y z rgb
SIZE 4 4 4 4
TYPE F F F U
COUNT 1 1 1 1
WIDTH 1062
HEIGHT 1
VIEWPOINT 0 0 0 1 0 0 0
POINTS 1062
DATA ascii
0.068826258 0.056909688 0.29800001 4280033557
0.069794163 0.056909688 0.29800001 4281480233
0.070762068 0.056909688 0.29800001 4280822555
0.071729973 0.056909688 0.29800001 4280427022
0.07269787 0.056909688 0.29800001 4281740820
0.073665775 0.056909688 0.29800001 4280951304
0.074884132 0.057100665 0.29900002 4280885773
0.075855285 0.057100665 0.29900002 4281083665
0.076826438 0.057100665 0.29900002 4280097544
0.077797592 0.057100665 0.29900002 4280624147
0.078768745 0.057100665 0.29900002 4281217061
0.080006585 0.057291634 0.30000001 4278979844
0.080980986 0.057291634 0.30000001 4278914054
0.081955381 0.057291634 0.30000001 4279177228
0.082653359 0.057100665 0.29900002 4283456594
0.083624512 0.057100665 0.29900002 4285365618
0.084595665 0.057100665 0.29900002 4285562997
0.085566819 0.057100665 0.29900002 4285365618
0.086537972 0.057100665 0.29900002 4285628790
0.087801784 0.057291634 0.30000001 4285563251
0.088776186 0.057291634 0.30000001 4285890415
0.089750588 0.057291634 0.30000001 4280686601
0.09072499 0.057291634 0.30000001 4282847243
0.092005059 0.057482608 0.30100003 4282912266
0.092982709 0.057482608 0.30100003 4283240969
0.09396036 0.057482608 0.30100003 4283569421
0.095253408 0.057673577 0.30200002 4283766030
0.096234307 0.057673577 0.30200002 4284094995
0.097215205 0.057673577 0.30200002 4284621076
0.098196104 0.057673577 0.30200002 4285081627
0.099176995 0.057673577 0.30200002 4285286712
0.051317416 0.056712594 0.29200003 4280622601
0.052265834 0.056712594 0.29200003 4280754187
0.053214248 0.056712594 0.29200003 4280688394
0.054162666 0.056712594 0.29200003 4281866508
0.055111084 0.056712594 0.29200003 4283046672
0.056251481 0.056906812 0.29300001 4283045389
0.057203144 0.056906812 0.29300001 4281932555
0.05835329 0.057101034 0.294 4280819980
0.059711657 0.057489477 0.296 4280688907
0.060878046 0.057683699 0.29700002 4280688907
0.062050927 0.057877917 0.29800001 4280558093
0.063018829 0.057877917 0.29800001 4279045633
0.064201459 0.058072142 0.29900002 4278848515
0.065172613 0.058072142 0.29900002 4280165661
0.066143766 0.058072142 0.29900002 4279507731
0.067114912 0.058072142 0.29900002 4278914054
0.068086065 0.058072142 0.29900002 4281481775
0.068826258 0.057877917 0.29800001 4280164375
0.069794163 0.057877917 0.29800001 4280098580
0.070762068 0.057877917 0.29800001 4281546794
0.071729973 0.057877917 0.29800001 4281019680
0.07269787 0.057877917 0.29800001 4280754954
0.073665775 0.057877917 0.29800001 4281478162
0.074884132 0.058072142 0.29900002 4281280269
0.075855285 0.058072142 0.29900002 4281017611
0.076826438 0.058072142 0.29900002 4280624397
0.077797592 0.058072142 0.29900002 4280822550
0.079032183 0.05826636 0.30000001 4278979847
0.080006585 0.05826636 0.30000001 4278914054
0.080980986 0.05826636 0.30000001 4278979849
0.081955381 0.05826636 0.30000001 4278585091
0.082653359 0.058072142 0.29900002 4286286206
0.083624512 0.058072142 0.29900002 4285628790
0.084595665 0.058072142 0.29900002 4285562997
0.085566819 0.058072142 0.29900002 4285562997
0.08682739 0.05826636 0.30000001 4285497204
0.087801784 0.05826636 0.30000001 4285365618
0.088776186 0.05826636 0.30000001 4286481271
0.089750588 0.05826636 0.30000001 4281012999
0.09072499 0.05826636 0.30000001 4283043852
0.091699392 0.05826636 0.30000001 4283372303
0.092982709 0.058460586 0.30100003 4283306249
0.09396036 0.058460586 0.30100003 4283766030
0.094938003 0.058460586 0.30100003 4283963150
0.096234307 0.058654804 0.30200002 4284619538
0.097215205 0.058654804 0.30200002 4285144594
0.098196104 0.058654804 0.30200002 4285210387
0.099176995 0.058654804 0.30200002 4284885535
0.052265834 0.057661336 0.29200003 4280688396
0.053214248 0.057661336 0.29200003 4280622603
0.054162666 0.057661336 0.29200003 4281669129
0.055111084 0.057661336 0.29200003 4282980879
0.056059498 0.057661336 0.29200003 4282980366
0.057203144 0.057858802 0.29300001 4282984473
0.05835329 0.058056269 0.294 4280688907
0.059711657 0.058451213 0.296 4280558091
0.060878046 0.058648687 0.29700002 4280492300
0.062050927 0.058846153 0.29800001 4280492300
0.063018829 0.058846153 0.29800001 4280294930
0.064201459 0.059043627 0.29900002 4279111428
0.065172613 0.059043627 0.29900002 4279573524
0.066143766 0.059043627 0.29900002 4279771416
0.067114912 0.059043627 0.29900002 4278914824
0.068086065 0.059043627 0.29900002 4278717699
0.069057226 0.059043627 0.29900002 4280823845
0.070028372 0.059043627 0.29900002 4280560673
0.070999525 0.059043627 0.29900002 4281809196
0.071729973 0.058846153 0.29800001 4281414181
0.072941832 0.059043627 0.29900002 4281084698
0.073912986 0.059043627 0.29900002 4281084950
0.074884132 0.059043627 0.29900002 4281281814
0.075855285 0.059043627 0.29900002 4281150228
0.076826438 0.059043627 0.29900002 4280756757
0.078057781 0.059241094 0.30000001 4280493079
0.079032183 0.059241094 0.30000001 4278848263
0.080006585 0.059241094 0.30000001 4278848263
0.080980986 0.059241094 0.30000001 4278849033
0.081682198 0.059043627 0.29900002 4279704342
0.082653359 0.059043627 0.29900002 4285497206
0.083624512 0.059043627 0.29900002 4285628790
0.084595665 0.059043627 0.29900002 4285497204
0.085566819 0.059043627 0.29900002 4285759862
0.08682739 0.059241094 0.30000001 4285759862
0.087801784 0.059241094 0.30000001 4285628276
0.088776186 0.059241094 0.30000001 4286543982
0.089750588 0.059241094 0.30000001 4282258188
0.09072499 0.059241094 0.30000001 4283174924
0.091699392 0.059241094 0.30000001 4283437837
0.092982709 0.059438568 0.30100003 4283437065
0.09396036 0.059438568 0.30100003 4283766030
0.094938003 0.059438568 0.30100003 4284488724
0.095915653 0.059438568 0.30100003 4285080089
0.096893303 0.059438568 0.30100003 4285275156
0.098196104 0.059636038 0.30200002 4285077777
0.099176995 0.059636038 0.30200002 4284946963
0.10015789 0.059636038 0.30200002 4285411625
0.053214248 0.05861007 0.29200003 4280623116
0.053977173 0.058409348 0.29100001 4281604621
0.055111084 0.05861007 0.29200003 4282718991
0.056059498 0.05861007 0.29200003 4283373839
0.057203144 0.058810785 0.29300001 4284629298
0.05835329 0.059011504 0.294 4280754189
0.059711657 0.059412945 0.296 4280558093
0.060878046 0.059613667 0.29700002 4280558095
0.062050927 0.059814382 0.29800001 4280492815
0.063018829 0.059814382 0.29800001 4280295184
0.064201459 0.060015105 0.29900002 4279176449
0.065172613 0.060015105 0.29900002 4280098582
0.066143766 0.060015105 0.29900002 4278914824
0.067114912 0.060015105 0.29900002 4278388480
0.068086065 0.060015105 0.29900002 4278914824
0.069057226 0.060015105 0.29900002 4278717699
0.070028372 0.060015105 0.29900002 4281745460
0.070999525 0.060015105 0.29900002 4281218601
0.071970679 0.060015105 0.29900002 4281678380
0.072941832 0.060015105 0.29900002 4281217059
0.073912986 0.060015105 0.29900002 4280822044
0.074884132 0.060015105 0.29900002 4280952860
0.076108977 0.060215823 0.30000001 4281018653
0.077083379 0.060215823 0.30000001 4279965967
0.078057781 0.060215823 0.30000001 4278979844
0.079032183 0.060215823 0.30000001 4278782468
0.080006585 0.060215823 0.30000001 4278914056
0.080980986 0.060215823 0.30000001 4278783240
0.081682198 0.060015105 0.29900002 4285496692
0.082653359 0.060015105 0.29900002 4285497206
0.083624512 0.060015105 0.29900002 4285760376
0.084595665 0.060015105 0.29900002 4285562997
0.085566819 0.060015105 0.29900002 4285628276
0.08682739 0.060215823 0.30000001 4285759862
0.087801784 0.060215823 0.30000001 4285365104
0.088776186 0.060215823 0.30000001 4282919461
0.089750588 0.060215823 0.30000001 4283372819
0.09072499 0.060215823 0.30000001 4283634446
0.091699392 0.060215823 0.30000001 4283700239
0.092673793 0.060215823 0.30000001 4283634444
0.09396036 0.060416546 0.30100003 4284094482
0.094938003 0.060416546 0.30100003 4285541928
0.095915653 0.060416546 0.30100003 4290083705
0.096893303 0.060416546 0.30100003 4284420619
0.097870953 0.060416546 0.30100003 4285209365
0.099176995 0.060617261 0.30200002 4284946963
0.10015789 0.060617261 0.30200002 4284487697
0.053977173 0.059354838 0.29100001 4281211662
0.055111084 0.059558809 0.29200003 4282391055
0.056059498 0.059558809 0.29200003 4283504657
0.057203144 0.059762776 0.29300001 4284626988
0.05835329 0.059966743 0.294 4281148435
0.059711657 0.060374681 0.296 4280426255
0.060878046 0.060578652 0.29700002 4279966994
0.062050927 0.060782619 0.29800001 4282008117
0.063018829 0.060782619 0.29800001 4285431151
0.064201459 0.06098659 0.29900002 4283917397
0.065172613 0.06098659 0.29900002 4278848515
0.066364981 0.061190557 0.30000001 4279309066
0.067339376 0.061190557 0.30000001 4280757798
0.068313777 0.061190557 0.30000001 4280757798
0.069288179 0.061190557 0.30000001 4278914054
0.070028372 0.06098659 0.29900002 4278782468
0.070999525 0.06098659 0.29900002 4279770387
0.072211385 0.061190557 0.30000001 4281218601
0.073185779 0.061190557 0.30000001 4282271289
0.074160181 0.061190557 0.30000001 4281349417
0.075134575 0.061190557 0.30000001 4278848256
0.076108977 0.061190557 0.30000001 4279110658
0.077083379 0.061190557 0.30000001 4279373830
0.078057781 0.061190557 0.30000001 4278782465
0.079032183 0.061190557 0.30000001 4278848261
0.080006585 0.061190557 0.30000001 4278979849
0.080980986 0.061190557 0.30000001 4282009148
0.081955381 0.061190557 0.30000001 4285628276
0.082653359 0.06098659 0.29900002 4285628790
0.083624512 0.06098659 0.29900002 4285629044
0.084595665 0.06098659 0.29900002 4285694323
0.085566819 0.06098659 0.29900002 4285760116
0.08682739 0.061190557 0.30000001 4285629044
0.087801784 0.061190557 0.30000001 4286417533
0.088776186 0.061190557 0.30000001 4282913553
0.089750588 0.061190557 0.30000001 4283569423
0.09072499 0.061190557 0.30000001 4283634446
0.091699392 0.061190557 0.30000001 4283699724
0.092673793 0.061190557 0.30000001 4283897357
0.093648195 0.061190557 0.30000001 4284357138
0.094938003 0.061394528 0.30100003 4284750869
0.095915653 0.061394528 0.30100003 4287120444
0.096893303 0.061394528 0.30100003 4285539615
0.097870953 0.061394528 0.30100003 4285078549
0.098848604 0.061394528 0.30100003 4284881683
0.099826254 0.061394528 0.30100003 4284619540
0.05835329 0.060921974 0.294 4285163351
0.059711657 0.061336413 0.296 4284575325
0.060878046 0.061543632 0.29700002 4285036907
0.062050927 0.061750848 0.29800001 4285036653
0.063018829 0.061750848 0.29800001 4285300079
0.064201459 0.061958067 0.29900002 4285366642
0.065390579 0.062165283 0.30000001 4281613620
0.066364981 0.062165283 0.30000001 4279308555
0.067339376 0.062165283 0.30000001 4280428833
0.068313777 0.062165283 0.30000001 4280363040
0.069288179 0.062165283 0.30000001 4278783238
0.070262581 0.062165283 0.30000001 4281480751
0.071236983 0.062165283 0.30000001 4278585089
0.072211385 0.062165283 0.30000001 4278782468
0.073185779 0.062165283 0.30000001 4278848261
0.074160181 0.062165283 0.30000001 4278848263
0.075385034 0.062372506 0.30100003 4278453504
0.076362684 0.062372506 0.30100003 4279573006
0.077340335 0.062372506 0.30100003 4279308812
0.078317977 0.062372506 0.30100003 4279506191
0.079295628 0.062372506 0.30100003 4278979847
0.080273278 0.062372506 0.30100003 4280034075
0.080980986 0.062165283 0.30000001 4285759862
0.081955381 0.062165283 0.30000001 4285760116
0.082929783 0.062165283 0.30000001 4285694323
0.083904184 0.062165283 0.30000001 4285760116
0.084878586 0.062165283 0.30000001 4285694837
0.085852988 0.062165283 0.30000001 4285497458
0.08682739 0.062165283 0.30000001 4285496944
0.087801784 0.062165283 0.30000001 4282266924
0.088776186 0.062165283 0.30000001 4283766032
0.089750588 0.062165283 0.30000001 4283766030
0.09072499 0.062165283 0.30000001 4283831564
0.091699392 0.062165283 0.30000001 4283897357
0.092673793 0.062165283 0.30000001 4283962380
0.093648195 0.062165283 0.30000001 4284093966
0.094938003 0.062372506 0.30100003 4284487695
0.095915653 0.062372506 0.30100003 4284881683
0.096893303 0.062372506 0.30100003 4285210137
0.097870953 0.062372506 0.30100003 4285275928
0.098848604 0.062372506 0.30100003 4284750867
0.099826254 0.062372506 0.30100003 4284487954
0.05835329 0.061877213 0.294 4284041790
0.059711657 0.062298149 0.296 4284376663
0.060878046 0.06250862 0.29700002 4284576102
0.062050927 0.062719084 0.29800001 4285102446
0.063018829 0.062719084 0.29800001 4285102446
0.064201459 0.062929556 0.29900002 4285299825
0.065390579 0.06314002 0.30000001 4285497206
0.066364981 0.06314002 0.30000001 4280890669
0.067339376 0.06314002 0.30000001 4278849031
0.068313777 0.06314002 0.30000001 4279835926
0.069288179 0.06314002 0.30000001 4281481005
0.07049679 0.063350484 0.30100003 4279836950
0.07147444 0.063350484 0.30100003 4278914824
0.072452091 0.063350484 0.30100003 4278914054
0.073429734 0.063350484 0.30100003 4282074425
0.074407384 0.063350484 0.30100003 4282140218
0.075385034 0.063350484 0.30100003 4278652676
0.076362684 0.063350484 0.30100003 4281612589
0.077340335 0.063350484 0.30100003 4280164121
0.078317977 0.063350484 0.30100003 4279045389
0.079295628 0.063350484 0.30100003 4279837209
0.080273278 0.063350484 0.30100003 4285826169
0.081520863 0.063560948 0.30200002 4285759862
0.081955381 0.06314002 0.30000001 4285694323
0.082929783 0.06314002 0.30000001 4285693810
0.083904184 0.06314002 0.30000001 4285891189
0.084878586 0.06314002 0.30000001 4285760116
0.085852988 0.06314002 0.30000001 4285628530
0.08682739 0.06314002 0.30000001 4287070326
0.087801784 0.06314002 0.30000001 4283178268
0.088776186 0.06314002 0.30000001 4284027919
0.089750588 0.06314002 0.30000001 4283896333
0.091027409 0.063350484 0.30100003 4283896587
0.092005059 0.063350484 0.30100003 4284093966
0.092982709 0.063350484 0.30100003 4284093966
0.09396036 0.063350484 0.30100003 4283962380
0.094938003 0.063350484 0.30100003 4284487954
0.095915653 0.063350484 0.30100003 4284553488
0.096893303 0.063350484 0.30100003 4284684304
0.097870953 0.063350484 0.30100003 4285079832
0.098848604 0.063350484 0.30100003 4284619538
0.099826254 0.063350484 0.30100003 4284291343
0.048174758 0.063259885 0.296 4281673242
0.049136166 0.063259885 0.296 4282784530
0.050097574 0.063259885 0.296 4282913036
0.051058982 0.063259885 0.296 4282913036
0.051844649 0.063046172 0.29500002 4281405191
0.052802812 0.063046172 0.29500002 4279242246
0.053760968 0.063046172 0.29500002 4279111430
0.066364981 0.064114749 0.30000001 4285628790
0.067339376 0.064114749 0.30000001 4283522387
0.068541497 0.064328469 0.30100003 4278520838
0.069519147 0.064328469 0.30100003 4279769363
0.07049679 0.064328469 0.30100003 4281020200
0.07147444 0.064328469 0.30100003 4279572756
0.072452091 0.064328469 0.30100003 4279309584
0.073673688 0.064542182 0.30200002 4281284909
0.074654587 0.064542182 0.30200002 4281614644
0.075635478 0.064542182 0.30200002 4278651652
0.076616377 0.064542182 0.30200002 4278716675
0.077597275 0.064542182 0.30200002 4279110660
0.078578167 0.064542182 0.30200002 4280357647
0.079559065 0.064542182 0.30200002 4286284923
0.080539964 0.064542182 0.30200002 4285497204
0.081520863 0.064542182 0.30200002 4285497204
0.082228571 0.064328469 0.30100003 4285760116
0.083206221 0.064328469 0.30100003 4285825909
0.083904184 0.064114749 0.30000001 4285694323
0.084878586 0.064114749 0.30000001 4285760116
0.085852988 0.064114749 0.30000001 4285825394
0.08682739 0.064114749 0.30000001 4283901731
0.088094465 0.064328469 0.30100003 4284160790
0.089072116 0.064328469 0.30100003 4284027919
0.090049759 0.064328469 0.30100003 4284027919
0.091027409 0.064328469 0.30100003 4284028173
0.092005059 0.064328469 0.30100003 4284224782
0.092982709 0.064328469 0.30100003 4284028173
0.09396036 0.064328469 0.30100003 4284028173
0.094938003 0.064328469 0.30100003 4284094736
0.095915653 0.064328469 0.30100003 4283897357
0.096893303 0.064328469 0.30100003 4284225550
0.097870953 0.064328469 0.30100003 4284487952
0.098848604 0.064328469 0.30100003 4284226320
0.099826254 0.064328469 0.30100003 4283897868
0.048174758 0.064221613 0.296 4281870623
0.049136166 0.064221613 0.296 4282916370
0.050097574 0.064221613 0.296 4283110669
0.051058982 0.064221613 0.296 4283766800
0.051844649 0.064004652 0.29500002 4283702806
0.052802812 0.064004652 0.29500002 4280487433
0.053760968 0.064004652 0.29500002 4279832333
0.054719131 0.064004652 0.29500002 4279635721
0.068541497 0.065306447 0.30100003 4285826941
0.069519147 0.065306447 0.30100003 4283061585
0.070730999 0.065523408 0.30200002 4278454275
0.07171189 0.065523408 0.30200002 4279175688
0.072692789 0.065523408 0.30200002 4278978822
0.073673688 0.065523408 0.30200002 4278978820
0.074654587 0.065523408 0.30200002 4279044613
0.075635478 0.065523408 0.30200002 4278977792
0.076870069 0.065740369 0.303 4280422923
0.077597275 0.065523408 0.30200002 4282325779
0.078578167 0.065523408 0.30200002 4283048219
0.079559065 0.065523408 0.30200002 4285493347
0.080539964 0.065523408 0.30200002 4285759601
0.081520863 0.065523408 0.30200002 4285628530
0.082228571 0.065306447 0.30100003 4285628530
0.083206221 0.065306447 0.30100003 4285760116
0.084183872 0.065306447 0.30100003 4285694323
0.085161522 0.065306447 0.30100003 4285824624
0.086139172 0.065306447 0.30100003 4283056180
0.087116823 0.065306447 0.30100003 4284160023
0.088094465 0.065306447 0.30100003 4284225298
0.089072116 0.065306447 0.30100003 4284158989
0.090049759 0.065306447 0.30100003 4284158989
0.091027409 0.065306447 0.30100003 4284487697
0.092005059 0.065306447 0.30100003 4284356368
0.092982709 0.065306447 0.30100003 4283831564
0.09396036 0.065306447 0.30100003 4283766284
0.095253408 0.065523408 0.30200002 4283701774
0.095915653 0.065306447 0.30100003 4283635981
0.096893303 0.065306447 0.30100003 4283766800
0.097870953 0.065306447 0.30100003 4283897616
0.098848604 0.065306447 0.30100003 4283766800
0.047213346 0.065183349 0.296 4279111430
0.048174758 0.065183349 0.296 4281146646
0.049136166 0.065183349 0.296 4283047186
0.050097574 0.065183349 0.296 4283373839
0.051058982 0.065183349 0.296 4283831823
0.051844649 0.06496314 0.29500002 4284029456
0.052802812 0.06496314 0.29500002 4284096019
0.053760968 0.06496314 0.29500002 4284425243
0.054719131 0.06496314 0.29500002 4283505688
0.069519147 0.066284426 0.30100003 4285299825
0.070730999 0.066504642 0.30200002 4283587151
0.07171189 0.066504642 0.30200002 4280880907
0.072933495 0.066724852 0.303 4281405968
0.073917635 0.066724852 0.303 4281864976
0.074901782 0.066724852 0.303 4281930254
0.075885922 0.066724852 0.303 4282717969
0.076870069 0.066724852 0.303 4283178004
0.077854216 0.066724852 0.303 4283571220
0.078838356 0.066724852 0.303 4283637013
0.079822503 0.066724852 0.303 4283975479
0.080539964 0.066504642 0.30200002 4285890156
0.081520863 0.066504642 0.30200002 4285628528
0.082501754 0.066504642 0.30200002 4285694323
0.083206221 0.066284426 0.30100003 4285694323
0.084183872 0.066284426 0.30100003 4285760116
0.085161522 0.066284426 0.30100003 4284565308
0.086139172 0.066284426 0.30100003 4283701782
0.087116823 0.066284426 0.30100003 4284291091
0.088094465 0.066284426 0.30100003 4284356366
0.08936803 0.066504642 0.30200002 4284421902
0.090348929 0.066504642 0.30200002 4284421902
0.091329828 0.066504642 0.30200002 4284421902
0.092310719 0.066504642 0.30200002 4284093196
0.093291618 0.066504642 0.30200002 4283438862
0.094272517 0.066504642 0.30200002 4283176973
0.095253408 0.066504642 0.30200002 4282913803
0.096234307 0.066504642 0.30200002 4283242768
0.097215205 0.066504642 0.30200002 4283374354
0.097870953 0.066284426 0.30100003 4283571220
0.099176995 0.066504642 0.30200002 4283441430
0.047213346 0.066145085 0.296 4279373832
0.048174758 0.066145085 0.296 4281541404
0.049136166 0.066145085 0.296 4282850323
0.050097574 0.066145085 0.296 4283373841
0.051058982 0.066145085 0.296 4284029972
0.05202039 0.066145085 0.296 4284423701
0.052802812 0.065921627 0.29500002 4284553745
0.053760968 0.065921627 0.29500002 4284750867
0.054719131 0.065921627 0.29500002 4284881683
0.055488553 0.065698154 0.294 4285343004
0.05644346 0.065698154 0.294 4286660661
0.057398375 0.065698154 0.294 4284226320
0.05815481 0.065474696 0.29300001 4284553493
0.070730999 0.067485869 0.30200002 4286482302
0.071949348 0.067709327 0.303 4281732875
0.072933495 0.067709327 0.303 4283045137
0.073917635 0.067709327 0.303 4283438096
0.074901782 0.067709327 0.303 4283175178
0.075885922 0.067709327 0.303 4283438350
0.076870069 0.067709327 0.303 4283701522
0.077854216 0.067709327 0.303 4284095765
0.078838356 0.067709327 0.303 4284029972
0.079822503 0.067709327 0.303 4282261266
0.08080665 0.067709327 0.303 4286283374
0.081520863 0.067485869 0.30200002 4285628528
0.082501754 0.067485869 0.30200002 4285760114
0.083482653 0.067485869 0.30200002 4285889906
0.084463552 0.067485869 0.30200002 4283382325
0.085444443 0.067485869 0.30200002 4284291863
0.086425342 0.067485869 0.30200002 4284225552
0.08740624 0.067485869 0.30200002 4284422161
0.088387132 0.067485869 0.30200002 4284487695
0.08936803 0.067485869 0.30200002 4284355339
0.090348929 0.067485869 0.30200002 4284684304
0.09163224 0.067709327 0.303 4284224523
0.092616387 0.067709327 0.303 4283635468
0.093600526 0.067709327 0.303 4282586381
0.094272517 0.067485869 0.30200002 4282586381
0.095568813 0.067709327 0.303 4282717967
0.096234307 0.067485869 0.30200002 4282849553
0.097215205 0.067485869 0.30200002 4283178518
0.047372855 0.067333534 0.29700002 4279439112
0.048174758 0.067106821 0.296 4282264611
0.049136166 0.067106821 0.296 4283113495
0.050097574 0.067106821 0.296 4283769112
0.051058982 0.067106821 0.296 4284162071
0.05202039 0.067106821 0.296 4284555800
0.052981801 0.067106821 0.296 4284422159
0.053760968 0.066880114 0.29500002 4284619281
0.054719131 0.066880114 0.29500002 4285209363
0.055677291 0.066880114 0.29500002 4288961617
0.05644346 0.066653393 0.294 4285872680
0.057398375 0.066653393 0.294 4285078799
0.05835329 0.066653393 0.294 4285078547
0.071949348 0.068693802 0.303 4281274121
0.072933495 0.068693802 0.303 4283176210
0.074161589 0.068920523 0.30400002 4283700237
0.075148985 0.068920523 0.30400002 4283634444
0.076136373 0.068920523 0.30400002 4283633931
0.077123769 0.068920523 0.30400002 4283897103
0.077854216 0.068693802 0.303 4284226581
0.078838356 0.068693802 0.303 4284226581
0.079822503 0.068693802 0.303 4283111952
0.08080665 0.068693802 0.303 4287201137
0.081790797 0.068693802 0.303 4285430636
0.082501754 0.068467095 0.30200002 4286547834
0.083482653 0.068467095 0.30200002 4283771175
0.084463552 0.068467095 0.30200002 4284292124
0.085444443 0.068467095 0.30200002 4284553236
0.086425342 0.068467095 0.30200002 4284421904
0.08740624 0.068467095 0.30200002 4284619281
0.088679798 0.068693802 0.303 4284552718
0.089663945 0.068693802 0.303 4284618509
0.090648092 0.068693802 0.303 4284618509
0.09163224 0.068693802 0.303 4283701261
0.092922054 0.068920523 0.30400002 4282717194
0.09390945 0.068920523 0.30400002 4282851608
0.094584674 0.068693802 0.303 4283773739
0.095568813 0.068693802 0.303 4282657057
0.096552961 0.068693802 0.303 4283580210
0.047372855 0.068298519 0.29700002 4280031760
0.048337512 0.068298519 0.29700002 4281804830
0.049302168 0.068298519 0.29700002 4283047956
0.050266825 0.068298519 0.29700002 4283573014
0.051058982 0.068068549 0.296 4283899667
0.05202039 0.068068549 0.296 4284096532
0.052981801 0.068068549 0.296 4284225550
0.053943206 0.068068549 0.296 4284553486
0.054719131 0.067838594 0.29500002 4284946445
0.055677291 0.067838594 0.29500002 4285011468
0.05644346 0.067608625 0.294 4286921264
0.057398375 0.067608625 0.294 4285539352
0.05835329 0.067608625 0.294 4285012238
0.059106473 0.06737867 0.29300001 4284750097
0.060058139 0.06737867 0.29300001 4284422159
0.072186805 0.069908246 0.30400002 4284040255
0.073174201 0.069908246 0.30400002 4283046420
0.074161589 0.069908246 0.30400002 4283831310
0.075148985 0.069908246 0.30400002 4283633931
0.076136373 0.069908246 0.30400002 4283896333
0.077123769 0.069908246 0.30400002 4284225298
0.078111164 0.069908246 0.30400002 4284488470
0.078838356 0.069678284 0.303 4284554263
0.079822503 0.069678284 0.303 4284621080
0.08080665 0.069678284 0.303 4287191116
0.081790797 0.069678284 0.303 4285616711
0.082774937 0.069678284 0.303 4283243288
0.083759077 0.069678284 0.303 4284553241
0.084463552 0.069448322 0.30200002 4284619029
0.085444443 0.069448322 0.30200002 4284553490
0.086711518 0.069678284 0.303 4284619283
0.087695666 0.069678284 0.303 4284553488
0.088679798 0.069678284 0.303 4284685074
0.089959875 0.069908246 0.30400002 4284553488
0.090947263 0.069908246 0.30400002 4284158987
0.091934659 0.069908246 0.30400002 4282454535
0.092922054 0.069908246 0.30400002 4281863941
0.09390945 0.069908246 0.30400002 4281539089
0.095884226 0.069908246 0.30400002 4285889902
0.096552961 0.069678284 0.303 4285889902
0.047372855 0.069263503 0.29700002 4280032532
0.048337512 0.069263503 0.29700002 4282068002
0.049302168 0.069263503 0.29700002 4283179801
0.050266825 0.069263503 0.29700002 4283375897
0.051231481 0.069263503 0.29700002 4283572503
0.05202039 0.069030285 0.296 4283637011
0.052981801 0.069030285 0.296 4284094736
0.053943206 0.069030285 0.296 4284357136
0.054719131 0.068797082 0.29500002 4284684304
0.055677291 0.068797082 0.29500002 4284881168
0.05644346 0.068563864 0.294 4285078547
0.057398375 0.068563864 0.294 4289949023
0.05835329 0.068563864 0.294 4284815629
0.059106473 0.06833066 0.29300001 4284750097
0.060058139 0.06833066 0.29300001 4284619283
0.061009806 0.06833066 0.29300001 4284487697
0.074161589 0.070895977 0.30400002 4284226068
0.075148985 0.070895977 0.30400002 4284225298
0.076136373 0.070895977 0.30400002 4284356114
0.077123769 0.070895977 0.30400002 4284487700
0.077854216 0.070662759 0.303 4284487954
0.078838356 0.070662759 0.303 4284685331
0.079822503 0.070662759 0.303 4284815890
0.08080665 0.070662759 0.303 4284815890
0.081790797 0.070662759 0.303 4284882455
0.082774937 0.070662759 0.303 4284882455
0.083759077 0.070662759 0.303 4284684306
0.084743224 0.070662759 0.303 4284815890
0.085727371 0.070662759 0.303 4284815890
0.086711518 0.070662759 0.303 4284750867
0.087695666 0.070662759 0.303 4284685074
0.088972479 0.070895977 0.30400002 4284553488
0.089959875 0.070895977 0.30400002 4283963148
0.090947263 0.070895977 0.30400002 4283109897
0.09223707 0.07112918 0.30500001 4282323209
0.093227714 0.07112918 0.30500001 4284038962
0.094218358 0.07112918 0.30500001 4285692777
0.095521167 0.071362399 0.30600002 4285890415
0.096199632 0.07112918 0.30500001 4285956210
0.047532357 0.070464939 0.29800001 4279703570
0.048500262 0.070464939 0.29800001 4281278745
0.049468167 0.070464939 0.29800001 4282721051
0.050266825 0.07022848 0.29700002 4282983194
0.051231481 0.07022848 0.29700002 4283178520
0.052196138 0.07022848 0.29700002 4283374354
0.052981801 0.069992021 0.296 4283701007
0.053943206 0.069992021 0.296 4283897870
0.054719131 0.069755562 0.29500002 4284422159
0.055677291 0.069755562 0.29500002 4284553488
0.05644346 0.069519103 0.294 4284750095
0.057398375 0.069519103 0.294 4284685329
0.05835329 0.069519103 0.294 4284421132
0.059106473 0.069282643 0.29300001 4284684304
0.060058139 0.069282643 0.29300001 4284552720
0.061009806 0.069282643 0.29300001 4284290318
0.076136373 0.071883701 0.30400002 4284750097
0.077123769 0.071883701 0.30400002 4284684304
0.077854216 0.071647234 0.303 4284750097
0.078838356 0.071647234 0.303 4284750097
0.079822503 0.071647234 0.303 4284750097
0.08080665 0.071647234 0.303 4285079062
0.081790797 0.071647234 0.303 4284881683
0.082774937 0.071647234 0.303 4284881683
0.083759077 0.071647234 0.303 4285013269
0.084743224 0.071647234 0.303 4285079062
0.085727371 0.071647234 0.303 4284881681
0.086997695 0.071883701 0.30400002 4285013267
0.087985091 0.071883701 0.30400002 4284356364
0.088972479 0.071883701 0.30400002 4284093964
0.090255789 0.07212016 0.30500001 4282848010
0.091246434 0.07212016 0.30500001 4282651660
0.09223707 0.07212016 0.30500001 4285687898
0.093227714 0.07212016 0.30500001 4285954409
0.094218358 0.07212016 0.30500001 4285824622
0.095521167 0.072356619 0.30600002 4285890417
0.096199632 0.07212016 0.30500001 4285956210
0.047532357 0.071433172 0.29800001 4279441938
0.048500262 0.071433172 0.29800001 4280557591
0.049468167 0.071433172 0.29800001 4282261529
0.050436068 0.071433172 0.29800001 4282852637
0.051231481 0.071193472 0.29700002 4282982424
0.052196138 0.071193472 0.29700002 4283047186
0.053160798 0.071193472 0.29700002 4283307276
0.053943206 0.070953757 0.296 4283569675
0.054719131 0.070714049 0.29500002 4283897355
0.055677291 0.070714049 0.29500002 4284291343
0.05644346 0.070474342 0.294 4284358419
0.057398375 0.070474342 0.294 4283897868
0.05835329 0.070474342 0.294 4284224780
0.059106473 0.070234634 0.29300001 4284158730
0.060058139 0.070234634 0.29300001 4284028173
0.061009806 0.070234634 0.29300001 4283830794
0.076136373 0.072871432 0.30400002 4284880400
0.077123769 0.072871432 0.30400002 4285011986
0.077854216 0.072631717 0.303 4284946191
0.078838356 0.072631717 0.303 4285078031
0.079822503 0.072631717 0.303 4284946445
0.08080665 0.072631717 0.303 4285011984
0.081790797 0.072631717 0.303 4285079060
0.082774937 0.072631717 0.303 4285079060
0.084035516 0.072871432 0.30400002 4284882708
0.085022911 0.072871432 0.30400002 4285079830
0.086010307 0.072871432 0.30400002 4284882451
0.086997695 0.072871432 0.30400002 4284487693
0.087985091 0.072871432 0.30400002 4283701007
0.089265145 0.073111132 0.30500001 4282913036
0.090255789 0.073111132 0.30500001 4282325779
0.091246434 0.073111132 0.30500001 4287068781
0.09223707 0.073111132 0.30500001 4285823341
0.093227714 0.073111132 0.30500001 4286021490
0.094527274 0.073350847 0.30600002 4286021490
0.095521167 0.073350847 0.30600002 4286087796
0.047532357 0.072401412 0.29800001 4279507985
0.048500262 0.072401412 0.29800001 4279704594
0.049468167 0.072401412 0.29800001 4281803285
0.050436068 0.072401412 0.29800001 4282723615
0.051403977 0.072401412 0.29800001 4282523670
0.052196138 0.072158456 0.29700002 4282653459
0.053160798 0.072158456 0.29700002 4282717194
0.053943206 0.071915492 0.296 4283110667
0.054904617 0.071915492 0.296 4283569675
0.055677291 0.071672536 0.29500002 4283635468
0.056635451 0.071672536 0.29500002 4284030226
0.057398375 0.071429573 0.294 4283964433
0.05835329 0.071429573 0.294 4284160527
0.059308197 0.071429573 0.294 4284225550
0.060058139 0.071186624 0.29300001 4283897870
0.061009806 0.071186624 0.29300001 4283438602
0.077597275 0.073373243 0.30200002 4285275410
0.078578167 0.073373243 0.30200002 4285012238
0.079559065 0.073373243 0.30200002 4285078031
0.080539964 0.073373243 0.30200002 4285077777
0.081790797 0.073616199 0.303 4283961606
0.082774937 0.073616199 0.303 4289822316
0.084035516 0.073859155 0.30400002 4291006090
0.085022911 0.073859155 0.30400002 4283897103
0.086010307 0.073859155 0.30400002 4284094736
0.087283872 0.074102111 0.30500001 4283439116
0.088274516 0.074102111 0.30500001 4282323981
0.089265145 0.074102111 0.30500001 4282390805
0.090255789 0.074102111 0.30500001 4286940793
0.091246434 0.074102111 0.30500001 4286086511
0.092539497 0.074345075 0.30600002 4285955697
0.093533382 0.074345075 0.30600002 4286022003
0.094527274 0.074345075 0.30600002 4286022003
0.047691863 0.073615849 0.29900002 4279376399
0.048663016 0.073615849 0.29900002 4279572754
0.049468167 0.073369637 0.29800001 4280424720
0.050436068 0.073369637 0.29800001 4282527781
0.051403977 0.073369637 0.29800001 4282525725
0.052196138 0.073123433 0.29700002 4282457879
0.053160798 0.073123433 0.29700002 4282718737
0.053943206 0.072877221 0.296 4282849807
0.054904617 0.072877221 0.296 4282849291
0.055677291 0.072631024 0.29500002 4283111950
0.056635451 0.072631024 0.29500002 4283439886
0.05759361 0.072631024 0.29500002 4283964946
0.05835329 0.072384812 0.294 4283898640
0.059308197 0.072384812 0.294 4283964433
0.060058139 0.072138608 0.29300001 4283573016
0.061218027 0.072384812 0.294 4284826427
0.074884132 0.073615849 0.29900002 4285078031
0.075855285 0.073615849 0.29900002 4285143054
0.077340335 0.074108265 0.30100003 4285208590
0.078317977 0.074108265 0.30100003 4285406226
0.079295628 0.074108265 0.30100003 4285275410
0.080539964 0.07435447 0.30200002 4285472789
0.081790797 0.074600674 0.303 4285144594
0.082774937 0.074600674 0.303 4285013267
0.084035516 0.074846886 0.30400002 4283897364
0.085022911 0.074846886 0.30400002 4283964442
0.086293228 0.075093083 0.30500001 4281994246
0.087283872 0.075093083 0.30500001 4282258188
0.088274516 0.075093083 0.30500001 4282131996
0.089265145 0.075093083 0.30500001 4286283117
0.090255789 0.075093083 0.30500001 4286021492
0.091545604 0.075339295 0.30600002 4286021492
0.092539497 0.075339295 0.30600002 4286022003
0.047691863 0.07458733 0.29900002 4279705364
0.048663016 0.07458733 0.29900002 4279705364
0.049468167 0.07433787 0.29800001 4279966996
0.050436068 0.07433787 0.29800001 4280229911
0.051403977 0.07433787 0.29800001 4281475093
0.052371882 0.07433787 0.29800001 4282460445
0.053160798 0.074088417 0.29700002 4282260498
0.054125451 0.074088417 0.29700002 4282259471
0.054904617 0.073838957 0.296 4282455565
0.055866025 0.073838957 0.296 4282455819
0.056635451 0.073589511 0.29500002 4282915086
0.05759361 0.073589511 0.29500002 4283177745
0.058551773 0.073589511 0.29500002 4283571733
0.059308197 0.073340051 0.294 4283770395
0.060263112 0.073340051 0.294 4283378465
0.061218027 0.073340051 0.294 4287132264
0.072941832 0.07458733 0.29900002 4285079062
0.073912986 0.07458733 0.29900002 4285144340
0.074884132 0.07458733 0.29900002 4284946191
0.075855285 0.07458733 0.29900002 4285011984
0.077083379 0.074836783 0.30000001 4285209365
0.078057781 0.074836783 0.30000001 4284553488
0.079295628 0.075086243 0.30100003 4285406742
0.080539964 0.075335696 0.30200002 4285406226
0.081520863 0.075335696 0.30200002 4285275410
0.082774937 0.075585149 0.303 4284683789
0.084035516 0.07583461 0.30400002 4283766802
0.085022911 0.07583461 0.30400002 4282256906
0.086293228 0.076084062 0.30500001 4281930508
0.087283872 0.076084062 0.30500001 4282326291
0.088274516 0.076084062 0.30500001 4285758570
0.089265145 0.076084062 0.30500001 4285891185
0.090255789 0.076084062 0.30500001 4286022775
0.091545604 0.076333523 0.30600002 4285956982
0.047691863 0.075558811 0.29900002 4279244559
0.048663016 0.075558811 0.29900002 4279376145
0.04963417 0.075558811 0.29900002 4279441938
0.050436068 0.075306103 0.29800001 4279375375
0.051403977 0.075306103 0.29800001 4279835153
0.052371882 0.075306103 0.29800001 4280359442
0.053160798 0.075053401 0.29700002 4281475095
0.054125451 0.075053401 0.29700002 4281670675
0.055090107 0.075053401 0.29700002 4281997328
0.055866025 0.074800692 0.296 4282128400
0.056827433 0.074800692 0.296 4282456850
0.057788841 0.074800692 0.296 4282192908
0.058551773 0.074547991 0.29500002 4282194191
0.059308197 0.074295282 0.294 4284233774
0.060263112 0.074295282 0.294 4281996299
0.061218027 0.074295282 0.294 4281996560
0.071970679 0.075558811 0.29900002 4282850323
0.072941832 0.075558811 0.29900002 4283437837
0.073912986 0.075558811 0.29900002 4283962896
0.074884132 0.075558811 0.29900002 4284291345
0.075855285 0.075558811 0.29900002 4284553490
0.077083379 0.075811513 0.30000001 4285013269
0.078057781 0.075811513 0.30000001 4288371792
0.079295628 0.076064222 0.30100003 4289030494
0.080273278 0.076064222 0.30100003 4285275158
0.081520863 0.076316923 0.30200002 4285077779
0.082774937 0.076569624 0.303 4284881170
0.084035516 0.076822333 0.30400002 4284095249
0.085022911 0.076822333 0.30400002 4283967520
0.086010307 0.076822333 0.30400002 4281605136
0.087283872 0.077075042 0.30500001 4286545517
0.088274516 0.077075042 0.30500001 4285956208
0.089265145 0.077075042 0.30500001 4285956980
0.090255789 0.077075042 0.30500001 4285956982
0.047691863 0.076530293 0.29900002 4279244559
0.048663016 0.076530293 0.29900002 4279376145
0.04963417 0.076530293 0.29900002 4279506961
0.050436068 0.076274335 0.29800001 4279376145
0.051403977 0.076274335 0.29800001 4279638801
0.052371882 0.076274335 0.29800001 4279770387
0.053339787 0.076274335 0.29800001 4280032532
0.054125451 0.076018386 0.29700002 4280031762
0.055090107 0.076018386 0.29700002 4280818196
0.056054767 0.076018386 0.29700002 4281936162
0.05701942 0.076018386 0.29700002 4282990647
0.057788841 0.075762428 0.296 4285294685
0.058750253 0.075762428 0.296 4283451452
0.059711657 0.075762428 0.296 4281937699
0.060673065 0.075762428 0.296 4281933847
0.061634477 0.075762428 0.296 4282720797
0.072211385 0.07678625 0.30000001 4286286197
0.072941832 0.076530293 0.29900002 4286866780
0.073912986 0.076530293 0.29900002 4283307278
0.074884132 0.076530293 0.29900002 4283766800
0.075855285 0.076530293 0.29900002 4284226322
0.077083379 0.07678625 0.30000001 4284946961
0.078057781 0.07678625 0.30000001 4285078547
0.079295628 0.077042207 0.30100003 4288765265
0.080273278 0.077042207 0.30100003 4285078549
0.081520863 0.077298157 0.30200002 4285011986
0.082774937 0.077554107 0.303 4284881170
0.083759077 0.077554107 0.303 4284094734
0.085022911 0.077810064 0.30400002 4284823083
0.086010307 0.077810064 0.30400002 4286743668
0.087283872 0.078066014 0.30500001 4286153074
0.088274516 0.078066014 0.30500001 4286022005
0.089265145 0.078066014 0.30500001 4285891189
0.047691863 0.077501781 0.29900002 4279376147
0.048663016 0.077501781 0.29900002 4279376147
0.04963417 0.077501781 0.29900002 4279244559
0.050436068 0.077242576 0.29800001 4279112973
0.051403977 0.077242576 0.29800001 4279244559
0.052371882 0.077242576 0.29800001 4279572754
0.053339787 0.077242576 0.29800001 4279704340
0.054307688 0.077242576 0.29800001 4279375375
0.055090107 0.07698337 0.29700002 4279900692
0.056054767 0.07698337 0.29700002 4281084450
0.05701942 0.07698337 0.29700002 4282467900
0.057984076 0.07698337 0.29700002 4284640352
0.058948737 0.07698337 0.29700002 4284904294
0.059913389 0.07698337 0.29700002 4285233005
0.060878046 0.07698337 0.29700002 4285561970
0.061842706 0.07698337 0.29700002 4285956212
0.072211385 0.07776098 0.30000001 4281343255
0.073185779 0.07776098 0.30000001 4281930767
0.074160181 0.07776098 0.30000001 4282980112
0.075134575 0.07776098 0.30000001 4283897357
0.076108977 0.07776098 0.30000001 4284356368
0.077083379 0.07776098 0.30000001 4284750097
0.078057781 0.07776098 0.30000001 4284749584
0.079295628 0.078020185 0.30100003 4284880398
0.080273278 0.078020185 0.30100003 4285209363
0.081520863 0.078279383 0.30200002 4285013269
0.082501754 0.078279383 0.30200002 4284487695
0.083759077 0.078538589 0.303 4284095247
0.084743224 0.078538589 0.303 4285219638
0.086010307 0.078797795 0.30400002 4286022001
0.086997695 0.078797795 0.30400002 4286022003
0.050436068 0.078210801 0.29800001 4279244559
0.051403977 0.078210801 0.29800001 4279244559
0.052371882 0.078210801 0.29800001 4279573524
0.053339787 0.078210801 0.29800001 4279376145
0.054307688 0.078210801 0.29800001 4279376145
0.055275593 0.078210801 0.29800001 4279704340
0.056054767 0.077948347 0.29700002 4280624672
0.05701942 0.077948347 0.29700002 4282403136
0.057984076 0.077948347 0.29700002 4284509282
0.058948737 0.077948347 0.29700002 4284838760
0.059913389 0.077948347 0.29700002 4285364591
0.060878046 0.077948347 0.29700002 4285496690
0.061842706 0.077948347 0.29700002 4285496690
0.07147444 0.078998163 0.30100003 4281733902
0.072452091 0.078998163 0.30100003 4282391832
0.073185779 0.078735702 0.30000001 4282391059
0.074160181 0.078735702 0.30000001 4282587153
0.075134575 0.078735702 0.30000001 4283569421
0.076108977 0.078735702 0.30000001 4283897357
0.077083379 0.078735702 0.30000001 4284356368
0.078057781 0.078735702 0.30000001 4284356368
0.079295628 0.078998163 0.30100003 4284552718
0.080273278 0.078998163 0.30100003 4284618511
0.081250928 0.078998163 0.30100003 4284685331
0.082501754 0.07926061 0.30200002 4284093964
0.083482653 0.07926061 0.30200002 4283702034
0.084743224 0.079523057 0.303 4286735957
0.085727371 0.079523057 0.303 4285956978
0.050436068 0.079179034 0.29800001 4279244559
0.051403977 0.079179034 0.29800001 4279441938
0.052371882 0.079179034 0.29800001 4279507731
0.053339787 0.079179034 0.29800001 4279441938
0.054307688 0.079179034 0.29800001 4279441938
0.07147444 0.079976141 0.30100003 4282392086
0.072452091 0.079976141 0.30100003 4282852637
0.073429734 0.079976141 0.30100003 4282391570
0.074407384 0.079976141 0.30100003 4282718737
0.075134575 0.079710439 0.30000001 4283176460
0.076108977 0.079710439 0.30000001 4283504655
0.077083379 0.079710439 0.30000001 4283701007
0.078317977 0.079976141 0.30100003 4283897870
0.079295628 0.079976141 0.30100003 4283963150
0.080273278 0.079976141 0.30100003 4284226322
0.081250928 0.079976141 0.30100003 4284160529
0.082501754 0.080241837 0.30200002 4283766284
0.083482653 0.080241837 0.30200002 4281995014
0.084743224 0.080507539 0.303 4287332977
0.049468167 0.080147266 0.29800001 4279376145
0.050436068 0.080147266 0.29800001 4279244559
0.051403977 0.080147266 0.29800001 4279441938
0.052371882 0.080147266 0.29800001 4279376145
0.053339787 0.080147266 0.29800001 4279178766
0.07147444 0.080954127 0.30100003 4282988080
0.072452091 0.080954127 0.30100003 4282129943
0.073429734 0.080954127 0.30100003 4282786844
0.074407384 0.080954127 0.30100003 4282391570
0.075385034 0.080954127 0.30100003 4282718991
0.076362684 0.080954127 0.30100003 4283112463
0.077340335 0.080954127 0.30100003 4283374352
0.078317977 0.080954127 0.30100003 4283439632
0.079295628 0.080954127 0.30100003 4283373839
0.080273278 0.080954127 0.30100003 4283702034
0.081250928 0.080954127 0.30100003 4283965206
0.082228571 0.080954127 0.30100003 4283834390
0.049468167 0.081115499 0.29800001 4279441938
0.050436068 0.081115499 0.29800001 4279376145
0.051403977 0.081115499 0.29800001 4279441938
0.052371882 0.081115499 0.29800001 4279573524
0.053339787 0.081115499 0.29800001 4279507731
0.072452091 0.081932105 0.30100003 4285626993
0.073429734 0.081932105 0.30100003 4282791725
0.074407384 0.081932105 0.30100003 4282195990
0.075385034 0.081932105 0.30100003 4282523156
0.076362684 0.081932105 0.30100003 4282588436
0.077340335 0.081932105 0.30100003 4282784530
0.078317977 0.081932105 0.30100003 4283178772
0.079295628 0.081932105 0.30100003 4283177745
0.080273278 0.081932105 0.30100003 4283506710
0.081250928 0.081932105 0.30100003 4283376667
0.073429734 0.082910091 0.30100003 4285760630
0.074407384 0.082910091 0.30100003 4286154361
0.075385034 0.082910091 0.30100003 4283844926
0.076362684 0.082910091 0.30100003 4281737238
0.077340335 0.082910091 0.30100003 4282194453
0.078317977 0.082910091 0.30100003 4282983709
0.079295628 0.082910091 0.30100003 4282785043
0.080273278 0.082910091 0.30100003 4282917912
0.074407384 0.083888061 0.30100003 4285826423
0.075385034 0.083888061 0.30100003 4285957495
0.076362684 0.083888061 0.30100003 4286483324
0.077340335 0.083888061 0.30100003 4286153841
0.078317977 0.083888061 0.30100003 4286548086
0.079295628 0.083888061 0.30100003 4286547316
0.069396891 0.059309755 0.29837415 4294967295
0.069396891 0.059309755 0.29837415 4294901760
0.069396891 0.059309755 0.29887414 4294901760
0.069396891 0.059309755 0.29937413 4294901760
0.069396891 0.059309755 0.29987416 4294901760
0.069396891 0.059309755 0.30037415 4294901760
0.069396891 0.059309755 0.30087414 4294901760
0.069396891 0.059309755 0.30137414 4294901760
0.069396891 0.059309755 0.30187416 4294901760
0.069396891 0.059309755 0.30237415 4294901760
0.069396891 0.059309755 0.30287415 4294901760
0.069396891 0.059309755 0.30337414 4294901760
0.069396891 0.059309755 0.30387414 4294901760
0.069396891 0.059309755 0.30437416 4294901760
0.069396891 0.059309755 0.30487415 4294901760
0.069396891 0.059309755 0.30537415 4294901760
0.069396891 0.059309755 0.30587414 4294901760
0.069396891 0.059309755 0.30637413 4294901760
0.069396891 0.059309755 0.30687416 4294901760
0.069396891 0.059309755 0.30737415 4294901760
0.069396891 0.059309755 0.30787414 4294901760
0.069396891 0.059309755 0.30837414 4294901760
0.069396891 0.059309755 0.30887416 4294901760
0.069396891 0.059309755 0.30937415 4294901760
0.069396891 0.059309755 0.30987415 4294901760
0.069396891 0.059309755 0.31037414 4294901760
0.069396891 0.059309755 0.31087416 4294901760
0.069396891 0.059309755 0.31137416 4294901760
0.069396891 0.059309755 0.31187415 4294901760
0.069396891 0.059309755 0.31237414 4294901760
0.069396891 0.059309755 0.31287414 4294901760
0.069396891 0.059309755 0.31337416 4294901760
0.069396891 0.059309755 0.31387416 4294901760
0.069396891 0.059309755 0.31437415 4294901760
0.069396891 0.059309755 0.31487414 4294901760
0.069396891 0.059309755 0.31537414 4294901760
0.069396891 0.059309755 0.31587416 4294901760
0.069396891 0.059309755 0.31637415 4294901760
0.069396891 0.059309755 0.31687415 4294901760
0.069396891 0.059309755 0.31737414 4294901760
0.069396891 0.059309755 0.31787416 4294901760
0.069396891 0.059309755 0.31837416 4294901760
0.069396891 0.059309755 0.31887415 4294901760
0.069396891 0.059309755 0.31937414 4294901760
0.069396891 0.059309755 0.31987417 4294901760
0.069396891 0.059309755 0.32037416 4294901760
0.069396891 0.059309755 0.32087415 4294901760
0.069396891 0.059309755 0.32137415 4294901760
0.069396891 0.059309755 0.32187414 4294901760
0.069396891 0.059309755 0.32237417 4294901760
0.069396891 0.059309755 0.32287416 4294901760
0.069396891 0.059309755 0.32337415 4294901760
0.069396891 0.059309755 0.32387415 4294901760
0.069396891 0.059309755 0.32437414 4294901760
0.069396891 0.059309755 0.32487416 4294901760
0.069396891 0.059309755 0.32537416 4294901760
0.069396891 0.059309755 0.32587415 4294901760
0.069396891 0.059309755 0.32637414 4294901760
0.069396891 0.059309755 0.32687414 4294901760
0.069396891 0.059309755 0.32737416 4294901760
0.069396891 0.059309755 0.32787415 4294901760
0.069396891 0.059309755 0.32837415 4294901760
0.069396891 0.059309755 0.32887414 4294901760
0.069396891 0.059309755 0.32937416 4294901760
0.069396891 0.059309755 0.32987416 4294901760
0.069396891 0.059309755 0.33037415 4294901760
0.069396891 0.059309755 0.33087415 4294901760
0.069396891 0.059309755 0.33137417 4294901760
0.069396891 0.059309755 0.33187416 4294901760
0.069396891 0.059309755 0.33237416 4294901760
0.069396891 0.059309755 0.33287415 4294901760
0.069396891 0.059309755 0.33337414 4294901760
0.069396891 0.059309755 0.33387417 4294901760
0.069396891 0.059309755 0.33437416 4294901760
0.069396891 0.059309755 0.33487415 4294901760
0.069396891 0.059309755 0.33537415 4294901760
0.069396891 0.059309755 0.33587414 4294901760
0.069396891 0.059309755 0.33637416 4294901760
0.069396891 0.059309755 0.33687416 4294901760
0.069396891 0.059309755 0.33737415 4294901760
0.069396891 0.059309755 0.33787414 4294901760
0.069396891 0.059309755 0.33837417 4294901760
0.069396891 0.059309755 0.33887416 4294901760
0.069396891 0.059309755 0.33937415 4294901760
0.069396891 0.059309755 0.33987415 4294901760
0.069396891 0.059309755 0.34037414 4294901760
0.069396891 0.059309755 0.34087417 4294901760
0.069396891 0.059309755 0.34137416 4294901760
0.069396891 0.059309755 0.34187415 4294901760
0.069396891 0.059309755 0.34237415 4294901760
0.069396891 0.059309755 0.34287417 4294901760
0.069396891 0.059309755 0.34337416 4294901760
0.069396891 0.059309755 0.34387416 4294901760
0.069396891 0.059309755 0.34437415 4294901760
0.069396891 0.059309755 0.34487414 4294901760
0.069396891 0.059309755 0.34537417 4294901760
0.069396891 0.059309755 0.34587416 4294901760
0.069396891 0.059309755 0.34637415 4294901760
0.069396891 0.059309755 0.34687415 4294901760
0.069396891 0.059309755 0.34737417 4294901760
0.069396891 0.059309755 0.34787416 4294901760
0.069396891 0.059309755 0.34837416 4294901760
0.069396891 0.059309755 0.29837415 4278255360
0.06931074 0.059235305 0.298861 4278255360
0.069224581 0.059160858 0.29934788 4278255360
0.06913843 0.059086408 0.29983473 4278255360
0.069052279 0.059011959 0.30032161 4278255360
0.068966128 0.058937509 0.30080846 4278255360
0.068879969 0.058863062 0.30129531 4278255360
0.068793818 0.058788612 0.30178219 4278255360
0.068707667 0.058714163 0.30226904 4278255360
0.068621516 0.058639716 0.30275592 4278255360
0.068535358 0.058565266 0.30324277 4278255360
