# .PCD v0.7 - Point Cloud Data file format
VERSION 0.7
FIELDS x y z rgb
SIZE 4 4 4 4
TYPE F F F U
COUNT 1 1 1 1
WIDTH 968
HEIGHT 1
VIEWPOINT 0 0 0 1 0 0 0
POINTS 968
DATA ascii
0.097673193 -0.024046278 0.38500002 4286552458
0.098666728 -0.023983818 0.384 4286157700
0.099913962 -0.023983818 0.384 4286355079
0.1011612 -0.023983818 0.384 4286289286
0.10240843 -0.023983818 0.384 4286289286
0.1046297 -0.023921361 0.38300002 4286618767
0.10587369 -0.023921361 0.38300002 4283789920
0.10711768 -0.023921361 0.38300002 4281027895
0.10836166 -0.023921361 0.38300002 4280634157
0.10960565 -0.023921361 0.38300002 4280897583
0.13136166 -0.025232976 0.40400001 4278930462
0.13267386 -0.025232976 0.40400001 4278864669
0.094165698 -0.022854581 0.38600001 4286223495
0.095419429 -0.022854581 0.38600001 4286289288
0.096673153 -0.022854581 0.38600001 4286289286
0.097673193 -0.022795374 0.38500002 4286289286
0.098923676 -0.022795374 0.38500002 4286749837
0.10017416 -0.022795374 0.38500002 4286092421
0.10142464 -0.022795374 0.38500002 4283461725
0.10267513 -0.022795374 0.38500002 4281356862
0.10392561 -0.022795374 0.38500002 4280832311
0.10490289 -0.022736164 0.384 4280635956
0.10615012 -0.022736164 0.384 4280372782
0.10739736 -0.022736164 0.384 4280110123
0.10864459 -0.022736164 0.384 4279716902
0.11017801 -0.022795374 0.38500002 4279454500
0.11084963 -0.022676956 0.38300002 4278731289
0.11589836 -0.02344667 0.39600003 4279323426
0.11718457 -0.02344667 0.39600003 4279126812
0.11876994 -0.023505878 0.39700001 4279258398
0.12356506 -0.023683503 0.40000001 4279391267
0.12486426 -0.023683503 0.40000001 4278930716
0.12647887 -0.023742713 0.40100002 4278798617
0.12809996 -0.023801921 0.40200001 4278995742
0.12972757 -0.023861131 0.40300003 4279193121
0.13136166 -0.023920339 0.40400001 4279390500
0.13267386 -0.023920339 0.40400001 4279521316
0.13398606 -0.023920339 0.40400001 4279980842
0.080148108 -0.021208711 0.37900001 4286026630
0.081379101 -0.021208711 0.37900001 4286026630
0.091658242 -0.021600427 0.38600001 4285894528
0.092911974 -0.021600427 0.38600001 4285894528
0.094165698 -0.021600427 0.38600001 4286618505
0.095419429 -0.021600427 0.38600001 4286684558
0.096673153 -0.021600427 0.38600001 4284185448
0.097926885 -0.021600427 0.38600001 4281160251
0.099180616 -0.021600427 0.38600001 4280108588
0.10043435 -0.021600427 0.38600001 4280767542
0.10142464 -0.02154447 0.38500002 4280374319
0.10267513 -0.02154447 0.38500002 4279520293
0.10392561 -0.02154447 0.38500002 4279323428
0.10517608 -0.02154447 0.38500002 4279389221
0.10642656 -0.02154447 0.38500002 4279323428
0.10767704 -0.02154447 0.38500002 4279455014
0.10921045 -0.021600427 0.38600001 4279390502
0.11046418 -0.021600427 0.38600001 4278929951
0.11113906 -0.021488508 0.384 4279127330
0.11589836 -0.022160025 0.39600003 4279061537
0.11748049 -0.022215985 0.39700001 4278798617
0.11876994 -0.022215985 0.39700001 4278995996
0.12036183 -0.022271946 0.39800003 4278995996
0.12196019 -0.022327904 0.39900002 4278930203
0.12325615 -0.022327904 0.39900002 4279061789
0.12486426 -0.022383863 0.40000001 4279324191
0.12647887 -0.022439824 0.40100002 4279652643
0.12778132 -0.022439824 0.40100002 4279455264
0.12940566 -0.022495782 0.40200001 4279915301
0.13103652 -0.022551743 0.40300003 4279717668
0.13267386 -0.022607703 0.40400001 4280045863
0.13398606 -0.022607703 0.40400001 4280965686
0.069091134 -0.020346273 0.38600001 4285566849
0.070344858 -0.020346273 0.38600001 4285566849
0.071598589 -0.020346273 0.38600001 4285566849
0.072663583 -0.020293564 0.38500002 4285501056
0.073914059 -0.020293564 0.38500002 4285632642
0.074969307 -0.020240853 0.384 4285501056
0.076018065 -0.020188142 0.38300002 4285566849
0.077060319 -0.020135432 0.38200003 4285895044
0.078096077 -0.020082721 0.38100001 4285960837
0.079333566 -0.020082721 0.38100001 4285960837
0.080359586 -0.02003001 0.38000003 4285960837
0.081379101 -0.019977299 0.37900001 4286092423
0.082828067 -0.02003001 0.38000003 4286026630
0.084283523 -0.020082721 0.38100001 4285763458
0.085521005 -0.020082721 0.38100001 4285763458
0.088919833 -0.020293564 0.38500002 4285697917
0.090170309 -0.020293564 0.38500002 4285961089
0.091658242 -0.020346273 0.38600001 4285632894
0.092911974 -0.020346273 0.38600001 4282803795
0.094165698 -0.020346273 0.38600001 4280634422
0.095666632 -0.020398986 0.38700002 4280372532
0.096923605 -0.020398986 0.38700002 4279979568
0.097926885 -0.020346273 0.38600001 4279783211
0.099180616 -0.020346273 0.38600001 4279455014
0.10043435 -0.020346273 0.38600001 4279323939
0.10168808 -0.020346273 0.38600001 4279127330
0.10294181 -0.020346273 0.38600001 4279193123
0.10419554 -0.020346273 0.38600001 4279127330
0.10544926 -0.020346273 0.38600001 4279062050
0.10697942 -0.020398986 0.38700002 4278930462
0.1082364 -0.020398986 0.38700002 4279127841
0.1097763 -0.020451695 0.38800001 4279062048
0.11132272 -0.020504406 0.38900003 4278733083
0.11374388 -0.020715248 0.39300001 4278864669
0.11589836 -0.020873381 0.39600003 4278798363
0.11718457 -0.020873381 0.39600003 4279389217
0.11876994 -0.02092609 0.39700001 4279389217
0.12036183 -0.020978801 0.39800003 4279258144
0.12165453 -0.020978801 0.39800003 4279587109
0.12325615 -0.021031512 0.39900002 4280244012
0.12486426 -0.021084221 0.40000001 4278662929
0.12616345 -0.021084221 0.40000001 4279255068
0.12778132 -0.021136932 0.40100002 4280045352
0.12940566 -0.021189643 0.40200001 4280111145
0.13103652 -0.021242354 0.40300003 4280045352
0.13234547 -0.021242354 0.40300003 4280307756
0.13398606 -0.021295063 0.40400001 4281161016
0.067661658 -0.01904266 0.38500002 4285566849
0.068912141 -0.01904266 0.38500002 4285566849
0.070162617 -0.01904266 0.38500002 4285501056
0.0714131 -0.01904266 0.38500002 4285501056
0.072663583 -0.01904266 0.38500002 4285566849
0.073914059 -0.01904266 0.38500002 4285501056
0.074969307 -0.018993197 0.384 4285501056
0.076018065 -0.018943736 0.38300002 4285764228
0.077060319 -0.018894276 0.38200003 4285830021
0.078301057 -0.018894276 0.38200003 4285764228
0.079333566 -0.018844813 0.38100001 4285632642
0.080359586 -0.018795352 0.38000003 4285895044
0.081593826 -0.018795352 0.38000003 4285763458
0.083046034 -0.018844813 0.38100001 4285697665
0.084283523 -0.018844813 0.38100001 4285960837
0.085745476 -0.018894276 0.38200003 4285830019
0.087213926 -0.018943736 0.38300002 4284975475
0.088688865 -0.018993197 0.384 4280963901
0.090170309 -0.01904266 0.38500002 4280702012
0.091658242 -0.01909212 0.38600001 4280110641
0.092911974 -0.01909212 0.38600001 4279979568
0.094165698 -0.01909212 0.38600001 4279521068
0.095666632 -0.019141583 0.38700002 4279192873
0.096923605 -0.019141583 0.38700002 4278601247
0.098180585 -0.019141583 0.38700002 4279062052
0.099437565 -0.019141583 0.38700002 4279193636
0.10069454 -0.019141583 0.38700002 4278996257
0.10195152 -0.019141583 0.38700002 4279391013
0.1032085 -0.019141583 0.38700002 4279193634
0.10473541 -0.019191043 0.38800001 4279062818
0.10599563 -0.019191043 0.38800001 4278865439
0.10725585 -0.019191043 0.38800001 4278996255
0.10879576 -0.019240506 0.38900003 4279128095
0.11034217 -0.019289967 0.39000002 4279391267
0.11189507 -0.019339429 0.39100003 4279259168
0.11403331 -0.019487813 0.39400002 4279193121
0.11589836 -0.019586736 0.39600003 4279389730
0.11748049 -0.019636197 0.39700001 4279586082
0.11876994 -0.019636197 0.39700001 4279519519
0.12036183 -0.01968566 0.39800003 4278531345
0.12165453 -0.01968566 0.39800003 4278925849
0.12325615 -0.01973512 0.39900002 4280373036
0.12486426 -0.019784581 0.40000001 4280109094
0.12616345 -0.019784581 0.40000001 4280175657
0.12778132 -0.019834043 0.40100002 4280110377
0.12908377 -0.019834043 0.40100002 4280242731
0.13071136 -0.019883504 0.40200001 4280111145
0.13234547 -0.019932967 0.40300003 4281161530
0.06465295 -0.017653119 0.38200003 4285632642
0.066066183 -0.017699331 0.38300002 4285566849
0.067485914 -0.017745541 0.384 4285501056
0.068912141 -0.017791755 0.38500002 4285566849
0.070162617 -0.017791755 0.38500002 4285632642
0.0714131 -0.017791755 0.38500002 4285830021
0.072474845 -0.017745541 0.384 4285697665
0.073722072 -0.017745541 0.384 4285566849
0.074969307 -0.017745541 0.384 4285566849
0.076018065 -0.017699331 0.38300002 4285764228
0.077060319 -0.017653119 0.38200003 4285764228
0.078301057 -0.017653119 0.38200003 4285566849
0.079333566 -0.017606905 0.38100001 4285764228
0.080571055 -0.017606905 0.38100001 4285895814
0.081808545 -0.017606905 0.38100001 4285830021
0.083046034 -0.017606905 0.38100001 4283002203
0.084283523 -0.017606905 0.38100001 4280569143
0.085745476 -0.017653119 0.38200003 4279912492
0.087213926 -0.017699331 0.38300002 4279913516
0.088688865 -0.017745541 0.384 4279783465
0.090170309 -0.017791755 0.38500002 4279257635
0.091420792 -0.017791755 0.38500002 4279061539
0.092911974 -0.017837968 0.38600001 4278798367
0.094165698 -0.017837968 0.38600001 4278996259
0.095666632 -0.01788418 0.38700002 4279127845
0.096923605 -0.01788418 0.38700002 4279194406
0.098180585 -0.01788418 0.38700002 4279654957
0.099694505 -0.017930392 0.38800001 4279457576
0.10095473 -0.017930392 0.38800001 4278931232
0.10221496 -0.017930392 0.38800001 4278865439
0.10347518 -0.017930392 0.38800001 4279062048
0.10500535 -0.017976604 0.38900003 4279127328
0.10626882 -0.017976604 0.38900003 4279127328
0.10780872 -0.018022817 0.39000002 4279323939
0.10935513 -0.018069031 0.39100003 4279323426
0.11090802 -0.018115241 0.39200002 4279849770
0.11246742 -0.018161453 0.39300001 4279717670
0.11432273 -0.018253878 0.39500001 4278992666
0.11589836 -0.018300092 0.39600003 4278268173
0.11748049 -0.018346304 0.39700001 4279911715
0.11906912 -0.018392516 0.39800003 4280503338
0.12036183 -0.018392516 0.39800003 4280438059
0.12196019 -0.018438729 0.39900002 4280109864
0.12325615 -0.018438729 0.39900002 4279978024
0.1245521 -0.018438729 0.39900002 4278727187
0.12616345 -0.018484941 0.40000001 4280175657
0.12746266 -0.018484941 0.40000001 4280176170
0.12908377 -0.018531153 0.40100002 4280504881
0.13071136 -0.018577365 0.40200001 4279781158
0.059654702 -0.016068256 0.37400001 4279124011
0.060869459 -0.016068256 0.37400001 4285568906
0.062914215 -0.016283071 0.37900001 4285896327
0.064483702 -0.016368998 0.38100001 4285632642
0.065893687 -0.016411962 0.38200003 4285566847
0.067310169 -0.016454924 0.38300002 4285435261
0.068733148 -0.016497888 0.384 4285566849
0.069980375 -0.016497888 0.384 4285566849
0.07122761 -0.016497888 0.384 4285501056
0.072474845 -0.016497888 0.384 4285566849
0.073530093 -0.016454924 0.38300002 4285566849
0.074774079 -0.016454924 0.38300002 4285632642
0.076018065 -0.016454924 0.38300002 4285632640
0.077060319 -0.016411962 0.38200003 4285895812
0.078301057 -0.016411962 0.38200003 4284909430
0.079333566 -0.016368998 0.38100001 4281884235
0.080571055 -0.016368998 0.38100001 4280700727
0.081808545 -0.016368998 0.38100001 4280437807
0.083046034 -0.016368998 0.38100001 4280242479
0.084504746 -0.016411962 0.38200003 4279454246
0.085745476 -0.016411962 0.38200003 4279192353
0.087213926 -0.016454924 0.38300002 4278995744
0.088688865 -0.016497888 0.384 4278929951
0.0899361 -0.016497888 0.384 4278995744
0.091420792 -0.016540851 0.38500002 4279325222
0.092911974 -0.016583813 0.38600001 4279457578
0.094165698 -0.016583813 0.38600001 4279194408
0.095666632 -0.016626777 0.38700002 4279194406
0.096923605 -0.016626777 0.38700002 4278865441
0.098434277 -0.016669741 0.38800001 4278734369
0.099694505 -0.016669741 0.38800001 4278931234
0.10121493 -0.016712705 0.38900003 4279127841
0.10247841 -0.016712705 0.38900003 4279389730
0.10374188 -0.016712705 0.38900003 4279323937
0.10527529 -0.016755667 0.39000002 4279389732
0.106542 -0.016755667 0.39000002 4279455012
0.10808516 -0.01679863 0.39100003 4279651107
0.1096348 -0.016841594 0.39200002 4278861078
0.11119094 -0.016884556 0.39300001 4278267658
0.11275359 -0.01692752 0.39400002 4280307243
0.11432273 -0.016970484 0.39500001 4280438829
0.11619103 -0.017056409 0.39700001 4280438059
0.11748049 -0.017056409 0.39700001 4279911461
0.11906912 -0.017099373 0.39800003 4279977254
0.12036183 -0.017099373 0.39800003 4279647775
0.12196019 -0.017142337 0.39900002 4280240426
0.12325615 -0.017142337 0.39900002 4280043047
0.1245521 -0.017142337 0.39900002 4280306221
0.12616345 -0.017185299 0.40000001 4280373036
0.12746266 -0.017185299 0.40000001 4280570415
0.12908377 -0.017228262 0.40100002 4280700211
0.058596212 -0.014892806 0.37500003 4278993695
0.059814211 -0.014892806 0.37500003 4279454508
0.061032213 -0.014892806 0.37500003 4279256365
0.062748216 -0.015011949 0.37800002 4285436546
0.064314455 -0.015091376 0.38000003 4285501567
0.065721191 -0.01513109 0.38100001 4285632640
0.067134425 -0.015170805 0.38200003 4285566849
0.06837517 -0.015170805 0.38200003 4285632642
0.069798134 -0.015210519 0.38300002 4285566849
0.07104212 -0.015210519 0.38300002 4285566847
0.072286114 -0.015210519 0.38300002 4285764226
0.073530093 -0.015210519 0.38300002 4286093191
0.074578844 -0.015170805 0.38200003 4284646258
0.075819589 -0.015170805 0.38200003 4280963901
0.077060319 -0.015170805 0.38200003 4280371762
0.078301057 -0.015170805 0.38200003 4279650090
0.079333566 -0.01513109 0.38100001 4279585834
0.080571055 -0.01513109 0.38100001 4279717670
0.081808545 -0.01513109 0.38100001 4279322910
0.083264008 -0.015170805 0.38200003 4279191838
0.084504746 -0.015170805 0.38200003 4279192351
0.085745476 -0.015170805 0.38200003 4279061537
0.087213926 -0.015210519 0.38300002 4279193636
0.088688865 -0.015250232 0.384 4279457578
0.0899361 -0.015250232 0.384 4279391785
0.091420792 -0.015289947 0.38500002 4278931234
0.092911974 -0.015329661 0.38600001 4278997027
0.094165698 -0.015329661 0.38600001 4278997027
0.095666632 -0.015369375 0.38700002 4279127843
0.097174056 -0.01540909 0.38800001 4279390502
0.098434277 -0.01540909 0.38800001 4279258916
0.099951454 -0.015448804 0.38900003 4279258916
0.10121493 -0.015448804 0.38900003 4279521320
0.10274184 -0.015488517 0.39000002 4279783463
0.10400856 -0.015488517 0.39000002 4279454498
0.10554523 -0.015528233 0.39100003 4278202120
0.10681519 -0.015528233 0.39100003 4279123482
0.10836159 -0.015567946 0.39200002 4280109864
0.10991448 -0.01560766 0.39300001 4280109864
0.11147388 -0.015647374 0.39400002 4279978278
0.11303977 -0.015687088 0.39500001 4279912485
0.11461216 -0.015726803 0.39600003 4279188762
0.11619103 -0.015766516 0.39700001 4279912231
0.11748049 -0.015766516 0.39700001 4279649061
0.11906912 -0.015806232 0.39800003 4279319326
0.12036183 -0.015806232 0.39800003 4280042533
0.12196019 -0.015845945 0.39900002 4280174119
0.12325615 -0.015845945 0.39900002 4279976740
0.1245521 -0.015845945 0.39900002 4280700463
0.12616345 -0.015885659 0.40000001 4280371500
0.12746266 -0.015885659 0.40000001 4281883974
0.05737821 -0.013674391 0.37500003 4279056406
0.058596212 -0.013674391 0.37500003 4278795800
0.059814211 -0.013674391 0.37500003 4278600218
0.061032213 -0.013674391 0.37500003 4278994463
0.062748216 -0.013783786 0.37800002 4279386150
0.0641452 -0.013820251 0.37900001 4283331681
0.065548696 -0.013856716 0.38000003 4285699718
0.066958681 -0.013893181 0.38100001 4285568132
0.06819617 -0.013893181 0.38100001 4285765511
0.069615901 -0.013929646 0.38200003 4286028681
0.070856638 -0.013929646 0.38200003 4283857766
0.072097376 -0.013929646 0.38200003 4280766522
0.073338106 -0.013929646 0.38200003 4280438323
0.074578844 -0.013929646 0.38200003 4279912746
0.075621098 -0.013893181 0.38100001 4279914027
0.076858588 -0.013893181 0.38100001 4279454246
0.078096077 -0.013893181 0.38100001 4278994461
0.079333566 -0.013893181 0.38100001 4279060767
0.080571055 -0.013893181 0.38100001 4279060765
0.081808545 -0.013893181 0.38100001 4278929949
0.083264008 -0.013929646 0.38200003 4279193121
0.084504746 -0.013929646 0.38200003 4279456806
0.08596994 -0.013966111 0.38300002 4279127843
0.087213926 -0.013966111 0.38300002 4278930464
0.088688865 -0.014002576 0.384 4278996257
0.090170309 -0.014039041 0.38500002 4279062050
0.091420792 -0.014039041 0.38500002 4279258146
0.092911974 -0.014075506 0.38600001 4279258146
0.09440966 -0.014111971 0.38700002 4279389732
0.095666632 -0.014111971 0.38700002 4279652904
0.097174056 -0.014148436 0.38800001 4279323426
0.098434277 -0.014148436 0.38800001 4279980844
0.099951454 -0.014184902 0.38900003 4278663449
0.10121493 -0.014184902 0.38900003 4278201100
0.10274184 -0.014221366 0.39000002 4280241709
0.10427526 -0.014257832 0.39100003 4280702514
0.10554523 -0.014257832 0.39100003 4280044584
0.10708836 -0.014294297 0.39200002 4278926103
0.10863802 -0.014330762 0.39300001 4280241709
0.10991448 -0.014330762 0.39300001 4279978024
0.11147388 -0.014367227 0.39400002 4279385371
0.11303977 -0.014403692 0.39500001 4278661648
0.11461216 -0.014440157 0.39600003 4280436778
0.11619103 -0.014476622 0.39700001 4280437293
0.11777641 -0.014513087 0.39800003 4279976742
0.11906912 -0.014513087 0.39800003 4278660882
0.12066424 -0.014549552 0.39900002 4280502573
0.12196019 -0.014549552 0.39900002 4280961839
0.12325615 -0.014549552 0.39900002 4280567596
0.1245521 -0.014549552 0.39900002 4283988319
0.12616345 -0.014586017 0.40000001 4286816398
0.05737821 -0.012455978 0.37500003 4279251986
0.058596212 -0.012455978 0.37500003 4278926101
0.059814211 -0.012455978 0.37500003 4278533398
0.061194964 -0.012489194 0.37600002 4278928156
0.06258221 -0.01252241 0.377 4279125795
0.063975953 -0.012555626 0.37800002 4279388201
0.0653762 -0.012588842 0.37900001 4279584301
0.066782936 -0.012622058 0.38000003 4279715887
0.068017177 -0.012622058 0.38000003 4279781678
0.069433659 -0.012655273 0.38100001 4279912494
0.070671149 -0.012655273 0.38100001 4279585064
0.071908638 -0.012655273 0.38100001 4279256097
0.07314612 -0.012655273 0.38100001 4279124765
0.074383609 -0.012655273 0.38100001 4279125535
0.075621098 -0.012655273 0.38100001 4278928670
0.076858588 -0.012655273 0.38100001 4279060769
0.078096077 -0.012655273 0.38100001 4279126560
0.079333566 -0.012655273 0.38100001 4279258144
0.080571055 -0.012655273 0.38100001 4279061535
0.082023263 -0.01268849 0.38200003 4278798363
0.083264008 -0.01268849 0.38200003 4278733085
0.084504746 -0.01268849 0.38200003 4279127843
0.08596994 -0.012721705 0.38300002 4278995744
0.087441631 -0.012754921 0.384 4279389732
0.088688865 -0.012754921 0.384 4279323939
0.090170309 -0.012788137 0.38500002 4279323939
0.091420792 -0.012788137 0.38500002 4279388705
0.092911974 -0.012821353 0.38600001 4279849256
0.09440966 -0.01285457 0.38700002 4279782182
0.095666632 -0.01285457 0.38700002 4279058459
0.097174056 -0.012887785 0.38800001 4279058459
0.098687984 -0.012921002 0.38900003 4279715365
0.099951454 -0.012921002 0.38900003 4280569393
0.10147512 -0.012954217 0.39000002 4280240426
0.10274184 -0.012954217 0.39000002 4279649059
0.10427526 -0.012987434 0.39100003 4280372782
0.10554523 -0.012987434 0.39100003 4279385889
0.10708836 -0.01302065 0.39200002 4279978026
0.10863802 -0.013053864 0.39300001 4279385887
0.11019417 -0.013087081 0.39400002 4280372012
0.11175681 -0.013120296 0.39500001 4281028915
0.11303977 -0.013120296 0.39500001 4279187224
0.11461216 -0.013153513 0.39600003 4279253017
0.11619103 -0.013186729 0.39700001 4280700463
0.11777641 -0.013219945 0.39800003 4280897844
0.11906912 -0.013219945 0.39800003 4280765491
0.12066424 -0.013253161 0.39900002 4283067478
0.12196019 -0.013253161 0.39900002 4286422410
0.12325615 -0.013253161 0.39900002 4286223493
0.1245521 -0.013253161 0.39900002 4286223493
0.056309968 -0.011267532 0.37600002 4280101905
0.057531219 -0.011267532 0.37600002 4279317779
0.05875247 -0.011267532 0.37600002 4278990613
0.059973713 -0.011267532 0.37600002 4278729494
0.061194964 -0.011267532 0.37600002 4278730007
0.06258221 -0.011297498 0.377 4279257635
0.063975953 -0.011327466 0.37800002 4279783213
0.065203704 -0.011327466 0.37800002 4278993697
0.066607192 -0.011357432 0.37900001 4278927904
0.068017177 -0.011387399 0.38000003 4279125281
0.069251418 -0.011387399 0.38000003 4278993695
0.070485659 -0.011387399 0.38000003 4278862877
0.0717199 -0.011387399 0.38000003 4278731291
0.072954141 -0.011387399 0.38000003 4278862875
0.074188381 -0.011387399 0.38000003 4278994461
0.075621098 -0.011417366 0.38100001 4279192353
0.076858588 -0.011417366 0.38100001 4279126558
0.078096077 -0.011417366 0.38100001 4278731800
0.079333566 -0.011417366 0.38100001 4278929179
0.080571055 -0.011417366 0.38100001 4279060765
0.082023263 -0.011447333 0.38200003 4279060765
0.083264008 -0.011447333 0.38200003 4279323424
0.084725954 -0.0114773 0.38300002 4279257631
0.08596994 -0.0114773 0.38300002 4279389217
0.087441631 -0.011507266 0.384 4279389217
0.088919833 -0.011537233 0.38500002 4279717670
0.090170309 -0.011537233 0.38500002 4278993179
0.091658242 -0.0115672 0.38600001 4278198787
0.092911974 -0.0115672 0.38600001 4278527500
0.09440966 -0.011597168 0.38700002 4278789902
0.095913835 -0.011627134 0.38800001 4280963889
0.097174056 -0.011627134 0.38800001 4279912998
0.098687984 -0.011657101 0.38900003 4278463763
0.099951454 -0.011657101 0.38900003 4278856213
0.10147512 -0.011687067 0.39000002 4279448861
0.10274184 -0.011687067 0.39000002 4280043047
0.10427526 -0.011717035 0.39100003 4279912231
0.10581516 -0.011747002 0.39200002 4280109610
0.10708836 -0.011747002 0.39200002 4280437805
0.10863802 -0.011776968 0.39300001 4278464015
0.11019417 -0.011806935 0.39400002 4279713568
0.11175681 -0.011836901 0.39500001 4281555261
0.11332595 -0.011866868 0.39600003 4280699952
0.11461216 -0.011866868 0.39600003 4280765745
0.11619103 -0.011896836 0.39700001 4282343240
0.11748049 -0.011896836 0.39700001 4286421386
0.11906912 -0.011926803 0.39800003 4286026628
0.12066424 -0.011956769 0.39900002 4285828735
0.12196019 -0.011956769 0.39900002 4285894528
0.056309968 -0.010045869 0.37600002 4279905039
0.057531219 -0.010045869 0.37600002 4279251221
0.05875247 -0.010045869 0.37600002 4278923539
0.059973713 -0.010045869 0.37600002 4278661648
0.061194964 -0.010045869 0.37600002 4278728211
0.06258221 -0.010072587 0.377 4278797084
0.063975953 -0.010099305 0.37800002 4278204432
0.065203704 -0.010099305 0.37800002 4280112942
0.066607192 -0.010126023 0.37900001 4280244016
0.067838185 -0.010126023 0.37900001 4279388707
0.069251418 -0.01015274 0.38000003 4278797082
0.070485659 -0.01015274 0.38000003 4278928666
0.0717199 -0.01015274 0.38000003 4279126045
0.072954141 -0.01015274 0.38000003 4278994459
0.074188381 -0.01015274 0.38000003 4278928666
0.075422622 -0.01015274 0.38000003 4278928666
0.076858588 -0.010179458 0.38100001 4278994459
0.078096077 -0.010179458 0.38100001 4278994459
0.079333566 -0.010179458 0.38100001 4279783461
0.080782533 -0.010206176 0.38200003 4279125531
0.082023263 -0.010206176 0.38200003 4279322910
0.083481967 -0.010232894 0.38300002 4279585314
0.084725954 -0.010232894 0.38300002 4280044582
0.086194396 -0.010259612 0.384 4278727187
0.087441631 -0.010259612 0.384 4278265611
0.088919833 -0.010286329 0.38500002 4278789648
0.090404518 -0.010313047 0.38600001 4278920722
0.091658242 -0.010313047 0.38600001 4279248404
0.093152687 -0.010339765 0.38700002 4280630057
0.09440966 -0.010339765 0.38700002 4278921234
0.095913835 -0.010366483 0.38800001 4280371498
0.097424507 -0.0103932 0.38900003 4278856978
0.098687984 -0.0103932 0.38900003 4279184406
0.10020839 -0.010419918 0.39000002 4280699182
0.10147512 -0.010419918 0.39000002 4280897329
0.10300529 -0.010446636 0.39100003 4280042020
0.10427526 -0.010446636 0.39100003 4278726673
0.10581516 -0.010473354 0.39200002 4280239914
0.10708836 -0.010473354 0.39200002 4281161016
0.10863802 -0.010500071 0.39300001 4280372014
0.11019417 -0.010526789 0.39400002 4280700465
0.11147388 -0.010526789 0.39400002 4282277447
0.11332595 -0.010580225 0.39600003 4285697917
0.11461216 -0.010580225 0.39600003 4286224007
0.11619103 -0.010606942 0.39700001 4285895044
0.11748049 -0.010606942 0.39700001 4286421386
0.056459725 -0.0088476753 0.377 4279972118
0.057684224 -0.0088476753 0.377 4279251221
0.05875247 -0.0088242069 0.37600002 4279186711
0.059973713 -0.0088242069 0.37600002 4278858259
0.061357714 -0.0088476753 0.377 4278530832
0.06258221 -0.0088476753 0.377 4278730005
0.063975953 -0.0088711446 0.37800002 4278664982
0.065203704 -0.0088711446 0.37800002 4278533910
0.066607192 -0.0088946121 0.37900001 4278731289
0.067838185 -0.0088946121 0.37900001 4278533910
0.069251418 -0.0089180814 0.38000003 4278731289
0.070485659 -0.0089180814 0.38000003 4278731289
0.0717199 -0.0089180814 0.38000003 4278994461
0.072954141 -0.0089180814 0.38000003 4278928668
0.074188381 -0.0089180814 0.38000003 4278862875
0.075422622 -0.0089180814 0.38000003 4279257117
0.076858588 -0.0089415498 0.38100001 4279257117
0.078096077 -0.0089415498 0.38100001 4278992666
0.079333566 -0.0089415498 0.38100001 4278926103
0.080782533 -0.0089650191 0.38200003 4279453217
0.082023263 -0.0089650191 0.38200003 4278924566
0.083481967 -0.0089884875 0.38300002 4278855181
0.084947169 -0.0090119559 0.384 4278986002
0.086194396 -0.0090119559 0.384 4278919441
0.08766935 -0.0090354243 0.38500002 4279446555
0.088919833 -0.0090354243 0.38500002 4280631340
0.090404518 -0.0090588927 0.38600001 4279249687
0.091895707 -0.0090823621 0.38700002 4280631340
0.093152687 -0.0090823621 0.38700002 4278986004
0.094653606 -0.0091058305 0.38800001 4281160503
0.095913835 -0.0091058305 0.38800001 4280568877
0.097424507 -0.0091292998 0.38900003 4279909664
0.098687984 -0.0091292998 0.38900003 4280237864
0.10020839 -0.0091527672 0.39000002 4278725908
0.10147512 -0.0091527672 0.39000002 4280699698
0.10300529 -0.0091762366 0.39100003 4280306221
0.10427526 -0.0091762366 0.39100003 4280306221
0.10581516 -0.009199705 0.39200002 4280568879
0.10708836 -0.009199705 0.39200002 4281292602
0.054440532 -0.0076834229 0.38000003 4282271019
0.055528257 -0.0076632029 0.37900001 4280036625
0.056609489 -0.0076429839 0.37800002 4279644436
0.057684224 -0.007622764 0.377 4279186195
0.058908723 -0.007622764 0.377 4279055125
0.060133215 -0.007622764 0.377 4278726673
0.061357714 -0.007622764 0.377 4278727187
0.062748216 -0.0076429839 0.37800002 4278860310
0.063975953 -0.0076429839 0.37800002 4279058457
0.0653762 -0.0076632029 0.37900001 4279453215
0.066607192 -0.0076632029 0.37900001 4279321629
0.068017177 -0.0076834229 0.38000003 4279124765
0.069251418 -0.0076834229 0.38000003 4279387937
0.070485659 -0.0076834229 0.38000003 4279387937
0.0717199 -0.0076834229 0.38000003 4279190558
0.07314612 -0.0077036424 0.38100001 4279321629
0.074383609 -0.0077036424 0.38100001 4279255836
0.075621098 -0.0077036424 0.38100001 4279321629
0.076858588 -0.0077036424 0.38100001 4279519008
0.078096077 -0.0077036424 0.38100001 4279055638
0.079541795 -0.0077238623 0.38200003 4279912485
0.080782533 -0.0077238623 0.38200003 4280108580
0.082237981 -0.0077440813 0.38300002 4279052306
0.083481967 -0.0077440813 0.38300002 4279248404
0.084947169 -0.0077643008 0.384 4280037922
0.086418867 -0.0077845207 0.38500002 4280432680
0.08766935 -0.0077845207 0.38500002 4279906336
0.089150794 -0.0078047398 0.38600001 4279379992
0.090404518 -0.0078047398 0.38600001 4279577371
0.091895707 -0.0078249592 0.38700002 4279249174
0.093152687 -0.0078249592 0.38700002 4278460171
0.094653606 -0.0078451792 0.38800001 4279515424
0.095913835 -0.0078451792 0.38800001 4279516189
0.097424507 -0.0078653991 0.38900003 4280568877
0.098687984 -0.0078653991 0.38900003 4280766770
0.10020839 -0.0078856181 0.39000002 4280635956
0.10147512 -0.0078856181 0.39000002 4280372014
0.10300529 -0.0079058381 0.39100003 4281356858
0.10427526 -0.0079058381 0.39100003 4284645995
0.054583795 -0.006465734 0.38100001 4282271789
0.055674773 -0.0064487639 0.38000003 4279774739
0.056759246 -0.0064317929 0.37900001 4279184658
0.057837237 -0.0064148228 0.37800002 4279251221
0.059064981 -0.0064148228 0.37800002 4279054355
0.060292721 -0.0064148228 0.37800002 4278858259
0.061520468 -0.0064148228 0.37800002 4279385117
0.062914215 -0.0064317929 0.37900001 4279123482
0.0641452 -0.0064317929 0.37900001 4279255068
0.0653762 -0.0064317929 0.37900001 4279847203
0.066782936 -0.0064487639 0.38000003 4279649826
0.068017177 -0.0064487639 0.38000003 4279190045
0.069433659 -0.006465734 0.38100001 4279190045
0.070671149 -0.006465734 0.38100001 4279453217
0.071908638 -0.006465734 0.38100001 4279519010
0.07314612 -0.006465734 0.38100001 4279453215
0.074383609 -0.006465734 0.38100001 4279584801
0.075621098 -0.006465734 0.38100001 4279519008
0.076858588 -0.006465734 0.38100001 4278859543
0.078301057 -0.0064827045 0.38200003 4279449113
0.079541795 -0.0064827045 0.38200003 4280371752
0.080994003 -0.0064996746 0.38300002 4278460937
0.082237981 -0.0064996746 0.38300002 4280565032
0.083699934 -0.0065166452 0.384 4280499752
0.084947169 -0.0065166452 0.384 4279578650
0.086418867 -0.0065336158 0.38500002 4279379990
0.087897062 -0.0065505859 0.38600001 4279379479
0.089150794 -0.0065505859 0.38600001 4279445272
0.090638727 -0.0065675569 0.38700002 4279577371
0.091895707 -0.0065675569 0.38700002 4280764208
0.093152687 -0.0065675569 0.38700002 4280765491
0.094653606 -0.006584527 0.38800001 4280438577
0.095913835 -0.006584527 0.38800001 4280570161
0.097424507 -0.0066014975 0.38900003 4280109612
0.098687984 -0.0066014975 0.38900003 4281029178
0.054727063 -0.0052415477 0.38200003 4280693270
0.055821285 -0.0052278261 0.38100001 4279447057
0.05690901 -0.0052141049 0.38000003 4279317014
0.057990242 -0.0052003837 0.37900001 4279252504
0.059221238 -0.0052003837 0.37900001 4279055125
0.060452227 -0.0052003837 0.37900001 4278726673
0.061683219 -0.0052003837 0.37900001 4279582236
0.063080214 -0.0052141049 0.38000003 4279254553
0.064314455 -0.0052141049 0.38000003 4279320859
0.065548696 -0.0052141049 0.38000003 4279781158
0.066958681 -0.0052278261 0.38100001 4279452193
0.06819617 -0.0052278261 0.38100001 4279386654
0.069433659 -0.0052278261 0.38100001 4279452447
0.070671149 -0.0052278261 0.38100001 4279452447
0.072097376 -0.0052415477 0.38200003 4279649826
0.073338106 -0.0052415477 0.38200003 4279584031
0.074578844 -0.0052415477 0.38200003 4279584031
0.075819589 -0.0052415477 0.38200003 4279649824
0.077060319 -0.0052415477 0.38200003 4278726673
0.078301057 -0.0052415477 0.38200003 4280107813
0.079750016 -0.0052552689 0.38300002 4279910947
0.080994003 -0.0052552689 0.38300002 4278986000
0.0824527 -0.0052689901 0.384 4279314197
0.083699934 -0.0052689901 0.384 4279182098
0.085168391 -0.0052827117 0.38500002 4279116818
0.086643331 -0.0052964329 0.38600001 4279775518
0.087897062 -0.0052964329 0.38600001 4281223991
0.089150794 -0.0052964329 0.38600001 4280962872
0.090638727 -0.0053101545 0.38700002 4280108074
0.091895707 -0.0053101545 0.38700002 4280832565
0.093393385 -0.0053238757 0.38800001 4280371500
0.054727063 -0.0040003904 0.38200003 4280036887
0.0559678 -0.0040003904 0.38200003 4279513109
0.05705877 -0.0039899182 0.38100001 4279317014
0.058296259 -0.0039899182 0.38100001 4279319324
0.059377495 -0.0039794459 0.38000003 4278595601
0.060611732 -0.0039794459 0.38000003 4278727187
0.062008724 -0.0039899182 0.38100001 4279254555
0.063246213 -0.0039899182 0.38100001 4279189275
0.064483702 -0.0039899182 0.38100001 4279715619
0.065721191 -0.0039899182 0.38100001 4279715365
0.067134425 -0.0040003904 0.38200003 4279452447
0.06837517 -0.0040003904 0.38200003 4279386654
0.069615901 -0.0040003904 0.38200003 4279584033
0.070856638 -0.0040003904 0.38200003 4279649824
0.072097376 -0.0040003904 0.38200003 4279649824
0.073338106 -0.0040003904 0.38200003 4279649824
0.074774079 -0.0040108627 0.38300002 4279584031
0.076018065 -0.0040108627 0.38300002 4279911713
0.077262044 -0.0040108627 0.38300002 4278198021
0.07850603 -0.0040108627 0.38300002 4280503086
0.079750016 -0.0040108627 0.38300002 4279450398
0.081205472 -0.0040213349 0.384 4278722828
0.0824527 -0.0040213349 0.384 4280302373
0.083917908 -0.0040318072 0.38500002 4280699952
0.085168391 -0.0040318072 0.38500002 4280568879
0.086643331 -0.0040422794 0.38600001 4280832563
0.087897062 -0.0040422794 0.38600001 4280503598
0.089150794 -0.0040422794 0.38600001 4280239914
0.090638727 -0.0040527517 0.38700002 4282805074
0.091895707 -0.0040527517 0.38700002 4285631610
0.053766351 -0.0027736798 0.384 4279249174
0.054870322 -0.0027664567 0.38300002 4279644445
0.0559678 -0.0027592336 0.38200003 4279382809
0.057208531 -0.0027592336 0.38200003 4279449113
0.058449272 -0.0027592336 0.38200003 4279055125
0.059533749 -0.0027520105 0.38100001 4278726673
0.06093074 -0.0027592336 0.38200003 4278991129
0.062171482 -0.0027592336 0.38200003 4278991642
0.063412219 -0.0027592336 0.38200003 4279320607
0.06465295 -0.0027592336 0.38200003 4279781158
0.065893687 -0.0027592336 0.38200003 4279452193
0.067134425 -0.0027592336 0.38200003 4279386654
0.068554156 -0.0027664567 0.38300002 4279452447
0.069798134 -0.0027664567 0.38300002 4279452447
0.07104212 -0.0027664567 0.38300002 4279781410
0.072286114 -0.0027664567 0.38300002 4279649824
0.073530093 -0.0027664567 0.38300002 4279715617
0.074774079 -0.0027664567 0.38300002 4279781410
0.076018065 -0.0027664567 0.38300002 4279911201
0.077262044 -0.0027664567 0.38300002 4280107045
0.078711003 -0.0027736798 0.384 4279911463
0.079958238 -0.0027736798 0.384 4280240428
0.081205472 -0.0027736798 0.384 4280437805
0.082667425 -0.0027809029 0.38500002 4280306219
0.086643331 -0.002788126 0.38600001 4284514411
0.054870322 -0.0015220506 0.38300002 4279183896
0.056114309 -0.0015220506 0.38300002 4279317016
0.057358291 -0.0015220506 0.38300002 4279449113
0.058602277 -0.0015220506 0.38300002 4278594574
0.05969001 -0.0015180766 0.38200003 4279384090
0.061090246 -0.0015220506 0.38300002 4279385117
0.062334232 -0.0015220506 0.38300002 4278991642
0.063578218 -0.0015220506 0.38300002 4279649572
0.064822197 -0.0015220506 0.38300002 4279650342
0.066066183 -0.0015220506 0.38300002 4279584549
0.067310169 -0.0015220506 0.38300002 4279189791
0.068733148 -0.0015260245 0.384 4279453217
0.069980375 -0.0015260245 0.384 4279584033
0.07122761 -0.0015260245 0.384 4279649824
0.072474845 -0.0015260245 0.384 4279584029
0.073722072 -0.0015260245 0.384 4279781408
0.074969307 -0.0015260245 0.384 4279386650
0.076216541 -0.0015260245 0.384 4279187226
0.077463768 -0.0015260245 0.384 4280174121
0.078711003 -0.0015260245 0.384 4279845670
0.079958238 -0.0015260245 0.384 4280239147
0.056114309 -0.00027764443 0.38300002 4279447832
0.057358291 -0.00027764443 0.38300002 4279711772
0.058602277 -0.00027764443 0.38300002 4279187224
0.059846263 -0.00027764443 0.38300002 4279450910
0.061090246 -0.00027764443 0.38300002 4279254301
0.062334232 -0.00027764443 0.38300002 4278925336
0.063744217 -0.00027836935 0.384 4279912744
0.064991444 -0.00027836935 0.384 4279649572
0.066238679 -0.00027836935 0.384 4279321631
0.067485914 -0.00027836935 0.384 4279124252
0.068733148 -0.00027836935 0.384 4279584033
0.069980375 -0.00027836935 0.384 4279649826
0.0714131 -0.0002790943 0.38500002 4279715617
0.072663583 -0.0002790943 0.38500002 4279847203
0.073914059 -0.0002790943 0.38500002 4280373034
0.075164542 -0.0002790943 0.38500002 4279649059
0.058755282 0.0009692859 0.384 4279647262
0.060002517 0.0009692859 0.384 4279450910
0.061249748 0.0009692859 0.384 4279320094
0.062496983 0.0009692859 0.384 4279123228
0.063744217 0.0009692859 0.384 4279846953
0.064991444 0.0009692859 0.384 4279649574
0.066238679 0.0009692859 0.384 4279584549
0.067661658 0.00097181014 0.38500002 4279452193
0.068912141 0.00097181014 0.38500002 4280438829
0.070162617 0.00097181014 0.38500002 4280043301
0.0714131 0.00097181014 0.38500002 4280436778
0.060002517 0.002216941 0.384 4279383072
0.062659733 0.0022227145 0.38500002 4280305967
0.063910216 0.0022227145 0.38500002 4279977004
0.065160699 0.0022227145 0.38500002 4280108588
0.067661658 0.0022227145 0.38500002 4280371500
0.068912141 0.0022227145 0.38500002 4282014788
0.088113122 -0.012597654 0.38610238 4294967295
0.088113122 -0.012597654 0.38610238 4294901760
0.088113122 -0.012597654 0.38660237 4294901760
0.088113122 -0.012597654 0.38710237 4294901760
0.088113122 -0.012597654 0.38760239 4294901760
0.088113122 -0.012597654 0.38810238 4294901760
0.088113122 -0.012597654 0.38860238 4294901760
0.088113122 -0.012597654 0.38910237 4294901760
0.088113122 -0.012597654 0.38960239 4294901760
0.088113122 -0.012597654 0.39010239 4294901760
0.088113122 -0.012597654 0.39060238 4294901760
0.088113122 -0.012597654 0.39110237 4294901760
0.088113122 -0.012597654 0.39160237 4294901760
0.088113122 -0.012597654 0.39210239 4294901760
0.088113122 -0.012597654 0.39260238 4294901760
0.088113122 -0.012597654 0.39310238 4294901760
0.088113122 -0.012597654 0.39360237 4294901760
0.088113122 -0.012597654 0.39410239 4294901760
0.088113122 -0.012597654 0.39460239 4294901760
0.088113122 -0.012597654 0.39510238 4294901760
0.088113122 -0.012597654 0.39560238 4294901760
0.088113122 -0.012597654 0.39610237 4294901760
0.088113122 -0.012597654 0.39660239 4294901760
0.088113122 -0.012597654 0.39710239 4294901760
0.088113122 -0.012597654 0.39760238 4294901760
0.088113122 -0.012597654 0.39810237 4294901760
0.088113122 -0.012597654 0.39860237 4294901760
0.088113122 -0.012597654 0.39910239 4294901760
0.088113122 -0.012597654 0.39960238 4294901760
0.088113122 -0.012597654 0.40010238 4294901760
0.088113122 -0.012597654 0.40060237 4294901760
0.088113122 -0.012597654 0.40110239 4294901760
0.088113122 -0.012597654 0.40160239 4294901760
0.088113122 -0.012597654 0.40210238 4294901760
0.088113122 -0.012597654 0.40260237 4294901760
0.088113122 -0.012597654 0.4031024 4294901760
0.088113122 -0.012597654 0.40360239 4294901760
0.088113122 -0.012597654 0.40410239 4294901760
0.088113122 -0.012597654 0.40460238 4294901760
0.088113122 -0.012597654 0.40510237 4294901760
0.088113122 -0.012597654 0.4056024 4294901760
0.088113122 -0.012597654 0.40610239 4294901760
0.088113122 -0.012597654 0.40660238 4294901760
0.088113122 -0.012597654 0.40710238 4294901760
0.088113122 -0.012597654 0.40760237 4294901760
0.088113122 -0.012597654 0.40810239 4294901760
0.088113122 -0.012597654 0.40860239 4294901760
0.088113122 -0.012597654 0.40910238 4294901760
0.088113122 -0.012597654 0.40960237 4294901760
0.088113122 -0.012597654 0.4101024 4294901760
0.088113122 -0.012597654 0.41060239 4294901760
0.088113122 -0.012597654 0.41110238 4294901760
0.088113122 -0.012597654 0.41160238 4294901760
0.088113122 -0.012597654 0.41210237 4294901760
0.088113122 -0.012597654 0.41260239 4294901760
0.088113122 -0.012597654 0.41310239 4294901760
0.088113122 -0.012597654 0.41360238 4294901760
0.088113122 -0.012597654 0.41410238 4294901760
0.088113122 -0.012597654 0.4146024 4294901760
0.088113122 -0.012597654 0.41510239 4294901760
0.088113122 -0.012597654 0.41560239 4294901760
0.088113122 -0.012597654 0.41610238 4294901760
0.088113122 -0.012597654 0.41660237 4294901760
0.088113122 -0.012597654 0.4171024 4294901760
0.088113122 -0.012597654 0.41760239 4294901760
0.088113122 -0.012597654 0.41810238 4294901760
0.088113122 -0.012597654 0.41860238 4294901760
0.088113122 -0.012597654 0.4191024 4294901760
0.088113122 -0.012597654 0.41960239 4294901760
0.088113122 -0.012597654 0.42010239 4294901760
0.088113122 -0.012597654 0.42060238 4294901760
0.088113122 -0.012597654 0.42110237 4294901760
0.088113122 -0.012597654 0.4216024 4294901760
0.088113122 -0.012597654 0.42210239 4294901760
0.088113122 -0.012597654 0.42260239 4294901760
0.088113122 -0.012597654 0.42310238 4294901760
0.088113122 -0.012597654 0.4236024 4294901760
0.088113122 -0.012597654 0.4241024 4294901760
0.088113122 -0.012597654 0.42460239 4294901760
0.088113122 -0.012597654 0.42510238 4294901760
0.088113122 -0.012597654 0.42560238 4294901760
0.088113122 -0.012597654 0.4261024 4294901760
0.088113122 -0.012597654 0.42660239 4294901760
0.088113122 -0.012597654 0.42710239 4294901760
0.088113122 -0.012597654 0.42760238 4294901760
0.088113122 -0.012597654 0.42810237 4294901760
0.088113122 -0.012597654 0.4286024 4294901760
0.088113122 -0.012597654 0.42910239 4294901760
0.088113122 -0.012597654 0.42960238 4294901760
0.088113122 -0.012597654 0.43010238 4294901760
0.088113122 -0.012597654 0.43060237 4294901760
0.088113122 -0.012597654 0.4311024 4294901760
0.088113122 -0.012597654 0.43160239 4294901760
0.088113122 -0.012597654 0.43210238 4294901760
0.088113122 -0.012597654 0.43260241 4294901760
0.088113122 -0.012597654 0.4331024 4294901760
0.088113122 -0.012597654 0.43360239 4294901760
0.088113122 -0.012597654 0.43410239 4294901760
0.088113122 -0.012597654 0.43460238 4294901760
0.088113122 -0.012597654 0.4351024 4294901760
0.088113122 -0.012597654 0.4356024 4294901760
0.088113122 -0.012597654 0.43610239 4294901760
0.088113122 -0.012597654 0.38610238 4278255360
0.087948017 -0.012671176 0.38656858 4278255360
0.087782912 -0.0127447 0.38703477 4278255360
0.087617807 -0.012818222 0.38750094 4278255360
0.087452702 -0.012891744 0.38796714 4278255360
0.087287597 -0.012965267 0.38843334 4278255360
0.087122485 -0.01303879 0.38889953 4278255360
0.08695738 -0.013112312 0.38936573 4278255360
0.086792275 -0.013185835 0.3898319 4278255360
0.08662717 -0.013259358 0.3902981 4278255360
0.086462066 -0.01333288 0.3907643 4278255360
0.086296961 -0.013406402 0.39123049 4278255360
0.086131856 -0.013479925 0.39169666 4278255360
0.085966751 -0.013553448 0.39216286 4278255360
0.085801646 -0.01362697 0.39262906 4278255360
0.085636541 -0.013700493 0.39309525 4278255360
0.085471436 -0.013774015 0.39356145 4278255360
0.085306324 -0.013847538 0.39402762 4278255360
0.085141219 -0.013921061 0.39449382 4278255360
0.084976114 -0.013994583 0.39496002 4278255360
0.084811009 -0.014068106 0.39542621 4278255360
0.084645905 -0.014141629 0.39589241 4278255360
0.0844808 -0.014215151 0.39635858 4278255360
0.084315695 -0.014288673 0.39682478 4278255360
0.08415059 -0.014362196 0.39729097 4278255360
0.083985485 -0.014435719 0.39775717 4278255360
0.08382038 -0.014509241 0.39822337 4278255360
0.083655275 -0.014582764 0.39868954 4278255360
0.083490163 -0.014656287 0.39915574 4278255360
0.083325058 -0.014729809 0.39962193 4278255360
0.083159953 -0.014803331 0.40008813 4278255360
0.082994848 -0.014876855 0.4005543 4278255360
0.082829744 -0.014950377 0.4010205 4278255360
0.082664639 -0.015023899 0.40148669 4278255360
0.082499534 -0.015097423 0.40195289 4278255360
0.082334429 -0.015170945 0.40241909 4278255360
0.082169324 -0.015244467 0.40288526 4278255360
0.082004219 -0.01531799 0.40335146 4278255360
0.081839114 -0.015391512 0.40381765 4278255360
0.08167401 -0.015465035 0.40428385 4278255360
0.081508897 -0.015538557 0.40475005 4278255360
0.081343792 -0.015612081 0.40521622 4278255360
0.081178688 -0.015685603 0.40568241 4278255360
0.081013583 -0.015759125 0.40614861 4278255360
0.080848478 -0.015832648 0.40661481 4278255360
0.080683373 -0.01590617 0.40708101 4278255360
0.080518268 -0.015979692 0.40754718 4278255360
0.080353163 -0.016053217 0.40801337 4278255360
0.080188058 -0.016126739 0.40847957 4278255360
0.080022953 -0.016200261 0.40894577 4278255360
0.079857841 -0.016273784 0.40941197 4278255360
0.079692736 -0.016347306 0.40987813 4278255360
0.079527631 -0.016420828 0.41034433 4278255360
0.079362527 -0.016494351 0.41081053 4278255360
0.079197422 -0.016567875 0.41127673 4278255360
0.079032317 -0.016641397 0.4117429 4278255360
0.078867212 -0.016714919 0.41220909 4278255360
0.078702107 -0.016788442 0.41267529 4278255360
0.078537002 -0.016861964 0.41314149 4278255360
0.078371897 -0.016935486 0.41360769 4278255360
0.078206792 -0.017009009 0.41407385 4278255360
0.078041688 -0.017082531 0.41454005 4278255360
0.077876575 -0.017156055 0.41500625 4278255360
0.07771147 -0.017229578 0.41547245 4278255360
0.077546366 -0.0173031 0.41593865 4278255360
0.077381261 -0.017376622 0.41640481 4278255360
0.077216156 -0.017450145 0.41687101 4278255360
0.077051051 -0.017523669 0.41733721 4278255360
0.076885946 -0.017597191 0.41780341 4278255360
0.076720841 -0.017670713 0.41826957 4278255360
0.076555736 -0.017744236 0.41873577 4278255360
0.076390631 -0.017817758 0.41920197 4278255360
0.076225519 -0.01789128 0.41966817 4278255360
0.076060414 -0.017964803 0.42013437 4278255360
0.075895309 -0.018038325 0.42060053 4278255360
0.075730205 -0.018111847 0.42106673 4278255360
0.0755651 -0.01818537 0.42153293 4278255360
0.075399995 -0.018258894 0.42199913 4278255360
0.07523489 -0.018332416 0.42246532 4278255360
0.075069785 -0.018405939 0.42293149 4278255360
0.07490468 -0.018479461 0.42339769 4278255360
0.074739575 -0.018552983 0.42386389 4278255360
0.074574471 -0.018626507 0.42433009 4278255360
0.074409366 -0.01870003 0.42479628 4278255360
0.074244261 -0.018773552 0.42526245 4278255360
0.074079148 -0.018847074 0.42572865 4278255360
0.073914044 -0.018920597 0.42619485 4278255360
0.073748939 -0.018994119 0.42666104 4278255360
0.073583834 -0.019067641 0.42712724 4278255360
0.073418729 -0.019141164 0.42759341 4278255360
0.073253624 -0.019214686 0.42805961 4278255360
0.073088519 -0.01928821 0.42852581 4278255360
0.072923414 -0.019361733 0.428992 4278255360
0.07275831 -0.019435255 0.4294582 4278255360
0.072593197 -0.019508777 0.42992437 4278255360
0.072428092 -0.0195823 0.43039057 4278255360
0.072262987 -0.019655822 0.43085676 4278255360
0.072097883 -0.019729346 0.43132296 4278255360
0.071932778 -0.019802868 0.43178916 4278255360
0.071767673 -0.019876391 0.43225533 4278255360
0.071602568 -0.019949913 0.43272153 4278255360
