# .PCD v0.7 - Point Cloud Data file format
VERSION 0.7
FIELDS x y z rgb
SIZE 4 4 4 4
TYPE F F F U
COUNT 1 1 1 1
WIDTH 1001
HEIGHT 1
VIEWPOINT 0 0 0 1 0 0 0
POINTS 1001
DATA ascii
-0.01018451 -0.010678229 0.45500001 4287008383
-0.0087258043 -0.010701698 0.45600003 4285351742
-0.0072606024 -0.010725167 0.45700002 4287053102
-0.005788906 -0.010748635 0.45800003 4287380266
-0.0043107127 -0.010772103 0.45900002 4287510825
-0.0028321669 -0.010819041 0.46100003 4287772716
-0.001340629 -0.010865978 0.46300003 4287051303
0.00016390078 -0.010912916 0.46500003 4287578163
0.0016814225 -0.010959852 0.46700001 4288512884
0.0032187847 -0.011030259 0.47000003 4287338883
0.0047655385 -0.011077196 0.47200003 4288782220
0.00631194 -0.011100665 0.47300002 4283114262
0.0078648375 -0.011124133 0.47400004 4286924344
0.009424231 -0.011147602 0.47500002 4286197795
0.010967032 -0.011147602 0.47500002 4287314991
0.012509832 -0.011147602 0.47500002 4286790957
-0.011636719 -0.0091796685 0.45400003 4286686865
-0.010162126 -0.0091796685 0.45400003 4284108098
-0.0087066684 -0.0091998875 0.45500001 4285216306
-0.0072447155 -0.0092201075 0.45600003 4286592551
-0.0057762661 -0.0092403265 0.45700002 4286723106
-0.0043013212 -0.0092605464 0.45800003 4287051044
-0.0028260231 -0.0093009854 0.46000001 4287116067
-0.0013377335 -0.0093414243 0.46200001 4291789687
0.00016354831 -0.0093818633 0.46400002 4288040267
0.0016814225 -0.0094425222 0.46700001 4287447097
0.0032119362 -0.0094829611 0.46900001 4288503378
0.0047655385 -0.00954362 0.47200003 4286463795
0.006325285 -0.009584059 0.47400004 4287843647
0.007881429 -0.009604279 0.47500002 4287513907
0.009444071 -0.009624498 0.47600001 4286724137
0.01099012 -0.009624498 0.47600001 4286200108
0.012509832 -0.009604279 0.47500002 4285416504
-0.011611087 -0.0076876045 0.45300001 4287475609
-0.010162126 -0.0077045755 0.45400003 4283840561
-0.0086875334 -0.0077045755 0.45400003 4285215021
-0.0072288276 -0.0077215456 0.45500001 4285804059
-0.0057636271 -0.0077385162 0.45600003 4285935643
-0.0042919298 -0.0077554868 0.45700002 4286459934
-0.0028198797 -0.0077894274 0.45900002 4286722336
-0.001334838 -0.0078233685 0.46100003 4287247401
0.00016319583 -0.0078573097 0.46300003 4291262321
0.0016778221 -0.0079082204 0.46600002 4287840567
0.0032119362 -0.0079591321 0.46900001 4287642929
0.0047655385 -0.0080100438 0.47200003 4287710519
0.006325285 -0.008043984 0.47400004 4286922288
0.0078980215 -0.0080779251 0.47600001 4285279258
0.009444071 -0.0080779251 0.47600001 4285871908
0.011013209 -0.0080948956 0.47700003 4283968026
-0.013082432 -0.0062157619 0.45300001 4286818449
-0.011611087 -0.0062157619 0.45300001 4287672988
-0.010139743 -0.0062157619 0.45300001 4284299052
-0.0086875334 -0.0062294835 0.45400003 4284820769
-0.0072129401 -0.0062294835 0.45400003 4285474845
-0.0057509872 -0.0062432047 0.45500001 4285409306
-0.0042825383 -0.0062569259 0.45600003 4285869598
-0.0028137362 -0.0062843687 0.45800003 4285737496
-0.0013319424 -0.006311811 0.46000001 4286853924
0.00016319583 -0.0063529755 0.46300003 4287445804
0.0016778221 -0.006394139 0.46600002 4287643181
0.0032119362 -0.006435303 0.46900001 4287577645
0.0047655385 -0.0064764675 0.47200003 4285344029
0.0063386289 -0.0065176315 0.47500002 4284556829
0.0078980215 -0.0065313522 0.47600001 4284030999
0.0094639119 -0.0065450738 0.47700003 4284755746
0.011036297 -0.006558795 0.47800002 4285547320
0.012615179 -0.0065725166 0.47900003 4289566087
-0.016166624 -0.0047858073 0.45700002 4287343508
-0.014618032 -0.0047648628 0.45500001 4286751371
-0.013111312 -0.004754391 0.45400003 4286751886
-0.011611087 -0.0047439183 0.45300001 4286552710
-0.010139743 -0.0047439183 0.45300001 4284889390
-0.0086683976 -0.0047439183 0.45300001 4285215525
-0.0072129401 -0.004754391 0.45400003 4285476387
-0.0057509872 -0.0047648628 0.45500001 4284686871
-0.0042825383 -0.0047753355 0.45600003 4285081881
-0.0028137362 -0.0047962801 0.45800003 4285345051
-0.0013319424 -0.0048172241 0.46000001 4286001438
0.00016284335 -0.0048381686 0.46200001 4286263840
0.0016778221 -0.0048800576 0.46600002 4286722334
0.0032119362 -0.004911474 0.46900001 4286196760
0.004775635 -0.004953363 0.47300002 4283833358
0.0063386289 -0.0049743075 0.47500002 4284891704
0.0079146149 -0.004995252 0.47700003 4283834651
0.0094837518 -0.0050057243 0.47800002 4284098075
0.011059386 -0.0050161965 0.47900003 4284494118
0.012641515 -0.0050266688 0.48000002 4284232228
-0.016201999 -0.0033081912 0.45800003 4282403638
-0.01465016 -0.0032937448 0.45600003 4282010679
-0.013111312 -0.0032792985 0.45400003 4283524434
-0.011611087 -0.0032720752 0.45300001 4284374348
-0.010139743 -0.0032720752 0.45300001 4284954667
-0.0086683976 -0.0032720752 0.45300001 4285017632
-0.0072129401 -0.0032792985 0.45400003 4285476900
-0.0057509872 -0.0032865216 0.45500001 4284556570
-0.0042825383 -0.0032937448 0.45600003 4284622361
-0.0028137362 -0.0033081912 0.45800003 4284951578
-0.0013319424 -0.0033226372 0.46000001 4285412381
0.00016319583 -0.0033443067 0.46300003 4285938725
0.0016778221 -0.003365976 0.46600002 4285937442
0.0032187847 -0.0033948685 0.47000003 4285870879
0.004775635 -0.0034165378 0.47300002 4288449403
0.0063519734 -0.0034382071 0.47600001 4287866772
0.0079312064 -0.0034526535 0.47800002 4282985252
0.0095035927 -0.0034598766 0.47900003 4283901727
0.011082474 -0.0034670997 0.48000002 4284494116
0.012641515 -0.0034670997 0.48000002 4284559909
-0.017844079 -0.0018359984 0.46200001 4282601269
-0.016237374 -0.0018240763 0.45900002 4282535474
-0.01465016 -0.0018121543 0.45600003 4282601267
-0.013111312 -0.0018042063 0.45400003 4282533164
-0.011611087 -0.0018002321 0.45300001 4283514413
-0.010139743 -0.0018002321 0.45300001 4285084457
-0.0086683976 -0.0018002321 0.45300001 4286133545
-0.0072129401 -0.0018042063 0.45400003 4284754462
-0.0057509872 -0.0018081802 0.45500001 4284035880
-0.0042825383 -0.0018121543 0.45600003 4284034597
-0.0028137362 -0.0018201023 0.45800003 4283506962
-0.0013319424 -0.0018280504 0.46000001 4285149984
0.00016319583 -0.0018399725 0.46300003 4285742891
0.0016814225 -0.0018558685 0.46700001 4284821537
0.0032187847 -0.0018677906 0.47000003 4283967513
0.0047857314 -0.0018836868 0.47400004 4288063119
0.0063519734 -0.0018916347 0.47600001 4287211152
0.0079312064 -0.0018995827 0.47800002 4286412396
0.0095234327 -0.0019075308 0.48000002 4283180571
0.011105563 -0.0019115049 0.48100004 4284494370
0.012667852 -0.0019115049 0.48100004 4284888613
0.014259725 -0.0019154788 0.48200002 4285744183
-0.019554013 -0.00033853773 0.46700001 4282533675
-0.017882703 -0.00033563806 0.46300003 4282402859
-0.016237374 -0.00033273839 0.45900002 4283389752
-0.01465016 -0.00033056363 0.45600003 4283850303
-0.013111312 -0.0003291138 0.45400003 4281738515
-0.011611087 -0.00032838885 0.45300001 4284102954
-0.010117359 -0.00032766393 0.45200002 4285542178
-0.0086492617 -0.00032766393 0.45200002 4286330149
-0.0072129401 -0.0003291138 0.45400003 4289238404
-0.0057509872 -0.00032983869 0.45500001 4287339910
-0.0042825383 -0.00033056363 0.45600003 4286346342
-0.0028137362 -0.00033201347 0.45800003 4284233772
-0.001334838 -0.00033418823 0.46100003 4284493087
0.00016354831 -0.00033636298 0.46400002 4285284400
0.0016814225 -0.00033853773 0.46700001 4283907124
0.0032256332 -0.00034143741 0.47100002 4280622099
0.0047958279 -0.00034433711 0.47500002 4287735188
0.0063653183 -0.00034578695 0.47700003 4287212437
0.0079477997 -0.00034723678 0.47900003 4288850587
0.0095432736 -0.00034868665 0.48100004 4283511848
0.011128651 -0.00034941154 0.48200002 4284100896
0.012694187 -0.00034941154 0.48200002 4285480750
0.014289309 -0.00035013646 0.48300001 4287448630
0.015890928 -0.0003508614 0.48400003 4286594350
-0.01465016 0.001151027 0.45600003 4281084941
-0.013111312 0.0011459787 0.45400003 4281934351
-0.011585455 0.0011409303 0.45200002 4284889388
-0.010117359 0.0011409303 0.45200002 4285803810
-0.0086492617 0.0011409303 0.45200002 4286395944
-0.0072129401 0.0011459787 0.45400003 4289240204
-0.0057509872 0.0011485028 0.45500001 4284306759
-0.0042919298 0.0011535512 0.45700002 4283313184
-0.0028198797 0.0011585996 0.45900002 4283968286
-0.001334838 0.001163648 0.46100003 4285743922
0.00016354831 0.0011712204 0.46400002 4283179792
0.001685023 0.0011813173 0.46800002 4282135078
0.0032324817 0.001191414 0.47200003 4284374870
0.0047958279 0.0011989865 0.47500002 4281418292
0.0063786623 0.001206559 0.47800002 4287474328
0.0079643913 0.0012116074 0.48000002 4288918690
0.0095631136 0.0012166557 0.48200002 4282330141
0.011151739 0.0012191799 0.48300001 4283837724
0.012720523 0.0012191799 0.48300001 4284362782
0.014289309 0.0012191799 0.48300001 4286986026
0.015923759 0.0012242283 0.48500001 4287906101
-0.017844079 0.0026672573 0.46200001 4281809943
-0.01465016 0.0026326177 0.45600003 4281676306
-0.013082432 0.0026152977 0.45300001 4283248926
-0.011585455 0.0026095244 0.45200002 4285151015
-0.010117359 0.0026095244 0.45200002 4285803810
-0.0086492617 0.0026095244 0.45200002 4286134830
-0.0071970522 0.0026152977 0.45300001 4284891443
-0.0057509872 0.0026268442 0.45500001 4286007871
-0.0042825383 0.0026326177 0.45600003 4284229661
-0.0028198797 0.0026499375 0.45900002 4284820515
-0.0013377335 0.0026672573 0.46200001 4286006324
0.00016390078 0.0026845774 0.46500003 4281996297
0.0016886235 0.0027076702 0.46900001 4283520584
0.0032324817 0.0027249902 0.47200003 4279572754
0.0048059244 0.0027480833 0.47600001 4280036125
0.0063920072 0.0027654031 0.47900003 4288000156
0.0079809846 0.0027769499 0.48100004 4288919460
0.0095829545 0.0027884962 0.48300001 4281804308
0.011174828 0.0027942697 0.48400003 4284033817
0.012773197 0.0028000427 0.48500001 4284624669
0.015989425 0.0028115895 0.48700002 4289682512
-0.017805455 0.0041593201 0.46100003 4281744150
-0.016201999 0.0041322531 0.45800003 4281282320
-0.014618032 0.0041051856 0.45500001 4280820747
-0.013082432 0.0040871408 0.45300001 4284299556
-0.011585455 0.0040781186 0.45200002 4285149730
-0.010094976 0.0040690964 0.45100003 4286330408
-0.0086492617 0.0040781186 0.45200002 4285542178
-0.0071970522 0.0040871408 0.45300001 4285545260
-0.0057383478 0.0040961634 0.45400003 4284558876
-0.0042825383 0.0041142083 0.45600003 4284689951
-0.0028198797 0.0041412753 0.45900002 4285346082
-0.0013377335 0.0041683423 0.46200001 4285218091
0.00016390078 0.0041954098 0.46500003 4287069551
0.0016886235 0.004231499 0.46900001 4282602052
0.0032393301 0.0042675887 0.47300002 4282865224
0.0048160208 0.0043036784 0.47700003 4280167707
0.0064053512 0.0043307454 0.48000002 4287868055
0.0080141686 0.0043578125 0.48300001 4287863946
0.0096027954 0.0043668351 0.48400003 4282787864
0.011197916 0.0043758573 0.48500001 4283768847
0.012799534 0.00438488 0.48600003 4285083937
0.014437232 0.0044029248 0.48800004 4285803037
0.016022258 0.0044029248 0.48800004 4286526247
0.01764336 0.004411947 0.48900002 4284626988
-0.016131248 0.0055957991 0.45600003 4280492811
-0.014585904 0.0055712559 0.45400003 4280425222
-0.013082432 0.0055589844 0.45300001 4284954658
-0.011585455 0.0055467128 0.45200002 4285542430
-0.010094976 0.0055344417 0.45100003 4286791209
-0.0086492617 0.0055467128 0.45200002 4285673246
-0.0071970522 0.0055589844 0.45300001 4285479465
-0.0057383478 0.0055712559 0.45400003 4284427290
-0.0042825383 0.0055957991 0.45600003 4284623388
-0.0028198797 0.0056326133 0.45900002 4284951837
-0.0013377335 0.0056694276 0.46200001 4283577632
0.00016390078 0.0057062423 0.46500003 4284374602
0.0016886235 0.0057553281 0.46900001 4281549876
0.0032393301 0.0058044139 0.47300002 4282470978
0.0048362138 0.0058780434 0.47900003 4280825891
0.0064320406 0.0059148576 0.48200002 4288459422
0.008030762 0.0059394008 0.48400003 4282925873
0.0096424762 0.0059639434 0.48600003 4283706399
0.011244093 0.005976215 0.48700002 4284886044
0.012852207 0.0059884866 0.48800004 4285476898
0.014437232 0.0059884866 0.48800004 4285937449
0.016022258 0.0059884866 0.48800004 4285411879
-0.017689586 0.0071084308 0.45800003 4281018894
-0.016095873 0.0070618689 0.45500001 4280689681
-0.014585904 0.0070463484 0.45400003 4281541906
-0.013053553 0.007015307 0.45200002 4285478433
-0.011585455 0.007015307 0.45200002 4286659114
-0.010094976 0.0069997869 0.45100003 4287448114
-0.0086492617 0.007015307 0.45200002 4285410074
-0.0071970522 0.0070308275 0.45300001 4285810226
-0.0057383478 0.0070463484 0.45400003 4284099610
-0.0042825383 0.0070773899 0.45600003 4284953125
-0.0028198797 0.0071239513 0.45900002 4285216295
-0.0013377335 0.0071705128 0.46200001 4283051036
0.00016425326 0.0072325952 0.46600002 4281738265
0.0016886235 0.0072791572 0.46900001 4290628515
0.0032393301 0.0073412396 0.47300002 4283390508
0.0048463102 0.0074498835 0.48000002 4282204705
0.0064453846 0.0074964454 0.48300001 4288062860
0.0080639469 0.0075430074 0.48600003 4282919709
0.0096623162 0.0075585279 0.48700002 4284164638
0.011267182 0.0075740488 0.48800004 4285082140
0.012878543 0.0075895688 0.48900002 4285739811
0.014466817 0.0075895688 0.48900002 4284559650
0.016022258 0.0075740488 0.48800004 4287991421
-0.022442544 0.0087091373 0.46400002 4281349142
-0.017612338 0.0085589802 0.45600003 4280953616
-0.016060498 0.0085214414 0.45400003 4281017359
-0.014553776 0.0085026706 0.45300001 4283774757
-0.013053553 0.0084839016 0.45200002 4285345053
-0.011559824 0.0084651317 0.45100003 4286986798
-0.010094976 0.0084651317 0.45100003 4287249200
-0.0086492617 0.0084839016 0.45200002 4285539352
-0.0071970522 0.0085026706 0.45300001 4286072117
-0.0057383478 0.0085214414 0.45400003 4284296991
-0.0042825383 0.0085589802 0.45600003 4284690466
-0.0028198797 0.0086152889 0.45900002 4285743152
-0.0013377335 0.0086715985 0.46200001 4283119143
0.00016390078 0.0087279081 0.46500003 4282463525
0.0016886235 0.0088029858 0.46900001 4285229907
0.0032393301 0.0088780653 0.47300002 4282401562
0.0048765996 0.0090657622 0.48300001 4285624388
0.0064854184 0.0091220709 0.48600003 4281741847
0.0080971317 0.0091596106 0.48800004 4283640091
0.009701997 0.0091783805 0.48900002 4284624158
0.011313358 0.0091971494 0.49000001 4285279006
0.012904879 0.0091971494 0.49000001 4286068522
0.014466817 0.0091783805 0.48900002 4289045651
-0.017573714 0.010018552 0.45500001 4280757007
-0.01602512 0.0099745141 0.45300001 4281868558
-0.014521649 0.0099524958 0.45200002 4285087021
-0.013053553 0.0099524958 0.45200002 4286660141
-0.011559824 0.0099304765 0.45100003 4288434755
-0.010117359 0.0099524958 0.45200002 4288103734
-0.0086492617 0.0099524958 0.45200002 4287511595
-0.0071970522 0.0099745141 0.45300001 4287380009
-0.0057509872 0.010018552 0.45500001 4285736729
-0.0042919298 0.010062589 0.45700002 4286265901
-0.0028198797 0.010106627 0.45900002 4286793532
-0.0013377335 0.010172683 0.46200001 4282066967
0.00016390078 0.01023874 0.46500003 4281016847
0.001685023 0.010304797 0.46800002 4283846460
0.0032256332 0.010370852 0.47100002 4281872660
0.0049068891 0.010701135 0.48600003 4280952583
0.0065121073 0.010745172 0.48800004 4282136094
0.0081303166 0.010789209 0.49000001 4284294941
0.0097416788 0.010811228 0.49100003 4285411105
0.011336448 0.010811228 0.49100003 4285474845
0.012931216 0.010811228 0.49100003 4285476387
-0.01602512 0.011446357 0.45300001 4282986008
-0.014521649 0.011421089 0.45200002 4285349675
-0.013053553 0.011421089 0.45200002 4286987309
-0.011559824 0.011395821 0.45100003 4286919717
-0.010117359 0.011421089 0.45200002 4287115554
-0.0086492617 0.011421089 0.45200002 4287576103
-0.0071970522 0.011446357 0.45300001 4289091402
-0.0057509872 0.011496893 0.45500001 4287577395
-0.0042919298 0.011547429 0.45700002 4288169784
-0.0028198797 0.011597965 0.45900002 4286395947
-0.0013377335 0.011673768 0.46200001 4281803797
0.00016390078 0.011749572 0.46500003 4281345812
0.0016814225 0.011800108 0.46700001 4282927924
0.0032256332 0.011901179 0.47100002 4285098575
0.0049371785 0.012356001 0.48900002 4282991401
0.0065387962 0.012381269 0.49000001 4282000144
0.0081469091 0.012406537 0.49100003 4285346595
0.0097615188 0.012431805 0.49200001 4285804580
0.011359536 0.012431805 0.49200001 4286459684
0.012957552 0.012431805 0.49200001 4285608484
-0.015989747 0.012889684 0.45200002 4283644969
-0.014521649 0.012889684 0.45200002 4285020712
-0.013053553 0.012889684 0.45200002 4286263586
-0.011585455 0.012889684 0.45200002 4286985510
-0.010117359 0.012889684 0.45200002 4286984479
-0.0086683976 0.0129182 0.45300001 4287510823
-0.0072129401 0.012946718 0.45400003 4289026127
-0.0057509872 0.012975235 0.45500001 4289226336
-0.0042919298 0.013032269 0.45700002 4287906355
-0.0028260231 0.013117819 0.46000001 4286395942
-0.001340629 0.013203371 0.46300003 4282528031
0.00016390078 0.013260406 0.46500003 4280623888
0.0016814225 0.013317439 0.46700001 4284770903
0.0033626028 0.014001847 0.49100003 4281810218
0.0049472749 0.013973329 0.49000001 4288584841
0.0065521407 0.014001847 0.49100003 4282326543
0.0081635015 0.014030363 0.49200001 4285804832
0.0097615188 0.014030363 0.49200001 4286526499
0.011359536 0.014030363 0.49200001 4286591268
-0.022103971 0.014517109 0.45700002 4287343510
-0.020484276 0.014421811 0.45400003 4287736984
-0.018967811 0.014390044 0.45300001 4286946437
-0.017457843 0.014358278 0.45200002 4284642917
-0.015989747 0.014358278 0.45200002 4283119143
-0.014521649 0.014358278 0.45200002 4284495654
-0.013053553 0.014358278 0.45200002 4285606685
-0.011585455 0.014358278 0.45200002 4286065694
-0.010117359 0.014358278 0.45200002 4286524700
-0.0086683976 0.014390044 0.45300001 4286656286
-0.0072129401 0.014421811 0.45400003 4286984231
-0.0057636271 0.014485343 0.45600003 4289221711
-0.0043013212 0.014548875 0.45800003 4287510825
-0.0028321669 0.014644174 0.46100003 4287644978
-0.001340629 0.014707706 0.46300003 4281210378
0.00016425326 0.014803004 0.46600002 4280819991
0.001685023 0.014866536 0.46800002 4282531631
0.0033557541 0.01556539 0.49000001 4284763968
0.0049371785 0.015533624 0.48900002 4287522139
0.0065387962 0.01556539 0.49000001 4284754462
0.0081469091 0.015597157 0.49100003 4286592803
0.0097615188 0.015628923 0.49200001 4286920483
0.011359536 0.015628923 0.49200001 4287382067
-0.020439155 0.015861887 0.45300001 4287344023
-0.018925941 0.015826873 0.45200002 4286883472
-0.017457843 0.015826873 0.45200002 4287409818
-0.015989747 0.015826873 0.45200002 4282396965
-0.014521649 0.015826873 0.45200002 4283838755
-0.013053553 0.015826873 0.45200002 4284885531
-0.011585455 0.015826873 0.45200002 4285212697
-0.010139743 0.015861887 0.45300001 4285671703
-0.0086875334 0.015896903 0.45400003 4286130971
-0.0072288276 0.015931917 0.45500001 4286787877
-0.0057762661 0.016001949 0.45700002 4286919206
-0.0043107127 0.016071979 0.45900002 4287247140
-0.0028383103 0.016177025 0.46200001 4287973943
-0.00134642 0.01628207 0.46500003 4281078025
0.00016460572 0.0163521 0.46700001 4282334002
0.0016886235 0.01642213 0.46900001 4283577643
0.0033420573 0.01708742 0.48800004 4286729284
0.004927082 0.01708742 0.48800004 4287581765
0.0065254518 0.017122434 0.48900002 4286989626
0.0081303166 0.01715745 0.49000001 4287117864
0.0097416788 0.017192466 0.49100003 4287775022
0.011336448 0.017192466 0.49100003 4285740072
-0.01888407 0.017257202 0.45100003 4286817679
-0.017419221 0.017257202 0.45100003 4287475098
-0.015989747 0.017295467 0.45200002 4283121201
-0.014521649 0.017295467 0.45200002 4283575329
-0.013082432 0.017333731 0.45300001 4284163609
-0.011611087 0.017333731 0.45300001 4284425495
-0.010162126 0.017371995 0.45400003 4285082140
-0.0087066684 0.01741026 0.45500001 4285542178
-0.0072447155 0.017448524 0.45600003 4286132770
-0.005788906 0.017525053 0.45800003 4285999901
-0.0043201041 0.017601579 0.46000001 4286394139
-0.0028444538 0.017716374 0.46300003 4286856745
-0.0013493155 0.017831167 0.46600002 4280879626
0.00016531067 0.017945958 0.46900001 4281866519
0.0016958244 0.018022489 0.47100002 4286859325
0.0033215119 0.018558187 0.48500001 4287185463
0.0049068891 0.018596454 0.48600003 4290607469
0.0065121073 0.018672982 0.48800004 4286857268
0.0081137242 0.018711247 0.48900002 4287578165
0.0097218379 0.018749509 0.49000001 4287841337
0.011313358 0.018749509 0.49000001 4286207816
-0.01888407 0.018722547 0.45100003 4286948752
-0.017419221 0.018722547 0.45100003 4287343510
-0.015989747 0.01876406 0.45200002 4282792238
-0.014553776 0.018805573 0.45300001 4283904807
-0.013082432 0.018805573 0.45300001 4284230944
-0.011636719 0.018847087 0.45400003 4284164892
-0.01018451 0.0188886 0.45500001 4284690466
-0.0087258043 0.018930115 0.45600003 4284360986
-0.0072606024 0.018971628 0.45700002 4285477670
-0.0058015455 0.019054655 0.45900002 4285872426
-0.0043294956 0.019137681 0.46100003 4286068776
-0.0028505973 0.019262221 0.46400002 4288044624
-0.0013551066 0.019428276 0.46800002 4286015841
0.00016601563 0.019552814 0.47100002 4284233524
0.0017066259 0.019677356 0.47400004 4285933086
0.0033078149 0.020050975 0.48300001 4288367163
0.0048866961 0.020092489 0.48400003 4290474592
0.0064854184 0.020175517 0.48600003 4287581497
0.0080971317 0.020258544 0.48800004 4291009161
0.0096821571 0.020258544 0.48800004 4292717991
0.011290271 0.020300057 0.48900002 4289831574
-0.01888407 0.020187892 0.45100003 4286882961
-0.017419221 0.020187892 0.45100003 4287211926
-0.01602512 0.020277416 0.45300001 4286810488
-0.014553776 0.020277416 0.45300001 4283776305
-0.013111312 0.020322179 0.45400003 4284298021
-0.01166235 0.020366941 0.45500001 4284363044
-0.010206894 0.020411704 0.45600003 4284691749
-0.0087449402 0.020456467 0.45700002 4284888615
-0.0072764903 0.02050123 0.45800003 4285085742
-0.0058141849 0.020590754 0.46000001 4285084970
-0.0043388871 0.020680279 0.46200001 4284689183
-0.002856741 0.020814568 0.46500003 4285348914
-0.0013580021 0.020993616 0.46900001 4288588952
0.0001663681 0.021127906 0.47200003 4283323205
0.0017102263 0.021262191 0.47500002 4287844165
0.003294118 0.021530768 0.48100004 4288105277
0.0048765996 0.021620292 0.48300001 4288234550
0.006472074 0.021709817 0.48500001 4287380011
0.0080639469 0.02175458 0.48600003 4291398007
0.0096623162 0.021799341 0.48700002 4286988079
0.011267182 0.021844106 0.48800004 4286007357
-0.017457843 0.02170125 0.45200002 4287146392
-0.016060498 0.021797273 0.45400003 4287736982
-0.014618032 0.021845285 0.45500001 4284045385
-0.013140191 0.021845285 0.45500001 4284430120
-0.011687982 0.021893296 0.45600003 4285219636
-0.010229276 0.021941308 0.45700002 4283442973
-0.0087640751 0.021989319 0.45800003 4289570201
-0.0072923778 0.022037331 0.45900002 4289441954
-0.0058268243 0.022133354 0.46100003 4283250477
-0.004348279 0.022229377 0.46300003 4284559398
-0.0028628844 0.022373412 0.46600002 4284756007
-0.0013580021 0.022517446 0.46900001 4289115809
0.0001663681 0.022661483 0.47200003 4288197787
0.0017102263 0.022805518 0.47500002 4284890160
0.0032872695 0.023045575 0.48000002 4287184690
0.0048665032 0.023141598 0.48200002 4288431412
0.0064587295 0.023237621 0.48400003 4288364849
0.0080473544 0.023285633 0.48500001 4288430644
0.0096424762 0.023333644 0.48600003 4289680711
0.011244093 0.023381656 0.48700002 4287909183
-0.016095873 0.023323625 0.45500001 4287409305
-0.01465016 0.023374887 0.45600003 4287209357
-0.01319795 0.023426147 0.45700002 4284629044
-0.011713613 0.023426147 0.45700002 4284365097
-0.010251661 0.023477409 0.45800003 4282721821
-0.008783211 0.023528669 0.45900002 4289506977
-0.0073082652 0.023579929 0.46000001 4288000156
-0.0058394638 0.023682451 0.46200001 4283983188
-0.0043576704 0.023784973 0.46400002 4283968806
-0.0028628844 0.023887493 0.46600002 4285348914
-0.0013580021 0.024041275 0.46900001 4289963925
0.0001663681 0.024195058 0.47200003 4289112468
0.0017102263 0.02434884 0.47500002 4286659116
0.003280421 0.024553884 0.47900003 4287577393
0.0048564067 0.024656406 0.48100004 4287378726
0.0064453846 0.024758926 0.48300001 4288430126
0.008030762 0.024810188 0.48400003 4288759091
0.0096424762 0.024912708 0.48600003 4287510564
0.011221006 0.024912708 0.48600003 4288172607
-0.016166624 0.024910986 0.45700002 4287343771
-0.014714414 0.024965497 0.45800003 4288329637
-0.01322683 0.024965497 0.45800003 4283974454
-0.011764877 0.025020007 0.45900002 4284496944
-0.010274044 0.025020007 0.45900002 4284430122
-0.008802346 0.025074515 0.46000001 4290227615
-0.0073241526 0.025129026 0.46100003 4287738268
-0.0058394638 0.025183534 0.46200001 4288592807
-0.0043576704 0.025292555 0.46400002 4285487439
-0.0028628844 0.025401575 0.46600002 4284691757
-0.0013580021 0.025565105 0.46900001 4286464313
0.0001663681 0.025728634 0.47200003 4287252030
0.0017102263 0.025892163 0.47500002 4288039484
0.0032735725 0.026055692 0.47800002 4290998881
0.0048564067 0.026219223 0.48100004 4288364849
0.0064320406 0.026273731 0.48200002 4287970091
0.008030762 0.026382752 0.48400003 4286984481
0.0096226353 0.02643726 0.48500001 4287116067
0.011221006 0.026491772 0.48600003 4285609256
-0.016201999 0.026453586 0.45800003 4287475611
-0.014746542 0.026511343 0.45900002 4287607197
-0.01325571 0.026511343 0.45900002 4285886052
-0.011790507 0.026569102 0.46000001 4284036657
-0.010296428 0.026569102 0.46000001 4285349173
-0.0088214818 0.026626863 0.46100003 4288247147
-0.0073400401 0.026684619 0.46200001 4288000406
-0.0058521037 0.02674238 0.46300003 4287869082
-0.0043576704 0.026800139 0.46400002 4287471248
-0.0028628844 0.026915656 0.46600002 4282591779
-0.0013580021 0.027088933 0.46900001 4286131752
0.0001663681 0.027262211 0.47200003 4287380016
0.0017066259 0.027377728 0.47400004 4288497207
0.0032735725 0.027608763 0.47800002 4288299058
0.0048463102 0.027724281 0.48000002 4287970863
0.0064320406 0.027839798 0.48200002 4286590498
0.0080141686 0.027897557 0.48300001 4286265131
0.0096027954 0.027955318 0.48400003 4286265901
0.011197916 0.028013075 0.48500001 4286346596
-0.016237374 0.028002681 0.45900002 4287672990
-0.014778669 0.028063688 0.46000001 4287409818
-0.013284588 0.028063688 0.46000001 4289180837
-0.011816139 0.028124698 0.46100003 4283776053
-0.010318811 0.028124698 0.46100003 4284493351
-0.0088406177 0.028185705 0.46200001 4284624421
-0.0073400401 0.028185705 0.46200001 4289702039
-0.0058521037 0.028246714 0.46300003 4289639839
-0.0043670619 0.02836873 0.46500003 4289502863
-0.0028628844 0.028429737 0.46600002 4285546041
-0.0013551066 0.028551754 0.46800002 4290277484
0.00016601563 0.028734777 0.47100002 4288367427
0.0017066259 0.028917802 0.47400004 4287839025
0.0032667241 0.029100826 0.47700003 4286786852
0.0048362138 0.029222842 0.47900003 4285150250
0.0064186961 0.029344859 0.48100004 4284428837
0.0079975771 0.029405866 0.48200002 4284103733
0.0096027954 0.029527882 0.48400003 4287663485
-0.014810797 0.029622534 0.46100003 4287738016
-0.013313469 0.029622534 0.46100003 4288787876
-0.01184177 0.029686792 0.46200001 4282923822
-0.010341194 0.029686792 0.46200001 4284757804
-0.0088406177 0.029686792 0.46200001 4285677361
-0.007355928 0.029751049 0.46300003 4285017121
-0.0058647431 0.029815305 0.46400002 4284885794
-0.0043670619 0.029879564 0.46500003 4286199342
-0.0028628844 0.02994382 0.46600002 4287183923
-0.0013551066 0.030072335 0.46800002 4290933356
0.00016566315 0.03020085 0.47000003 4288827978
0.0017030254 0.030393621 0.47300002 4288171331
0.0032598756 0.030586392 0.47600001 4291073416
0.0048261173 0.030714905 0.47800002 4288524186
0.0064186961 0.030907677 0.48100004 4287998358
0.0079975771 0.030971935 0.48200002 4287605398
-0.014842924 0.031187877 0.46200001 4287738016
-0.013342348 0.031187877 0.46200001 4288394916
-0.01184177 0.031187877 0.46200001 4282729273
-0.010363579 0.031255383 0.46300003 4284626734
-0.0088597536 0.031255383 0.46300003 4285744183
-0.007355928 0.031255383 0.46300003 4285082144
-0.0058647431 0.031322889 0.46400002 4285147424
-0.0043670619 0.031390395 0.46500003 4285935396
-0.0028628844 0.031457901 0.46600002 4286658092
-0.001352211 0.031525407 0.46700001 4287116844
0.00016531067 0.031660419 0.46900001 4287511602
0.0016994249 0.031862941 0.47200003 4285739309
0.0032598756 0.032132965 0.47600001 4289963414
0.0048160208 0.032200471 0.47700003 4287408531
-0.014842924 0.03268896 0.46200001 4287804324
-0.013371228 0.032759719 0.46300003 4287804322
-0.011867403 0.032759719 0.46300003 4283522641
-0.010363579 0.032759719 0.46300003 4284824628
-0.0088597536 0.032759719 0.46300003 4284692527
-0.0073718154 0.032830473 0.46400002 4284953125
-0.0058647431 0.032830473 0.46400002 4284557083
-0.0043670619 0.032901227 0.46500003 4285937451
-0.0028628844 0.032971982 0.46600002 4285740070
-0.001352211 0.033042736 0.46700001 4286725936
0.0001649582 0.033113495 0.46800002 4286856752
0.0016958244 0.033325758 0.47100002 4284693040
-0.014842924 0.034190048 0.46200001 4287935908
-0.013371228 0.03426405 0.46300003 4287804322
-0.011867403 0.03426405 0.46300003 4286814601
-0.010385961 0.034338053 0.46400002 4284759866
-0.0088788886 0.034338053 0.46400002 4284430642
-0.0073718154 0.034338053 0.46400002 4284758320
-0.0058647431 0.034338053 0.46400002 4285415734
-0.0043670619 0.03441206 0.46500003 4285152046
-0.0028628844 0.034486063 0.46600002 4285481011
-0.0013493155 0.034486063 0.46600002 4285875510
0.0001649582 0.034634072 0.46800002 4285613113
-0.013371228 0.035768386 0.46300003 4288199080
-0.011893034 0.035845637 0.46400002 4288528045
-0.010385961 0.035845637 0.46400002 4284440920
-0.0088788886 0.035845637 0.46400002 4283909184
-0.0073718154 0.035845637 0.46400002 4283841844
-0.0058773826 0.035922892 0.46500003 4284236343
-0.0043670619 0.035922892 0.46500003 4284103985
-0.002856741 0.035922892 0.46500003 4284368440
-0.0013493155 0.036000147 0.46600002 4286414708
-0.011893034 0.037353221 0.46400002 4287673506
-0.010385961 0.037353221 0.46400002 4287805094
-0.0088788886 0.037353221 0.46400002 4288264614
-0.0073718154 0.037353221 0.46400002 4287934879
-0.0058773826 0.037433725 0.46500003 4288658088
-0.0007802844 0.0089465603 0.46932423 4294967295
-0.0007802844 0.0089465603 0.46932423 4294901760
-0.0007802844 0.0084496886 0.46926838 4294901760
-0.0007802844 0.0079528168 0.46921253 4294901760
-0.0007802844 0.007455945 0.46915671 4294901760
-0.0007802844 0.0069590732 0.46910086 4294901760
-0.0007802844 0.0064622015 0.46904501 4294901760
-0.0007802844 0.0059653297 0.46898916 4294901760
-0.0007802844 0.0054684579 0.46893334 4294901760
-0.0007802844 0.0049715862 0.46887749 4294901760
-0.0007802844 0.0044747144 0.46882164 4294901760
-0.0007802844 0.0039778426 0.4687658 4294901760
-0.0007802844 0.0034809709 0.46870995 4294901760
-0.0007802844 0.0029840991 0.46865413 4294901760
-0.0007802844 0.0024872278 0.46859828 4294901760
-0.0007802844 0.0019903556 0.46854243 4294901760
-0.0007802844 0.0014934833 0.46848658 4294901760
-0.0007802844 0.00099661201 0.46843076 4294901760
-0.0007802844 0.00049974024 0.46837491 4294901760
-0.0007802844 2.8684735e-06 0.46831906 4294901760
-0.0007802844 -0.0004940033 0.46826321 4294901760
-0.0007802844 -0.00099087507 0.46820736 4294901760
-0.0007802844 -0.0014877468 0.46815154 4294901760
-0.0007802844 -0.0019846186 0.46809569 4294901760
-0.0007802844 -0.0024814904 0.46803984 4294901760
-0.0007802844 -0.0029783621 0.46798399 4294901760
-0.0007802844 -0.0034752339 0.46792817 4294901760
-0.0007802844 -0.0039721048 0.46787232 4294901760
-0.0007802844 -0.0044689784 0.46781647 4294901760
-0.0007802844 -0.0049658492 0.46776062 4294901760
-0.0007802844 -0.005462721 0.46770477 4294901760
-0.0007802844 -0.0059595937 0.46764895 4294901760
-0.0007802844 -0.0064564645 0.4675931 4294901760
-0.0007802844 -0.0069533363 0.46753725 4294901760
-0.0007802844 -0.0074502081 0.4674814 4294901760
-0.0007802844 -0.0079470798 0.46742555 4294901760
-0.0007802844 -0.0084439516 0.46736974 4294901760
-0.0007802844 -0.0089408234 0.46731389 4294901760
-0.0007802844 -0.0094376951 0.46725804 4294901760
-0.0007802844 -0.0099345669 0.46720219 4294901760
-0.0007802844 -0.010431439 0.46714637 4294901760
-0.0007802844 -0.01092831 0.46709052 4294901760
-0.0007802844 -0.011425182 0.46703467 4294901760
-0.0007802844 -0.011922054 0.46697882 4294901760
-0.0007802844 -0.012418926 0.46692297 4294901760
-0.0007802844 -0.012915798 0.46686715 4294901760
-0.0007802844 -0.013412669 0.4668113 4294901760
-0.0007802844 -0.013909541 0.46675545 4294901760
-0.0007802844 -0.014406413 0.4666996 4294901760
-0.0007802844 -0.014903285 0.46664378 4294901760
-0.0007802844 -0.015400156 0.46658793 4294901760
-0.0007802844 -0.015897028 0.46653208 4294901760
-0.0007802844 -0.0163939 0.46647623 4294901760
-0.0007802844 -0.01689077 0.46642038 4294901760
-0.0007802844 -0.017387642 0.46636456 4294901760
-0.0007802844 -0.017884517 0.46630871 4294901760
-0.0007802844 -0.018381387 0.46625286 4294901760
-0.0007802844 -0.018878259 0.46619701 4294901760
-0.0007802844 -0.019375131 0.46614119 4294901760
-0.0007802844 -0.019872002 0.46608534 4294901760
-0.0007802844 -0.020368872 0.4660295 4294901760
-0.0007802844 -0.020865748 0.46597365 4294901760
-0.0007802844 -0.021362618 0.4659178 4294901760
-0.0007802844 -0.021859489 0.46586198 4294901760
-0.0007802844 -0.022356361 0.46580613 4294901760
-0.0007802844 -0.022853233 0.46575028 4294901760
-0.0007802844 -0.023350105 0.46569443 4294901760
-0.0007802844 -0.023846976 0.46563861 4294901760
-0.0007802844 -0.024343848 0.46558276 4294901760
-0.0007802844 -0.02484072 0.46552691 4294901760
-0.0007802844 -0.025337592 0.46547106 4294901760
-0.0007802844 -0.025834464 0.46541521 4294901760
-0.0007802844 -0.026331335 0.46535939 4294901760
-0.0007802844 -0.026828207 0.46530354 4294901760
-0.0007802844 -0.027325079 0.46524769 4294901760
-0.0007802844 -0.027821951 0.46519184 4294901760
-0.0007802844 -0.028318822 0.46513599 4294901760
-0.0007802844 -0.028815694 0.46508017 4294901760
-0.0007802844 -0.029312566 0.46502432 4294901760
-0.0007802844 -0.029809438 0.46496847 4294901760
-0.0007802844 -0.030306309 0.46491262 4294901760
-0.0007802844 -0.030803181 0.4648568 4294901760
-0.0007802844 -0.031300053 0.46480095 4294901760
-0.0007802844 -0.031796925 0.4647451 4294901760
-0.0007802844 -0.032293797 0.46468925 4294901760
-0.0007802844 -0.032790668 0.46463341 4294901760
-0.0007802844 -0.03328754 0.46457759 4294901760
-0.0007802844 -0.033784412 0.46452174 4294901760
-0.0007802844 -0.034281284 0.46446589 4294901760
-0.0007802844 -0.034778155 0.46441004 4294901760
-0.0007802844 -0.035275027 0.46435422 4294901760
-0.0007802844 -0.035771899 0.46429837 4294901760
-0.0007802844 -0.036268771 0.46424252 4294901760
-0.0007802844 -0.036765642 0.46418667 4294901760
-0.0007802844 -0.037262514 0.46413082 4294901760
-0.0007802844 -0.037759386 0.464075 4294901760
-0.0007802844 -0.038256258 0.46401915 4294901760
-0.0007802844 -0.03875313 0.4639633 4294901760
-0.0007802844 -0.039250001 0.46390745 4294901760
-0.0007802844 -0.039746873 0.46385163 4294901760
-0.0007802844 -0.040243745 0.46379578 4294901760
-0.0007802844 -0.040740617 0.46373993 4294901760
-0.0007802844 0.0089465603 0.46932423 4278255360
-0.0004767169 0.0089021875 0.46971905 4278255360
-0.0001731494 0.0088578146 0.47011387 4278255360
0.00013041805 0.0088134417 0.47050866 4278255360
0.00043398561 0.0087690698 0.47090349 4278255360
0.00073755311 0.0087246969 0.47129831 4278255360
0.0010411205 0.0086803241 0.47169313 4278255360
0.001344688 0.0086359512 0.47208792 4278255360
0.0016482556 0.0085915783 0.47248274 4278255360
0.0019518232 0.0085472055 0.47287756 4278255360
0.0022553906 0.0085028335 0.47327238 4278255360
0.002558958 0.0084584607 0.47366717 4278255360
0.0028625254 0.0084140878 0.474062 4278255360
0.003166093 0.008369715 0.47445682 4278255360
0.0034696604 0.0083253421 0.47485164 4278255360
0.0037732283 0.0082809692 0.47524643 4278255360
0.0040767957 0.0082365973 0.47564125 4278255360
0.004380363 0.0081922244 0.47603607 4278255360
0.0046839309 0.0081478516 0.47643089 4278255360
0.0049874978 0.0081034787 0.47682568 4278255360
0.0052910657 0.0080591058 0.47722051 4278255360
0.0055946331 0.008014733 0.47761533 4278255360
0.0058982004 0.007970361 0.47801015 4278255360
0.0062017683 0.0079259882 0.47840494 4278255360
0.0065053352 0.0078816153 0.47879976 4278255360
0.0068089031 0.0078372424 0.47919458 4278255360
0.0071124705 0.0077928696 0.4795894 4278255360
0.0074160388 0.0077484967 0.47998422 4278255360
0.0077196052 0.0077041243 0.48037902 4278255360
0.0080231726 0.0076597515 0.48077384 4278255360
0.0083267409 0.0076153791 0.48116866 4278255360
0.0086303083 0.0075710062 0.48156348 4278255360
0.0089338757 0.0075266333 0.48195827 4278255360
0.0092374431 0.0074822605 0.48235309 4278255360
0.0095410105 0.0074378881 0.48274791 4278255360
0.0098445779 0.0073935152 0.48314273 4278255360
0.010148146 0.0073491428 0.48353752 4278255360
0.010451714 0.0073047699 0.48393235 4278255360
0.01075528 0.0072603971 0.48432717 4278255360
0.011058847 0.0072160242 0.48472199 4278255360
0.011362416 0.0071716518 0.48511678 4278255360
0.011665983 0.007127279 0.4855116 4278255360
0.011969551 0.0070829066 0.48590642 4278255360
0.012273118 0.0070385337 0.48630124 4278255360
0.012576685 0.0069941608 0.48669603 4278255360
0.012880253 0.006949788 0.48709086 4278255360
0.013183821 0.0069054151 0.48748568 4278255360
0.013487388 0.0068610427 0.4878805 4278255360
0.013790955 0.0068166703 0.48827529 4278255360
0.014094523 0.0067722974 0.48867011 4278255360
0.014398091 0.0067279246 0.48906493 4278255360
0.014701658 0.0066835517 0.48945975 4278255360
0.015005225 0.0066391793 0.48985457 4278255360
0.015308792 0.0065948064 0.49024937 4278255360
0.015612362 0.0065504336 0.49064419 4278255360
0.015915928 0.0065060612 0.49103901 4278255360
0.016219495 0.0064616883 0.49143383 4278255360
0.016523063 0.0064173155 0.49182862 4278255360
0.01682663 0.0063729426 0.49222344 4278255360
0.017130198 0.0063285702 0.49261826 4278255360
0.017433766 0.0062841973 0.49301308 4278255360
0.017737333 0.0062398249 0.49340788 4278255360
0.018040901 0.0061954521 0.4938027 4278255360
0.018344468 0.0061510792 0.49419752 4278255360
0.018648036 0.0061067063 0.49459234 4278255360
0.018951602 0.0060623339 0.49498713 4278255360
0.019255171 0.0060179611 0.49538195 4278255360
0.019558739 0.0059735887 0.49577677 4278255360
0.019862305 0.0059292158 0.49617159 4278255360
0.020165874 0.0058848429 0.49656639 4278255360
0.02046944 0.0058404701 0.49696121 4278255360
0.020773007 0.0057960977 0.49735603 4278255360
0.021076577 0.0057517248 0.49775085 4278255360
0.021380143 0.005707352 0.49814564 4278255360
0.021683712 0.0056629796 0.49854046 4278255360
0.021987278 0.0056186067 0.49893528 4278255360
0.022290844 0.0055742338 0.4993301 4278255360
0.022594413 0.0055298614 0.49972492 4278255360
0.022897979 0.0054854886 0.50011975 4278255360
0.023201549 0.0054411157 0.50051457 4278255360
0.023505116 0.0053967433 0.50090933 4278255360
0.023808682 0.0053523704 0.50130415 4278255360
0.024112251 0.0053079976 0.50169897 4278255360
0.024415817 0.0052636247 0.50209379 4278255360
0.024719385 0.0052192523 0.50248861 4278255360
0.025022954 0.0051748795 0.50288343 4278255360
0.02532652 0.0051305071 0.50327826 4278255360
0.025630089 0.0050861342 0.50367308 4278255360
0.025933655 0.0050417613 0.50406784 4278255360
0.026237223 0.0049973889 0.50446266 4278255360
0.02654079 0.0049530161 0.50485748 4278255360
0.026844358 0.0049086432 0.5052523 4278255360
0.027147926 0.0048642703 0.50564712 4278255360
0.027451493 0.0048198979 0.50604194 4278255360
0.027755061 0.0047755251 0.50643677 4278255360
0.028058628 0.0047311527 0.50683159 4278255360
0.028362194 0.0046867798 0.50722635 4278255360
0.028665764 0.0046424069 0.50762117 4278255360
0.028969331 0.0045980341 0.50801599 4278255360
0.029272899 0.0045536617 0.50841081 4278255360
0.029576465 0.0045092888 0.50880563 4278255360
-0.0007802844 0.0089465603 0.46932423 4278190335
-0.0011775838 0.0089126565 0.46962589 4278190335
-0.0015748831 0.0088787517 0.46992758 4278190335
-0.0019721827 0.0088448478 0.47022924 4278190335
-0.0023694818 0.0088109439 0.4705309 4278190335
-0.0027667813 0.0087770391 0.47083259 4278190335
-0.0031640807 0.0087431353 0.47113425 4278190335
-0.0035613801 0.0087092314 0.4714359 4278190335
-0.0039586793 0.0086753266 0.47173756 4278190335
-0.0043559792 0.0086414227 0.47203925 4278190335
-0.0047532781 0.0086075189 0.47234091 4278190335
-0.0051505775 0.0085736141 0.47264257 4278190335
-0.0055478769 0.0085397102 0.47294426 4278190335
-0.0059451764 0.0085058063 0.47324592 4278190335
-0.0063424758 0.0084719015 0.47354758 4278190335
-0.0067397752 0.0084379977 0.47384927 4278190335
-0.0071370741 0.0084040929 0.47415093 4278190335
-0.007534374 0.008370189 0.47445258 4278190335
-0.0079316739 0.0083362851 0.47475427 4278190335
-0.0083289724 0.0083023803 0.47505593 4278190335
-0.0087262718 0.0082684765 0.47535759 4278190335
-0.0091235712 0.0082345726 0.47565925 4278190335
-0.0095208706 0.0082006678 0.47596094 4278190335
-0.00991817 0.0081667639 0.4762626 4278190335
-0.010315469 0.0081328601 0.47656426 4278190335
-0.010712769 0.0080989553 0.47686595 4278190335
-0.011110068 0.0080650514 0.47716761 4278190335
-0.011507368 0.0080311475 0.47746927 4278190335
-0.011904667 0.0079972427 0.47777095 4278190335
-0.012301966 0.0079633389 0.47807261 4278190335
-0.012699266 0.007929435 0.47837427 4278190335
-0.013096565 0.0078955302 0.47867596 4278190335
-0.013493864 0.0078616263 0.47897762 4278190335
-0.013891164 0.0078277225 0.47927928 4278190335
-0.014288464 0.0077938177 0.47958097 4278190335
-0.014685762 0.0077599138 0.47988263 4278190335
-0.015083062 0.0077260095 0.48018429 4278190335
-0.015480362 0.0076921051 0.48048595 4278190335
-0.01587766 0.0076582013 0.48078763 4278190335
-0.016274959 0.0076242969 0.48108929 4278190335
-0.016672259 0.0075903926 0.48139095 4278190335
-0.01706956 0.0075564887 0.48169264 4278190335
-0.017466858 0.0075225844 0.4819943 4278190335
-0.017864158 0.0074886801 0.48229596 4278190335
-0.018261457 0.0074547762 0.48259765 4278190335
-0.018658755 0.0074208719 0.48289931 4278190335
-0.019056056 0.0073869675 0.48320097 4278190335
-0.019453356 0.0073530637 0.48350266 4278190335
-0.019850655 0.0073191593 0.48380432 4278190335
-0.020247955 0.007285255 0.48410597 4278190335
-0.020645253 0.0072513511 0.48440766 4278190335
-0.021042552 0.0072174468 0.48470932 4278190335
-0.021439852 0.0071835425 0.48501098 4278190335
-0.021837151 0.0071496386 0.48531264 4278190335
-0.022234451 0.0071157338 0.48561433 4278190335
-0.022631751 0.0070818299 0.48591599 4278190335
-0.02302905 0.0070479256 0.48621765 4278190335
-0.023426348 0.0070140217 0.48651934 4278190335
-0.023823647 0.0069801174 0.486821 4278190335
-0.024220947 0.0069462135 0.48712265 4278190335
-0.024618248 0.0069123087 0.48742434 4278190335
-0.025015548 0.0068784049 0.487726 4278190335
-0.025412846 0.0068445005 0.48802766 4278190335
-0.025810145 0.0068105962 0.48832935 4278190335
-0.026207443 0.0067766923 0.48863101 4278190335
-0.026604744 0.0067427885 0.48893267 4278190335
-0.027002044 0.0067088837 0.48923433 4278190335
-0.027399344 0.0066749798 0.48953602 4278190335
-0.027796643 0.0066410755 0.48983768 4278190335
-0.028193941 0.0066071711 0.49013934 4278190335
-0.02859124 0.0065732673 0.49044102 4278190335
-0.02898854 0.0065393629 0.49074268 4278190335
-0.029385841 0.0065054586 0.49104434 4278190335
-0.029783139 0.0064715547 0.49134603 4278190335
-0.030180439 0.0064376504 0.49164769 4278190335
-0.030577738 0.0064037461 0.49194935 4278190335
-0.030975036 0.0063698422 0.49225104 4278190335
-0.031372339 0.0063359379 0.4925527 4278190335
-0.031769633 0.0063020336 0.49285436 4278190335
-0.032166936 0.0062681297 0.49315602 4278190335
-0.032564234 0.0062342249 0.4934577 4278190335
-0.032961532 0.006200321 0.49375936 4278190335
-0.033358835 0.0061664172 0.49406102 4278190335
-0.033756133 0.0061325128 0.49436271 4278190335
-0.034153432 0.0060986085 0.49466437 4278190335
-0.034550734 0.0060647042 0.49496603 4278190335
-0.034948032 0.0060307998 0.49526772 4278190335
-0.035345331 0.005996896 0.49556938 4278190335
-0.035742629 0.0059629921 0.49587104 4278190335
-0.036139928 0.0059290873 0.49617273 4278190335
-0.036537226 0.0058951834 0.49647439 4278190335
-0.036934528 0.0058612791 0.49677604 4278190335
-0.037331827 0.0058273748 0.49707773 4278190335
-0.037729125 0.0057934709 0.49737939 4278190335
-0.038126428 0.0057595666 0.49768105 4278190335
-0.038523726 0.0057256622 0.49798271 4278190335
-0.038921025 0.0056917584 0.4982844 4278190335
-0.039318327 0.005657854 0.49858606 4278190335
-0.039715625 0.0056239497 0.49888772 4278190335
-0.040112924 0.0055900458 0.49918941 4278190335
-0.040510222 0.0055561415 0.49949107 4278190335
-0.0007802844 0.0089465603 0.46932423 4294967295
1.4314253e-05 0.009014369 0.46872088 4294967295
0.00080891291 0.0090821767 0.46811756 4294967295
0.0016035116 0.0091499854 0.46751422 4294967295
0.0023981102 0.0092177941 0.4669109 4294967295
0.0031927093 0.0092856018 0.46630755 4294967295
0.0039873077 0.0093534105 0.4657042 4294967295
0.0047819065 0.0094212191 0.46510088 4294967295
0.0055765049 0.0094890269 0.46449754 4294967295
0.0063711042 0.0095568355 0.46389419 4294967295
0.007165703 0.0096246442 0.46329087 4294967295
0.0079603009 0.0096924528 0.46268752 4294967295
0.0087548997 0.0097602606 0.4620842 4294967295
0.0095494986 0.0098280692 0.46148086 4294967295
0.010344097 0.0098958779 0.46087751 4294967295
0.011138696 0.0099636856 0.46027419 4294967295
0.011933294 0.010031494 0.45967084 4294967295
0.012727893 0.010099303 0.45906752 4294967295
0.013522493 0.010167111 0.45846418 4294967295
0.014317091 0.010234919 0.45786083 4294967295
0.01511169 0.010302728 0.45725751 4294967295
0.015906287 0.010370536 0.45665416 4294967295
0.016700886 0.010438344 0.45605084 4294967295
0.017495485 0.010506153 0.45544749 4294967295
0.018290084 0.010573961 0.45484415 4294967295
0.019084683 0.01064177 0.45424083 4294967295
0.019879282 0.010709578 0.45363748 4294967295
0.02067388 0.010777386 0.45303416 4294967295
0.021468479 0.010845195 0.45243081 4294967295
0.022263076 0.010913003 0.45182747 4294967295
0.023057677 0.010980811 0.45122415 4294967295
0.023852276 0.01104862 0.4506208 4294967295
0.024646873 0.011116428 0.45001745 4294967295
0.025441473 0.011184236 0.44941413 4294967295
0.02623607 0.011252045 0.44881079 4294967295
0.027030669 0.011319853 0.44820747 4294967295
0.02782527 0.011387661 0.44760412 4294967295
0.028619867 0.01145547 0.44700077 4294967295
0.029414466 0.011523278 0.44639745 4294967295
0.030209063 0.011591086 0.44579411 4294967295
0.031003665 0.011658895 0.44519079 4294967295
0.031798262 0.011726703 0.44458744 4294967295
0.032592859 0.011794511 0.44398409 4294967295
0.03338746 0.01186232 0.44338077 4294967295
0.034182057 0.011930129 0.44277743 4294967295
0.034976654 0.011997936 0.44217411 4294967295
0.035771254 0.012065745 0.44157076 4294967295
0.036565855 0.012133554 0.44096741 4294967295
0.037360452 0.012201361 0.44036409 4294967295
0.038155053 0.012269171 0.43976074 4294967295
0.03894965 0.012336979 0.43915743 4294967295
0.039744247 0.012404786 0.43855408 4294967295
0.040538847 0.012472595 0.43795073 4294967295
0.041333444 0.012540404 0.43734741 4294967295
0.042128045 0.012608212 0.43674406 4294967295
0.042922646 0.012676021 0.43614072 4294967295
0.043717243 0.012743829 0.4355374 4294967295
0.04451184 0.012811637 0.43493405 4294967295
0.045306437 0.012879446 0.43433073 4294967295
0.046101037 0.012947254 0.43372738 4294967295
0.046895638 0.013015063 0.43312404 4294967295
0.047690235 0.013082871 0.43252072 4294967295
0.048484836 0.013150679 0.43191737 4294967295
0.049279433 0.013218488 0.43131405 4294967295
0.05007403 0.013286296 0.4307107 4294967295
0.050868627 0.013354104 0.43010736 4294967295
0.051663231 0.013421913 0.42950404 4294967295
0.052457828 0.013489721 0.42890069 4294967295
0.053252425 0.013557529 0.42829734 4294967295
0.054047026 0.013625338 0.42769402 4294967295
0.054841623 0.013693146 0.42709067 4294967295
0.05563622 0.013760954 0.42648736 4294967295
0.056430824 0.013828763 0.42588401 4294967295
0.057225421 0.013896571 0.42528066 4294967295
0.058020018 0.013964379 0.42467734 4294967295
0.058814615 0.014032188 0.42407399 4294967295
0.059609216 0.014099997 0.42347068 4294967295
0.060403813 0.014167804 0.42286733 4294967295
0.06119841 0.014235613 0.42226398 4294967295
0.06199301 0.014303422 0.42166066 4294967295
