# .PCD v0.7 - Point Cloud Data file format
VERSION 0.7
FIELDS x y z rgb
SIZE 4 4 4 4
TYPE F F F U
COUNT 1 1 1 1
WIDTH 938
HEIGHT 1
VIEWPOINT 0 0 0 1 0 0 0
POINTS 938
DATA ascii
0.054165028 -0.0071577146 0.354 4285432443
0.050715651 -0.0060075321 0.354 4281219112
0.053015232 -0.0060075321 0.354 4281022505
0.054318037 -0.0060245027 0.35500002 4281220397
0.055471081 -0.0060245027 0.35500002 4281154606
0.060718793 -0.0059735915 0.35200003 4281155385
0.061862092 -0.0059735915 0.35200003 4280826933
0.054318037 -0.0048710718 0.35500002 4281022503
0.055471081 -0.0048710718 0.35500002 4281022505
0.056624118 -0.0048710718 0.35500002 4281614644
0.057614405 -0.0048573501 0.354 4281746743
0.058764197 -0.0048573501 0.354 4281878329
0.059744742 -0.004843629 0.35300002 4282865224
0.060891286 -0.004843629 0.35300002 4283391577
0.062037833 -0.004843629 0.35300002 4280957236
0.063184381 -0.004843629 0.35300002 4281483319
0.064330921 -0.004843629 0.35300002 4282208586
0.0486896 -0.0037281124 0.35600001 4281154604
0.052158471 -0.0037281124 0.35600001 4282009911
0.053314753 -0.0037281124 0.35600001 4282273597
0.054471046 -0.0037281124 0.35600001 4282339392
0.055471081 -0.0037176404 0.35500002 4282405183
0.056624118 -0.0037176404 0.35500002 4282667841
0.057614405 -0.0037071679 0.354 4282734148
0.058764197 -0.0037071679 0.354 4282865734
0.059913989 -0.0037071679 0.354 4282931527
0.060891286 -0.0036966959 0.35300002 4282339392
0.062037833 -0.0036966959 0.35300002 4281878843
0.063184381 -0.0036966959 0.35300002 4283523414
0.064330921 -0.0036966959 0.35300002 4281089073
0.065477468 -0.0036966959 0.35300002 4282473041
0.045347761 -0.0025786555 0.35700002 4282075195
0.052158471 -0.0025714322 0.35600001 4282404158
0.053314753 -0.0025714322 0.35600001 4282536257
0.054471046 -0.0025714322 0.35600001 4281944120
0.055627335 -0.0025714322 0.35600001 4281615669
0.056624118 -0.0025642093 0.35500002 4282076220
0.057777159 -0.0025642093 0.35500002 4282273599
0.058764197 -0.0025569859 0.354 4282470978
0.059913989 -0.0025569859 0.354 4282536771
0.061063781 -0.0025569859 0.354 4282207806
0.062037833 -0.0025497628 0.35300002 4281615155
0.063184381 -0.0025497628 0.35300002 4280299043
0.064330921 -0.0025497628 0.35300002 4280627495
0.065477468 -0.0025497628 0.35300002 4281156151
0.066624016 -0.0025497628 0.35300002 4284315761
0.047533315 -0.001414752 0.35600001 4280827954
0.052304983 -0.0014187261 0.35700002 4281154093
0.053464517 -0.0014187261 0.35700002 4281944120
0.054624055 -0.0014187261 0.35700002 4281484083
0.055627335 -0.001414752 0.35600001 4281484083
0.05678362 -0.001414752 0.35600001 4281616439
0.057939909 -0.001414752 0.35600001 4281616439
0.058930203 -0.001410778 0.35500002 4282076990
0.06008324 -0.001410778 0.35500002 4282274369
0.061063781 -0.001406804 0.354 4281747257
0.062213577 -0.001406804 0.354 4280957739
0.063363373 -0.001406804 0.354 4281483569
0.064330921 -0.0014028299 0.35300002 4280562467
0.065477468 -0.0014028299 0.35300002 4281156403
0.066624016 -0.0014028299 0.35300002 4280696630
0.053464517 -0.00025879653 0.35700002 4281615155
0.054624055 -0.00025879653 0.35700002 4281549876
0.055783596 -0.00025879653 0.35700002 4281615669
0.056943126 -0.00025879653 0.35700002 4281616439
0.057939909 -0.00025807158 0.35600001 4281879611
0.059096199 -0.00025807158 0.35600001 4281682232
0.06008324 -0.00025734669 0.35500002 4281682232
0.061236281 -0.00025734669 0.35500002 4281287474
0.062213577 -0.00025662174 0.354 4280562467
0.063363373 -0.00025662174 0.354 4280694053
0.064513162 -0.00025662174 0.354 4280957225
0.06566295 -0.00025662174 0.354 4280694569
0.066812746 -0.00025662174 0.354 4281156149
0.067962535 -0.00025662174 0.354 4282868315
0.052304983 0.000901133 0.35700002 4281089327
0.053464517 0.000901133 0.35700002 4281352499
0.054624055 0.000901133 0.35700002 4281747773
0.055783596 0.000901133 0.35700002 4281747773
0.056943126 0.000901133 0.35700002 4281813820
0.058102667 0.000901133 0.35700002 4282076990
0.059096199 0.00089860882 0.35600001 4281747255
0.060252484 0.00089860882 0.35600001 4281287474
0.061236281 0.00089608465 0.35500002 4281417776
0.062389322 0.00089608465 0.35500002 4280628260
0.063363373 0.00089356041 0.354 4280759846
0.064513162 0.00089356041 0.354 4281615157
0.06566295 0.00089356041 0.354 4280432167
0.066812746 0.00089356041 0.354 4280958770
0.067962535 0.00089356041 0.354 4280434223
0.068917103 0.0008910363 0.35300002 4282277712
0.045093711 0.002049516 0.35500002 4281813566
0.053464517 0.0020610625 0.35700002 4281221429
0.056943126 0.0020610625 0.35700002 4282010429
0.058102667 0.0020610625 0.35700002 4282010429
0.059262205 0.0020610625 0.35700002 4281484083
0.060252484 0.0020552892 0.35600001 4281023018
0.061408777 0.0020552892 0.35600001 4280562465
0.062389322 0.002049516 0.35500002 4280561952
0.063542366 0.002049516 0.35500002 4280364573
0.064513162 0.0020437425 0.354 4280496672
0.06566295 0.0020437425 0.354 4280431395
0.066812746 0.0020437425 0.354 4280761130
0.067962535 0.0020437425 0.354 4280433963
0.068917103 0.0020379694 0.35300002 4279382559
0.052158471 0.0032119695 0.35600001 4281617472
0.058102667 0.0032209919 0.35700002 4281878843
0.059262205 0.0032209919 0.35700002 4281220397
0.060421735 0.0032209919 0.35700002 4280628260
0.061408777 0.0032119695 0.35600001 4280562467
0.062565066 0.0032119695 0.35600001 4280167709
0.063542366 0.0032029471 0.35500002 4280232989
0.064513162 0.0031939247 0.354 4280298782
0.06566295 0.0031939247 0.354 4282207292
0.066812746 0.0031939247 0.354 4280628774
0.067770556 0.0031849022 0.35300002 4280302377
0.068917103 0.0031849022 0.35300002 4279579938
0.070063643 0.0031849022 0.35300002 4281685573
0.046116479 0.0043441067 0.354 4282207806
0.050858919 0.0043563787 0.35500002 4281945152
0.052158471 0.0043686498 0.35600001 4280958772
0.053464517 0.0043809214 0.35700002 4281420093
0.059428204 0.0043931929 0.35800001 4282075968
0.060421735 0.0043809214 0.35700002 4280562215
0.061581276 0.0043809214 0.35700002 4280759335
0.062565066 0.0043686498 0.35600001 4280364577
0.063542366 0.0043563787 0.35500002 4280429600
0.064513162 0.0043441067 0.354 4280430370
0.06566295 0.0043441067 0.354 4280299295
0.066624016 0.0043318355 0.35300002 4280957225
0.067770556 0.0043318355 0.35300002 4280039203
0.068917103 0.0043318355 0.35300002 4279383070
0.070063643 0.0043318355 0.35300002 4279383840
0.043816894 0.0054942891 0.354 4281682232
0.047266271 0.0054942891 0.354 4282075958
0.048416063 0.0054942891 0.354 4282141751
0.053464517 0.005540851 0.35700002 4280498219
0.060590982 0.0055563715 0.35800001 4280234536
0.061581276 0.005540851 0.35700002 4280561702
0.062565066 0.0055253301 0.35600001 4280560932
0.063542366 0.0055098101 0.35500002 4280759335
0.064513162 0.0054942891 0.354 4280561956
0.06566295 0.0054942891 0.354 4280628262
0.066624016 0.0054787686 0.35300002 4282076218
0.067770556 0.0054787686 0.35300002 4279249426
0.068721868 0.0054632481 0.35200003 4279317529
0.069865167 0.0054632481 0.35200003 4279056154
0.053464517 0.0067007807 0.35700002 4281420343
0.061753768 0.0067195501 0.35800001 4280759335
0.062389322 0.0066632414 0.35500002 4280692518
0.063542366 0.0066632414 0.35500002 4280627749
0.064513162 0.0066444711 0.354 4280496676
0.065477468 0.0066257017 0.35300002 4280497190
0.066624016 0.0066257017 0.35300002 4280497186
0.067578569 0.0066069323 0.35200003 4280763176
0.068721868 0.0066069323 0.35200003 4279185941
0.069666684 0.0065881624 0.35100001 4278793752
0.070806727 0.0065881624 0.35100001 4279319072
0.061408777 0.0078386907 0.35600001 4280232989
0.062389322 0.0078166723 0.35500002 4280759848
0.063363373 0.0077946531 0.354 4280562215
0.064330921 0.0077726347 0.35300002 4280299043
0.065477468 0.0077726347 0.35300002 4280562469
0.066435277 0.0077506159 0.35200003 4280431395
0.067386582 0.0077285971 0.35100001 4281026348
0.068526633 0.0077285971 0.35100001 4279054355
0.069666684 0.0077285971 0.35100001 4278727957
0.070605002 0.0077065784 0.35000002 4278859291
0.061408777 0.0089953709 0.35600001 4281944120
0.062389322 0.0089701032 0.35500002 4280167711
0.063363373 0.0089448346 0.354 4280364836
0.064330921 0.0089195678 0.35300002 4280299043
0.065291978 0.0088943001 0.35200003 4280036385
0.066246539 0.0088690314 0.35100001 4280103202
0.067386582 0.0088690314 0.35100001 4279578137
0.068526633 0.0088690314 0.35100001 4278988564
0.069468208 0.0088437637 0.35000002 4278464787
0.070605002 0.0088437637 0.35000002 4278530580
0.071536824 0.008818496 0.34900001 4279975975
0.062389322 0.010123535 0.35500002 4280167711
0.063363373 0.010095018 0.354 4280364325
0.064330921 0.010066501 0.35300002 4280364323
0.065291978 0.010037985 0.35200003 4280167971
0.066246539 0.010009467 0.35100001 4279905569
0.067386582 0.010009467 0.35100001 4279512857
0.068331406 0.0099809505 0.35000002 4278988564
0.069468208 0.0099809505 0.35000002 4278727959
0.070605002 0.0099809505 0.35000002 4278465300
0.071536824 0.0099524325 0.34900001 4279056924
0.062389322 0.011276967 0.35500002 4281878843
0.063363373 0.0112452 0.354 4280758311
0.064148679 0.011181668 0.35200003 4280298530
0.065106489 0.011149902 0.35100001 4279839776
0.066246539 0.011149902 0.35100001 4279511578
0.067194603 0.011118136 0.35000002 4279843360
0.068331406 0.011118136 0.35000002 4278857748
0.069468208 0.011118136 0.35000002 4278398994
0.070605002 0.011118136 0.35000002 4278465300
0.071536824 0.01108637 0.34900001 4278465300
0.072670378 0.01108637 0.34900001 4279056670
0.073803931 0.01108637 0.34900001 4280237616
0.063363373 0.012395382 0.354 4280298530
0.064148679 0.012325352 0.35200003 4280233250
0.065106489 0.012290337 0.35100001 4279445785
0.066246539 0.012290337 0.35100001 4279380760
0.067386582 0.012290337 0.35100001 4279514908
0.068331406 0.012255322 0.35000002 4279120920
0.069468208 0.012255322 0.35000002 4278727959
0.070605002 0.012255322 0.35000002 4278727959
0.071741804 0.012255322 0.35000002 4278794265
0.072878607 0.012255322 0.35000002 4278531093
0.074015409 0.012255322 0.35000002 4279450144
0.075152203 0.012255322 0.35000002 4280502323
0.076289006 0.012255322 0.35000002 4280368949
0.09574122 0.012570458 0.35900003 4279645209
0.099792175 0.012640489 0.36100003 4279645209
0.10096471 0.012640489 0.36100003 4279514393
0.10213724 0.012640489 0.36100003 4279251736
0.10359594 0.012675504 0.36200002 4279383068
0.1044823 0.012640489 0.36100003 4279383068
0.10682735 0.012640489 0.36100003 4279055127
0.10799988 0.012640489 0.36100003 4279186713
0.10917241 0.012640489 0.36100003 4279055127
0.11034494 0.012640489 0.36100003 4279120920
0.11182638 0.012675504 0.36200002 4278923541
0.11300216 0.012675504 0.36200002 4279055127
0.11449333 0.012710519 0.36300001 4278791953
0.11567236 0.012710519 0.36300001 4278923793
0.11717329 0.012745535 0.36400002 4279121172
0.11835556 0.012745535 0.36400002 4278858000
0.11986624 0.012780549 0.36500001 4278857746
0.12105176 0.012780549 0.36500001 4278857746
0.12223727 0.012780549 0.36500001 4278857746
0.062213577 0.013545563 0.354 4285037675
0.063363373 0.013545563 0.354 4280167709
0.066335566 0.013928208 0.36400002 4279773465
0.064920999 0.013392507 0.35000002 4279249687
0.066246539 0.013430771 0.35100001 4279184408
0.067386582 0.013430771 0.35100001 4279120920
0.068526633 0.013430771 0.35100001 4279515678
0.069468208 0.013392507 0.35000002 4278727189
0.070605002 0.013392507 0.35000002 4278860058
0.071741804 0.013392507 0.35000002 4278860058
0.072878607 0.013392507 0.35000002 4278860056
0.074015409 0.013392507 0.35000002 4278531091
0.075366922 0.013430771 0.35100001 4278793750
0.076506972 0.013430771 0.35100001 4279516191
0.077868246 0.013469037 0.35200003 4279253019
0.079236001 0.0135073 0.35300002 4279383838
0.080382548 0.0135073 0.35300002 4279317275
0.083378255 0.013622093 0.35600001 4279514654
0.092888765 0.013660357 0.35700002 4279120920
0.094048306 0.013660357 0.35700002 4279055125
0.095474526 0.013698622 0.35800001 4278858000
0.096907258 0.013736886 0.35900003 4279055379
0.098073281 0.013736886 0.35900003 4279055379
0.099515744 0.01377515 0.36000001 4278858513
0.10096471 0.013813416 0.36100003 4278990099
0.10213724 0.013813416 0.36100003 4278792720
0.10330977 0.013813416 0.36100003 4278858513
0.1044823 0.013813416 0.36100003 4278792466
0.10565482 0.013813416 0.36100003 4278858773
0.10682735 0.013813416 0.36100003 4278727187
0.10799988 0.013813416 0.36100003 4278727187
0.10917241 0.013813416 0.36100003 4278858773
0.11034494 0.013813416 0.36100003 4278989845
0.11182638 0.013851679 0.36200002 4278858773
0.11300216 0.013851679 0.36200002 4278727187
0.11449333 0.013889942 0.36300001 4278858773
0.11567236 0.013889942 0.36300001 4278858773
0.11717329 0.013928208 0.36400002 4278924820
0.11835556 0.013928208 0.36400002 4278858773
0.11986624 0.013966472 0.36500001 4278990359
0.12105176 0.013966472 0.36500001 4279056152
0.12223727 0.013966472 0.36500001 4278924566
0.062961243 0.015152394 0.36500001 4284182366
0.065153301 0.015110881 0.36400002 4278918926
0.066335566 0.015110881 0.36400002 4279576856
0.064920999 0.014529693 0.35000002 4279447578
0.066435277 0.01461272 0.35200003 4279119383
0.067578569 0.01461272 0.35200003 4279185943
0.068721868 0.01461272 0.35200003 4279120920
0.069666684 0.014571206 0.35100001 4279121945
0.070806727 0.014571206 0.35100001 4278728470
0.071946777 0.014571206 0.35100001 4278926103
0.073086828 0.014571206 0.35100001 4279124252
0.074226879 0.014571206 0.35100001 4278664214
0.075581647 0.01461272 0.35200003 4278794263
0.076724946 0.01461272 0.35200003 4278728470
0.078089461 0.014654233 0.35300002 4278728470
0.079236001 0.014654233 0.35300002 4278464787
0.080610253 0.014695746 0.354 4278530580
0.081991017 0.01473726 0.35500002 4278661396
0.083378255 0.014778772 0.35600001 4278595603
0.085690841 0.014778772 0.35600001 4278858773
0.086847119 0.014778772 0.35600001 4278661394
0.088003412 0.014778772 0.35600001 4278924566
0.092888765 0.014820287 0.35700002 4278924566
0.094048306 0.014820287 0.35700002 4278858773
0.095474526 0.0148618 0.35800001 4278924820
0.096637316 0.0148618 0.35800001 4279187992
0.098073281 0.014903313 0.35900003 4278859027
0.099239312 0.014903313 0.35900003 4278794004
0.10068502 0.014944826 0.36000001 4278859797
0.10185431 0.014944826 0.36000001 4278794004
0.10302359 0.014944826 0.36000001 4278728211
0.10536214 0.014944826 0.36000001 4278794004
0.10653143 0.014944826 0.36000001 4279057176
0.10770071 0.014944826 0.36000001 4279057176
0.10917241 0.014986341 0.36100003 4279254555
0.11034494 0.014986341 0.36100003 4279320348
0.11151747 0.014986341 0.36100003 4279386141
0.11417793 0.015027854 0.36200002 4279254555
0.11567236 0.015069366 0.36300001 4279320094
0.11717329 0.015110881 0.36400002 4279254301
0.11835556 0.015110881 0.36400002 4279385887
0.11953784 0.015110881 0.36400002 4279320348
0.12105176 0.015152394 0.36500001 4279188762
0.12223727 0.015152394 0.36500001 4279451164
0.062961243 0.016338315 0.36500001 4284182366
0.064146765 0.016338315 0.36500001 4284050780
0.065153301 0.016293554 0.36400002 4281353778
0.066335566 0.016293554 0.36400002 4279643930
0.067517839 0.016293554 0.36400002 4279053590
0.066812746 0.015845928 0.354 4279251482
0.067770556 0.015801165 0.35300002 4279055127
0.068917103 0.015801165 0.35300002 4279450398
0.070063643 0.015801165 0.35300002 4279649059
0.071008459 0.015756404 0.35200003 4279517727
0.072151758 0.015756404 0.35200003 4279189275
0.073295057 0.015756404 0.35200003 4278861080
0.074438356 0.015756404 0.35200003 4282217036
0.075581647 0.015756404 0.35200003 4281822024
0.076942913 0.015801165 0.35300002 4279058459
0.078089461 0.015801165 0.35300002 4278729494
0.079460464 0.015845928 0.354 4278597908
0.080610253 0.015845928 0.354 4278795287
0.081991017 0.015890691 0.35500002 4278729494
0.083378255 0.015935453 0.35600001 4278663701
0.084534548 0.015935453 0.35600001 4279123482
0.085690841 0.015935453 0.35600001 4278531345
0.086847119 0.015935453 0.35600001 4279255068
0.088003412 0.015935453 0.35600001 4279123482
0.089159697 0.015935453 0.35600001 4279189275
0.09031599 0.015935453 0.35600001 4278860310
0.091472276 0.015935453 0.35600001 4279189275
0.092888765 0.015980216 0.35700002 4279452447
0.094048306 0.015980216 0.35700002 4279320607
0.09520784 0.015980216 0.35700002 4279386654
0.096637316 0.016024979 0.35800001 4279320861
0.097800091 0.016024979 0.35800001 4279255838
0.099239312 0.016069742 0.35900003 4279124252
0.10040534 0.016069742 0.35900003 4279058459
0.10157138 0.016069742 0.35900003 4279124252
0.10302359 0.016114503 0.36000001 4279190045
0.10419287 0.016114503 0.36000001 4278861080
0.10536214 0.016114503 0.36000001 4279189275
0.10653143 0.016114503 0.36000001 4279255068
0.10770071 0.016114503 0.36000001 4278860308
0.10886999 0.016114503 0.36000001 4279320346
0.11003927 0.016114503 0.36000001 4279516955
0.062961243 0.017524239 0.36500001 4284182879
0.064146765 0.017524239 0.36500001 4284051293
0.06578885 0.017332194 0.36100003 4279577621
0.066775888 0.017284181 0.36000001 4279316762
0.067190222 0.017092135 0.35600001 4279054873
0.068154521 0.017044123 0.35500002 4279384092
0.069307566 0.017044123 0.35500002 4279779363
0.070262127 0.016996112 0.354 4279780899
0.071411915 0.016996112 0.354 4279715619
0.072356731 0.0169481 0.35300002 4279649826
0.073503278 0.0169481 0.35300002 4279190045
0.074649826 0.0169481 0.35300002 4279124252
0.075796366 0.0169481 0.35300002 4278927386
0.076942913 0.0169481 0.35300002 4279058718
0.078310676 0.016996112 0.354 4278729753
0.079460464 0.016996112 0.354 4278663960
0.080837972 0.017044123 0.35500002 4278927386
0.081991017 0.017044123 0.35500002 4278927386
0.083378255 0.017092135 0.35600001 4278993179
0.084534548 0.017092135 0.35600001 4279124765
0.085690841 0.017092135 0.35600001 4279124763
0.086847119 0.017092135 0.35600001 4278927384
0.088003412 0.017092135 0.35600001 4279058970
0.089159697 0.017092135 0.35600001 4279321629
0.09031599 0.017092135 0.35600001 4279321629
0.091472276 0.017092135 0.35600001 4279321631
0.092888765 0.017140146 0.35700002 4279124252
0.094048306 0.017140146 0.35700002 4279781412
0.09520784 0.017140146 0.35700002 4280044584
0.096367382 0.017140146 0.35700002 4279584033
0.097800091 0.017188158 0.35800001 4279649826
0.098962873 0.017188158 0.35800001 4279912998
0.10040534 0.017236169 0.35900003 4279781412
0.10157138 0.017236169 0.35900003 4279847205
0.10273741 0.017236169 0.35900003 4279847205
0.064974301 0.018607639 0.36300001 4283788119
0.06578885 0.018505119 0.36100003 4281222192
0.066775888 0.018453857 0.36000001 4279316762
0.067567699 0.018351335 0.35800001 4279252506
0.068538494 0.018300075 0.35700002 4279844641
0.069502793 0.018248815 0.35600001 4280174373
0.070659086 0.018248815 0.35600001 4279978278
0.071613647 0.018197555 0.35500002 4279912485
0.072766684 0.018197555 0.35500002 4279912998
0.0737115 0.018146293 0.354 4280241963
0.074861296 0.018146293 0.354 4280307756
0.076011084 0.018146293 0.354 4279913768
0.07716088 0.018146293 0.354 4279848488
0.078531891 0.018197555 0.35500002 4279651109
0.079684928 0.018197555 0.35500002 4279651109
0.080837972 0.018197555 0.35500002 4279914281
0.08222197 0.018248815 0.35600001 4279913768
0.083378255 0.018248815 0.35600001 4280242733
0.084534548 0.018248815 0.35600001 4279782182
0.085690841 0.018248815 0.35600001 4280111147
0.086847119 0.018248815 0.35600001 4279913768
0.088003412 0.018248815 0.35600001 4279847205
0.089159697 0.018248815 0.35600001 4279649313
0.09031599 0.018248815 0.35600001 4280241450
0.091729224 0.018300075 0.35700002 4280175403
0.092888765 0.018300075 0.35700002 4280306989
0.094048306 0.018300075 0.35700002 4280636208
0.09520784 0.018300075 0.35700002 4280307243
0.096367382 0.018300075 0.35700002 4280372264
0.064795315 0.019732554 0.36200002 4283919707
0.06578885 0.019678045 0.36100003 4283985500
0.066961378 0.019678045 0.36100003 4278987797
0.067756437 0.019569024 0.35900003 4279647010
0.068730474 0.019514514 0.35800001 4279911715
0.069893263 0.019514514 0.35800001 4280043301
0.07085757 0.019460006 0.35700002 4280109092
0.072017103 0.019460006 0.35700002 4280175655
0.072971664 0.019405494 0.35600001 4280111145
0.07412795 0.019405494 0.35600001 4280374317
0.075072773 0.019350985 0.35500002 4280176170
0.07622581 0.019350985 0.35500002 4280307756
0.077378854 0.019350985 0.35500002 4279979561
0.078531891 0.019350985 0.35500002 4279650596
0.079909392 0.019405494 0.35600001 4280045352
0.081065685 0.019405494 0.35600001 4279913766
0.08222197 0.019405494 0.35600001 4279782182
0.083378255 0.019405494 0.35600001 4279716389
0.084534548 0.019405494 0.35600001 4280110377
0.085931547 0.019460006 0.35700002 4280044584
0.087091081 0.019460006 0.35700002 4280634157
0.088250615 0.019460006 0.35700002 4280239399
0.089410149 0.019460006 0.35700002 4280634157
0.09056969 0.019460006 0.35700002 4280568364
0.091729224 0.019460006 0.35700002 4279316764
0.092888765 0.019460006 0.35700002 4279250201
0.094048306 0.019460006 0.35700002 4279578139
0.09520784 0.019460006 0.35700002 4279249172
0.096367382 0.019460006 0.35700002 4279445781
0.097800091 0.019514514 0.35800001 4279708953
0.064795315 0.020908728 0.36200002 4283985500
0.065971084 0.020908728 0.36200002 4284182879
0.066961378 0.020850971 0.36100003 4281289782
0.067945167 0.020793211 0.36000001 4280304940
0.069114447 0.020793211 0.36000001 4280044330
0.070088498 0.020735452 0.35900003 4279912744
0.071056046 0.020677693 0.35800001 4279847205
0.072218828 0.020677693 0.35800001 4280307756
0.073176645 0.020619934 0.35700002 4280176940
0.074336179 0.020619934 0.35700002 4280176938
0.075284243 0.020562174 0.35600001 4280373547
0.076440528 0.020562174 0.35600001 4280307754
0.077596813 0.020562174 0.35600001 4280176168
0.078753106 0.020562174 0.35600001 4280044582
0.079909392 0.020562174 0.35600001 4280044582
0.081065685 0.020562174 0.35600001 4279846690
0.08222197 0.020562174 0.35600001 4279649826
0.083612472 0.020619934 0.35700002 4279847205
0.084772006 0.020619934 0.35700002 4279978278
0.085931547 0.020619934 0.35700002 4280306473
0.087091081 0.020619934 0.35700002 4279251736
0.088250615 0.020619934 0.35700002 4280897329
0.089410149 0.020619934 0.35700002 4280896813
0.09056969 0.020619934 0.35700002 4279249426
0.065971084 0.022084903 0.36200002 4283985500
0.066961378 0.022023896 0.36100003 4283590742
0.068133906 0.022023896 0.36100003 4280960817
0.069114447 0.021962887 0.36000001 4280044330
0.070283726 0.021962887 0.36000001 4279846951
0.071254529 0.021901879 0.35900003 4280175916
0.07242056 0.021901879 0.35900003 4280570928
0.073381618 0.02184087 0.35800001 4280307756
0.0745444 0.02184087 0.35800001 4280307756
0.07549572 0.021779863 0.35700002 4280241961
0.076655254 0.021779863 0.35700002 4280110375
0.077596813 0.021718854 0.35600001 4280044582
0.078753106 0.021718854 0.35600001 4279912996
0.079909392 0.021718854 0.35600001 4279780897
0.081293397 0.021779863 0.35700002 4279649311
0.082452938 0.021779863 0.35700002 4279452445
0.083612472 0.021779863 0.35700002 4279452445
0.084772006 0.021779863 0.35700002 4279319064
0.085931547 0.021779863 0.35700002 4279119635
0.087091081 0.021779863 0.35700002 4280042272
0.088250615 0.021779863 0.35700002 4279845920
0.089410149 0.021779863 0.35700002 4278856465
0.09056969 0.021779863 0.35700002 4278723341
0.091729224 0.021779863 0.35700002 4279577369
0.092888765 0.021779863 0.35700002 4279577369
0.066961378 0.023196824 0.36100003 4283524951
0.068133906 0.023196824 0.36100003 4283459928
0.069306433 0.023196824 0.36100003 4282276931
0.070283726 0.023132564 0.36000001 4280896559
0.071453013 0.023132564 0.36000001 4280700977
0.072622284 0.023132564 0.36000001 4280372782
0.073586598 0.023068309 0.35900003 4280307243
0.074752629 0.023068309 0.35900003 4280438829
0.07570719 0.023004051 0.35800001 4280110375
0.076655254 0.022939794 0.35700002 4280044582
0.077814788 0.022939794 0.35700002 4279452445
0.078974329 0.022939794 0.35700002 4279386652
0.080133863 0.022939794 0.35700002 4279386654
0.081293397 0.022939794 0.35700002 4279255068
0.082452938 0.022939794 0.35700002 4279189023
0.083612472 0.022939794 0.35700002 4279188510
0.084772006 0.022939794 0.35700002 4279450398
0.085931547 0.022939794 0.35700002 4279975459
0.087091081 0.022939794 0.35700002 4279975459
0.088250615 0.022939794 0.35700002 4279713057
0.089410149 0.022939794 0.35700002 4279778850
0.09056969 0.022939794 0.35700002 4280172838
0.069306433 0.024369748 0.36100003 4283590229
0.070478961 0.024369748 0.36100003 4283656020
0.071453013 0.024302242 0.36000001 4282671437
0.072622284 0.024302242 0.36000001 4282277449
0.073791571 0.024302242 0.36000001 4281159731
0.074752629 0.024234736 0.35900003 4279976227
0.072622284 0.025471918 0.36000001 4283261264
0.076065272 0.011696883 0.35612291 4294967295
0.076065272 0.011696883 0.35612291 4294901760
0.076203108 0.011220666 0.35618785 4294901760
0.076340944 0.010744447 0.35625279 4294901760
0.076478779 0.010268229 0.35631776 4294901760
0.076616608 0.0097920112 0.3563827 4294901760
0.076754443 0.0093157925 0.35644764 4294901760
0.076892279 0.0088395746 0.35651258 4294901760
0.077030115 0.0083633559 0.35657752 4294901760
0.077167951 0.0078871381 0.35664245 4294901760
0.077305786 0.0074109193 0.35670742 4294901760
0.077443622 0.0069347015 0.35677236 4294901760
0.07758145 0.0064584832 0.3568373 4294901760
0.077719286 0.0059822653 0.35690224 4294901760
0.077857122 0.005506047 0.35696718 4294901760
0.077994958 0.0050298288 0.35703215 4294901760
0.078132793 0.00455361 0.35709709 4294901760
0.078270629 0.0040773926 0.35716203 4294901760
0.078408465 0.0036011739 0.35722697 4294901760
0.078546301 0.0031249551 0.35729191 4294901760
0.078684129 0.0026487382 0.35735685 4294901760
0.078821965 0.0021725195 0.35742182 4294901760
0.0789598 0.0016963016 0.35748675 4294901760
0.079097636 0.0012200829 0.35755169 4294901760
0.079235472 0.00074386504 0.35761663 4294901760
0.079373308 0.00026764721 0.35768157 4294901760
0.079511136 -0.00020857155 0.35774654 4294901760
0.079648972 -0.00068478938 0.35781148 4294901760
0.079786807 -0.0011610081 0.35787642 4294901760
0.079924643 -0.001637226 0.35794136 4294901760
0.080062479 -0.0021134438 0.3580063 4294901760
0.080200315 -0.0025896635 0.35807124 4294901760
0.08033815 -0.0030658813 0.35813621 4294901760
0.080475986 -0.0035420982 0.35820115 4294901760
0.080613814 -0.004018317 0.35826609 4294901760
0.08075165 -0.0044945357 0.35833102 4294901760
0.080889486 -0.0049707526 0.35839596 4294901760
0.081027322 -0.0054469733 0.3584609 4294901760
0.081165157 -0.0059231902 0.35852587 4294901760
0.081302993 -0.0063994071 0.35859081 4294901760
0.081440821 -0.0068756258 0.35865575 4294901760
0.081578657 -0.0073518446 0.35872069 4294901760
0.081716493 -0.0078280633 0.35878563 4294901760
0.081854329 -0.0083042802 0.3588506 4294901760
0.081992164 -0.008780499 0.35891554 4294901760
0.08213 -0.0092567177 0.35898048 4294901760
0.082267836 -0.0097329346 0.35904542 4294901760
0.082405671 -0.010209153 0.35911036 4294901760
0.0825435 -0.010685372 0.35917529 4294901760
0.082681336 -0.011161589 0.35924026 4294901760
0.082819171 -0.01163781 0.3593052 4294901760
0.082957007 -0.012114027 0.35937014 4294901760
0.083094843 -0.012590243 0.35943508 4294901760
0.083232678 -0.013066462 0.35950002 4294901760
0.083370507 -0.013542679 0.35956499 4294901760
0.083508343 -0.0140189 0.35962993 4294901760
0.083646178 -0.014495119 0.35969487 4294901760
0.083784014 -0.014971335 0.35975981 4294901760
0.08392185 -0.015447554 0.35982475 4294901760
0.084059685 -0.015923772 0.35988969 4294901760
0.084197521 -0.016399991 0.35995466 4294901760
0.084335357 -0.01687621 0.36001959 4294901760
0.084473193 -0.017352428 0.36008453 4294901760
0.084611021 -0.017828647 0.36014947 4294901760
0.084748857 -0.018304862 0.36021441 4294901760
0.084886692 -0.018781081 0.36027938 4294901760
0.085024528 -0.0192573 0.36034432 4294901760
0.085162364 -0.019733518 0.36040926 4294901760
0.0853002 -0.020209737 0.3604742 4294901760
0.085438028 -0.020685956 0.36053914 4294901760
0.085575864 -0.021162175 0.36060408 4294901760
0.085713699 -0.02163839 0.36066905 4294901760
0.085851535 -0.022114608 0.36073399 4294901760
0.085989371 -0.022590831 0.36079893 4294901760
0.086127207 -0.023067046 0.36086386 4294901760
0.086265042 -0.023543265 0.3609288 4294901760
0.086402878 -0.024019483 0.36099374 4294901760
0.086540706 -0.024495699 0.36105871 4294901760
0.086678542 -0.024971917 0.36112365 4294901760
0.086816378 -0.025448136 0.36118859 4294901760
0.086954214 -0.025924355 0.36125353 4294901760
0.087092049 -0.026400574 0.36131847 4294901760
0.087229885 -0.026876792 0.36138344 4294901760
0.087367713 -0.027353011 0.36144838 4294901760
0.087505549 -0.027829226 0.36151332 4294901760
0.087643385 -0.028305445 0.36157826 4294901760
0.087781221 -0.028781667 0.3616432 4294901760
0.087919056 -0.029257882 0.36170813 4294901760
0.088056892 -0.029734101 0.3617731 4294901760
0.088194728 -0.03021032 0.36183804 4294901760
0.088332564 -0.030686535 0.36190298 4294901760
0.088470392 -0.031162754 0.36196792 4294901760
0.088608228 -0.031638976 0.36203286 4294901760
0.088746063 -0.032115191 0.36209783 4294901760
0.088883899 -0.03259141 0.36216277 4294901760
0.089021735 -0.033067629 0.36222771 4294901760
0.089159571 -0.033543848 0.36229265 4294901760
0.089297399 -0.034020063 0.36235759 4294901760
0.089435235 -0.034496285 0.36242253 4294901760
0.08957307 -0.034972504 0.36248749 4294901760
0.089710906 -0.035448719 0.36255243 4294901760
0.089848742 -0.035924938 0.36261737 4294901760
0.076065272 0.011696883 0.35612291 4278255360
0.0765405 0.011842019 0.35617855 4278255360
0.07701572 0.011987154 0.35623419 4278255360
0.077490948 0.012132291 0.35628983 4278255360
0.077966176 0.012277426 0.35634547 4278255360
0.078441404 0.012422562 0.35640112 4278255360
0.078916624 0.012567697 0.35645676 4278255360
0.079391852 0.012712833 0.3565124 4278255360
0.07986708 0.012857969 0.35656804 4278255360
0.080342308 0.013003104 0.35662368 4278255360
0.080817528 0.01314824 0.35667932 4278255360
0.081292756 0.013293376 0.35673496 4278255360
0.081767984 0.013438512 0.3567906 4278255360
0.082243212 0.013583647 0.35684624 4278255360
0.082718432 0.013728783 0.35690188 4278255360
0.08319366 0.013873918 0.35695753 4278255360
0.083668888 0.014019053 0.35701317 4278255360
0.084144115 0.01416419 0.35706884 4278255360
0.084619336 0.014309325 0.35712448 4278255360
0.085094564 0.014454461 0.35718012 4278255360
0.085569791 0.014599597 0.35723576 4278255360
0.086045012 0.014744733 0.3572914 4278255360
0.08652024 0.014889868 0.35734704 4278255360
0.086995468 0.015035003 0.35740268 4278255360
0.087470695 0.015180139 0.35745832 4278255360
0.087945923 0.015325275 0.35751396 4278255360
0.088421144 0.015470411 0.35756961 4278255360
0.088896371 0.015615547 0.35762525 4278255360
0.089371599 0.015760683 0.35768089 4278255360
0.08984682 0.015905818 0.35773653 4278255360
0.090322047 0.016050953 0.35779217 4278255360
0.090797275 0.016196089 0.35784781 4278255360
0.091272503 0.016341224 0.35790345 4278255360
0.091747731 0.016486362 0.35795909 4278255360
0.092222951 0.016631495 0.35801473 4278255360
0.092698179 0.016776633 0.35807037 4278255360
0.093173407 0.016921768 0.35812601 4278255360
0.093648627 0.017066903 0.35818166 4278255360
0.094123855 0.017212039 0.3582373 4278255360
0.094599083 0.017357174 0.35829294 4278255360
0.095074311 0.01750231 0.35834858 4278255360
0.095549531 0.017647445 0.35840422 4278255360
0.096024759 0.017792581 0.35845986 4278255360
0.096499987 0.017937716 0.3585155 4278255360
0.096975207 0.018082853 0.35857114 4278255360
0.097450435 0.018227987 0.35862678 4278255360
0.097925663 0.018373124 0.35868242 4278255360
0.098400891 0.01851826 0.35873806 4278255360
0.098876119 0.018663395 0.35879371 4278255360
0.099351339 0.018808531 0.35884935 4278255360
0.099826567 0.018953666 0.35890502 4278255360
0.10030179 0.019098802 0.35896066 4278255360
0.10077702 0.019243937 0.3590163 4278255360
0.10125224 0.019389072 0.35907194 4278255360
0.10172747 0.01953421 0.35912758 4278255360
0.1022027 0.019679345 0.35918322 4278255360
0.10267793 0.019824481 0.35923886 4278255360
0.10315315 0.019969616 0.3592945 4278255360
0.10362837 0.020114752 0.35935014 4278255360
0.1041036 0.020259887 0.35940579 4278255360
0.10457882 0.020405024 0.35946143 4278255360
0.10505405 0.020550158 0.35951707 4278255360
0.10552928 0.020695295 0.35957271 4278255360
0.10600451 0.020840429 0.35962835 4278255360
0.10647973 0.020985566 0.35968399 4278255360
0.10695495 0.021130702 0.35973963 4278255360
0.10743018 0.021275837 0.35979527 4278255360
0.1079054 0.021420974 0.35985091 4278255360
0.10838063 0.021566108 0.35990655 4278255360
0.10885586 0.021711245 0.3599622 4278255360
0.10933109 0.021856379 0.36001784 4278255360
0.10980631 0.022001516 0.36007348 4278255360
0.11028154 0.022146652 0.36012912 4278255360
0.11075676 0.022291787 0.36018476 4278255360
0.11123199 0.022436922 0.3602404 4278255360
0.11170721 0.022582058 0.36029604 4278255360
0.11218244 0.022727193 0.36035168 4278255360
0.11265767 0.022872329 0.36040732 4278255360
0.11313289 0.023017464 0.36046296 4278255360
0.11360812 0.023162602 0.3605186 4278255360
0.11408335 0.023307737 0.36057425 4278255360
0.11455857 0.023452872 0.36062989 4278255360
0.11503379 0.023598008 0.36068553 4278255360
0.11550902 0.023743143 0.36074117 4278255360
0.11598425 0.023888279 0.36079684 4278255360
0.11645947 0.024033416 0.36085248 4278255360
0.1169347 0.02417855 0.36090812 4278255360
0.11740993 0.024323687 0.36096376 4278255360
0.11788515 0.024468821 0.3610194 4278255360
0.11836038 0.024613958 0.36107504 4278255360
0.1188356 0.024759091 0.36113068 4278255360
0.11931083 0.024904229 0.36118633 4278255360
0.11978605 0.025049364 0.36124197 4278255360
0.12026128 0.0251945 0.36129761 4278255360
0.12073651 0.025339637 0.36135325 4278255360
0.12121173 0.025484771 0.36140889 4278255360
0.12168696 0.025629908 0.36146453 4278255360
0.12216219 0.025775043 0.36152017 4278255360
0.12263741 0.025920179 0.36157581 4278255360
0.12311263 0.026065314 0.36163145 4278255360
0.12358786 0.02621045 0.36168709 4278255360
0.076065272 0.011696883 0.35612291 4278190335
0.075979955 0.01173913 0.35661376 4278190335
0.075894639 0.011781377 0.35710463 4278190335
0.075809322 0.011823623 0.35759547 4278190335
0.075724006 0.01186587 0.35808632 4278190335
0.075638689 0.011908117 0.35857716 4278190335
0.075553373 0.011950364 0.35906804 4278190335
0.075468056 0.011992611 0.35955888 4278190335
0.075382739 0.012034858 0.36004972 4278190335
0.075297423 0.012077104 0.3605406 4278190335
0.075212106 0.012119351 0.36103144 4278190335
0.075126782 0.012161598 0.36152229 4278190335
0.075041465 0.012203844 0.36201313 4278190335
0.074956149 0.012246091 0.36250401 4278190335
0.074870832 0.012288338 0.36299485 4278190335
0.074785516 0.012330584 0.36348569 4278190335
0.074700199 0.012372831 0.36397654 4278190335
0.074614882 0.012415078 0.36446741 4278190335
0.074529566 0.012457325 0.36495826 4278190335
0.074444249 0.012499572 0.3654491 4278190335
0.074358933 0.012541818 0.36593997 4278190335
0.074273616 0.012584065 0.36643082 4278190335
0.074188299 0.012626312 0.36692166 4278190335
0.074102983 0.012668558 0.36741251 4278190335
0.074017666 0.012710805 0.36790338 4278190335
0.07393235 0.012753052 0.36839423 4278190335
0.073847033 0.012795298 0.36888507 4278190335
0.073761716 0.012837546 0.36937594 4278190335
0.0736764 0.012879793 0.36986679 4278190335
0.073591083 0.012922039 0.37035763 4278190335
0.073505759 0.012964286 0.37084848 4278190335
0.073420443 0.013006533 0.37133935 4278190335
0.073335126 0.013048779 0.3718302 4278190335
0.073249809 0.013091026 0.37232104 4278190335
0.073164493 0.013133273 0.37281191 4278190335
0.073079176 0.013175519 0.37330276 4278190335
0.07299386 0.013217766 0.3737936 4278190335
0.072908543 0.013260012 0.37428445 4278190335
0.072823226 0.013302259 0.37477532 4278190335
0.07273791 0.013344506 0.37526616 4278190335
0.072652593 0.013386753 0.37575701 4278190335
0.072567277 0.013429 0.37624788 4278190335
0.07248196 0.013471247 0.37673873 4278190335
0.072396643 0.013513493 0.37722957 4278190335
0.072311327 0.01355574 0.37772042 4278190335
0.07222601 0.013597987 0.37821129 4278190335
0.072140694 0.013640233 0.37870213 4278190335
0.072055377 0.01368248 0.37919298 4278190335
0.07197006 0.013724727 0.37968382 4278190335
0.071884744 0.013766974 0.3801747 4278190335
0.071799427 0.013809221 0.38066554 4278190335
0.071714103 0.013851468 0.38115638 4278190335
0.071628787 0.013893714 0.38164723 4278190335
0.07154347 0.013935961 0.3821381 4278190335
0.071458153 0.013978207 0.38262895 4278190335
0.071372837 0.014020454 0.38311979 4278190335
0.07128752 0.014062701 0.38361067 4278190335
0.071202204 0.014104947 0.38410151 4278190335
0.071116887 0.014147194 0.38459235 4278190335
0.07103157 0.014189441 0.3850832 4278190335
0.070946254 0.014231687 0.38557407 4278190335
0.070860937 0.014273934 0.38606492 4278190335
0.070775621 0.014316181 0.38655576 4278190335
0.070690304 0.014358428 0.38704664 4278190335
0.070604987 0.014400675 0.38753748 4278190335
0.070519671 0.014442922 0.38802832 4278190335
0.070434354 0.014485168 0.38851917 4278190335
0.070349038 0.014527415 0.38901004 4278190335
0.070263721 0.014569662 0.38950089 4278190335
0.070178404 0.014611908 0.38999173 4278190335
0.07009308 0.014654155 0.3904826 4278190335
0.070007771 0.014696402 0.39097345 4278190335
0.069922447 0.014738649 0.39146429 4278190335
0.069837131 0.014780896 0.39195514 4278190335
0.069751814 0.014823142 0.39244601 4278190335
0.069666497 0.014865389 0.39293686 4278190335
0.069581181 0.014907636 0.3934277 4278190335
0.069495864 0.014949882 0.39391857 4278190335
0.069410548 0.014992129 0.39440942 4278190335
0.069325231 0.015034376 0.39490026 4278190335
0.069239914 0.015076622 0.39539111 4278190335
0.069154598 0.015118869 0.39588198 4278190335
0.069069281 0.015161116 0.39637282 4278190335
0.068983965 0.015203362 0.39686367 4278190335
0.068898648 0.015245609 0.39735454 4278190335
0.068813331 0.015287857 0.39784539 4278190335
0.068728015 0.015330103 0.39833623 4278190335
0.068642698 0.01537235 0.39882708 4278190335
0.068557382 0.015414597 0.39931795 4278190335
0.068472065 0.015456843 0.39980879 4278190335
0.068386748 0.01549909 0.40029964 4278190335
0.068301424 0.015541336 0.40079051 4278190335
0.068216108 0.015583583 0.40128136 4278190335
0.068130791 0.015625831 0.4017722 4278190335
0.068045475 0.015668077 0.40226305 4278190335
0.067960158 0.015710324 0.40275392 4278190335
0.067874841 0.015752571 0.40324476 4278190335
0.067789525 0.015794817 0.40373561 4278190335
0.067704208 0.015837064 0.40422648 4278190335
0.067618892 0.015879311 0.40471733 4278190335
0.067533575 0.015921557 0.40520817 4278190335
0.076065272 0.011696883 0.35612291 4294967295
0.076577172 0.011443403 0.35317779 4294967295
0.077089079 0.011189923 0.35023269 4294967295
0.077600978 0.010936442 0.34728757 4294967295
0.078112878 0.010682962 0.34434244 4294967295
0.078624785 0.010429481 0.34139735 4294967295
0.079136685 0.010176001 0.33845222 4294967295
0.079648584 0.0099225203 0.33550709 4294967295
0.080160491 0.0096690403 0.332562 4294967295
0.080672391 0.0094155595 0.32961687 4294967295
0.08118429 0.0091620795 0.32667175 4294967295
0.081696197 0.0089085987 0.32372665 4294967295
0.082208097 0.0086551178 0.32078153 4294967295
0.082719997 0.0084016379 0.3178364 4294967295
0.083231896 0.008148158 0.31489128 4294967295
0.083743803 0.0078946771 0.31194618 4294967295
0.084255703 0.0076411967 0.30900106 4294967295
0.08476761 0.0073877163 0.30605593 4294967295
0.085279509 0.0071342355 0.30311084 4294967295
0.085791409 0.0068807555 0.30016571 4294967295
0.086303309 0.0066272747 0.29722059 4294967295
0.086815216 0.0063737947 0.29427549 4294967295
0.087327115 0.0061203139 0.29133037 4294967295
0.087839015 0.0058668335 0.28838524 4294967295
0.088350922 0.0056133531 0.28544015 4294967295
0.088862821 0.0053598727 0.28249502 4294967295
0.089374721 0.0051063923 0.2795499 4294967295
0.089886628 0.0048529115 0.27660477 4294967295
0.090398528 0.0045994315 0.27365968 4294967295
0.090910427 0.0043459511 0.27071455 4294967295
0.091422334 0.0040924703 0.26776946 4294967295
0.091934234 0.0038389899 0.26482433 4294967295
0.092446133 0.00358551 0.26187921 4294967295
0.092958041 0.0033320291 0.25893408 4294967295
0.09346994 0.0030785492 0.25598899 4294967295
0.09398184 0.0028250683 0.25304386 4294967295
0.094493747 0.0025715875 0.25009876 4294967295
0.095005646 0.0023181075 0.24715364 4294967295
0.095517546 0.0020646276 0.24420851 4294967295
0.096029446 0.0018111467 0.2412634 4294967295
0.096541353 0.0015576659 0.23831829 4294967295
0.097053252 0.0013041859 0.23537317 4294967295
0.097565152 0.001050706 0.23242806 4294967295
0.098077059 0.00079722516 0.22948293 4294967295
0.098588958 0.0005437443 0.22653782 4294967295
0.099100858 0.00029026438 0.22359271 4294967295
0.099612765 3.6783516e-05 0.22064759 4294967295
0.10012466 -0.00021669641 0.21770248 4294967295
0.10063656 -0.00047017727 0.21475737 4294967295
0.10114847 -0.00072365813 0.21181224 4294967295
0.10166037 -0.00097713806 0.20886713 4294967295
0.10217227 -0.001230618 0.20592202 4294967295
0.10268417 -0.0014840988 0.20297691 4294967295
0.10319608 -0.0017375788 0.20003179 4294967295
0.10370798 -0.0019910606 0.19708666 4294967295
0.10421988 -0.0022445405 0.19414155 4294967295
0.10473178 -0.0024980204 0.19119644 4294967295
0.10524368 -0.0027515013 0.18825133 4294967295
0.10575558 -0.0030049812 0.18530621 4294967295
0.10626749 -0.0032584611 0.1823611 4294967295
0.10677939 -0.0035119429 0.17941597 4294967295
0.1072913 -0.0037654229 0.17647086 4294967295
0.1078032 -0.0040189037 0.17352575 4294967295
0.1083151 -0.0042723836 0.17058063 4294967295
0.10882699 -0.0045258636 0.16763552 4294967295
0.10933889 -0.0047793435 0.16469041 4294967295
0.10985081 -0.0050328253 0.16174528 4294967295
0.11036271 -0.0052863052 0.15880017 4294967295
0.11087461 -0.0055397851 0.15585504 4294967295
0.11138651 -0.0057932669 0.15290993 4294967295
0.11189841 -0.0060467469 0.14996482 4294967295
0.11241031 -0.0063002268 0.14701971 4294967295
0.11292221 -0.0065537086 0.14407459 4294967295
0.11343412 -0.0068071885 0.14112946 4294967295
0.11394602 -0.0070606684 0.13818435 4294967295
0.11445792 -0.0073141484 0.13523924 4294967295
0.11496982 -0.0075676283 0.13229413 4294967295
0.11548172 -0.0078211101 0.12934902 4294967295
0.11599363 -0.00807459 0.1264039 4294967295
0.11650553 -0.0083280718 0.12345877 4294967295
0.11701743 -0.0085815517 0.12051366 4294967295
0.11752933 -0.0088350317 0.11756855 4294967295
0.11804123 -0.0090885116 0.11462344 4294967295
0.11855313 -0.0093419915 0.11167832 4294967295
0.11906503 -0.0095954714 0.10873321 4294967295
0.11957695 -0.0098489532 0.10578808 4294967295
0.12008885 -0.010102433 0.10284296 4294967295
0.12060075 -0.010355915 0.099897861 4294967295
0.12111264 -0.010609395 0.096952736 4294967295
0.12162454 -0.010862875 0.094007641 4294967295
0.12213644 -0.011116355 0.091062516 4294967295
0.12264836 -0.011369837 0.088117391 4294967295
0.12316026 -0.011623316 0.085172266 4294967295
0.12367216 -0.011876796 0.08222717 4294967295
0.12418406 -0.012130276 0.079282045 4294967295
0.12469596 -0.012383756 0.07633695 4294967295
0.12520786 -0.012637238 0.073391825 4294967295
0.12571976 -0.01289072 0.0704467 4294967295
0.12623167 -0.0131442 0.067501575 4294967295
0.12674357 -0.01339768 0.064556479 4294967295
0.12725547 -0.01365116 0.061611354 4294967295
