# .PCD v0.7 - Point Cloud Data file format
VERSION 0.7
FIELDS x y z rgb
SIZE 4 4 4 4
TYPE F F F U
COUNT 1 1 1 1
WIDTH 1052
HEIGHT 1
VIEWPOINT 0 0 0 1 0 0 0
POINTS 1052
DATA ascii
0.088554792 0.036299001 0.36300001 4278990613
0.089486621 0.036199003 0.36200002 4278530062
0.09066239 0.036199003 0.36200002 4278661648
0.091838174 0.036199003 0.36200002 4278465039
0.09301395 0.036199003 0.36200002 4278333453
0.094189726 0.036199003 0.36200002 4278465552
0.095365502 0.036199003 0.36200002 4278662931
0.096541286 0.036199003 0.36200002 4278465552
0.097717062 0.036199003 0.36200002 4278662931
0.09889283 0.036199003 0.36200002 4278333966
0.10006861 0.036199003 0.36200002 4278400527
0.10096471 0.036099009 0.36100003 4278532113
0.10242017 0.036199003 0.36200002 4278664212
0.10359594 0.036199003 0.36200002 4278532626
0.10477172 0.036199003 0.36200002 4278466833
0.10624015 0.036299001 0.36300001 4278466833
0.10741919 0.036299001 0.36300001 4278598419
0.10859821 0.036299001 0.36300001 4278730005
0.10977723 0.036299001 0.36300001 4278927384
0.11095626 0.036299001 0.36300001 4278533396
0.12019464 0.036598995 0.36600003 4278993947
0.12171506 0.03669899 0.36700001 4279584801
0.039896052 0.038304396 0.37100002 4279575572
0.041101065 0.038304396 0.37100002 4279511574
0.042192038 0.03820115 0.37 4279187992
0.043393798 0.03820115 0.37 4279056406
0.04447503 0.038097903 0.36900002 4278728724
0.045673542 0.038097903 0.36900002 4278730007
0.046745032 0.037994657 0.36800003 4278532626
0.047940299 0.037994657 0.36800003 4278466833
0.04900204 0.03789141 0.36700001 4278532626
0.050057288 0.037788164 0.36600003 4278466833
0.051246058 0.037788164 0.36600003 4278335247
0.052291561 0.037684917 0.36500001 4278269454
0.053330574 0.037581671 0.36400002 4278269456
0.05451284 0.037581671 0.36400002 4278269456
0.055695117 0.037581671 0.36400002 4278532628
0.05687739 0.037581671 0.36400002 4278532115
0.058059659 0.037581671 0.36400002 4278532115
0.059241932 0.037581671 0.36400002 4278728211
0.060424209 0.037581671 0.36400002 4278196488
0.061606478 0.037581671 0.36400002 4279382555
0.062788747 0.037581671 0.36400002 4278858773
0.063971028 0.037581671 0.36400002 4278200074
0.065153301 0.037581671 0.36400002 4278391560
0.066335566 0.037581671 0.36400002 4279181076
0.067517839 0.037581671 0.36400002 4278522632
0.06870012 0.037581671 0.36400002 4279114769
0.069690399 0.037478425 0.36300001 4278785804
0.070869423 0.037478425 0.36300001 4278456839
0.072048448 0.037478425 0.36300001 4278719500
0.073227473 0.037478425 0.36300001 4278587912
0.074406497 0.037478425 0.36300001 4278587912
0.075585522 0.037478425 0.36300001 4278522119
0.076764546 0.037478425 0.36300001 4278522119
0.077943571 0.037478425 0.36300001 4278456328
0.079122595 0.037478425 0.36300001 4278523400
0.08030162 0.037478425 0.36300001 4279250199
0.081480645 0.037478425 0.36300001 4278923541
0.082659669 0.037478425 0.36300001 4279055127
0.083838694 0.037478425 0.36300001 4279185943
0.085017718 0.037478425 0.36300001 4279317529
0.086196743 0.037478425 0.36300001 4278856211
0.087375768 0.037478425 0.36300001 4278723855
0.088554792 0.037478425 0.36300001 4278263306
0.089733817 0.037478425 0.36300001 4278197254
0.090912841 0.037478425 0.36300001 4278195202
0.092091866 0.037478425 0.36300001 4278194432
0.09327089 0.037478425 0.36300001 4278194944
0.094189726 0.037375178 0.36200002 4278195456
0.095365502 0.037375178 0.36200002 4278196482
0.096541286 0.037375178 0.36200002 4278198280
0.097717062 0.037375178 0.36200002 4278397197
0.09889283 0.037375178 0.36200002 4278989845
0.10006861 0.037375178 0.36200002 4278727441
0.10124438 0.037375178 0.36200002 4278727441
0.10242017 0.037375178 0.36200002 4278465039
0.10359594 0.037375178 0.36200002 4278530832
0.10506114 0.037478425 0.36300001 4278465552
0.10624015 0.037478425 0.36300001 4278465552
0.10741919 0.037478425 0.36300001 4278662931
0.10859821 0.037478425 0.36300001 4278728722
0.11007966 0.037581671 0.36400002 4278532113
0.11126193 0.037581671 0.36400002 4278663699
0.11244421 0.037581671 0.36400002 4278598419
0.11393864 0.037684917 0.36500001 4278598417
0.11512415 0.037684917 0.36500001 4278599187
0.11662833 0.037788164 0.36600003 4278599187
0.1178171 0.037788164 0.36600003 4278862359
0.11900587 0.037788164 0.36600003 4278993945
0.12052304 0.03789141 0.36700001 4279059738
0.12171506 0.03789141 0.36700001 4278993947
0.12290706 0.03789141 0.36700001 4279649311
0.040990278 0.039403316 0.37 4279446803
0.042192038 0.039403316 0.37 4279385371
0.043393798 0.039403316 0.37 4278859797
0.04447503 0.039296821 0.36900002 4278662931
0.045673542 0.039296821 0.36900002 4278992666
0.046745032 0.03919033 0.36800003 4278663699
0.047940299 0.03919033 0.36800003 4278598419
0.04900204 0.039083831 0.36700001 4278335247
0.050057288 0.038977336 0.36600003 4278532626
0.051106039 0.038870838 0.36500001 4278269456
0.052291561 0.038870838 0.36500001 4278269456
0.053330574 0.038764346 0.36400002 4278334736
0.05451284 0.038764346 0.36400002 4278400529
0.055695117 0.038764346 0.36400002 4278597908
0.05687739 0.038764346 0.36400002 4278400529
0.058059659 0.038764346 0.36400002 4278268943
0.059241932 0.038764346 0.36400002 4278793752
0.060424209 0.038764346 0.36400002 4278194944
0.061606478 0.038764346 0.36400002 4278988310
0.062788747 0.038764346 0.36400002 4278529808
0.063971028 0.038764346 0.36400002 4278196224
0.065153301 0.038764346 0.36400002 4278523146
0.066335566 0.038764346 0.36400002 4278985234
0.067517839 0.038764346 0.36400002 4279117588
0.06870012 0.038764346 0.36400002 4278392582
0.069882385 0.038764346 0.36400002 4279116305
0.071064658 0.038764346 0.36400002 4278458375
0.072048448 0.038657848 0.36300001 4278721549
0.073227473 0.038657848 0.36300001 4279051025
0.074406497 0.038657848 0.36300001 4278852363
0.075793751 0.038764346 0.36400002 4279115535
0.076976024 0.038764346 0.36400002 4278852365
0.078158297 0.038764346 0.36400002 4278983951
0.07934057 0.038764346 0.36400002 4278260998
0.080522843 0.038764346 0.36400002 4279053074
0.081480645 0.038657848 0.36300001 4278792466
0.082659669 0.038657848 0.36300001 4278726673
0.083838694 0.038657848 0.36300001 4278331404
0.085017718 0.038657848 0.36300001 4278791955
0.086196743 0.038657848 0.36300001 4278792468
0.087375768 0.038657848 0.36300001 4279055640
0.088554792 0.038657848 0.36300001 4278726675
0.089733817 0.038657848 0.36300001 4278726675
0.090912841 0.038657848 0.36300001 4278989847
0.092091866 0.038657848 0.36300001 4278858261
0.09327089 0.038657848 0.36300001 4278923541
0.094449915 0.038657848 0.36300001 4278726162
0.09562894 0.038657848 0.36300001 4279185943
0.096807972 0.038657848 0.36300001 4279054357
0.097986996 0.038657848 0.36300001 4279119637
0.099166013 0.038657848 0.36300001 4278527500
0.10006861 0.038551353 0.36200002 4278394630
0.10124438 0.038551353 0.36200002 4278196480
0.10270309 0.038657848 0.36300001 4278194176
0.10388211 0.038657848 0.36300001 4278194176
0.10506114 0.038657848 0.36300001 4278195200
0.10624015 0.038657848 0.36300001 4278195712
0.10771511 0.038764346 0.36400002 4278461966
0.10889738 0.038764346 0.36400002 4278593552
0.11007966 0.038764346 0.36400002 4278462990
0.11126193 0.038764346 0.36400002 4278923539
0.11275312 0.038870838 0.36500001 4278465552
0.11393864 0.038870838 0.36500001 4278532113
0.11512415 0.038870838 0.36500001 4278532624
0.11662833 0.038977336 0.36600003 4278466831
0.1178171 0.038977336 0.36600003 4278466831
0.11933102 0.039083831 0.36700001 4278598417
0.12052304 0.039083831 0.36700001 4278664210
0.12171506 0.039083831 0.36700001 4278927382
0.12290706 0.039083831 0.36700001 4278861078
0.12443724 0.03919033 0.36800003 4278398474
0.040990278 0.040605485 0.37 4279578904
0.042192038 0.040605485 0.37 4279516703
0.043393798 0.040605485 0.37 4278925336
0.04447503 0.040495742 0.36900002 4278729494
0.045673542 0.040495742 0.36900002 4278992666
0.046745032 0.040385999 0.36800003 4278597908
0.047940299 0.040385999 0.36800003 4278597908
0.04900204 0.040276252 0.36700001 4278532628
0.050057288 0.040166508 0.36600003 4278269456
0.051106039 0.040056761 0.36500001 4278335249
0.052291561 0.040056761 0.36500001 4278466835
0.053330574 0.039947018 0.36400002 4278269456
0.05451284 0.039947018 0.36400002 4278532115
0.055695117 0.039947018 0.36400002 4278532115
0.05687739 0.039947018 0.36400002 4278532115
0.058059659 0.039947018 0.36400002 4278532115
0.059241932 0.039947018 0.36400002 4278331915
0.060424209 0.039947018 0.36400002 4278196999
0.061606478 0.039947018 0.36400002 4278988310
0.062788747 0.039947018 0.36400002 4278661394
0.063971028 0.039947018 0.36400002 4278196740
0.065153301 0.039947018 0.36400002 4278523146
0.066335566 0.039947018 0.36400002 4278458377
0.067517839 0.039947018 0.36400002 4278524683
0.06870012 0.039947018 0.36400002 4278656269
0.069882385 0.039947018 0.36400002 4279314197
0.071064658 0.039947018 0.36400002 4278260996
0.072246931 0.039947018 0.36400002 4279840028
0.073227473 0.039837271 0.36300001 4278195203
0.074611478 0.039947018 0.36400002 4278720265
0.075793751 0.039947018 0.36400002 4279511065
0.076976024 0.039947018 0.36400002 4278590476
0.078158297 0.039947018 0.36400002 4278195205
0.07934057 0.039947018 0.36400002 4278195716
0.080522843 0.039947018 0.36400002 4278922771
0.081705116 0.039947018 0.36400002 4278792466
0.082887389 0.039947018 0.36400002 4278197764
0.084069662 0.039947018 0.36400002 4278327304
0.085251927 0.039947018 0.36400002 4278393097
0.086196743 0.039837271 0.36300001 4278658832
0.087375768 0.039837271 0.36300001 4278198793
0.088554792 0.039837271 0.36300001 4278396943
0.089733817 0.039837271 0.36300001 4278198533
0.090912841 0.039837271 0.36300001 4278660882
0.092091866 0.039837271 0.36300001 4278792468
0.09327089 0.039837271 0.36300001 4278198019
0.094449915 0.039837271 0.36300001 4278462988
0.09562894 0.039837271 0.36300001 4279055892
0.096807972 0.039837271 0.36300001 4278858513
0.097986996 0.039837271 0.36300001 4278727441
0.099166013 0.039837271 0.36300001 4278727441
0.10034504 0.039837271 0.36300001 4278727441
0.10152406 0.039837271 0.36300001 4278727441
0.10270309 0.039837271 0.36300001 4278923793
0.10388211 0.039837271 0.36300001 4278857746
0.10535057 0.039947018 0.36400002 4278857746
0.10653283 0.039947018 0.36400002 4279055127
0.10771511 0.039947018 0.36400002 4278988564
0.10889738 0.039947018 0.36400002 4279251736
0.11007966 0.039947018 0.36400002 4279053590
0.11156759 0.040056761 0.36500001 4278263304
0.11275312 0.040056761 0.36500001 4278197763
0.11393864 0.040056761 0.36500001 4278661394
0.11543956 0.040166508 0.36600003 4278531345
0.11662833 0.040166508 0.36600003 4278399757
0.11813901 0.040276252 0.36700001 4278860306
0.11933102 0.040276252 0.36700001 4278728720
0.12052304 0.040276252 0.36700001 4278794513
0.12171506 0.040276252 0.36700001 4278794515
0.12324197 0.040385999 0.36800003 4278859795
0.12443724 0.040385999 0.36800003 4279319578
0.040990278 0.041807652 0.37 4278854927
0.042192038 0.041807652 0.37 4279319324
0.043393798 0.041807652 0.37 4278990359
0.04447503 0.04169466 0.36900002 4278729494
0.045673542 0.04169466 0.36900002 4278993177
0.046745032 0.041581668 0.36800003 4278532626
0.047810022 0.041468672 0.36700001 4278335249
0.04900204 0.041468672 0.36700001 4278335249
0.050057288 0.041355681 0.36600003 4278532628
0.051106039 0.041242685 0.36500001 4278532628
0.052291561 0.041242685 0.36500001 4278335249
0.053330574 0.04112969 0.36400002 4278466835
0.05451284 0.04112969 0.36400002 4278335247
0.055695117 0.04112969 0.36400002 4278269456
0.05687739 0.04112969 0.36400002 4278466835
0.058059659 0.04112969 0.36400002 4278334736
0.059241932 0.04112969 0.36400002 4278199047
0.060424209 0.04112969 0.36400002 4278195716
0.061606478 0.04112969 0.36400002 4278922517
0.062788747 0.04112969 0.36400002 4278595601
0.063971028 0.04112969 0.36400002 4278195971
0.065153301 0.04112969 0.36400002 4278522632
0.066335566 0.04112969 0.36400002 4278456841
0.067517839 0.04112969 0.36400002 4278522634
0.06870012 0.04112969 0.36400002 4278522632
0.069882385 0.04112969 0.36400002 4278391046
0.070869423 0.041016694 0.36300001 4278391046
0.072048448 0.041016694 0.36300001 4278456839
0.073227473 0.041016694 0.36300001 4278456328
0.074611478 0.04112969 0.36400002 4278391814
0.075793751 0.04112969 0.36400002 4278853648
0.076976024 0.04112969 0.36400002 4278920724
0.078158297 0.04112969 0.36400002 4278393097
0.07934057 0.04112969 0.36400002 4278195201
0.080522843 0.04112969 0.36400002 4278858259
0.081705116 0.04112969 0.36400002 4278197761
0.082887389 0.04112969 0.36400002 4278195459
0.084069662 0.04112969 0.36400002 4278589193
0.085251927 0.04112969 0.36400002 4278654218
0.0864342 0.04112969 0.36400002 4278459660
0.087616481 0.04112969 0.36400002 4278329099
0.088798746 0.04112969 0.36400002 4278858259
0.089981019 0.04112969 0.36400002 4278989845
0.091163293 0.04112969 0.36400002 4278527500
0.092345566 0.04112969 0.36400002 4278198020
0.093527839 0.04112969 0.36400002 4278923541
0.094710112 0.04112969 0.36400002 4278594576
0.095892385 0.04112969 0.36400002 4278397195
0.097074665 0.04112969 0.36400002 4278266122
0.098256938 0.04112969 0.36400002 4278464015
0.099439196 0.04112969 0.36400002 4278661394
0.10062148 0.04112969 0.36400002 4278465039
0.10180375 0.04112969 0.36400002 4278596625
0.10298602 0.04112969 0.36400002 4278465039
0.1041683 0.04112969 0.36400002 4278595855
0.10535057 0.04112969 0.36400002 4278728211
0.10653283 0.04112969 0.36400002 4278596625
0.10801102 0.041242685 0.36500001 4278728211
0.10919655 0.041242685 0.36500001 4278596371
0.11038207 0.041242685 0.36500001 4278530578
0.11156759 0.041242685 0.36500001 4279055638
0.11275312 0.041242685 0.36500001 4278195712
0.1142508 0.041355681 0.36600003 4278858259
0.11543956 0.041355681 0.36600003 4278794517
0.11662833 0.041355681 0.36600003 4278531343
0.11813901 0.041468672 0.36700001 4278728209
0.11933102 0.041468672 0.36700001 4278728209
0.12085145 0.041581668 0.36800003 4278728722
0.12204671 0.041581668 0.36800003 4278926101
0.12324197 0.041581668 0.36800003 4278728211
0.12443724 0.041581668 0.36800003 4279121431
0.042192038 0.043009818 0.37 4279449115
0.043393798 0.043009818 0.37 4279319578
0.04447503 0.042893577 0.36900002 4279058459
0.045549769 0.042777337 0.36800003 4279058972
0.046745032 0.042777337 0.36800003 4278795800
0.047810022 0.042661093 0.36700001 4278532628
0.04900204 0.042661093 0.36700001 4278532628
0.050057288 0.042544849 0.36600003 4278466835
0.051106039 0.042428605 0.36500001 4278334995
0.052291561 0.042428605 0.36500001 4278269202
0.053330574 0.042312365 0.36400002 4278466835
0.05451284 0.042312365 0.36400002 4278532628
0.055695117 0.042312365 0.36400002 4278400529
0.05687739 0.042312365 0.36400002 4278334736
0.058059659 0.042312365 0.36400002 4278596373
0.059241932 0.042312365 0.36400002 4278529296
0.060424209 0.042312365 0.36400002 4278396173
0.061606478 0.042312365 0.36400002 4278858261
0.062788747 0.042312365 0.36400002 4278727441
0.063971028 0.042312365 0.36400002 4278725392
0.065153301 0.042312365 0.36400002 4278456839
0.066335566 0.042312365 0.36400002 4278522632
0.067517839 0.042312365 0.36400002 4278522632
0.06870012 0.042312365 0.36400002 4278654220
0.069882385 0.042312365 0.36400002 4278522121
0.070869423 0.042196121 0.36300001 4278522121
0.072048448 0.042196121 0.36300001 4278587914
0.073227473 0.042196121 0.36300001 4278719500
0.074406497 0.042196121 0.36300001 4278587914
0.075793751 0.042312365 0.36400002 4278456328
0.076976024 0.042312365 0.36400002 4278391048
0.078158297 0.042312365 0.36400002 4278456841
0.07934057 0.042312365 0.36400002 4279052822
0.080522843 0.042312365 0.36400002 4278792468
0.081705116 0.042312365 0.36400002 4278922771
0.082887389 0.042312365 0.36400002 4278392582
0.084069662 0.042312365 0.36400002 4278522632
0.085251927 0.042312365 0.36400002 4278391046
0.0864342 0.042312365 0.36400002 4279183894
0.087616481 0.042312365 0.36400002 4278196998
0.088798746 0.042312365 0.36400002 4278856978
0.089981019 0.042312365 0.36400002 4278330634
0.091163293 0.042312365 0.36400002 4278856465
0.092345566 0.042312365 0.36400002 4278198535
0.093527839 0.042312365 0.36400002 4278792466
0.094710112 0.042312365 0.36400002 4278397708
0.095892385 0.042312365 0.36400002 4279054357
0.097074665 0.042312365 0.36400002 4278195712
0.098256938 0.042312365 0.36400002 4278263304
0.099439196 0.042312365 0.36400002 4278460683
0.10062148 0.042312365 0.36400002 4278196997
0.10180375 0.042312365 0.36400002 4278197767
0.10298602 0.042312365 0.36400002 4278593806
0.1041683 0.042312365 0.36400002 4278196992
0.10563999 0.042428605 0.36500001 4279120920
0.1068255 0.042428605 0.36500001 4278197248
0.10801102 0.042428605 0.36500001 4278196736
0.10919655 0.042428605 0.36500001 4278661396
0.11038207 0.042428605 0.36500001 4278596371
0.11156759 0.042428605 0.36500001 4278595089
0.11306203 0.042544849 0.36600003 4278725392
0.1142508 0.042544849 0.36600003 4279055892
0.11543956 0.042544849 0.36600003 4278662931
0.11694699 0.042661093 0.36700001 4278662931
0.11813901 0.042661093 0.36700001 4278662929
0.11965618 0.042777337 0.36800003 4278728722
0.12085145 0.042777337 0.36800003 4278662929
0.12204671 0.042777337 0.36800003 4278794515
0.12324197 0.042777337 0.36800003 4278596625
0.12443724 0.042777337 0.36800003 4279516189
0.044354506 0.043973006 0.36800003 4278793750
0.045549769 0.043973006 0.36800003 4279124252
0.046745032 0.043973006 0.36800003 4278993179
0.047810022 0.04385351 0.36700001 4278730007
0.04900204 0.04385351 0.36700001 4278597908
0.050057288 0.043734021 0.36600003 4278729494
0.051106039 0.043614529 0.36500001 4278795800
0.052291561 0.043614529 0.36500001 4278598421
0.053330574 0.043495037 0.36400002 4278466835
0.05451284 0.043495037 0.36400002 4278532628
0.055695117 0.043495037 0.36400002 4278597908
0.05687739 0.043495037 0.36400002 4278597908
0.058059659 0.043495037 0.36400002 4278531091
0.059241932 0.043495037 0.36400002 4278265870
0.060424209 0.043495037 0.36400002 4278199307
0.061606478 0.043495037 0.36400002 4278726675
0.062788747 0.043495037 0.36400002 4278859543
0.063971028 0.043495037 0.36400002 4278793750
0.065153301 0.043495037 0.36400002 4278924568
0.066335566 0.043495037 0.36400002 4278989847
0.067517839 0.043495037 0.36400002 4279186713
0.06870012 0.043495037 0.36400002 4279119637
0.069690399 0.043375544 0.36300001 4279250199
0.070869423 0.043375544 0.36300001 4279315478
0.072048448 0.043375544 0.36300001 4278854929
0.073227473 0.043375544 0.36300001 4278657037
0.074406497 0.043375544 0.36300001 4278194691
0.075585522 0.043375544 0.36300001 4278259974
0.076976024 0.043495037 0.36400002 4278456839
0.078158297 0.043495037 0.36400002 4278588941
0.07934057 0.043495037 0.36400002 4278987797
0.080522843 0.043495037 0.36400002 4278265357
0.081705116 0.043495037 0.36400002 4278527246
0.082887389 0.043495037 0.36400002 4279512857
0.084069662 0.043495037 0.36400002 4279577367
0.085251927 0.043495037 0.36400002 4279643930
0.0864342 0.043495037 0.36400002 4278922517
0.087616481 0.043495037 0.36400002 4278858007
0.088798746 0.043495037 0.36400002 4278726675
0.089981019 0.043495037 0.36400002 4278791955
0.091163293 0.043495037 0.36400002 4278923541
0.092345566 0.043495037 0.36400002 4278791955
0.093527839 0.043495037 0.36400002 4278196224
0.094710112 0.043495037 0.36400002 4279317275
0.095892385 0.043495037 0.36400002 4279055127
0.097074665 0.043495037 0.36400002 4278264841
0.098256938 0.043495037 0.36400002 4279053590
0.099439196 0.043495037 0.36400002 4278195456
0.10062148 0.043495037 0.36400002 4279710750
0.10180375 0.043495037 0.36400002 4278198024
0.10326895 0.043614529 0.36500001 4278987797
0.10445447 0.043614529 0.36500001 4278197510
0.10563999 0.043614529 0.36500001 4278461455
0.1068255 0.043614529 0.36500001 4279579164
0.10801102 0.043614529 0.36500001 4278198024
0.10919655 0.043614529 0.36500001 4278660628
0.11068449 0.043734021 0.36600003 4278858775
0.11187326 0.043734021 0.36600003 4278199561
0.11306203 0.043734021 0.36600003 4279251221
0.1142508 0.043734021 0.36600003 4278858513
0.11543956 0.043734021 0.36600003 4278728209
0.11694699 0.04385351 0.36700001 4278530832
0.11813901 0.04385351 0.36700001 4278728209
0.11965618 0.043973006 0.36800003 4278728209
0.12085145 0.043973006 0.36800003 4278859795
0.12204671 0.043973006 0.36800003 4278596623
0.12324197 0.043973006 0.36800003 4278728211
0.12443724 0.043973006 0.36800003 4279450910
0.040768709 0.045168675 0.36800003 4284644461
0.041963976 0.045168675 0.36800003 4284710254
0.043041959 0.045045931 0.36700001 4285171573
0.044354506 0.045168675 0.36800003 4282804306
0.045549769 0.045168675 0.36800003 4279317277
0.046618003 0.045045931 0.36700001 4279385119
0.047810022 0.045045931 0.36700001 4279451680
0.048868522 0.044923194 0.36600003 4279386400
0.050057288 0.044923194 0.36600003 4279254814
0.051106039 0.044800449 0.36500001 4279189021
0.052291561 0.044800449 0.36500001 4278860826
0.053330574 0.044677708 0.36400002 4278795287
0.05451284 0.044677708 0.36400002 4278992666
0.055695117 0.044677708 0.36400002 4278795287
0.05687739 0.044677708 0.36400002 4278795287
0.058059659 0.044677708 0.36400002 4278861080
0.059241932 0.044677708 0.36400002 4278992412
0.060424209 0.044677708 0.36400002 4279188508
0.061606478 0.044677708 0.36400002 4279056922
0.062788747 0.044677708 0.36400002 4278925849
0.063971028 0.044677708 0.36400002 4278991642
0.065153301 0.044677708 0.36400002 4278925849
0.066335566 0.044677708 0.36400002 4278925849
0.067517839 0.044677708 0.36400002 4278991129
0.06870012 0.044677708 0.36400002 4278859543
0.069690399 0.044554967 0.36300001 4278990359
0.070869423 0.044554967 0.36300001 4278990359
0.072048448 0.044554967 0.36300001 4278990359
0.073227473 0.044554967 0.36300001 4278990359
0.074406497 0.044554967 0.36300001 4278990359
0.075585522 0.044554967 0.36300001 4278989845
0.076764546 0.044554967 0.36300001 4279120920
0.078158297 0.044677708 0.36400002 4278923541
0.07934057 0.044677708 0.36400002 4279252506
0.080522843 0.044677708 0.36400002 4279318045
0.081705116 0.044677708 0.36400002 4279185943
0.082887389 0.044677708 0.36400002 4279053590
0.084069662 0.044677708 0.36400002 4278723855
0.085251927 0.044677708 0.36400002 4278197256
0.0864342 0.044677708 0.36400002 4278195714
0.087616481 0.044677708 0.36400002 4278194944
0.088798746 0.044677708 0.36400002 4278194945
0.089981019 0.044677708 0.36400002 4278195714
0.091163293 0.044677708 0.36400002 4278196482
0.092345566 0.044677708 0.36400002 4278527246
0.093527839 0.044677708 0.36400002 4278922004
0.094710112 0.044677708 0.36400002 4278988051
0.095892385 0.044677708 0.36400002 4279251736
0.097074665 0.044677708 0.36400002 4279185943
0.098256938 0.044677708 0.36400002 4278923541
0.099712379 0.044800449 0.36500001 4279055127
0.1008979 0.044800449 0.36500001 4278923541
0.10208342 0.044800449 0.36500001 4279120920
0.10326895 0.044800449 0.36500001 4279317016
0.10445447 0.044800449 0.36500001 4279251736
0.10563999 0.044800449 0.36500001 4278923541
0.1068255 0.044800449 0.36500001 4278331150
0.10801102 0.044800449 0.36500001 4278265357
0.10949572 0.044923194 0.36600003 4278858261
0.11068449 0.044923194 0.36600003 4278727189
0.11187326 0.044923194 0.36600003 4278196996
0.11306203 0.044923194 0.36600003 4278988816
0.1142508 0.044923194 0.36600003 4278792720
0.11575497 0.045045931 0.36700001 4278728211
0.11694699 0.045045931 0.36700001 4278530832
0.11813901 0.045045931 0.36700001 4278794002
0.11965618 0.045168675 0.36800003 4278728209
0.12085145 0.045168675 0.36800003 4278859795
0.12204671 0.045168675 0.36800003 4278728209
0.12324197 0.045168675 0.36800003 4278990613
0.12443724 0.045168675 0.36800003 4278660369
0.040768709 0.046364348 0.36800003 4284447082
0.041849941 0.046238355 0.36700001 4284907633
0.043041959 0.046238355 0.36700001 4284841840
0.044233974 0.046238355 0.36700001 4284776561
0.045425989 0.046238355 0.36700001 4284711538
0.046618003 0.046238355 0.36700001 4285303159
0.047810022 0.046238355 0.36700001 4284382057
0.048868522 0.046112366 0.36600003 4282210886
0.050057288 0.046112366 0.36600003 4280172586
0.051106039 0.045986373 0.36500001 4278857496
0.052291561 0.045986373 0.36500001 4278462740
0.053330574 0.045860387 0.36400002 4278595349
0.05451284 0.045860387 0.36400002 4279121947
0.055695117 0.045860387 0.36400002 4279187740
0.05687739 0.045860387 0.36400002 4279056924
0.058059659 0.045860387 0.36400002 4279188510
0.059241932 0.045860387 0.36400002 4279320096
0.060424209 0.045860387 0.36400002 4279320094
0.061606478 0.045860387 0.36400002 4279123482
0.062788747 0.045860387 0.36400002 4279123482
0.063971028 0.045860387 0.36400002 4279123482
0.065153301 0.045860387 0.36400002 4278663701
0.066335566 0.045860387 0.36400002 4278992666
0.067517839 0.045860387 0.36400002 4278991896
0.068511374 0.045734394 0.36300001 4278991896
0.069690399 0.045734394 0.36300001 4278991896
0.070869423 0.045734394 0.36300001 4279255068
0.072048448 0.045734394 0.36300001 4278991896
0.073227473 0.045734394 0.36300001 4279123482
0.074406497 0.045734394 0.36300001 4278991896
0.075585522 0.045734394 0.36300001 4278926103
0.076764546 0.045734394 0.36300001 4278860310
0.077943571 0.045734394 0.36300001 4278728724
0.07934057 0.045860387 0.36400002 4278860310
0.080522843 0.045860387 0.36400002 4278926103
0.081705116 0.045860387 0.36400002 4278925590
0.082887389 0.045860387 0.36400002 4278859027
0.084069662 0.045860387 0.36400002 4279056152
0.085251927 0.045860387 0.36400002 4278858773
0.0864342 0.045860387 0.36400002 4278990359
0.087616481 0.045860387 0.36400002 4279055638
0.088798746 0.045860387 0.36400002 4278923539
0.089981019 0.045860387 0.36400002 4279055127
0.091163293 0.045860387 0.36400002 4279185943
0.092345566 0.045860387 0.36400002 4279383322
0.093527839 0.045860387 0.36400002 4279514141
0.094710112 0.045860387 0.36400002 4279250969
0.095892385 0.045860387 0.36400002 4278526476
0.097074665 0.045860387 0.36400002 4278196226
0.098526873 0.045986373 0.36500001 4278194944
0.099712379 0.045986373 0.36500001 4278194944
0.1008979 0.045986373 0.36500001 4278193920
0.10208342 0.045986373 0.36500001 4278195200
0.10326895 0.045986373 0.36500001 4278196226
0.10445447 0.045986373 0.36500001 4278789648
0.10563999 0.045986373 0.36500001 4278527759
0.10711818 0.046112366 0.36600003 4278856724
0.10830695 0.046112366 0.36600003 4279055127
0.10949572 0.046112366 0.36600003 4278792466
0.11068449 0.046112366 0.36600003 4279318297
0.11187326 0.046112366 0.36600003 4278195971
0.11306203 0.046112366 0.36600003 4278857746
0.1142508 0.046112366 0.36600003 4278859797
0.11575497 0.046238355 0.36700001 4278991383
0.11694699 0.046238355 0.36700001 4278728211
0.11813901 0.046238355 0.36700001 4278728211
0.11965618 0.046364348 0.36800003 4278794004
0.12085145 0.046364348 0.36800003 4278859795
0.12204671 0.046364348 0.36800003 4278859025
0.12324197 0.046364348 0.36800003 4278923539
0.041849941 0.047430772 0.36700001 4284776047
0.043041959 0.047430772 0.36700001 4284973426
0.044233974 0.047430772 0.36700001 4284973942
0.045425989 0.047430772 0.36700001 4284842356
0.046618003 0.047430772 0.36700001 4284973426
0.047810022 0.047430772 0.36700001 4284907633
0.048868522 0.047301535 0.36600003 4284710768
0.050057288 0.047301535 0.36600003 4284184424
0.051106039 0.047172293 0.36500001 4284052840
0.052291561 0.047172293 0.36500001 4283789666
0.053477082 0.047172293 0.36500001 4283723873
0.05451284 0.047043055 0.36400002 4283789666
0.055695117 0.047043055 0.36400002 4283592287
0.05687739 0.047043055 0.36400002 4283789920
0.058059659 0.047043055 0.36400002 4283328855
0.059241932 0.047043055 0.36400002 4282013509
0.060424209 0.047043055 0.36400002 4280369967
0.061606478 0.047043055 0.36400002 4279186461
0.062788747 0.047043055 0.36400002 4278923541
0.063971028 0.047043055 0.36400002 4278791953
0.065153301 0.047043055 0.36400002 4279055125
0.066335566 0.047043055 0.36400002 4279121431
0.067517839 0.047043055 0.36400002 4279187740
0.068511374 0.046913814 0.36300001 4279319326
0.069690399 0.046913814 0.36300001 4279056922
0.070869423 0.046913814 0.36300001 4278991129
0.072048448 0.046913814 0.36300001 4279056922
0.073227473 0.046913814 0.36300001 4279123228
0.074406497 0.046913814 0.36300001 4278860056
0.075585522 0.046913814 0.36300001 4279123482
0.076764546 0.046913814 0.36300001 4279123482
0.077943571 0.046913814 0.36300001 4278991896
0.079122595 0.046913814 0.36300001 4279123482
0.08030162 0.046913814 0.36300001 4279189275
0.081480645 0.046913814 0.36300001 4278926103
0.082659669 0.046913814 0.36300001 4278991896
0.083838694 0.046913814 0.36300001 4278926103
0.085251927 0.047043055 0.36400002 4278926103
0.0864342 0.047043055 0.36400002 4278860310
0.087616481 0.047043055 0.36400002 4278926103
0.088798746 0.047043055 0.36400002 4278991383
0.089981019 0.047043055 0.36400002 4278991383
0.091163293 0.047043055 0.36400002 4278924820
0.092345566 0.047043055 0.36400002 4279056406
0.093527839 0.047043055 0.36400002 4279187992
0.094710112 0.047043055 0.36400002 4279253017
0.095892385 0.047043055 0.36400002 4279252504
0.097074665 0.047043055 0.36400002 4279252504
0.098526873 0.047172293 0.36500001 4279120918
0.099712379 0.047172293 0.36500001 4279186711
0.1008979 0.047172293 0.36500001 4279317527
0.10208342 0.047172293 0.36500001 4279383322
0.10326895 0.047172293 0.36500001 4279514908
0.10445447 0.047172293 0.36500001 4279711774
0.10592942 0.047301535 0.36600003 4279053074
0.10711818 0.047301535 0.36600003 4279052820
0.10830695 0.047301535 0.36600003 4278329097
0.10949572 0.047301535 0.36600003 4278196740
0.11068449 0.047301535 0.36600003 4278195714
0.11187326 0.047301535 0.36600003 4279381787
0.11306203 0.047301535 0.36600003 4279319324
0.1142508 0.047301535 0.36600003 4278793750
0.11575497 0.047430772 0.36700001 4278728211
0.11694699 0.047430772 0.36700001 4278859797
0.11813901 0.047430772 0.36700001 4278794004
0.11965618 0.047560014 0.36800003 4278991381
0.12085145 0.047560014 0.36800003 4278794002
0.12204671 0.047560014 0.36800003 4278991381
0.12324197 0.047560014 0.36800003 4278922004
0.041849941 0.048623197 0.36700001 4284710254
0.043041959 0.048623197 0.36700001 4284841842
0.044233974 0.048623197 0.36700001 4284841842
0.045425989 0.048623197 0.36700001 4285105014
0.046618003 0.048623197 0.36700001 4284841842
0.047679752 0.048490711 0.36600003 4284776049
0.048868522 0.048490711 0.36600003 4284644463
0.050057288 0.048490711 0.36600003 4284447084
0.051106039 0.048358217 0.36500001 4284249705
0.052291561 0.048358217 0.36500001 4283986533
0.053477082 0.048358217 0.36500001 4283789152
0.066335566 0.048225731 0.36400002 4285434745
0.067517839 0.048225731 0.36400002 4284974194
0.068511374 0.048093241 0.36300001 4283921504
0.069690399 0.048093241 0.36300001 4282211658
0.070869423 0.048093241 0.36300001 4280632372
0.072048448 0.048093241 0.36300001 4279514141
0.073227473 0.048093241 0.36300001 4278922258
0.074406497 0.048093241 0.36300001 4278725392
0.075585522 0.048093241 0.36300001 4279054357
0.076764546 0.048093241 0.36300001 4279252506
0.077943571 0.048093241 0.36300001 4279253019
0.079122595 0.048093241 0.36300001 4279187738
0.08030162 0.048093241 0.36300001 4279121945
0.081480645 0.048093241 0.36300001 4279121945
0.082659669 0.048093241 0.36300001 4279254555
0.083838694 0.048093241 0.36300001 4279188762
0.085017718 0.048093241 0.36300001 4279057176
0.086196743 0.048093241 0.36300001 4279188762
0.087616481 0.048225731 0.36400002 4279188762
0.088798746 0.048225731 0.36400002 4279057176
0.089981019 0.048225731 0.36400002 4278925590
0.091163293 0.048225731 0.36400002 4279188762
0.092345566 0.048225731 0.36400002 4279057176
0.093527839 0.048225731 0.36400002 4279057176
0.094710112 0.048225731 0.36400002 4279188762
0.095892385 0.048225731 0.36400002 4279320346
0.097074665 0.048225731 0.36400002 4279057174
0.098526873 0.048358217 0.36500001 4279188760
0.099712379 0.048358217 0.36500001 4279188760
0.1008979 0.048358217 0.36500001 4279057174
0.10208342 0.048358217 0.36500001 4279254553
0.10326895 0.048358217 0.36500001 4279254553
0.10474065 0.048490711 0.36600003 4279188760
0.10592942 0.048490711 0.36600003 4279319064
0.10711818 0.048490711 0.36600003 4279319064
0.10830695 0.048490711 0.36600003 4279516443
0.10949572 0.048490711 0.36600003 4279319064
0.11068449 0.048490711 0.36600003 4279319064
0.11187326 0.048490711 0.36600003 4279450650
0.11306203 0.048490711 0.36600003 4278991383
0.1142508 0.048490711 0.36600003 4278596625
0.11543956 0.048490711 0.36600003 4278991383
0.11694699 0.048623197 0.36700001 4278925590
0.11813901 0.048623197 0.36700001 4279057176
0.11933102 0.048623197 0.36700001 4278991383
0.12085145 0.048755687 0.36800003 4279188762
0.12204671 0.048755687 0.36800003 4278990613
0.041849941 0.049815614 0.36700001 4284644461
0.043041959 0.049815614 0.36700001 4284776047
0.044233974 0.049815614 0.36700001 4284973426
0.045425989 0.049815614 0.36700001 4284907633
0.046618003 0.049815614 0.36700001 4284973426
0.047679752 0.049679875 0.36600003 4284841840
0.048868522 0.049679875 0.36600003 4284841842
0.050057288 0.049679875 0.36600003 4284644463
0.076764546 0.049272664 0.36300001 4285434231
0.077943571 0.049272664 0.36300001 4285236850
0.079122595 0.049272664 0.36300001 4284054373
0.08030162 0.049272664 0.36300001 4282804308
0.081480645 0.049272664 0.36300001 4281619517
0.082659669 0.049272664 0.36300001 4280040485
0.083838694 0.049272664 0.36300001 4279579418
0.085017718 0.049272664 0.36300001 4279118865
0.086196743 0.049272664 0.36300001 4279054355
0.087616481 0.049408402 0.36400002 4278922771
0.088798746 0.049408402 0.36400002 4279185943
0.089981019 0.049408402 0.36400002 4278923541
0.091163293 0.049408402 0.36400002 4278791955
0.092345566 0.049408402 0.36400002 4279318299
0.093527839 0.049408402 0.36400002 4279581469
0.094710112 0.049408402 0.36400002 4279581723
0.095892385 0.049408402 0.36400002 4279515930
0.097074665 0.049408402 0.36400002 4279384344
0.098526873 0.049544137 0.36500001 4279450648
0.099712379 0.049544137 0.36500001 4279122197
0.1008979 0.049544137 0.36500001 4279319576
0.10208342 0.049544137 0.36500001 4279187992
0.10326895 0.049544137 0.36500001 4279187738
0.10474065 0.049679875 0.36600003 4279385117
0.10592942 0.049679875 0.36600003 4279450650
0.10711818 0.049679875 0.36600003 4279516443
0.10830695 0.049679875 0.36600003 4279516441
0.10949572 0.049679875 0.36600003 4279319062
0.11068449 0.049679875 0.36600003 4279451162
0.11187326 0.049679875 0.36600003 4279385369
0.11306203 0.049679875 0.36600003 4279187992
0.1142508 0.049679875 0.36600003 4279319578
0.11543956 0.049679875 0.36600003 4279385371
0.11694699 0.049815614 0.36700001 4279582750
0.11813901 0.049815614 0.36700001 4279451164
0.11933102 0.049815614 0.36700001 4279516957
0.12052304 0.049815614 0.36700001 4279448600
0.08030162 0.050452087 0.36300001 4285105266
0.081480645 0.050452087 0.36300001 4284842094
0.082659669 0.050452087 0.36300001 4285105266
0.083838694 0.050452087 0.36300001 4284973680
0.085017718 0.050452087 0.36300001 4285105266
0.086196743 0.050452087 0.36300001 4284841840
0.087616481 0.050591078 0.36400002 4285170805
0.088798746 0.050591078 0.36400002 4285762681
0.089981019 0.050591078 0.36400002 4285762681
0.091163293 0.050591078 0.36400002 4285828474
0.092345566 0.050591078 0.36400002 4285696890
0.093527839 0.050591078 0.36400002 4285697915
0.094710112 0.050591078 0.36400002 4285303157
0.095892385 0.050591078 0.36400002 4285237362
0.097074665 0.050591078 0.36400002 4285039985
0.098526873 0.050730061 0.36500001 4284513643
0.099712379 0.050730061 0.36500001 4284118885
0.1008979 0.050730061 0.36500001 4283131988
0.10208342 0.050730061 0.36500001 4282474058
0.10326895 0.050730061 0.36500001 4282210370
0.10474065 0.050869051 0.36600003 4281815612
0.10592942 0.050869051 0.36600003 4280762924
0.10711818 0.050869051 0.36600003 4280894510
0.10830695 0.050869051 0.36600003 4280697385
0.10949572 0.050869051 0.36600003 4280500006
0.11068449 0.050869051 0.36600003 4280303141
0.11187326 0.050869051 0.36600003 4279842590
0.11306203 0.050869051 0.36600003 4279381785
0.1142508 0.050869051 0.36600003 4279381785
0.11543956 0.050869051 0.36600003 4279513371
0.11662833 0.050869051 0.36600003 4279973922
0.11813901 0.051008034 0.36700001 4281683767
0.11933102 0.051008034 0.36700001 4284841831
0.12052304 0.051008034 0.36700001 4286287742
0.087616481 0.051773753 0.36400002 4285236339
0.088798746 0.051773753 0.36400002 4285301362
0.089981019 0.051773753 0.36400002 4285367155
0.095892385 0.051773753 0.36400002 4285236339
0.097074665 0.051773753 0.36400002 4285170546
0.098526873 0.051915988 0.36500001 4284973167
0.099712379 0.051915988 0.36500001 4285170546
0.1008979 0.051915988 0.36500001 4285301362
0.10208342 0.051915988 0.36500001 4285432948
0.10326895 0.051915988 0.36500001 4285498741
0.10474065 0.052058224 0.36600003 4285498741
0.10592942 0.052058224 0.36600003 4285631097
0.10711818 0.052058224 0.36600003 4285631097
0.10830695 0.052058224 0.36600003 4285433718
0.10949572 0.052058224 0.36600003 4285696890
0.11068449 0.052058224 0.36600003 4285630327
0.11187326 0.052058224 0.36600003 4285761913
0.11306203 0.052058224 0.36600003 4285761911
0.1142508 0.052058224 0.36600003 4285630325
0.11543956 0.052058224 0.36600003 4285893497
0.11662833 0.052058224 0.36600003 4285761911
0.1178171 0.052058224 0.36600003 4285893497
0.076808222 0.040630989 0.36608726 4294967295
0.076808222 0.040630989 0.36608726 4294901760
0.07686501 0.040138394 0.36602303 4294901760
0.076921806 0.039645799 0.36595881 4294901760
0.076978594 0.039153207 0.36589456 4294901760
0.07703539 0.038660612 0.36583033 4294901760
0.077092178 0.038168017 0.36576611 4294901760
0.077148974 0.037675422 0.36570188 4294901760
0.077205762 0.03718283 0.36563763 4294901760
0.077262558 0.036690235 0.36557341 4294901760
0.077319346 0.03619764 0.36550918 4294901760
0.077376142 0.035705045 0.36544496 4294901760
0.07743293 0.03521245 0.36538073 4294901760
0.077489726 0.034719858 0.36531648 4294901760
0.077546515 0.034227263 0.36525226 4294901760
0.07760331 0.033734668 0.36518803 4294901760
0.077660099 0.033242073 0.36512381 4294901760
0.077716894 0.032749481 0.36505955 4294901760
0.077773683 0.032256886 0.36499533 4294901760
0.077830471 0.031764291 0.36493111 4294901760
0.077887267 0.031271696 0.36486688 4294901760
0.077944055 0.030779103 0.36480266 4294901760
0.078000851 0.03028651 0.3647384 4294901760
0.078057639 0.029793914 0.36467418 4294901760
0.078114435 0.029301319 0.36460996 4294901760
0.078171223 0.028808726 0.36454573 4294901760
0.078228019 0.028316133 0.36448151 4294901760
0.078284808 0.027823538 0.36441725 4294901760
0.078341603 0.027330942 0.36435303 4294901760
0.078398392 0.026838349 0.36428881 4294901760
0.078455187 0.026345756 0.36422458 4294901760
0.078511976 0.025853161 0.36416033 4294901760
0.078568771 0.025360566 0.36409611 4294901760
0.07862556 0.024867972 0.36403188 4294901760
0.078682356 0.024375377 0.36396766 4294901760
0.078739144 0.023882784 0.36390343 4294901760
0.078795932 0.023390189 0.36383918 4294901760
0.078852728 0.022897594 0.36377496 4294901760
0.078909516 0.022405 0.36371073 4294901760
0.078966312 0.021912407 0.36364651 4294901760
0.0790231 0.021419812 0.36358225 4294901760
0.079079896 0.020927217 0.36351803 4294901760
0.079136685 0.020434624 0.36345381 4294901760
0.07919348 0.01994203 0.36338958 4294901760
0.079250269 0.019449435 0.36332536 4294901760
0.079307064 0.01895684 0.3632611 4294901760
0.079363853 0.018464247 0.36319688 4294901760
0.079420649 0.017971652 0.36313266 4294901760
0.079477437 0.017479058 0.36306843 4294901760
0.079534233 0.016986463 0.36300418 4294901760
0.079591021 0.016493868 0.36293995 4294901760
0.079647809 0.016001275 0.36287573 4294901760
0.079704605 0.015508682 0.36281151 4294901760
0.079761393 0.015016086 0.36274728 4294901760
0.079818189 0.014523493 0.36268303 4294901760
0.079874977 0.014030896 0.3626188 4294901760
0.079931773 0.013538303 0.36255458 4294901760
0.079988562 0.01304571 0.36249036 4294901760
0.080045357 0.012553114 0.3624261 4294901760
0.080102146 0.012060521 0.36236188 4294901760
0.080158941 0.011567928 0.36229765 4294901760
0.08021573 0.011075331 0.36223343 4294901760
0.080272526 0.010582738 0.36216921 4294901760
0.080329314 0.010090142 0.36210495 4294901760
0.08038611 0.0095975492 0.36204073 4294901760
0.080442898 0.0091049559 0.3619765 4294901760
0.080499694 0.0086123608 0.36191228 4294901760
0.080556482 0.0081197657 0.36184803 4294901760
0.08061327 0.0076271705 0.3617838 4294901760
0.080670066 0.0071345791 0.36171958 4294901760
0.080726855 0.006641984 0.36165535 4294901760
0.08078365 0.0061493888 0.36159113 4294901760
0.080840439 0.0056567974 0.36152688 4294901760
0.080897234 0.0051641986 0.36146265 4294901760
0.080954023 0.0046716072 0.36139843 4294901760
0.081010818 0.004179012 0.3613342 4294901760
0.081067607 0.0036864169 0.36126995 4294901760
0.081124403 0.0031938255 0.36120573 4294901760
0.081181191 0.0027012303 0.3611415 4294901760
0.081237987 0.0022086352 0.36107728 4294901760
0.081294775 0.0017160401 0.36101305 4294901760
0.081351571 0.0012234449 0.3609488 4294901760
0.081408359 0.00073085353 0.36088458 4294901760
0.081465155 0.00023825839 0.36082035 4294901760
0.081521943 -0.00025433674 0.36075613 4294901760
0.081578732 -0.00074692816 0.36069191 4294901760
0.081635527 -0.001239527 0.36062765 4294901760
0.081692316 -0.0017321184 0.36056343 4294901760
0.081749111 -0.0022247136 0.3604992 4294901760
0.0818059 -0.0027173087 0.36043498 4294901760
0.081862696 -0.0032099001 0.36037073 4294901760
0.081919484 -0.0037024952 0.3603065 4294901760
0.08197628 -0.0041950904 0.36024228 4294901760
0.082033068 -0.0046876855 0.36017805 4294901760
0.082089864 -0.0051802807 0.36011383 4294901760
0.082146652 -0.0056728721 0.36004958 4294901760
0.082203448 -0.0061654672 0.35998535 4294901760
0.082260236 -0.0066580623 0.35992113 4294901760
0.082317032 -0.0071506575 0.3598569 4294901760
0.08237382 -0.0076432526 0.35979265 4294901760
0.082430616 -0.008135844 0.35972843 4294901760
0.082487404 -0.0086284392 0.3596642 4294901760
0.076808222 0.040630989 0.36608726 4278255360
0.077302538 0.04069344 0.36604539 4278255360
0.077796847 0.04075589 0.36600351 4278255360
0.078291163 0.040818341 0.36596161 4278255360
0.078785479 0.040880792 0.36591974 4278255360
0.079279788 0.040943243 0.36587787 4278255360
0.079774104 0.041005693 0.36583599 4278255360
0.08026842 0.041068144 0.36579412 4278255360
0.080762729 0.041130595 0.36575222 4278255360
0.081257045 0.041193046 0.36571035 4278255360
0.081751361 0.041255496 0.36566848 4278255360
0.08224567 0.041317947 0.3656266 4278255360
0.082739986 0.041380398 0.36558473 4278255360
0.083234303 0.041442849 0.36554286 4278255360
0.083728611 0.0415053 0.36550096 4278255360
0.084222928 0.04156775 0.36545908 4278255360
0.084717244 0.041630201 0.36541721 4278255360
0.085211553 0.041692652 0.36537534 4278255360
0.085705869 0.041755099 0.36533347 4278255360
0.086200185 0.04181755 0.36529157 4278255360
0.086694494 0.04188 0.36524969 4278255360
0.08718881 0.041942451 0.36520782 4278255360
0.087683126 0.042004902 0.36516595 4278255360
0.088177443 0.042067353 0.36512408 4278255360
0.088671751 0.042129803 0.36508217 4278255360
0.089166068 0.042192254 0.3650403 4278255360
0.089660376 0.042254705 0.36499843 4278255360
0.090154693 0.042317156 0.36495656 4278255360
0.090649009 0.042379607 0.36491469 4278255360
0.091143318 0.042442057 0.36487278 4278255360
0.091637634 0.042504508 0.36483091 4278255360
0.09213195 0.042566959 0.36478904 4278255360
0.092626259 0.04262941 0.36474717 4278255360
0.093120575 0.04269186 0.36470529 4278255360
0.093614891 0.042754311 0.36466342 4278255360
0.094109207 0.042816762 0.36462152 4278255360
0.094603516 0.042879213 0.36457965 4278255360
0.095097832 0.042941663 0.36453778 4278255360
0.095592141 0.043004114 0.3644959 4278255360
0.096086457 0.043066565 0.36445403 4278255360
0.096580774 0.043129016 0.36441213 4278255360
0.09707509 0.043191466 0.36437026 4278255360
0.097569399 0.043253917 0.36432838 4278255360
0.098063715 0.043316368 0.36428651 4278255360
0.098558024 0.043378819 0.36424464 4278255360
0.09905234 0.04344127 0.36420274 4278255360
0.099546656 0.04350372 0.36416087 4278255360
0.10004097 0.043566171 0.36411899 4278255360
0.10053528 0.043628622 0.36407712 4278255360
0.1010296 0.043691073 0.36403525 4278255360
0.10152391 0.04375352 0.36399335 4278255360
0.10201822 0.04381597 0.36395147 4278255360
0.10251254 0.043878421 0.3639096 4278255360
0.10300685 0.043940872 0.36386773 4278255360
0.10350116 0.044003323 0.36382586 4278255360
0.10399548 0.044065773 0.36378399 4278255360
0.10448979 0.044128224 0.36374208 4278255360
0.1049841 0.044190675 0.36370021 4278255360
0.10547842 0.044253126 0.36365834 4278255360
0.10597273 0.044315577 0.36361647 4278255360
0.10646705 0.044378027 0.36357459 4278255360
0.10696136 0.044440478 0.36353269 4278255360
0.10745567 0.044502929 0.36349082 4278255360
0.10794999 0.04456538 0.36344895 4278255360
0.1084443 0.04462783 0.36340708 4278255360
0.10893862 0.044690281 0.3633652 4278255360
0.10943294 0.044752732 0.3633233 4278255360
0.10992724 0.044815183 0.36328143 4278255360
0.11042155 0.044877633 0.36323956 4278255360
0.11091587 0.044940084 0.36319768 4278255360
0.11141019 0.045002535 0.36315581 4278255360
0.1119045 0.045064986 0.36311394 4278255360
0.11239882 0.045127437 0.36307204 4278255360
0.11289313 0.045189887 0.36303017 4278255360
0.11338744 0.045252338 0.36298829 4278255360
0.11388175 0.045314789 0.36294642 4278255360
0.11437607 0.04537724 0.36290455 4278255360
0.11487038 0.04543969 0.36286265 4278255360
0.11536469 0.045502141 0.36282077 4278255360
0.11585901 0.045564592 0.3627789 4278255360
0.11635332 0.045627043 0.36273703 4278255360
0.11684763 0.045689493 0.36269516 4278255360
0.11734195 0.045751944 0.36265326 4278255360
0.11783627 0.045814395 0.36261138 4278255360
0.11833058 0.045876842 0.36256951 4278255360
0.11882489 0.045939296 0.36252764 4278255360
0.1193192 0.046001747 0.36248577 4278255360
0.11981352 0.046064194 0.36244386 4278255360
0.12030783 0.046126645 0.36240199 4278255360
0.12080215 0.046189096 0.36236012 4278255360
0.12129646 0.046251547 0.36231825 4278255360
0.12179077 0.046313997 0.36227638 4278255360
0.12228509 0.046376448 0.3622345 4278255360
0.1227794 0.046438899 0.3621926 4278255360
0.12327372 0.04650135 0.36215073 4278255360
0.12376803 0.0465638 0.36210886 4278255360
0.12426234 0.046626251 0.36206698 4278255360
0.12475666 0.046688702 0.36202511 4278255360
0.12525097 0.046751153 0.36198321 4278255360
0.12574528 0.046813603 0.36194134 4278255360
0.1262396 0.046876054 0.36189947 4278255360
0.076808222 0.040630989 0.36608726 4278190335
0.076810613 0.040566612 0.36658308 4278190335
0.076813005 0.040502235 0.36707893 4278190335
0.076815389 0.040437859 0.36757475 4278190335
0.076817781 0.040373478 0.3680706 4278190335
0.076820172 0.040309101 0.36856642 4278190335
0.076822564 0.040244725 0.36906224 4278190335
0.076824956 0.040180348 0.3695581 4278190335
0.07682734 0.040115971 0.37005392 4278190335
0.076829731 0.040051594 0.37054974 4278190335
0.076832123 0.039987218 0.37104559 4278190335
0.076834515 0.039922841 0.37154141 4278190335
0.076836906 0.03985846 0.37203726 4278190335
0.076839291 0.039794084 0.37253308 4278190335
0.076841682 0.039729707 0.3730289 4278190335
0.076844074 0.03966533 0.37352476 4278190335
0.076846465 0.039600953 0.37402058 4278190335
0.076848857 0.039536577 0.3745164 4278190335
0.076851241 0.0394722 0.37501225 4278190335
0.076853633 0.039407823 0.37550807 4278190335
0.076856025 0.039343443 0.37600392 4278190335
0.076858416 0.039279066 0.37649974 4278190335
0.076860808 0.039214689 0.37699556 4278190335
0.076863192 0.039150313 0.37749141 4278190335
0.076865584 0.039085936 0.37798724 4278190335
0.076867975 0.039021559 0.37848306 4278190335
0.076870367 0.038957182 0.37897891 4278190335
0.076872759 0.038892802 0.37947473 4278190335
0.076875143 0.038828425 0.37997058 4278190335
0.076877534 0.038764048 0.3804664 4278190335
0.076879926 0.038699672 0.38096222 4278190335
0.076882318 0.038635295 0.38145807 4278190335
0.076884709 0.038570918 0.3819539 4278190335
0.076887093 0.038506541 0.38244975 4278190335
0.076889485 0.038442165 0.38294557 4278190335
0.076891877 0.038377784 0.38344139 4278190335
