# .PCD v0.7 - Point Cloud Data file format
VERSION 0.7
FIELDS x y z rgb
SIZE 4 4 4 4
TYPE F F F U
COUNT 1 1 1 1
WIDTH 1059
HEIGHT 1
VIEWPOINT 0 0 0 1 0 0 0
POINTS 1059
DATA ascii
0.033411406 0.01763643 0.39400002 4279772953
0.034691118 0.01763643 0.39400002 4279442451
0.035970829 0.01763643 0.39400002 4279442451
0.037155997 0.017591666 0.39300001 4279376912
0.03843246 0.017591666 0.39300001 4279179533
0.03960789 0.017546903 0.39200002 4279376912
0.040776815 0.017502142 0.39100003 4279246094
0.041831709 0.017412616 0.38900003 4278856465
0.0429844 0.017367853 0.38800001 4278595855
0.04413059 0.017323092 0.38700002 4278730005
0.045270287 0.017278329 0.38600001 4278402322
0.046403486 0.017233565 0.38500002 4278731800
0.047653969 0.017233565 0.38500002 4279652906
0.04877742 0.017188802 0.384 4282482523
0.050024655 0.017188802 0.384 4278402587
0.051405411 0.017233565 0.38500002 4279125795
0.052655887 0.017233565 0.38500002 4278862877
0.05390637 0.017233565 0.38500002 4279126049
0.055300117 0.017278329 0.38600001 4278862877
0.056553848 0.017278329 0.38600001 4279125535
0.057807572 0.017278329 0.38600001 4279257121
0.0590613 0.017278329 0.38600001 4279059742
0.060471293 0.017323092 0.38700002 4279388707
0.034691118 0.018916577 0.39400002 4279508498
0.035970829 0.018916577 0.39400002 4279508498
0.037155997 0.018868564 0.39300001 4279639571
0.03843246 0.018868564 0.39300001 4279376399
0.039506849 0.018772542 0.39100003 4279311889
0.040672526 0.018724529 0.39000002 4279510295
0.041831709 0.018676519 0.38900003 4278921488
0.0429844 0.018628506 0.38800001 4278726160
0.044016559 0.018532483 0.38600001 4278596623
0.045153007 0.018484471 0.38500002 4278663699
0.046403486 0.018484471 0.38500002 4278402322
0.047530189 0.01843646 0.384 4278666009
0.04877742 0.01843646 0.384 4278205973
0.050024655 0.01843646 0.384 4278271769
0.051271889 0.01843646 0.384 4278666779
0.052655887 0.018484471 0.38500002 4278666779
0.05390637 0.018484471 0.38500002 4278797595
0.055156853 0.018484471 0.38500002 4278797595
0.056407336 0.018484471 0.38500002 4278863388
0.057657812 0.018484471 0.38500002 4278797595
0.058908295 0.018484471 0.38500002 4278863388
0.060471293 0.018580494 0.38700002 4279060767
0.033411406 0.020196723 0.39400002 4279838233
0.034691118 0.020196723 0.39400002 4279507985
0.035970829 0.020196723 0.39400002 4279705364
0.037155997 0.020145461 0.39300001 4279640084
0.038334671 0.020094201 0.39200002 4279508498
0.039506849 0.020042941 0.39100003 4279180303
0.040672526 0.019991679 0.39000002 4279379477
0.041831709 0.019940419 0.38900003 4278659086
0.042873617 0.019837897 0.38700002 4278923539
0.044016559 0.019786635 0.38600001 4278859027
0.045153007 0.019735375 0.38500002 4278728211
0.046282958 0.019684114 0.384 4278598419
0.047530189 0.019684114 0.384 4278533396
0.04877742 0.019684114 0.384 4278336531
0.050024655 0.019684114 0.384 4278402324
0.051271889 0.019684114 0.384 4278204174
0.052519117 0.019684114 0.384 4278205458
0.053766351 0.019684114 0.384 4278468628
0.055156853 0.019735375 0.38500002 4278402835
0.056407336 0.019735375 0.38500002 4278666007
0.057657812 0.019735375 0.38500002 4278271249
0.058908295 0.019735375 0.38500002 4278402835
0.060002517 0.019684114 0.384 4278468628
0.061090246 0.019632854 0.38300002 4278337042
0.062334232 0.019632854 0.38300002 4278468628
0.063578218 0.019632854 0.38300002 4278533908
0.064822197 0.019632854 0.38300002 4278533910
0.066238679 0.019684114 0.384 4278337044
0.033496205 0.021531377 0.39500001 4279838744
0.034691118 0.021476869 0.39400002 4279574291
0.035970829 0.021476869 0.39400002 4279902743
0.037155997 0.021422358 0.39300001 4279837463
0.038334671 0.021367848 0.39200002 4279574291
0.039506849 0.021313339 0.39100003 4279509266
0.04056824 0.021204319 0.38900003 4279443986
0.041724171 0.021149809 0.38800001 4278856465
0.042873617 0.0210953 0.38700002 4278857748
0.044016559 0.02104079 0.38600001 4278727187
0.045153007 0.020986279 0.38500002 4278661648
0.046282958 0.020931769 0.384 4278532115
0.047530189 0.020931769 0.384 4278533396
0.04877742 0.020931769 0.384 4278467603
0.050024655 0.020931769 0.384 4278336017
0.051271889 0.020931769 0.384 4278467603
0.052519117 0.020931769 0.384 4278401810
0.053766351 0.020931769 0.384 4278336017
0.055013586 0.020931769 0.384 4278336017
0.05626082 0.020931769 0.384 4278336015
0.057508048 0.020931769 0.384 4278204429
0.058755282 0.020931769 0.384 4278336015
0.059846263 0.020877261 0.38300002 4278336015
0.061090246 0.020877261 0.38300002 4278204174
0.062334232 0.020877261 0.38300002 4278335247
0.063578218 0.020877261 0.38300002 4278598419
0.064991444 0.020931769 0.384 4278466833
0.066238679 0.020931769 0.384 4278204174
0.067485914 0.020931769 0.384 4278204431
0.033496205 0.022814773 0.39500001 4279772438
0.034779165 0.022814773 0.39500001 4279836950
0.035970829 0.022757014 0.39400002 4279969049
0.037155997 0.022699254 0.39300001 4279969049
0.038334671 0.022641497 0.39200002 4279969047
0.039405808 0.022525977 0.39000002 4279838229
0.04056824 0.02246822 0.38900003 4279443984
0.041724171 0.02241046 0.38800001 4278659086
0.042873617 0.022352701 0.38700002 4278857748
0.044016559 0.022294942 0.38600001 4278727187
0.045153007 0.022237184 0.38500002 4278727957
0.046282958 0.022179425 0.384 4278532115
0.047530189 0.022179425 0.384 4278466835
0.048650399 0.022121666 0.38300002 4278335249
0.049894385 0.022121666 0.38300002 4278269456
0.051138371 0.022121666 0.38300002 4278335247
0.052519117 0.022179425 0.384 4278466833
0.053766351 0.022179425 0.384 4278335247
0.055013586 0.022179425 0.384 4278335247
0.05626082 0.022179425 0.384 4278335247
0.057508048 0.022179425 0.384 4278335247
0.058755282 0.022179425 0.384 4278335247
0.059846263 0.022121666 0.38300002 4278268941
0.061090246 0.022121666 0.38300002 4278200583
0.062496983 0.022179425 0.384 4278198274
0.063744217 0.022179425 0.384 4278334736
0.064991444 0.022179425 0.384 4278334736
0.066238679 0.022179425 0.384 4278269456
0.067661658 0.022237184 0.38500002 4278335249
0.069091134 0.022294942 0.38600001 4278269456
0.070344858 0.022294942 0.38600001 4278335249
0.071784079 0.022352701 0.38700002 4278269456
0.073041059 0.022352701 0.38700002 4278335249
0.074490011 0.02241046 0.38800001 4278269456
0.075750239 0.02241046 0.38800001 4278334736
0.077010468 0.02241046 0.38800001 4278334736
0.078270689 0.02241046 0.38800001 4278334736
0.07953091 0.02241046 0.38800001 4278269454
0.080791138 0.02241046 0.38800001 4278466833
0.082051367 0.02241046 0.38800001 4278335247
0.083311588 0.02241046 0.38800001 4278466833
0.084571816 0.02241046 0.38800001 4278269454
0.08903563 0.022583738 0.39100003 4278400527
0.090305597 0.022583738 0.39100003 4278728720
0.091809772 0.022641497 0.39200002 4278532111
0.093082987 0.022641497 0.39200002 4278334734
0.095629416 0.022641497 0.39200002 4278597906
0.097149834 0.022699254 0.39300001 4278532113
0.098426297 0.022699254 0.39300001 4278598419
0.099702761 0.022699254 0.39300001 4278532624
0.033496205 0.024098167 0.39500001 4279771670
0.034779165 0.024098167 0.39500001 4279837463
0.035970829 0.02403716 0.39400002 4280100633
0.037155997 0.023976151 0.39300001 4279969047
0.038334671 0.023915144 0.39200002 4279837461
0.039405808 0.023793127 0.39000002 4279772438
0.04056824 0.02373212 0.38900003 4279510291
0.041616637 0.023610104 0.38700002 4278724109
0.042762831 0.023549095 0.38600001 4279120918
0.043902528 0.023488088 0.38500002 4278465039
0.045153007 0.023488088 0.38500002 4278596625
0.046282958 0.023427079 0.384 4278597908
0.047530189 0.023427079 0.384 4278532115
0.048650399 0.023366071 0.38300002 4278532628
0.049894385 0.023366071 0.38300002 4278466835
0.051138371 0.023366071 0.38300002 4278466835
0.05238235 0.023366071 0.38300002 4278598421
0.053766351 0.023427079 0.384 4278335247
0.055013586 0.023427079 0.384 4278335247
0.05626082 0.023427079 0.384 4278335247
0.057508048 0.023427079 0.384 4278269454
0.058755282 0.023427079 0.384 4278532113
0.059846263 0.023366071 0.38300002 4278400527
0.061249748 0.023427079 0.384 4278198017
0.062496983 0.023427079 0.384 4278528013
0.063744217 0.023427079 0.384 4278530832
0.064991444 0.023427079 0.384 4278530832
0.066411175 0.023488088 0.38500002 4278267660
0.067661658 0.023488088 0.38500002 4278266636
0.069091134 0.023549095 0.38600001 4278464015
0.070527099 0.023610104 0.38700002 4278529808
0.071784079 0.023610104 0.38700002 4278266636
0.073041059 0.023610104 0.38700002 4278464015
0.074490011 0.023671111 0.38800001 4278529808
0.075750239 0.023671111 0.38800001 4278595601
0.077010468 0.023671111 0.38800001 4278727187
0.078270689 0.023671111 0.38800001 4278200586
0.07953091 0.023671111 0.38800001 4278661648
0.080791138 0.023671111 0.38800001 4278333453
0.082051367 0.023671111 0.38800001 4278728211
0.083311588 0.023671111 0.38800001 4278530832
0.084789783 0.02373212 0.38900003 4278596625
0.08605326 0.02373212 0.38900003 4278859797
0.087541193 0.023793127 0.39000002 4278924820
0.08903563 0.023854136 0.39100003 4278990613
0.090305597 0.023854136 0.39100003 4279187992
0.091809772 0.023915144 0.39200002 4279319578
0.093082987 0.023915144 0.39200002 4279187992
0.094596907 0.023976151 0.39300001 4278924820
0.095873371 0.023976151 0.39300001 4278859027
0.097149834 0.023976151 0.39300001 4278990613
0.098426297 0.023976151 0.39300001 4278990613
0.09995646 0.02403716 0.39400002 4278924820
0.10149312 0.024098167 0.39500001 4278859027
0.10277608 0.024098167 0.39500001 4278661648
0.10432249 0.024159176 0.39600003 4278990613
0.1056087 0.024159176 0.39600003 4278924820
0.10689491 0.024159176 0.39600003 4278924818
0.10818111 0.024159176 0.39600003 4278530060
0.10946732 0.024159176 0.39600003 4278990611
0.11075353 0.024159176 0.39600003 4278465037
0.11203974 0.024159176 0.39600003 4278728722
0.11332595 0.024159176 0.39600003 4278531343
0.11432273 0.024098167 0.39500001 4278400527
0.11531302 0.02403716 0.39400002 4278597906
0.11659273 0.02403716 0.39400002 4278795283
0.033496205 0.025381563 0.39500001 4279574291
0.034691118 0.025317308 0.39400002 4280232219
0.035970829 0.025317308 0.39400002 4280100633
0.037061453 0.025188792 0.39200002 4279837461
0.038236879 0.025124537 0.39100003 4279508496
0.039405808 0.025060279 0.39000002 4279377678
0.04046395 0.024931764 0.38800001 4279576084
0.041616637 0.024867509 0.38700002 4279184658
0.042762831 0.024803249 0.38600001 4279185941
0.043902528 0.024738993 0.38500002 4278859027
0.045153007 0.024738993 0.38500002 4278596625
0.046282958 0.024674736 0.384 4278663701
0.047530189 0.024674736 0.384 4278597908
0.04877742 0.024674736 0.384 4278400529
0.049894385 0.024610478 0.38300002 4278466835
0.051138371 0.024610478 0.38300002 4278203149
0.05238235 0.024610478 0.38300002 4278532628
0.053766351 0.024674736 0.384 4278532628
0.055013586 0.024674736 0.384 4278466835
0.05626082 0.024674736 0.384 4278532626
0.057508048 0.024674736 0.384 4278466833
0.058755282 0.024674736 0.384 4278400527
0.060002517 0.024674736 0.384 4278465550
0.061249748 0.024674736 0.384 4278197250
0.062496983 0.024674736 0.384 4279185943
0.063744217 0.024674736 0.384 4278529808
0.064991444 0.024674736 0.384 4278196992
0.066411175 0.024738993 0.38500002 4278260998
0.067661658 0.024738993 0.38500002 4278326021
0.069091134 0.024803249 0.38600001 4278391814
0.070527099 0.024867509 0.38700002 4278326021
0.071784079 0.024867509 0.38700002 4278325767
0.073041059 0.024867509 0.38700002 4278325767
0.074490011 0.024931764 0.38800001 4278325767
0.075750239 0.024931764 0.38800001 4278194951
0.077010468 0.024931764 0.38800001 4278194951
0.078270689 0.024931764 0.38800001 4278260744
0.07953091 0.024931764 0.38800001 4278196226
0.080791138 0.024931764 0.38800001 4279054873
0.082051367 0.024931764 0.38800001 4278660115
0.083526313 0.024996022 0.38900003 4278922517
0.084789783 0.024996022 0.38900003 4278856724
0.086274475 0.025060279 0.39000002 4278922517
0.087541193 0.025060279 0.39000002 4278987797
0.08903563 0.025124537 0.39100003 4279250969
0.090305597 0.025124537 0.39100003 4279251223
0.091809772 0.025188792 0.39200002 4278790672
0.093082987 0.025188792 0.39200002 4278593293
0.094596907 0.02525305 0.39300001 4278790672
0.095873371 0.02525305 0.39300001 4279119637
0.097149834 0.02525305 0.39300001 4279053844
0.098676749 0.025317308 0.39400002 4278988051
0.09995646 0.025317308 0.39400002 4278922258
0.10149312 0.025381563 0.39500001 4278659086
0.10277608 0.025381563 0.39500001 4278527246
0.10432249 0.025445823 0.39600003 4278593039
0.1056087 0.025445823 0.39600003 4278658832
0.10689491 0.025445823 0.39600003 4278593293
0.10818111 0.025445823 0.39600003 4278659086
0.10946732 0.025445823 0.39600003 4278724109
0.11075353 0.025445823 0.39600003 4278194688
0.11203974 0.025445823 0.39600003 4278596625
0.11332595 0.025445823 0.39600003 4278859795
0.11461216 0.025445823 0.39600003 4278530830
0.11531302 0.025317308 0.39400002 4278728722
0.11659273 0.025317308 0.39400002 4278728722
0.033496205 0.026664959 0.39500001 4279771670
0.034691118 0.026597453 0.39400002 4279442190
0.03587953 0.026529947 0.39300001 4279639569
0.037061453 0.026462441 0.39200002 4279442703
0.038236879 0.026394935 0.39100003 4279574289
0.039304767 0.026259923 0.38900003 4279443984
0.04046395 0.026192416 0.38800001 4279379475
0.041616637 0.02612491 0.38700002 4279185941
0.042762831 0.026057404 0.38600001 4279055638
0.044016559 0.026057404 0.38600001 4278727441
0.045153007 0.025989898 0.38500002 4278596625
0.046282958 0.02592239 0.384 4278335249
0.047530189 0.02592239 0.384 4278532628
0.04877742 0.02592239 0.384 4278598421
0.050024655 0.02592239 0.384 4278335249
0.051271889 0.02592239 0.384 4278335247
0.052519117 0.02592239 0.384 4278466833
0.053766351 0.02592239 0.384 4278466833
0.055013586 0.02592239 0.384 4278466833
0.05626082 0.02592239 0.384 4278335247
0.057508048 0.02592239 0.384 4278466833
0.058755282 0.02592239 0.384 4278532113
0.060002517 0.02592239 0.384 4278465550
0.061249748 0.02592239 0.384 4278195718
0.062496983 0.02592239 0.384 4278987027
0.063744217 0.02592239 0.384 4278856976
0.065160699 0.025989898 0.38500002 4278196742
0.066411175 0.025989898 0.38500002 4278522632
0.067837402 0.026057404 0.38600001 4278522119
0.069091134 0.026057404 0.38600001 4278587914
0.070527099 0.02612491 0.38700002 4278719498
0.071784079 0.02612491 0.38700002 4278522634
0.073041059 0.02612491 0.38700002 4278391560
0.074490011 0.026192416 0.38800001 4278259974
0.075750239 0.026192416 0.38800001 4278456839
0.077010468 0.026192416 0.38800001 4278456839
0.078270689 0.026192416 0.38800001 4278456839
0.07953091 0.026192416 0.38800001 4278723343
0.080791138 0.026192416 0.38800001 4278989847
0.082262844 0.026259923 0.38900003 4278924566
0.083526313 0.026259923 0.38900003 4279121945
0.084789783 0.026259923 0.38900003 4279187224
0.086274475 0.026327427 0.39000002 4278989845
0.087541193 0.026327427 0.39000002 4278989845
0.08903563 0.026394935 0.39100003 4278726673
0.090536557 0.026462441 0.39200002 4279056152
0.091809772 0.026462441 0.39200002 4278990359
0.093082987 0.026462441 0.39200002 4279253017
0.094596907 0.026529947 0.39300001 4279055638
0.095873371 0.026529947 0.39300001 4279121685
0.097397037 0.026597453 0.39400002 4279121685
0.098676749 0.026597453 0.39400002 4279121685
0.10021015 0.026664959 0.39500001 4279121685
0.10149312 0.026664959 0.39500001 4279121685
0.10303628 0.026732467 0.39600003 4279187478
0.10432249 0.026732467 0.39600003 4279121431
0.1056087 0.026732467 0.39600003 4278989845
0.10716484 0.026799971 0.39700001 4278924566
0.10845429 0.026799971 0.39700001 4278858773
0.10974374 0.026799971 0.39700001 4279055638
0.11103321 0.026799971 0.39700001 4278194688
0.11232267 0.026799971 0.39700001 4278924820
0.11361212 0.026799971 0.39700001 4278727439
0.11490158 0.026799971 0.39700001 4278728209
0.1164837 0.026867479 0.39800003 4278794002
0.11777641 0.026867479 0.39800003 4278728209
0.026807161 0.027665334 0.39100003 4284709995
0.028220745 0.027806843 0.39300001 4284381030
0.029572265 0.027877599 0.39400002 4283986272
0.030930284 0.027948353 0.39500001 4284248674
0.032213245 0.027948353 0.39500001 4283063887
0.033496205 0.027948353 0.39500001 4279247123
0.034691118 0.027877599 0.39400002 4279507731
0.03587953 0.027806843 0.39300001 4279639571
0.036966912 0.027665334 0.39100003 4279705362
0.038139086 0.027594578 0.39000002 4279836946
0.039304767 0.027523823 0.38900003 4279444238
0.04046395 0.027453067 0.38800001 4279446035
0.041616637 0.027382312 0.38700002 4279185943
0.042762831 0.027311556 0.38600001 4278989845
0.044016559 0.027311556 0.38600001 4278727441
0.045153007 0.027240802 0.38500002 4278794004
0.046403486 0.027240802 0.38500002 4278664214
0.047530189 0.027170045 0.384 4278466835
0.04877742 0.027170045 0.384 4278335249
0.050024655 0.027170045 0.384 4278335249
0.051271889 0.027170045 0.384 4278335249
0.052519117 0.027170045 0.384 4278598421
0.053766351 0.027170045 0.384 4278335249
0.055013586 0.027170045 0.384 4278466835
0.05626082 0.027170045 0.384 4278335247
0.057508048 0.027170045 0.384 4278598419
0.058755282 0.027170045 0.384 4278795285
0.060002517 0.027170045 0.384 4278794515
0.061249748 0.027170045 0.384 4278196740
0.062496983 0.027170045 0.384 4278791955
0.063910216 0.027240802 0.38500002 4278923541
0.065160699 0.027240802 0.38500002 4278196486
0.066411175 0.027240802 0.38500002 4278984467
0.067837402 0.027311556 0.38600001 4278589709
0.069091134 0.027311556 0.38600001 4278983697
0.070527099 0.027382312 0.38700002 4279050260
0.071784079 0.027382312 0.38700002 4278590476
0.073041059 0.027382312 0.38700002 4279183383
0.074490011 0.027453067 0.38800001 4278524170
0.075750239 0.027453067 0.38800001 4278458375
0.077010468 0.027453067 0.38800001 4279050512
0.078270689 0.027453067 0.38800001 4278589191
0.07953091 0.027453067 0.38800001 4279513371
0.080999367 0.027523823 0.38900003 4279055638
0.082262844 0.027523823 0.38900003 4278265609
0.083526313 0.027523823 0.38900003 4278263044
0.085007749 0.027594578 0.39000002 4278196484
0.086274475 0.027594578 0.39000002 4278922004
0.087765656 0.027665334 0.39100003 4278265611
0.08903563 0.027665334 0.39100003 4279186713
0.090536557 0.027736088 0.39200002 4278199818
0.091809772 0.027736088 0.39200002 4278199047
0.093320444 0.027806843 0.39300001 4279450398
0.094596907 0.027806843 0.39300001 4278198276
0.095873371 0.027806843 0.39300001 4278595087
0.097397037 0.027877599 0.39400002 4278858259
0.098676749 0.027877599 0.39400002 4278726160
0.10021015 0.027948353 0.39500001 4278199815
0.10149312 0.027948353 0.39500001 4278397708
0.10303628 0.028019112 0.39600003 4278198530
0.10432249 0.028019112 0.39600003 4278792466
0.10587539 0.028089866 0.39700001 4278198531
0.10716484 0.028089866 0.39700001 4278198787
0.10845429 0.028089866 0.39700001 4278728211
0.10974374 0.028089866 0.39700001 4278660880
0.11103321 0.028089866 0.39700001 4278921488
0.1126056 0.028160622 0.39800003 4278792718
0.11389831 0.028160622 0.39800003 4278859023
0.11519101 0.028160622 0.39800003 4278794002
0.11706904 0.028302131 0.40000001 4278794004
0.11836825 0.028302131 0.40000001 4278991383
0.032213245 0.029231749 0.39500001 4283920992
0.033496205 0.029231749 0.39500001 4285171059
0.034691118 0.029157747 0.39400002 4281945152
0.035788238 0.029009737 0.39200002 4279179279
0.036966912 0.028935732 0.39100003 4279902741
0.038139086 0.028861728 0.39000002 4279837459
0.039304767 0.028787725 0.38900003 4279510545
0.04046395 0.028713718 0.38800001 4279249426
0.041616637 0.028639715 0.38700002 4279120920
0.042762831 0.028565709 0.38600001 4278989845
0.044016559 0.028565709 0.38600001 4278859027
0.045153007 0.028491706 0.38500002 4279057176
0.046403486 0.028491706 0.38500002 4278597908
0.047653969 0.028491706 0.38500002 4278532628
0.048904449 0.028491706 0.38500002 4278466835
0.050024655 0.028417701 0.384 4278598421
0.051271889 0.028417701 0.384 4278532628
0.052519117 0.028417701 0.384 4278532628
0.053766351 0.028417701 0.384 4278532628
0.055013586 0.028417701 0.384 4278532628
0.05626082 0.028417701 0.384 4278532626
0.057508048 0.028417701 0.384 4278466833
0.058755282 0.028417701 0.384 4278400527
0.060002517 0.028417701 0.384 4278333453
0.061249748 0.028417701 0.384 4278329867
0.062659733 0.028491706 0.38500002 4278989847
0.063910216 0.028491706 0.38500002 4278790418
0.065160699 0.028491706 0.38500002 4278195461
0.066583671 0.028565709 0.38600001 4278722830
0.067837402 0.028565709 0.38600001 4278920209
0.069091134 0.028565709 0.38600001 4278459658
0.070527099 0.028639715 0.38700002 4278657037
0.071784079 0.028639715 0.38700002 4278194177
0.07322979 0.028713718 0.38800001 4278392584
0.074490011 0.028713718 0.38800001 4278260996
0.075750239 0.028713718 0.38800001 4279314195
0.077010468 0.028713718 0.38800001 4278460169
0.078472421 0.028787725 0.38900003 4278392582
0.07973589 0.028787725 0.38900003 4279382809
0.080999367 0.028787725 0.38900003 4278726673
0.082262844 0.028787725 0.38900003 4278195968
0.083741032 0.028861728 0.39000002 4278720261
0.085007749 0.028861728 0.39000002 4278458375
0.086274475 0.028861728 0.39000002 4278723343
0.087765656 0.028935732 0.39100003 4279384092
0.08903563 0.028935732 0.39100003 4279450396
0.090536557 0.029009737 0.39200002 4278593806
0.091809772 0.029009737 0.39200002 4278988564
0.093320444 0.02908374 0.39300001 4279120918
0.094596907 0.02908374 0.39300001 4278197506
0.096117325 0.029157747 0.39400002 4279449115
0.097397037 0.029157747 0.39400002 4278330121
0.098927192 0.029231749 0.39500001 4278460685
0.10021015 0.029231749 0.39500001 4279052820
0.10175007 0.029305754 0.39600003 4279185943
0.10303628 0.029305754 0.39600003 4279054357
0.10432249 0.029305754 0.39600003 4278593552
0.10587539 0.029379759 0.39700001 4279383322
0.10716484 0.029379759 0.39700001 4278199561
0.10872748 0.029453764 0.39800003 4278596371
0.11002018 0.029453764 0.39800003 4278593806
0.11131289 0.029453764 0.39800003 4279053074
0.1126056 0.029453764 0.39800003 4278990611
0.11418448 0.029527768 0.39900002 4278794002
0.11548043 0.029527768 0.39900002 4278794002
0.11706904 0.029601771 0.40000001 4278859795
0.11896009 0.029749781 0.40200001 4278728211
0.033496205 0.030515144 0.39500001 4284316012
0.034691118 0.030437892 0.39400002 4284381803
0.035696942 0.030206133 0.39100003 4284710254
0.036872365 0.030128878 0.39000002 4279574291
0.038041294 0.030051624 0.38900003 4279903254
0.039203726 0.029974369 0.38800001 4279380242
0.04046395 0.029974369 0.38800001 4279249939
0.041616637 0.029897118 0.38700002 4279186711
0.042873617 0.029897118 0.38700002 4278924566
0.044016559 0.029819863 0.38600001 4278596371
0.045270287 0.029819863 0.38600001 4278991896
0.046403486 0.02974261 0.38500002 4278730007
0.047653969 0.02974261 0.38500002 4278466835
0.048904449 0.02974261 0.38500002 4278532628
0.050154928 0.02974261 0.38500002 4278466835
0.051405411 0.02974261 0.38500002 4278466835
0.052655887 0.02974261 0.38500002 4278466835
0.05390637 0.02974261 0.38500002 4278466835
0.055156853 0.02974261 0.38500002 4278335249
0.056407336 0.02974261 0.38500002 4278597906
0.057657812 0.02974261 0.38500002 4278532113
0.058908295 0.02974261 0.38500002 4278531343
0.060158778 0.02974261 0.38500002 4278199045
0.061409254 0.02974261 0.38500002 4278724109
0.062659733 0.02974261 0.38500002 4278858259
0.063910216 0.02974261 0.38500002 4278461455
0.065160699 0.02974261 0.38500002 4278327050
0.066583671 0.029819863 0.38600001 4278391560
0.067837402 0.029819863 0.38600001 4278260744
0.069270127 0.029897118 0.38700002 4278392330
0.070527099 0.029897118 0.38700002 4278392330
0.071784079 0.029897118 0.38700002 4278325767
0.07322979 0.029974369 0.38800001 4278391560
0.074490011 0.029974369 0.38800001 4278589193
0.075750239 0.029974369 0.38800001 4278194946
0.077010468 0.029974369 0.38800001 4278195203
0.078472421 0.030051624 0.38900003 4278589191
0.07973589 0.030051624 0.38900003 4279185943
0.080999367 0.030051624 0.38900003 4278858261
0.082474314 0.030128878 0.39000002 4278260994
0.083741032 0.030128878 0.39000002 4278589191
0.085007749 0.030128878 0.39000002 4278787853
0.08649569 0.030206133 0.39100003 4279053592
0.087765656 0.030206133 0.39100003 4278198023
0.08903563 0.030206133 0.39100003 4278462220
0.090536557 0.030283384 0.39200002 4279383322
0.091809772 0.030283384 0.39200002 4278396427
0.093320444 0.030360637 0.39300001 4278198277
0.094596907 0.030360637 0.39300001 4279251734
0.096117325 0.030437892 0.39400002 4279317527
0.097397037 0.030437892 0.39400002 4279185941
0.098927192 0.030515144 0.39500001 4279252506
0.10021015 0.030515144 0.39500001 4279252506
0.10175007 0.030592399 0.39600003 4278461966
0.10303628 0.030592399 0.39600003 4279185689
0.10458592 0.030669652 0.39700001 4278988564
0.10587539 0.030669652 0.39700001 4278462220
0.10743479 0.030746907 0.39800003 4278595087
0.10872748 0.030746907 0.39800003 4278858773
0.11002018 0.030746907 0.39800003 4278197763
0.11159257 0.030824158 0.39900002 4279448602
0.11288852 0.030824158 0.39900002 4278728211
0.11418448 0.030824158 0.39900002 4278794004
0.11576986 0.030901412 0.40000001 4278860310
0.11736172 0.030978667 0.40100002 4278860310
0.11896009 0.03105592 0.40200001 4278794004
0.035605643 0.031396028 0.39000002 4284644975
0.03677782 0.031315524 0.38900003 4285827706
0.038041294 0.031315524 0.38900003 4279116307
0.039203726 0.031235021 0.38800001 4279249685
0.040359661 0.031154519 0.38700002 4279184660
0.041616637 0.031154519 0.38700002 4278989847
0.042873617 0.031154519 0.38700002 4278858773
0.044016559 0.031074015 0.38600001 4278794517
0.045270287 0.031074015 0.38600001 4278729494
0.046524014 0.031074015 0.38600001 4278664212
0.047777742 0.031074015 0.38600001 4278532626
0.048904449 0.030993514 0.38500002 4278532626
0.050154928 0.030993514 0.38500002 4278466833
0.051405411 0.030993514 0.38500002 4278532626
0.052655887 0.030993514 0.38500002 4278466833
0.05390637 0.030993514 0.38500002 4278597906
0.055156853 0.030993514 0.38500002 4278597906
0.056407336 0.030993514 0.38500002 4278400527
0.057657812 0.030993514 0.38500002 4278597906
0.058908295 0.030993514 0.38500002 4278596625
0.060158778 0.030993514 0.38500002 4278197763
0.061409254 0.030993514 0.38500002 4279842590
0.062659733 0.030993514 0.38500002 4278989845
0.063910216 0.030993514 0.38500002 4278197001
0.065329939 0.031074015 0.38600001 4278260744
0.066583671 0.031074015 0.38600001 4278522632
0.067837402 0.031074015 0.38600001 4278720011
0.069270127 0.031154519 0.38700002 4278654218
0.070527099 0.031154519 0.38700002 4278654220
0.071784079 0.031154519 0.38700002 4278654220
0.07322979 0.031235021 0.38800001 4278522634
0.074490011 0.031235021 0.38800001 4278654218
0.075750239 0.031235021 0.38800001 4278522632
0.077208951 0.031315524 0.38900003 4278522632
0.078472421 0.031315524 0.38900003 4278589193
0.07973589 0.031315524 0.38900003 4278791185
0.081207588 0.031396028 0.39000002 4278529296
0.082474314 0.031396028 0.39000002 4279513625
0.083741032 0.031396028 0.39000002 4279841822
0.085007749 0.031396028 0.39000002 4279578650
0.08649569 0.031476531 0.39100003 4279052820
0.087765656 0.031476531 0.39100003 4279448861
0.089263335 0.031557031 0.39200002 4279185943
0.090536557 0.031557031 0.39200002 4279251736
0.091809772 0.031557031 0.39200002 4279251736
0.093320444 0.031637534 0.39300001 4278988564
0.094596907 0.031637534 0.39300001 4278791185
0.096117325 0.031718038 0.39400002 4279514906
0.097397037 0.031718038 0.39400002 4279251734
0.098927192 0.031798538 0.39500001 4278792207
0.10021015 0.031798538 0.39500001 4278857746
0.10175007 0.031879045 0.39600003 4278857748
0.10303628 0.031879045 0.39600003 4278791701
0.10458592 0.031959545 0.39700001 4279120666
0.10587539 0.031959545 0.39700001 4278923541
0.10743479 0.032040048 0.39800003 4278594576
0.10872748 0.032040048 0.39800003 4278594576
0.11029661 0.032120552 0.39900002 4278195456
0.11159257 0.032120552 0.39900002 4279055638
0.11317145 0.032201052 0.40000001 4278925590
0.11447065 0.032201052 0.40000001 4278794517
0.11576986 0.032201052 0.40000001 4278860310
0.11736172 0.032281555 0.40100002 4278860310
0.11896009 0.032362059 0.40200001 4279057176
0.035514347 0.032579426 0.38900003 4284644975
0.03677782 0.032579426 0.38900003 4284644975
0.037943501 0.032495674 0.38800001 4284117858
0.039203726 0.032495674 0.38800001 4278723343
0.040359661 0.032411922 0.38700002 4279250969
0.041616637 0.032411922 0.38700002 4279252506
0.042873617 0.032411922 0.38700002 4279056152
0.044016559 0.03232817 0.38600001 4278794517
0.045270287 0.03232817 0.38600001 4278795287
0.046524014 0.03232817 0.38600001 4278664212
0.047777742 0.03232817 0.38600001 4278598419
0.04903147 0.03232817 0.38600001 4278664212
0.050285202 0.03232817 0.38600001 4278598419
0.051405411 0.032244418 0.38500002 4278664212
0.052655887 0.032244418 0.38500002 4278532626
0.05390637 0.032244418 0.38500002 4278532626
0.055156853 0.032244418 0.38500002 4278532626
0.056407336 0.032244418 0.38500002 4278532113
0.057657812 0.032244418 0.38500002 4278597906
0.058908295 0.032244418 0.38500002 4278201610
0.060158778 0.032244418 0.38500002 4278200329
0.061409254 0.032244418 0.38500002 4278199045
0.062659733 0.032244418 0.38500002 4279187992
0.063910216 0.032244418 0.38500002 4278858773
0.065329939 0.03232817 0.38600001 4279318299
0.066583671 0.03232817 0.38600001 4279514141
0.067837402 0.03232817 0.38600001 4279448348
0.069270127 0.032411922 0.38700002 4279448348
0.070527099 0.032411922 0.38700002 4279579934
0.071969569 0.032495674 0.38800001 4279710750
0.07322979 0.032495674 0.38800001 4279579164
0.074490011 0.032495674 0.38800001 4279579166
0.075750239 0.032495674 0.38800001 4279381787
0.077208951 0.032579426 0.38900003 4279447580
0.078472421 0.032579426 0.38900003 4279448348
0.07973589 0.032579426 0.38900003 4278988564
0.081207588 0.032663178 0.39000002 4279317529
0.082474314 0.032663178 0.39000002 4279383322
0.083741032 0.032663178 0.39000002 4279449115
0.085225724 0.03274693 0.39100003 4278856978
0.08649569 0.03274693 0.39100003 4279383322
0.087765656 0.03274693 0.39100003 4279317529
0.089263335 0.032830682 0.39200002 4279514908
0.090536557 0.032830682 0.39200002 4279054357
0.092043974 0.03291443 0.39300001 4279383322
0.093320444 0.03291443 0.39300001 4279251736
0.094596907 0.03291443 0.39300001 4279712287
0.096117325 0.032998186 0.39400002 4279185941
0.097397037 0.032998186 0.39400002 4279909151
0.098927192 0.033081934 0.39500001 4279580186
0.10021015 0.033081934 0.39500001 4279448600
0.10175007 0.033165686 0.39600003 4279317016
0.10303628 0.033165686 0.39600003 4280040739
0.10458592 0.033249438 0.39700001 4279580188
0.10614207 0.03333319 0.39800003 4279382809
0.10743479 0.03333319 0.39800003 4279514908
0.10900066 0.033416942 0.39900002 4279251736
0.11029661 0.033416942 0.39900002 4279318810
0.11187225 0.033500694 0.40000001 4278859797
0.11317145 0.033500694 0.40000001 4278794517
0.11447065 0.033500694 0.40000001 4278860310
0.11605928 0.033584446 0.40100002 4278860310
0.11736172 0.033584446 0.40100002 4278991896
0.11896009 0.033668198 0.40200001 4279055127
0.035514347 0.033843327 0.38900003 4284841842
0.036683276 0.033756323 0.38800001 4284710768
0.037943501 0.033756323 0.38800001 4284710768
0.039102685 0.033669323 0.38700002 4285434745
0.040359661 0.033669323 0.38700002 4278921236
0.041616637 0.033669323 0.38700002 4279186459
0.042873617 0.033669323 0.38700002 4279187224
0.04413059 0.033669323 0.38700002 4278991896
0.045270287 0.033582322 0.38600001 4279189275
0.046524014 0.033582322 0.38600001 4278729494
0.047777742 0.033582322 0.38600001 4278795285
0.04903147 0.033582322 0.38600001 4278532626
0.050285202 0.033582322 0.38600001 4278532626
0.051405411 0.033495322 0.38500002 4278598419
0.052655887 0.033495322 0.38500002 4278598419
0.05390637 0.033495322 0.38500002 4278598419
0.055156853 0.033495322 0.38500002 4278532626
0.056407336 0.033495322 0.38500002 4278730005
0.057657812 0.033495322 0.38500002 4278532628
0.058908295 0.033495322 0.38500002 4278201356
0.060158778 0.033495322 0.38500002 4278397708
0.061409254 0.033495322 0.38500002 4278858773
0.062659733 0.033495322 0.38500002 4278860056
0.064076215 0.033582322 0.38600001 4278794517
0.065329939 0.033582322 0.38600001 4279123482
0.066583671 0.033582322 0.38600001 4278926103
0.068013154 0.033669323 0.38700002 4278860310
0.069270127 0.033669323 0.38700002 4278926103
0.070527099 0.033669323 0.38700002 4278860310
0.071969569 0.033756323 0.38800001 4279057176
0.07322979 0.033756323 0.38800001 4278991383
0.074490011 0.033756323 0.38800001 4279188762
0.075945474 0.033843327 0.38900003 4278991383
0.077208951 0.033843327 0.38900003 4279057176
0.078472421 0.033843327 0.38900003 4278925590
0.07994087 0.033930324 0.39000002 4278925590
0.081207588 0.033930324 0.39000002 4279057176
0.082474314 0.033930324 0.39000002 4278991383
0.08395575 0.034017328 0.39100003 4278991383
0.085225724 0.034017328 0.39100003 4279188762
0.08649569 0.034017328 0.39100003 4278991383
0.08799012 0.034104329 0.39200002 4279057176
0.089263335 0.034104329 0.39200002 4278991383
0.090536557 0.034104329 0.39200002 4279188762
0.092043974 0.034191329 0.39300001 4279057176
0.093320444 0.034191329 0.39300001 4279122199
0.094596907 0.034191329 0.39300001 4279319578
0.096117325 0.034278329 0.39400002 4279319578
0.097397037 0.034278329 0.39400002 4279319578
0.098927192 0.03436533 0.39500001 4279187992
0.10021015 0.03436533 0.39500001 4279057176
0.10175007 0.03445233 0.39600003 4279254555
0.10303628 0.03445233 0.39600003 4279057176
0.10458592 0.034539331 0.39700001 4279187992
0.10614207 0.034626335 0.39800003 4279122199
0.10743479 0.034626335 0.39800003 4279319578
0.10900066 0.034713335 0.39900002 4279385371
0.11029661 0.034713335 0.39900002 4279385371
0.11187225 0.034800332 0.40000001 4279451164
0.11317145 0.034800332 0.40000001 4279320348
0.11447065 0.034800332 0.40000001 4279386141
0.11605928 0.034887336 0.40100002 4279780129
0.11736172 0.034887336 0.40100002 4279778850
0.036683276 0.035016976 0.38800001 4284973428
0.037943501 0.035016976 0.38800001 4284907633
0.039102685 0.034926727 0.38700002 4284710768
0.040359661 0.034926727 0.38700002 4285171573
0.041616637 0.034926727 0.38700002 4282211656
0.042873617 0.034926727 0.38700002 4279316762
0.04413059 0.034926727 0.38700002 4278990359
0.045270287 0.034836479 0.38600001 4279254301
0.046524014 0.034836479 0.38600001 4279123482
0.047777742 0.034836479 0.38600001 4279255838
0.04903147 0.034836479 0.38600001 4279124252
0.050285202 0.034836479 0.38600001 4278861080
0.051538929 0.034836479 0.38600001 4279058459
0.052655887 0.03474623 0.38500002 4279190045
0.05390637 0.03474623 0.38500002 4279058459
0.055156853 0.03474623 0.38500002 4278861080
0.056407336 0.03474623 0.38500002 4278927386
0.057657812 0.03474623 0.38500002 4278993179
0.058908295 0.03474623 0.38500002 4279058972
0.060158778 0.03474623 0.38500002 4279124765
0.061409254 0.03474623 0.38500002 4278992666
0.062659733 0.03474623 0.38500002 4278992666
0.064076215 0.034836479 0.38600001 4278992666
0.065329939 0.034836479 0.38600001 4278992666
0.066583671 0.034836479 0.38600001 4278795287
0.068013154 0.034926727 0.38700002 4279124252
0.069270127 0.034926727 0.38700002 4279124252
0.070527099 0.034926727 0.38700002 4279124252
0.071969569 0.035016976 0.38800001 4279123482
0.07322979 0.035016976 0.38800001 4279189275
0.074490011 0.035016976 0.38800001 4279189275
0.075945474 0.035107229 0.38900003 4279255068
0.077208951 0.035107229 0.38900003 4279123482
0.078472421 0.035107229 0.38900003 4279189275
0.07994087 0.035197478 0.39000002 4278991896
0.081207588 0.035197478 0.39000002 4278991896
0.082474314 0.035197478 0.39000002 4278991896
0.08395575 0.03528773 0.39100003 4279123482
0.085225724 0.03528773 0.39100003 4279189275
0.086716905 0.035377979 0.39200002 4279123482
0.08799012 0.035377979 0.39200002 4279123482
0.089263335 0.035377979 0.39200002 4279189275
0.090536557 0.035377979 0.39200002 4279254555
0.092043974 0.035468228 0.39300001 4279057176
0.093320444 0.035468228 0.39300001 4279254555
0.094596907 0.035468228 0.39300001 4279254555
0.096117325 0.035558477 0.39400002 4279320346
0.097397037 0.035558477 0.39400002 4279516955
0.098927192 0.035648726 0.39500001 4279385371
0.10021015 0.035648726 0.39500001 4279385371
0.10175007 0.035738979 0.39600003 4279450910
0.10303628 0.035738979 0.39600003 4279450910
0.10458592 0.035829227 0.39700001 4279450396
0.10614207 0.03591948 0.39800003 4279450396
0.10743479 0.03591948 0.39800003 4279055125
0.10900066 0.036009729 0.39900002 4279252504
0.11029661 0.036009729 0.39900002 4279317527
0.11187225 0.036099978 0.40000001 4279777826
0.11317145 0.036099978 0.40000001 4280961587
0.11447065 0.036099978 0.40000001 4282079298
0.11605928 0.036190227 0.40100002 4285631610
0.11736172 0.036190227 0.40100002 4285565817
0.039102685 0.036184132 0.38700002 4284841840
0.040359661 0.036184132 0.38700002 4284907633
0.041616637 0.036184132 0.38700002 4284776815
0.042873617 0.036184132 0.38700002 4285303929
0.04413059 0.036184132 0.38700002 4283593309
0.04538757 0.036184132 0.38700002 4279777828
0.046524014 0.036090631 0.38600001 4278858261
0.047777742 0.036090631 0.38600001 4279254303
0.04903147 0.036090631 0.38600001 4279385889
0.050285202 0.036090631 0.38600001 4279320096
0.051538929 0.036090631 0.38600001 4279189023
0.052655887 0.035997134 0.38500002 4279189023
0.05390637 0.035997134 0.38500002 4279189023
0.055156853 0.035997134 0.38500002 4279123230
0.056407336 0.035997134 0.38500002 4279320609
0.057657812 0.035997134 0.38500002 4279254816
0.058908295 0.035997134 0.38500002 4279254816
0.060158778 0.035997134 0.38500002 4279254816
0.061409254 0.035997134 0.38500002 4279123228
0.062659733 0.035997134 0.38500002 4279254301
0.064076215 0.036090631 0.38600001 4279188508
0.065329939 0.036090631 0.38600001 4279056922
0.066583671 0.036090631 0.38600001 4279254301
0.068013154 0.036184132 0.38700002 4279385887
0.069270127 0.036184132 0.38700002 4279254555
0.070527099 0.036184132 0.38700002 4279320348
0.071969569 0.036277629 0.38800001 4279451164
0.07322979 0.036277629 0.38800001 4279319578
0.074490011 0.036277629 0.38800001 4279056406
0.075945474 0.03637113 0.38900003 4279385117
0.077208951 0.03637113 0.38900003 4279385117
0.078472421 0.03637113 0.38900003 4279450910
0.07994087 0.036464628 0.39000002 4279450910
0.081207588 0.036464628 0.39000002 4279385117
0.082685791 0.036558129 0.39100003 4279187738
0.08395575 0.036558129 0.39100003 4279450910
0.085225724 0.036558129 0.39100003 4279121947
0.086716905 0.036651626 0.39200002 4279187740
0.08799012 0.036651626 0.39200002 4279253017
0.089263335 0.036651626 0.39200002 4279778332
0.090536557 0.036651626 0.39200002 4279317781
0.092043974 0.036745124 0.39300001 4279317781
0.093320444 0.036745124 0.39300001 4279514906
0.094596907 0.036745124 0.39300001 4279580188
0.096117325 0.036838625 0.39400002 4280830255
0.097397037 0.036838625 0.39400002 4281685310
0.098927192 0.036932122 0.39500001 4282540623
0.10021015 0.036932122 0.39500001 4283790690
0.10175007 0.037025623 0.39600003 4284711788
0.10303628 0.037025623 0.39600003 4285567097
0.10458592 0.03711912 0.39700001 4285632892
0.10614207 0.037212621 0.39800003 4285632894
0.10743479 0.037212621 0.39800003 4285172343
0.10900066 0.037306119 0.39900002 4285040503
0.11029661 0.037306119 0.39900002 4285171573
0.11187225 0.037399616 0.40000001 4285434229
0.11317145 0.037399616 0.40000001 4285631095
0.11447065 0.037399616 0.40000001 4285696888
0.11605928 0.037493117 0.40100002 4285499509
0.069805153 0.027756475 0.38957509 4294967295
0.069805153 0.027756475 0.38957509 4294901760
0.069805153 0.027756475 0.39007509 4294901760
0.069805153 0.027756475 0.39057508 4294901760
0.069805153 0.027756475 0.3910751 4294901760
0.069805153 0.027756475 0.3915751 4294901760
0.069805153 0.027756475 0.39207509 4294901760
0.069805153 0.027756475 0.39257509 4294901760
0.069805153 0.027756475 0.39307511 4294901760
0.069805153 0.027756475 0.3935751 4294901760
0.069805153 0.027756475 0.3940751 4294901760
0.069805153 0.027756475 0.39457509 4294901760
0.069805153 0.027756475 0.39507508 4294901760
0.069805153 0.027756475 0.39557511 4294901760
0.069805153 0.027756475 0.3960751 4294901760
0.069805153 0.027756475 0.39657509 4294901760
0.069805153 0.027756475 0.39707509 4294901760
0.069805153 0.027756475 0.39757508 4294901760
0.069805153 0.027756475 0.3980751 4294901760
0.069805153 0.027756475 0.3985751 4294901760
0.069805153 0.027756475 0.39907509 4294901760
0.069805153 0.027756475 0.39957508 4294901760
0.069805153 0.027756475 0.40007511 4294901760
0.069805153 0.027756475 0.4005751 4294901760
0.069805153 0.027756475 0.40107509 4294901760
0.069805153 0.027756475 0.40157509 4294901760
0.069805153 0.027756475 0.40207511 4294901760
0.069805153 0.027756475 0.40257511 4294901760
0.069805153 0.027756475 0.4030751 4294901760
0.069805153 0.027756475 0.40357509 4294901760
0.069805153 0.027756475 0.40407509 4294901760
0.069805153 0.027756475 0.40457511 4294901760
0.069805153 0.027756475 0.4050751 4294901760
0.069805153 0.027756475 0.4055751 4294901760
0.069805153 0.027756475 0.40607509 4294901760
0.069805153 0.027756475 0.40657508 4294901760
0.069805153 0.027756475 0.40707511 4294901760
0.069805153 0.027756475 0.4075751 4294901760
0.069805153 0.027756475 0.40807509 4294901760
0.069805153 0.027756475 0.40857509 4294901760
0.069805153 0.027756475 0.40907511 4294901760
0.069805153 0.027756475 0.4095751 4294901760
0.069805153 0.027756475 0.4100751 4294901760
0.069805153 0.027756475 0.41057509 4294901760
0.069805153 0.027756475 0.41107512 4294901760
0.069805153 0.027756475 0.41157511 4294901760
0.069805153 0.027756475 0.4120751 4294901760
0.069805153 0.027756475 0.4125751 4294901760
0.069805153 0.027756475 0.41307509 4294901760
0.069805153 0.027756475 0.41357511 4294901760
0.069805153 0.027756475 0.41407511 4294901760
0.069805153 0.027756475 0.4145751 4294901760
0.069805153 0.027756475 0.41507509 4294901760
0.069805153 0.027756475 0.41557509 4294901760
0.069805153 0.027756475 0.41607511 4294901760
0.069805153 0.027756475 0.4165751 4294901760
0.069805153 0.027756475 0.4170751 4294901760
0.069805153 0.027756475 0.41757509 4294901760
0.069805153 0.027756475 0.41807508 4294901760
0.069805153 0.027756475 0.41857511 4294901760
0.069805153 0.027756475 0.4190751 4294901760
0.069805153 0.027756475 0.4195751 4294901760
0.069805153 0.027756475 0.42007509 4294901760
0.069805153 0.027756475 0.42057511 4294901760
0.069805153 0.027756475 0.42107511 4294901760
0.069805153 0.027756475 0.4215751 4294901760
0.069805153 0.027756475 0.42207509 4294901760
0.069805153 0.027756475 0.42257512 4294901760
0.069805153 0.027756475 0.42307511 4294901760
0.069805153 0.027756475 0.4235751 4294901760
0.069805153 0.027756475 0.4240751 4294901760
0.069805153 0.027756475 0.42457509 4294901760
0.069805153 0.027756475 0.42507511 4294901760
0.069805153 0.027756475 0.42557511 4294901760
0.069805153 0.027756475 0.4260751 4294901760
0.069805153 0.027756475 0.42657509 4294901760
0.069805153 0.027756475 0.42707509 4294901760
0.069805153 0.027756475 0.42757511 4294901760
0.069805153 0.027756475 0.4280751 4294901760
0.069805153 0.027756475 0.4285751 4294901760
0.069805153 0.027756475 0.42907509 4294901760
0.069805153 0.027756475 0.42957512 4294901760
0.069805153 0.027756475 0.43007511 4294901760
0.069805153 0.027756475 0.4305751 4294901760
0.069805153 0.027756475 0.4310751 4294901760
0.069805153 0.027756475 0.43157509 4294901760
0.069805153 0.027756475 0.43207511 4294901760
0.069805153 0.027756475 0.43257511 4294901760
0.069805153 0.027756475 0.4330751 4294901760
0.069805153 0.027756475 0.43357509 4294901760
0.069805153 0.027756475 0.43407512 4294901760
0.069805153 0.027756475 0.43457511 4294901760
0.069805153 0.027756475 0.4350751 4294901760
0.069805153 0.027756475 0.4355751 4294901760
0.069805153 0.027756475 0.43607509 4294901760
0.069805153 0.027756475 0.43657511 4294901760
0.069805153 0.027756475 0.43707511 4294901760
0.069805153 0.027756475 0.4375751 4294901760
0.069805153 0.027756475 0.4380751 4294901760
0.069805153 0.027756475 0.43857512 4294901760
0.069805153 0.027756475 0.43907511 4294901760
0.069805153 0.027756475 0.43957511 4294901760
0.069805153 0.027756475 0.38957509 4278255360
0.069677256 0.027705863 0.39005581 4278255360
0.069549359 0.027655251 0.39053652 4278255360
0.069421463 0.02760464 0.39101723 4278255360
0.069293559 0.027554028 0.39149794 4278255360
0.069165662 0.027503418 0.39197862 4278255360
0.069037765 0.027452806 0.39245933 4278255360
0.068909869 0.027402194 0.39294004 4278255360
0.068781972 0.027351582 0.39342076 4278255360
0.068654075 0.027300971 0.39390147 4278255360
0.068526179 0.027250359 0.39438218 4278255360
0.068398274 0.027199747 0.39486289 4278255360
0.068270378 0.027149135 0.3953436 4278255360
0.068142481 0.027098525 0.39582431 4278255360
0.068014584 0.027047914 0.39630502 4278255360
0.067886688 0.026997302 0.39678574 4278255360
0.067758791 0.02694669 0.39726642 4278255360
0.067630894 0.026896078 0.39774713 4278255360
0.06750299 0.026845466 0.39822784 4278255360
0.067375094 0.026794855 0.39870855 4278255360
0.067247197 0.026744243 0.39918926 4278255360
0.0671193 0.026693633 0.39966998 4278255360
0.066991404 0.026643021 0.40015069 4278255360
0.066863507 0.026592409 0.4006314 4278255360
0.06673561 0.026541797 0.40111211 4278255360
0.066607714 0.026491186 0.40159279 4278255360
0.06647981 0.026440574 0.4020735 4278255360
0.066351913 0.026389962 0.40255421 4278255360
0.066224016 0.02633935 0.40303493 4278255360
0.06609612 0.02628874 0.40351564 4278255360
0.065968223 0.026238129 0.40399635 4278255360
0.065840326 0.026187517 0.40447706 4278255360
0.06571243 0.026136905 0.40495777 4278255360
0.065584525 0.026086293 0.40543848 4278255360
0.065456629 0.026035681 0.40591919 4278255360
0.065328732 0.02598507 0.40639991 4278255360
0.065200835 0.025934458 0.40688059 4278255360
0.065072939 0.025883846 0.4073613 4278255360
0.064945042 0.025833236 0.40784201 4278255360
0.064817145 0.025782624 0.40832272 4278255360
0.064689241 0.025732012 0.40880343 4278255360
0.064561345 0.025681401 0.40928414 4278255360
0.064433448 0.025630789 0.40976486 4278255360
0.064305551 0.025580177 0.41024557 4278255360
0.064177655 0.025529565 0.41072628 4278255360
0.064049758 0.025478953 0.41120696 4278255360
0.063921861 0.025428344 0.41168767 4278255360
0.063793957 0.025377732 0.41216838 4278255360
0.063666061 0.02532712 0.4126491 4278255360
0.063538164 0.025276508 0.41312981 4278255360
0.063410267 0.025225896 0.41361052 4278255360
0.063282371 0.025175285 0.41409123 4278255360
0.063154474 0.025124673 0.41457194 4278255360
0.063026577 0.025074061 0.41505265 4278255360
0.062898673 0.025023449 0.41553336 4278255360
0.062770776 0.024972839 0.41601408 4278255360
0.06264288 0.024922227 0.41649476 4278255360
0.062514983 0.024871616 0.41697547 4278255360
0.062387086 0.024821004 0.41745618 4278255360
0.06225919 0.024770392 0.41793689 4278255360
0.062131289 0.02471978 0.4184176 4278255360
0.062003393 0.024669169 0.41889831 4278255360
0.061875492 0.024618557 0.41937903 4278255360
0.061747596 0.024567947 0.41985974 4278255360
0.061619699 0.024517335 0.42034045 4278255360
0.061491802 0.024466723 0.42082113 4278255360
0.061363906 0.024416111 0.42130184 4278255360
0.061236005 0.0243655 0.42178255 4278255360
0.061108109 0.024314888 0.42226326 4278255360
0.060980212 0.024264276 0.42274398 4278255360
0.060852312 0.024213664 0.42322469 4278255360
0.060724415 0.024163054 0.4237054 4278255360
0.060596518 0.024112441 0.42418611 4278255360
0.060468622 0.024061831 0.42466682 4278255360
0.060340721 0.024011219 0.42514753 4278255360
0.060212824 0.023960607 0.42562824 4278255360
0.060084928 0.023909995 0.42610893 4278255360
0.059957027 0.023859384 0.42658964 4278255360
0.059829131 0.023808774 0.42707035 4278255360
0.059701234 0.023758162 0.42755106 4278255360
0.059573337 0.02370755 0.42803177 4278255360
0.059445437 0.023656938 0.42851248 4278255360
0.05931754 0.023606326 0.4289932 4278255360
0.059189644 0.023555715 0.42947391 4278255360
0.059061743 0.023505103 0.42995459 4278255360
0.058933847 0.023454491 0.4304353 4278255360
0.05880595 0.023403879 0.43091601 4278255360
0.058678053 0.023353267 0.43139672 4278255360
0.058550157 0.023302656 0.43187743 4278255360
0.058422256 0.023252046 0.43235815 4278255360
0.05829436 0.023201434 0.43283886 4278255360
