# .PCD v0.7 - Point Cloud Data file format
VERSION 0.7
FIELDS x y z rgb
SIZE 4 4 4 4
TYPE F F F U
COUNT 1 1 1 1
WIDTH 1051
HEIGHT 1
VIEWPOINT 0 0 0 1 0 0 0
POINTS 1051
DATA ascii
0.062788747 0.030485632 0.36400002 4278664212
0.063971028 0.030485632 0.36400002 4278336017
0.065971084 0.030318128 0.36200002 4278204429
0.067146868 0.030318128 0.36200002 4278401808
0.026121555 0.033147316 0.38100001 4279969819
0.02999063 0.033321321 0.38300002 4279969819
0.037650123 0.033495322 0.38500002 4280364577
0.038900606 0.033495322 0.38500002 4279573778
0.040151086 0.033495322 0.38500002 4280034329
0.041401565 0.033495322 0.38500002 4280232219
0.042652048 0.033495322 0.38500002 4280299293
0.043902528 0.033495322 0.38500002 4279381010
0.045153007 0.033495322 0.38500002 4279184658
0.04447503 0.032103308 0.36900002 4278990613
0.045673542 0.032103308 0.36900002 4278465552
0.046745032 0.032016307 0.36800003 4279123480
0.047940299 0.032016307 0.36800003 4278926099
0.049135566 0.032016307 0.36800003 4278400525
0.050467592 0.032103308 0.36900002 4278532111
0.051666107 0.032103308 0.36900002 4278269452
0.052864619 0.032103308 0.36900002 4278335245
0.054063134 0.032103308 0.36900002 4278532113
0.055261642 0.032103308 0.36900002 4278400527
0.056460157 0.032103308 0.36900002 4278400527
0.057502419 0.032016307 0.36800003 4278334734
0.058538172 0.031929307 0.36700001 4278400529
0.05956744 0.031842306 0.36600003 4278532115
0.060590208 0.031755306 0.36500001 4278531345
0.061606478 0.031668305 0.36400002 4278197504
0.062788747 0.031668305 0.36400002 4278200843
0.063795276 0.031581301 0.36300001 4278465552
0.064974301 0.031581301 0.36300001 4278268941
0.065971084 0.031494305 0.36200002 4278334734
0.067146868 0.031494305 0.36200002 4278334734
0.068322644 0.031494305 0.36200002 4278532111
0.069498412 0.031494305 0.36200002 4278466831
0.021116031 0.034294982 0.38000003 4279969567
0.022350272 0.034294982 0.38000003 4279903774
0.026258677 0.034565728 0.38300002 4281944632
0.02750266 0.034565728 0.38300002 4282076218
0.028821699 0.034655977 0.384 4282470462
0.03014724 0.03474623 0.38500002 4282010425
0.031397719 0.03474623 0.38500002 4282207804
0.032733001 0.034836479 0.38600001 4282273597
0.033898681 0.03474623 0.38500002 4282009913
0.035149161 0.03474623 0.38500002 4281483569
0.036399644 0.03474623 0.38500002 4281746741
0.037650123 0.03474623 0.38500002 4280232989
0.038900606 0.03474623 0.38500002 4279640084
0.040151086 0.03474623 0.38500002 4279903256
0.041401565 0.03474623 0.38500002 4280298012
0.042652048 0.03474623 0.38500002 4280233754
0.043902528 0.03474623 0.38500002 4279315219
0.043276519 0.033302229 0.36900002 4279251734
0.04447503 0.033302229 0.36900002 4278990613
0.045673542 0.033302229 0.36900002 4278794004
0.046745032 0.03321198 0.36800003 4279320859
0.047940299 0.03321198 0.36800003 4278728722
0.049135566 0.03321198 0.36800003 4278532113
0.050330825 0.03321198 0.36800003 4278597906
0.051666107 0.033302229 0.36900002 4278597904
0.052864619 0.033302229 0.36900002 4278597906
0.054063134 0.033302229 0.36900002 4278400527
0.055111885 0.03321198 0.36800003 4278334734
0.056307152 0.03321198 0.36800003 4278334736
0.057346158 0.033121731 0.36700001 4278400529
0.058538172 0.033121731 0.36700001 4278334736
0.05956744 0.033031482 0.36600003 4278334736
0.060590208 0.03294123 0.36500001 4278200072
0.061606478 0.032850981 0.36400002 4278857748
0.062788747 0.032850981 0.36400002 4278197252
0.063795276 0.032760728 0.36300001 4278530062
0.064974301 0.032760728 0.36300001 4278334736
0.065971084 0.032670479 0.36200002 4278400529
0.067146868 0.032670479 0.36200002 4278268941
0.068322644 0.032670479 0.36200002 4278334734
0.069498412 0.032670479 0.36200002 4278334734
0.085959293 0.032670479 0.36200002 4278401808
0.087135069 0.032670479 0.36200002 4278467601
0.023770707 0.035810135 0.38300002 4281878325
0.033986729 0.036090631 0.38600001 4279378193
0.035240456 0.036090631 0.38600001 4281483567
0.036494188 0.036090631 0.38600001 4282208058
0.037650123 0.035997134 0.38500002 4280561952
0.038900606 0.035997134 0.38500002 4279705364
0.040151086 0.035997134 0.38500002 4279902743
0.040111128 0.034875143 0.37300003 4279442705
0.041211847 0.034781646 0.37200001 4279575570
0.042192038 0.034594648 0.37 4279249939
0.043276519 0.034501147 0.36900002 4279318299
0.04447503 0.034501147 0.36900002 4278727441
0.045673542 0.034501147 0.36900002 4278728722
0.046872053 0.034501147 0.36900002 4278992662
0.047940299 0.034407649 0.36800003 4278729490
0.049135566 0.034407649 0.36800003 4278532111
0.050330825 0.034407649 0.36800003 4278400525
0.051526092 0.034407649 0.36800003 4278268941
0.052721359 0.034407649 0.36800003 4278400527
0.053916626 0.034407649 0.36800003 4278334734
0.055111885 0.034407649 0.36800003 4278334734
0.056307152 0.034407649 0.36800003 4278662929
0.057346158 0.034314148 0.36700001 4278465550
0.05837867 0.034220651 0.36600003 4278400527
0.059404682 0.03412715 0.36500001 4278334734
0.060590208 0.03412715 0.36500001 4278464785
0.061606478 0.034033652 0.36400002 4278331404
0.062788747 0.034033652 0.36400002 4278792468
0.063795276 0.033940151 0.36300001 4278595601
0.064974301 0.033940151 0.36300001 4278202380
0.066153325 0.033940151 0.36300001 4278399759
0.06733235 0.033940151 0.36300001 4278728211
0.068511374 0.033940151 0.36300001 4278465039
0.069690399 0.033940151 0.36300001 4278399246
0.070869423 0.033940151 0.36300001 4278465039
0.072048448 0.033940151 0.36300001 4278333966
0.073227473 0.033940151 0.36300001 4278399759
0.074406497 0.033940151 0.36300001 4278399759
0.075585522 0.033940151 0.36300001 4278465552
0.077943571 0.033940151 0.36300001 4278399759
0.079122595 0.033940151 0.36300001 4278531343
0.08030162 0.033940151 0.36300001 4278531343
0.081480645 0.033940151 0.36300001 4278532113
0.082431957 0.033846654 0.36200002 4278532113
0.083607741 0.033846654 0.36200002 4278400525
0.084783509 0.033846654 0.36200002 4278268939
0.085959293 0.033846654 0.36200002 4278334734
0.087135069 0.033846654 0.36200002 4278334734
0.088310838 0.033846654 0.36200002 4278334734
0.089486621 0.033846654 0.36200002 4278400527
0.09066239 0.033846654 0.36200002 4278400525
0.091838174 0.033846654 0.36200002 4278334734
0.09301395 0.033846654 0.36200002 4278466833
0.098619647 0.033753157 0.36100003 4278664210
0.099515744 0.033659656 0.36000001 4278795796
0.10068502 0.033659656 0.36000001 4279388187
0.10185431 0.033659656 0.36000001 4279388187
0.035331756 0.037441533 0.38700002 4279969047
0.036494188 0.037344784 0.38600001 4279641363
0.037747912 0.037344784 0.38600001 4284116055
0.038900606 0.037248038 0.38500002 4280100633
0.038899623 0.036087058 0.37300003 4279376399
0.040003587 0.035990309 0.37200001 4279376658
0.041211847 0.035990309 0.37200001 4279641365
0.042192038 0.035796814 0.37 4279118867
0.043276519 0.035700068 0.36900002 4279384090
0.04447503 0.035700068 0.36900002 4278793750
0.045673542 0.035700068 0.36900002 4278794517
0.046872053 0.035700068 0.36900002 4278664212
0.048070569 0.035700068 0.36900002 4278664212
0.049269084 0.035700068 0.36900002 4278335245
0.050330825 0.035603318 0.36800003 4278532624
0.051526092 0.035603318 0.36800003 4278335245
0.052721359 0.035603318 0.36800003 4278334734
0.053916626 0.035603318 0.36800003 4278334734
0.055111885 0.035603318 0.36800003 4278400527
0.056154139 0.035506569 0.36700001 4278662929
0.057346158 0.035506569 0.36700001 4278662929
0.05837867 0.035409823 0.36600003 4278531343
0.059404682 0.035313074 0.36500001 4278465550
0.060590208 0.035313074 0.36500001 4278196482
0.061606478 0.035216328 0.36400002 4278195458
0.062788747 0.035216328 0.36400002 4278200331
0.063971028 0.035216328 0.36400002 4278398994
0.064974301 0.035119578 0.36300001 4278197506
0.066153325 0.035119578 0.36300001 4278195713
0.06733235 0.035119578 0.36300001 4278260228
0.068511374 0.035119578 0.36300001 4278194948
0.069690399 0.035119578 0.36300001 4278195205
0.070869423 0.035119578 0.36300001 4278194948
0.072048448 0.035119578 0.36300001 4278194433
0.073227473 0.035119578 0.36300001 4278194944
0.074406497 0.035119578 0.36300001 4278196224
0.075585522 0.035119578 0.36300001 4278197765
0.076764546 0.035119578 0.36300001 4278659086
0.077943571 0.035119578 0.36300001 4278528011
0.079122595 0.035119578 0.36300001 4278989845
0.08030162 0.035119578 0.36300001 4278661394
0.081480645 0.035119578 0.36300001 4278530832
0.082659669 0.035119578 0.36300001 4278465039
0.083838694 0.035119578 0.36300001 4278465039
0.084783509 0.035022829 0.36200002 4278530832
0.085959293 0.035022829 0.36200002 4278530830
0.087135069 0.035022829 0.36200002 4278465550
0.088310838 0.035022829 0.36200002 4278531343
0.089486621 0.035022829 0.36200002 4278465550
0.09066239 0.035022829 0.36200002 4278465550
0.091838174 0.035022829 0.36200002 4278465550
0.09301395 0.035022829 0.36200002 4278531343
0.093929537 0.034926083 0.36100003 4278532113
0.095102072 0.034926083 0.36100003 4278400527
0.096274599 0.034926083 0.36100003 4278400527
0.097447127 0.034926083 0.36100003 4278400527
0.098619647 0.034926083 0.36100003 4278532111
0.099792175 0.034926083 0.36100003 4278597904
0.10068502 0.034829333 0.36000001 4278597904
0.10185431 0.034829333 0.36000001 4278663951
0.10330977 0.034926083 0.36100003 4278664464
0.1044823 0.034926083 0.36100003 4278795796
0.10565482 0.034926083 0.36100003 4279124761
0.035423048 0.038798932 0.38800001 4279836948
0.036588732 0.038698938 0.38700002 4279969047
0.037747912 0.038598936 0.38600001 4281746741
0.038900606 0.038498942 0.38500002 4283853403
0.038899623 0.037298974 0.37300003 4279312402
0.040003587 0.037198976 0.37200001 4279574037
0.041101065 0.037098981 0.37100002 4279247121
0.042192038 0.03699898 0.37 4279251221
0.043393798 0.03699898 0.37 4279253017
0.04447503 0.036898986 0.36900002 4278662931
0.045673542 0.036898986 0.36900002 4278729494
0.046872053 0.036898986 0.36900002 4278795800
0.048070569 0.036898986 0.36900002 4278269456
0.049269084 0.036898986 0.36900002 4278269454
0.050330825 0.036798988 0.36800003 4278335245
0.051526092 0.036798988 0.36800003 4278598417
0.052721359 0.036798988 0.36800003 4278335245
0.053916626 0.036798988 0.36800003 4278532113
0.054962121 0.03669899 0.36700001 4278400527
0.056154139 0.03669899 0.36700001 4278532113
0.057189904 0.036598995 0.36600003 4278399759
0.05837867 0.036598995 0.36600003 4278399759
0.059404682 0.036498994 0.36500001 4278399759
0.060590208 0.036498994 0.36500001 4278198026
0.061606478 0.036398999 0.36400002 4278590476
0.062788747 0.036398999 0.36400002 4278726673
0.063971028 0.036398999 0.36400002 4278596371
0.065153301 0.036398999 0.36400002 4278195974
0.066153325 0.036299001 0.36300001 4278326021
0.06733235 0.036299001 0.36300001 4278522119
0.068511374 0.036299001 0.36300001 4278456326
0.069690399 0.036299001 0.36300001 4278456328
0.070869423 0.036299001 0.36300001 4278522121
0.072246931 0.036398999 0.36400002 4278587914
0.073429205 0.036398999 0.36400002 4278456326
0.074611478 0.036398999 0.36400002 4278522373
0.075793751 0.036398999 0.36400002 4278588166
0.076976024 0.036398999 0.36400002 4278391300
0.078158297 0.036398999 0.36400002 4278260228
0.079122595 0.036299001 0.36300001 4278195205
0.08030162 0.036299001 0.36300001 4278195200
0.081480645 0.036299001 0.36300001 4278330380
0.082659669 0.036299001 0.36300001 4278194176
0.083838694 0.036299001 0.36300001 4278193920
0.085017718 0.036299001 0.36300001 4278194432
0.086196743 0.036299001 0.36300001 4278197507
0.087135069 0.036199003 0.36200002 4278396425
0.088310838 0.036199003 0.36200002 4278594574
0.089486621 0.036199003 0.36200002 4278726160
0.09066239 0.036199003 0.36200002 4278529808
0.091838174 0.036199003 0.36200002 4278661394
0.09301395 0.036199003 0.36200002 4278464267
0.093929537 0.036099009 0.36100003 4278530830
0.095102072 0.036099009 0.36100003 4278530830
0.096274599 0.036099009 0.36100003 4278596623
0.097447127 0.036099009 0.36100003 4278596623
0.098619647 0.036099009 0.36100003 4278465037
0.099792175 0.036099009 0.36100003 4278530830
0.10096471 0.036099009 0.36100003 4278728722
0.10213724 0.036099009 0.36100003 4278728720
0.10330977 0.036099009 0.36100003 4278728720
0.1044823 0.036099009 0.36100003 4278728722
0.10565482 0.036099009 0.36100003 4278663699
0.10712326 0.036199003 0.36200002 4278730005
0.10859821 0.036299001 0.36300001 4278598419
0.10977723 0.036299001 0.36300001 4278730003
0.11126193 0.036398999 0.36400002 4278795796
0.11244421 0.036398999 0.36400002 4278993175
0.11393864 0.036498994 0.36500001 4279058968
0.11512415 0.036498994 0.36500001 4279059738
0.11662833 0.036598995 0.36600003 4279059738
0.1178171 0.036598995 0.36600003 4279124761
0.11900587 0.036598995 0.36600003 4279256347
0.12052304 0.03669899 0.36700001 4279190554
0.12171506 0.03669899 0.36700001 4279321627
0.12290706 0.03669899 0.36700001 4279581982
0.040003587 0.038407642 0.37200001 4279048717
0.041101065 0.038304396 0.37100002 4279445270
0.042192038 0.03820115 0.37 4279120920
0.043393798 0.03820115 0.37 4279187738
0.04447503 0.038097903 0.36900002 4278662677
0.045673542 0.038097903 0.36900002 4278531861
0.046872053 0.038097903 0.36900002 4278795800
0.048070569 0.038097903 0.36900002 4278269456
0.049135566 0.037994657 0.36800003 4278466833
0.050330825 0.037994657 0.36800003 4278532626
0.051526092 0.037994657 0.36800003 4278335247
0.052721359 0.037994657 0.36800003 4278334734
0.05377011 0.03789141 0.36700001 4278400527
0.054962121 0.03789141 0.36700001 4278400529
0.056154139 0.03789141 0.36700001 4278532115
0.057189904 0.037788164 0.36600003 4278334736
0.05837867 0.037788164 0.36600003 4278400529
0.059404682 0.037684917 0.36500001 4278531345
0.060590208 0.037684917 0.36500001 4278329099
0.061606478 0.037581671 0.36400002 4279117590
0.062788747 0.037581671 0.36400002 4278792466
0.063971028 0.037581671 0.36400002 4278595601
0.065153301 0.037581671 0.36400002 4278260998
0.066335566 0.037581671 0.36400002 4279181330
0.067517839 0.037581671 0.36400002 4278391046
0.06870012 0.037581671 0.36400002 4279377941
0.069882385 0.037581671 0.36400002 4278851597
0.071064658 0.037581671 0.36400002 4279114769
0.072246931 0.037581671 0.36400002 4279180562
0.073429205 0.037581671 0.36400002 4278720011
0.074611478 0.037581671 0.36400002 4278456326
0.075793751 0.037581671 0.36400002 4278587912
0.076976024 0.037581671 0.36400002 4278456326
0.078158297 0.037581671 0.36400002 4278522119
0.07934057 0.037581671 0.36400002 4278456839
0.080522843 0.037581671 0.36400002 4278985234
0.081480645 0.037478425 0.36300001 4278857748
0.082659669 0.037478425 0.36300001 4278857748
0.083838694 0.037478425 0.36300001 4278857748
0.085017718 0.037478425 0.36300001 4278856978
0.086196743 0.037478425 0.36300001 4279185943
0.087375768 0.037478425 0.36300001 4279119637
0.088554792 0.037478425 0.36300001 4278921488
0.089486621 0.037375178 0.36200002 4278987281
0.09066239 0.037375178 0.36200002 4278263304
0.091838174 0.037375178 0.36200002 4278195971
0.09301395 0.037375178 0.36200002 4278194944
0.094189726 0.037375178 0.36200002 4278194432
0.095365502 0.037375178 0.36200002 4278194432
0.096274599 0.037271935 0.36100003 4278196226
0.097447127 0.037271935 0.36100003 4278197253
0.098619647 0.037271935 0.36100003 4278330634
0.099792175 0.037271935 0.36100003 4278660367
0.10096471 0.037271935 0.36100003 4278726414
0.10213724 0.037271935 0.36100003 4278727441
0.10330977 0.037271935 0.36100003 4278595855
0.1044823 0.037271935 0.36100003 4278595855
0.10594749 0.037375178 0.36200002 4278530832
0.10712326 0.037375178 0.36200002 4278531345
0.10859821 0.037478425 0.36300001 4278268943
0.10977723 0.037478425 0.36300001 4278334734
0.11126193 0.037581671 0.36400002 4278532113
0.11244421 0.037581671 0.36400002 4278532113
0.11393864 0.037684917 0.36500001 4278663699
0.11512415 0.037684917 0.36500001 4278532626
0.11662833 0.037788164 0.36600003 4278664210
0.1178171 0.037788164 0.36600003 4278795796
0.11900587 0.037788164 0.36600003 4278795283
0.12052304 0.03789141 0.36700001 4279255834
0.12171506 0.03789141 0.36700001 4279255834
0.12290706 0.03789141 0.36700001 4279189271
0.12409908 0.03789141 0.36700001 4279187990
0.041101065 0.039509814 0.37100002 4279380758
0.042192038 0.039403316 0.37 4279318810
0.043393798 0.039403316 0.37 4279121945
0.04447503 0.039296821 0.36900002 4278662931
0.045673542 0.039296821 0.36900002 4278795287
0.046872053 0.039296821 0.36900002 4278795287
0.048070569 0.039296821 0.36900002 4278597908
0.049135566 0.03919033 0.36800003 4278334734
0.050330825 0.03919033 0.36800003 4278597906
0.051526092 0.03919033 0.36800003 4278334736
0.052721359 0.03919033 0.36800003 4278400529
0.05377011 0.039083831 0.36700001 4278532115
0.054962121 0.039083831 0.36700001 4278532115
0.056001134 0.038977336 0.36600003 4278400529
0.057189904 0.038977336 0.36600003 4278532115
0.05837867 0.038977336 0.36600003 4278663701
0.059404682 0.038870838 0.36500001 4278465552
0.060590208 0.038870838 0.36500001 4278195714
0.061775722 0.038870838 0.36500001 4279249687
0.062788747 0.038764346 0.36400002 4278989845
0.063971028 0.038764346 0.36400002 4278594574
0.065153301 0.038764346 0.36400002 4278522632
0.066335566 0.038764346 0.36400002 4279313686
0.067517839 0.038764346 0.36400002 4279116307
0.06870012 0.038764346 0.36400002 4278458377
0.069882385 0.038764346 0.36400002 4278524170
0.071064658 0.038764346 0.36400002 4278392584
0.072246931 0.038764346 0.36400002 4278194691
0.073429205 0.038764346 0.36400002 4279116820
0.074611478 0.038764346 0.36400002 4278720777
0.075793751 0.038764346 0.36400002 4278983949
0.076976024 0.038764346 0.36400002 4278786570
0.078158297 0.038764346 0.36400002 4279379479
0.07934057 0.038764346 0.36400002 4278851851
0.080522843 0.038764346 0.36400002 4279445785
0.081705116 0.038764346 0.36400002 4278595601
0.082887389 0.038764346 0.36400002 4278595601
0.084069662 0.038764346 0.36400002 4278331402
0.085017718 0.038657848 0.36300001 4278198532
0.086196743 0.038657848 0.36300001 4278331915
0.087375768 0.038657848 0.36300001 4278792468
0.088554792 0.038657848 0.36300001 4278726675
0.089733817 0.038657848 0.36300001 4278923539
0.090912841 0.038657848 0.36300001 4279055125
0.092091866 0.038657848 0.36300001 4279120918
0.09301395 0.038551353 0.36200002 4278858261
0.094189726 0.038551353 0.36200002 4278660882
0.095365502 0.038551353 0.36200002 4278857748
0.096541286 0.038551353 0.36200002 4278988564
0.097717062 0.038551353 0.36200002 4279317016
0.098619647 0.038444858 0.36100003 4279317016
0.099792175 0.038444858 0.36100003 4278593039
0.10096471 0.038444858 0.36100003 4278921234
0.10213724 0.038444858 0.36100003 4278197511
0.10359594 0.038551353 0.36200002 4278194944
0.10477172 0.038551353 0.36200002 4278194688
0.10594749 0.038551353 0.36200002 4278194176
0.10741919 0.038657848 0.36300001 4278195456
0.10859821 0.038657848 0.36300001 4278195712
0.11007966 0.038764346 0.36400002 4278198791
0.11126193 0.038764346 0.36400002 4278330632
0.11275312 0.038870838 0.36500001 4278397708
0.11393864 0.038870838 0.36500001 4278399759
0.11512415 0.038870838 0.36500001 4278663699
0.11662833 0.038977336 0.36600003 4278400527
0.1178171 0.038977336 0.36600003 4278860306
0.11933102 0.039083831 0.36700001 4278728720
0.12052304 0.039083831 0.36700001 4278794513
0.12171506 0.039083831 0.36700001 4278860306
0.12290706 0.039083831 0.36700001 4278926099
0.12409908 0.039083831 0.36700001 4279188758
0.042192038 0.040605485 0.37 4279581982
0.043393798 0.040605485 0.37 4278991383
0.04447503 0.040495742 0.36900002 4278729494
0.045673542 0.040495742 0.36900002 4278861080
0.046872053 0.040495742 0.36900002 4278927386
0.048070569 0.040495742 0.36900002 4278532628
0.049135566 0.040385999 0.36800003 4278664212
0.050330825 0.040385999 0.36800003 4278335247
0.051526092 0.040385999 0.36800003 4278335247
0.052578092 0.040276252 0.36700001 4278269456
0.05377011 0.040276252 0.36700001 4278269456
0.054962121 0.040276252 0.36700001 4278269456
0.056001134 0.040166508 0.36600003 4278269456
0.057189904 0.040166508 0.36600003 4278466835
0.05837867 0.040166508 0.36600003 4278465552
0.059404682 0.040056761 0.36500001 4278200326
0.060590208 0.040056761 0.36500001 4278327304
0.061775722 0.040056761 0.36500001 4278986004
0.062961243 0.040056761 0.36500001 4278726673
0.064146765 0.040056761 0.36500001 4278528013
0.065153301 0.039947018 0.36400002 4278522886
0.066335566 0.039947018 0.36400002 4278917644
0.067517839 0.039947018 0.36400002 4278260228
0.06870012 0.039947018 0.36400002 4279182098
0.069882385 0.039947018 0.36400002 4278918926
0.071064658 0.039947018 0.36400002 4278391812
0.072246931 0.039947018 0.36400002 4278720779
0.073429205 0.039947018 0.36400002 4278655756
0.074611478 0.039947018 0.36400002 4278391814
0.075793751 0.039947018 0.36400002 4279116305
0.076976024 0.039947018 0.36400002 4279117586
0.078158297 0.039947018 0.36400002 4278195201
0.07934057 0.039947018 0.36400002 4278523146
0.080522843 0.039947018 0.36400002 4279380760
0.081705116 0.039947018 0.36400002 4278859027
0.082887389 0.039947018 0.36400002 4278199301
0.084069662 0.039947018 0.36400002 4278391812
0.085251927 0.039947018 0.36400002 4278391812
0.0864342 0.039947018 0.36400002 4278327302
0.087375768 0.039837271 0.36300001 4278922006
0.088554792 0.039837271 0.36300001 4278198280
0.089733817 0.039837271 0.36300001 4278593552
0.090912841 0.039837271 0.36300001 4278396425
0.092091866 0.039837271 0.36300001 4278791953
0.09327089 0.039837271 0.36300001 4278197762
0.094449915 0.039837271 0.36300001 4278197762
0.09562894 0.039837271 0.36300001 4279055125
0.096541286 0.039727528 0.36200002 4278989845
0.097717062 0.039727528 0.36200002 4278858513
0.09889283 0.039727528 0.36200002 4278858513
0.10006861 0.039727528 0.36200002 4278792720
0.10124438 0.039727528 0.36200002 4278989845
0.10242017 0.039727528 0.36200002 4279055638
0.10359594 0.039727528 0.36200002 4278989845
0.10506114 0.039837271 0.36300001 4278791955
0.10624015 0.039837271 0.36300001 4279251736
0.10741919 0.039837271 0.36300001 4278988564
0.10889738 0.039947018 0.36400002 4279185943
0.11007966 0.039947018 0.36400002 4279251736
0.11156759 0.040056761 0.36500001 4279185943
0.11275312 0.040056761 0.36500001 4278328070
0.11393864 0.040056761 0.36500001 4278922771
0.11543956 0.040166508 0.36600003 4278728209
0.11662833 0.040166508 0.36600003 4278596623
0.1178171 0.040166508 0.36600003 4278794513
0.11933102 0.040276252 0.36700001 4278794513
0.12052304 0.040276252 0.36700001 4278662927
0.12171506 0.040276252 0.36700001 4278728720
0.12290706 0.040276252 0.36700001 4278728720
0.12409908 0.040276252 0.36700001 4278926099
0.042192038 0.041807652 0.37 4279384092
0.043393798 0.041807652 0.37 4278991129
0.04447503 0.04169466 0.36900002 4278729494
0.045673542 0.04169466 0.36900002 4278992666
0.046872053 0.04169466 0.36900002 4278795800
0.048070569 0.04169466 0.36900002 4278532628
0.049135566 0.041581668 0.36800003 4278795800
0.050330825 0.041581668 0.36800003 4278664212
0.051526092 0.041581668 0.36800003 4278269454
0.052578092 0.041468672 0.36700001 4278466835
0.05377011 0.041468672 0.36700001 4278269456
0.054962121 0.041468672 0.36700001 4278335249
0.056001134 0.041355681 0.36600003 4278532628
0.057189904 0.041355681 0.36600003 4278466835
0.058219161 0.041242685 0.36500001 4278400529
0.059404682 0.041242685 0.36500001 4278662677
0.060590208 0.041242685 0.36500001 4278195970
0.061775722 0.041242685 0.36500001 4279644959
0.062961243 0.041242685 0.36500001 4279055125
0.064146765 0.041242685 0.36500001 4278461707
0.065332286 0.041242685 0.36500001 4278654218
0.066335566 0.04112969 0.36400002 4278587912
0.067517839 0.04112969 0.36400002 4278719498
0.06870012 0.04112969 0.36400002 4278587912
0.069882385 0.04112969 0.36400002 4278522632
0.071064658 0.04112969 0.36400002 4278456839
0.072246931 0.04112969 0.36400002 4278457093
0.073429205 0.04112969 0.36400002 4278522373
0.074611478 0.04112969 0.36400002 4278522886
0.075793751 0.04112969 0.36400002 4278260228
0.076976024 0.04112969 0.36400002 4278459656
0.078158297 0.04112969 0.36400002 4278657037
0.07934057 0.04112969 0.36400002 4278195205
0.080522843 0.04112969 0.36400002 4279250199
0.081705116 0.04112969 0.36400002 4278661648
0.082887389 0.04112969 0.36400002 4278195971
0.084069662 0.04112969 0.36400002 4278522632
0.085251927 0.04112969 0.36400002 4278654220
0.0864342 0.04112969 0.36400002 4278391814
0.087616481 0.04112969 0.36400002 4278525451
0.088798746 0.04112969 0.36400002 4278922771
0.089981019 0.04112969 0.36400002 4278988562
0.091163293 0.04112969 0.36400002 4278194944
0.092091866 0.041016694 0.36300001 4278196998
0.09327089 0.041016694 0.36300001 4278726162
0.094449915 0.041016694 0.36300001 4278792468
0.09562894 0.041016694 0.36300001 4278196736
0.096807972 0.041016694 0.36300001 4278593804
0.097986996 0.041016694 0.36300001 4278726414
0.099166013 0.041016694 0.36300001 4278199042
0.10034504 0.041016694 0.36300001 4278858259
0.10152406 0.041016694 0.36300001 4278858773
0.10270309 0.041016694 0.36300001 4278595855
0.10388211 0.041016694 0.36300001 4278530062
0.10506114 0.041016694 0.36300001 4278661648
0.10653283 0.04112969 0.36400002 4278727441
0.10771511 0.04112969 0.36400002 4278661648
0.10889738 0.04112969 0.36400002 4278595855
0.11038207 0.041242685 0.36500001 4278924820
0.11156759 0.041242685 0.36500001 4278661648
0.11275312 0.041242685 0.36500001 4278196740
0.1142508 0.041355681 0.36600003 4278987797
0.11543956 0.041355681 0.36600003 4278596625
0.11662833 0.041355681 0.36600003 4278596623
0.11813901 0.041468672 0.36700001 4278596623
0.11933102 0.041468672 0.36700001 4278333964
0.12052304 0.041468672 0.36700001 4278531343
0.12171506 0.041468672 0.36700001 4278794002
0.12290706 0.041468672 0.36700001 4278530830
0.12409908 0.041468672 0.36700001 4278925588
0.042192038 0.043009818 0.37 4280104996
0.043393798 0.043009818 0.37 4279646240
0.04447503 0.042893577 0.36900002 4279058459
0.045673542 0.042893577 0.36900002 4279058457
0.046872053 0.042893577 0.36900002 4279058457
0.048070569 0.042893577 0.36900002 4278400527
0.049135566 0.042777337 0.36800003 4278532113
0.050330825 0.042777337 0.36800003 4278532113
0.051526092 0.042777337 0.36800003 4278400527
0.052578092 0.042661093 0.36700001 4278597908
0.05377011 0.042661093 0.36700001 4278532115
0.054812364 0.042544849 0.36600003 4278597908
0.056001134 0.042544849 0.36600003 4278400529
0.057189904 0.042544849 0.36600003 4278532115
0.058219161 0.042428605 0.36500001 4278400529
0.059404682 0.042428605 0.36500001 4278200842
0.060590208 0.042428605 0.36500001 4278396173
0.061775722 0.042428605 0.36500001 4278988564
0.062961243 0.042428605 0.36500001 4278990613
0.064146765 0.042428605 0.36500001 4279056406
0.065332286 0.042428605 0.36500001 4278459660
0.066517808 0.042428605 0.36500001 4278654732
0.067517839 0.042312365 0.36400002 4278719498
0.06870012 0.042312365 0.36400002 4278522119
0.069882385 0.042312365 0.36400002 4278587912
0.071064658 0.042312365 0.36400002 4278587912
0.072246931 0.042312365 0.36400002 4278522119
0.073429205 0.042312365 0.36400002 4278718728
0.074611478 0.042312365 0.36400002 4278652937
0.075793751 0.042312365 0.36400002 4278587912
0.076976024 0.042312365 0.36400002 4278522119
0.078158297 0.042312365 0.36400002 4278522119
0.07934057 0.042312365 0.36400002 4278195716
0.080522843 0.042312365 0.36400002 4278988564
0.081705116 0.042312365 0.36400002 4278595601
0.082887389 0.042312365 0.36400002 4278460169
0.084069662 0.042312365 0.36400002 4278719498
0.085251927 0.042312365 0.36400002 4278522119
0.0864342 0.042312365 0.36400002 4278788623
0.087616481 0.042312365 0.36400002 4279052820
0.088798746 0.042312365 0.36400002 4278197507
0.089981019 0.042312365 0.36400002 4278198533
0.091163293 0.042312365 0.36400002 4278527500
0.092345566 0.042312365 0.36400002 4278329867
0.093527839 0.042312365 0.36400002 4279186459
0.094710112 0.042312365 0.36400002 4278858007
0.095892385 0.042312365 0.36400002 4278197764
0.096807972 0.042196121 0.36300001 4279053842
0.097986996 0.042196121 0.36300001 4278460423
0.099166013 0.042196121 0.36300001 4278525449
0.10034504 0.042196121 0.36300001 4278263304
0.10152406 0.042196121 0.36300001 4278593039
0.10270309 0.042196121 0.36300001 4278856465
0.10388211 0.042196121 0.36300001 4278988051
0.10535057 0.042312365 0.36400002 4278856463
0.10653283 0.042312365 0.36400002 4278195968
0.10771511 0.042312365 0.36400002 4278330119
0.10919655 0.042428605 0.36500001 4278199816
0.11038207 0.042428605 0.36500001 4278595601
0.11156759 0.042428605 0.36500001 4278529808
0.11306203 0.042544849 0.36600003 4278262790
0.1142508 0.042544849 0.36600003 4278922771
0.11543956 0.042544849 0.36600003 4278858773
0.11662833 0.042544849 0.36600003 4278661648
0.11813901 0.042661093 0.36700001 4278727957
0.11933102 0.042661093 0.36700001 4278596371
0.12052304 0.042661093 0.36700001 4278794004
0.12171506 0.042661093 0.36700001 4278925588
0.12324197 0.042777337 0.36800003 4278990611
0.12443724 0.042777337 0.36800003 4279187476
0.042192038 0.044211987 0.37 4284775788
0.043393798 0.044211987 0.37 4281683517
0.04447503 0.044092495 0.36900002 4279121945
0.045673542 0.044092495 0.36900002 4278991642
0.046872053 0.044092495 0.36900002 4279320859
0.048070569 0.044092495 0.36900002 4279123480
0.049135566 0.043973006 0.36800003 4278795285
0.050330825 0.043973006 0.36800003 4279058457
0.051386073 0.04385351 0.36700001 4278597908
0.052578092 0.04385351 0.36700001 4278729494
0.05377011 0.04385351 0.36700001 4278597906
0.054812364 0.043734021 0.36600003 4278729492
0.056001134 0.043734021 0.36600003 4278729492
0.057189904 0.043734021 0.36600003 4278663699
0.058219161 0.043614529 0.36500001 4278663699
0.059404682 0.043614529 0.36500001 4278794004
0.060590208 0.043614529 0.36500001 4278726160
0.061775722 0.043614529 0.36500001 4279055125
0.062961243 0.043614529 0.36500001 4278727441
0.064146765 0.043614529 0.36500001 4278859797
0.065332286 0.043614529 0.36500001 4278793750
0.066335566 0.043495037 0.36400002 4279056152
0.067517839 0.043495037 0.36400002 4279055638
0.06870012 0.043495037 0.36400002 4279186711
0.069882385 0.043495037 0.36400002 4279317529
0.071064658 0.043495037 0.36400002 4279777567
0.072246931 0.043495037 0.36400002 4279052820
0.073429205 0.043495037 0.36400002 4279315478
0.074611478 0.043495037 0.36400002 4279249174
0.075793751 0.043495037 0.36400002 4278196488
0.076976024 0.043495037 0.36400002 4278326021
0.078158297 0.043495037 0.36400002 4278259974
0.07934057 0.043495037 0.36400002 4278590476
0.080522843 0.043495037 0.36400002 4278198024
0.081705116 0.043495037 0.36400002 4278196480
0.082887389 0.043495037 0.36400002 4278657802
0.084069662 0.043495037 0.36400002 4278985230
0.085251927 0.043495037 0.36400002 4279577367
0.0864342 0.043495037 0.36400002 4279578650
0.087616481 0.043495037 0.36400002 4279185943
0.088798746 0.043495037 0.36400002 4278988564
0.089981019 0.043495037 0.36400002 4278988564
0.091163293 0.043495037 0.36400002 4278857746
0.092345566 0.043495037 0.36400002 4278857746
0.093527839 0.043495037 0.36400002 4278857746
0.094710112 0.043495037 0.36400002 4278660369
0.095892385 0.043495037 0.36400002 4278857746
0.097074665 0.043495037 0.36400002 4278923793
0.098256938 0.043495037 0.36400002 4278856976
0.099166013 0.043375544 0.36300001 4278988049
0.10034504 0.043375544 0.36300001 4278987281
0.10152406 0.043375544 0.36300001 4278789902
0.10298602 0.043495037 0.36400002 4278593039
0.1041683 0.043495037 0.36400002 4278658832
0.10535057 0.043495037 0.36400002 4279448348
0.10653283 0.043495037 0.36400002 4278197511
0.10801102 0.043614529 0.36500001 4278460169
0.10919655 0.043614529 0.36500001 4278592269
0.11038207 0.043614529 0.36500001 4279055638
0.11187326 0.043734021 0.36600003 4278858259
0.11306203 0.043734021 0.36600003 4278197507
0.1142508 0.043734021 0.36600003 4278857748
0.11543956 0.043734021 0.36600003 4278990359
0.11694699 0.04385351 0.36700001 4278990359
0.11813901 0.04385351 0.36700001 4278727187
0.11933102 0.04385351 0.36700001 4278858773
0.12085145 0.043973006 0.36800003 4278530832
0.12204671 0.043973006 0.36800003 4278794002
0.12324197 0.043973006 0.36800003 4278924818
0.12443724 0.043973006 0.36800003 4279187990
0.042192038 0.045414153 0.37 4284709741
0.043276519 0.045291413 0.36900002 4284775534
0.04447503 0.045291413 0.36900002 4285500284
0.045673542 0.045291413 0.36900002 4281948486
0.046872053 0.045291413 0.36900002 4279185943
0.047940299 0.045168675 0.36800003 4279384092
0.049135566 0.045168675 0.36800003 4279582498
0.050330825 0.045168675 0.36800003 4279254303
0.051386073 0.045045931 0.36700001 4279254301
0.052578092 0.045045931 0.36700001 4278991383
0.05377011 0.045045931 0.36700001 4279057176
0.054812364 0.044923194 0.36600003 4279188762
0.056001134 0.044923194 0.36600003 4279189275
0.057189904 0.044923194 0.36600003 4278861080
0.058219161 0.044800449 0.36500001 4278992664
0.059404682 0.044800449 0.36500001 4278992664
0.060590208 0.044800449 0.36500001 4279189273
0.061775722 0.044800449 0.36500001 4278860308
0.062961243 0.044800449 0.36500001 4279188762
0.064146765 0.044800449 0.36500001 4278991383
0.065153301 0.044677708 0.36400002 4278925590
0.066335566 0.044677708 0.36400002 4278991383
0.067517839 0.044677708 0.36400002 4278925590
0.06870012 0.044677708 0.36400002 4278991383
0.069882385 0.044677708 0.36400002 4278925590
0.071064658 0.044677708 0.36400002 4278727441
0.072246931 0.044677708 0.36400002 4279056406
0.073429205 0.044677708 0.36400002 4279056406
0.074611478 0.044677708 0.36400002 4278924820
0.075793751 0.044677708 0.36400002 4278858773
0.076976024 0.044677708 0.36400002 4279055640
0.078158297 0.044677708 0.36400002 4278989847
0.07934057 0.044677708 0.36400002 4279186713
0.080522843 0.044677708 0.36400002 4278923539
0.081705116 0.044677708 0.36400002 4279055125
0.082887389 0.044677708 0.36400002 4279514906
0.084069662 0.044677708 0.36400002 4279447830
0.085251927 0.044677708 0.36400002 4279250453
0.0864342 0.044677708 0.36400002 4278591755
0.087616481 0.044677708 0.36400002 4278196740
0.088798746 0.044677708 0.36400002 4278193920
0.089981019 0.044677708 0.36400002 4278194688
0.091163293 0.044677708 0.36400002 4278194176
0.092345566 0.044677708 0.36400002 4278195457
0.093527839 0.044677708 0.36400002 4278394630
0.094710112 0.044677708 0.36400002 4278592523
0.095892385 0.044677708 0.36400002 4278856465
0.097074665 0.044677708 0.36400002 4279119635
0.098256938 0.044677708 0.36400002 4279844125
0.099166013 0.044554967 0.36300001 4278858000
0.10034504 0.044554967 0.36300001 4278923539
0.10180375 0.044677708 0.36400002 4278857746
0.10298602 0.044677708 0.36400002 4279055125
0.1041683 0.044677708 0.36400002 4279120918
0.10535057 0.044677708 0.36400002 4279252504
0.1068255 0.044800449 0.36500001 4278791955
0.10801102 0.044800449 0.36500001 4278988051
0.10919655 0.044800449 0.36500001 4278922771
0.11068449 0.044923194 0.36600003 4278989847
0.11187326 0.044923194 0.36600003 4278857748
0.11306203 0.044923194 0.36600003 4279053074
0.1142508 0.044923194 0.36600003 4279055125
0.11575497 0.045045931 0.36700001 4278924820
0.11694699 0.045045931 0.36700001 4278990613
0.11813901 0.045045931 0.36700001 4278859027
0.11965618 0.045168675 0.36800003 4278661648
0.12085145 0.045168675 0.36800003 4278727441
0.12204671 0.045168675 0.36800003 4279122197
0.12324197 0.045168675 0.36800003 4278924818
0.12443724 0.045168675 0.36800003 4279647775
0.042192038 0.046616323 0.37 4284709741
0.043276519 0.046490334 0.36900002 4284907120
0.04447503 0.046490334 0.36900002 4284841840
0.045673542 0.046490334 0.36900002 4284907887
0.046872053 0.046490334 0.36900002 4285105266
0.047940299 0.046364348 0.36800003 4284513129
0.049135566 0.046364348 0.36800003 4284448620
0.050330825 0.046364348 0.36800003 4282738513
0.051386073 0.046238355 0.36700001 4280698928
0.052578092 0.046238355 0.36700001 4279186459
0.05377011 0.046238355 0.36700001 4278529042
0.054812364 0.046112366 0.36600003 4279055640
0.056001134 0.046112366 0.36600003 4279450396
0.057189904 0.046112366 0.36600003 4279055638
0.058219161 0.045986373 0.36500001 4279188508
0.059404682 0.045986373 0.36500001 4279320094
0.060590208 0.045986373 0.36500001 4279056922
0.061775722 0.045986373 0.36500001 4279254555
0.062961243 0.045986373 0.36500001 4279188762
0.064146765 0.045986373 0.36500001 4279057176
0.065153301 0.045860387 0.36400002 4279188762
0.066335566 0.045860387 0.36400002 4279057176
0.067517839 0.045860387 0.36400002 4279056922
0.06870012 0.045860387 0.36400002 4278991129
0.069690399 0.045734394 0.36300001 4278991383
0.070869423 0.045734394 0.36300001 4278925590
0.072048448 0.045734394 0.36300001 4279188762
0.073227473 0.045734394 0.36300001 4279188762
0.074406497 0.045734394 0.36300001 4278925590
0.075585522 0.045734394 0.36300001 4278991383
0.076976024 0.045860387 0.36400002 4278925590
0.078158297 0.045860387 0.36400002 4278925590
0.07934057 0.045860387 0.36400002 4278728211
0.080522843 0.045860387 0.36400002 4278991383
0.081705116 0.045860387 0.36400002 4278859797
0.082887389 0.045860387 0.36400002 4278859797
0.084069662 0.045860387 0.36400002 4278990613
0.085251927 0.045860387 0.36400002 4279056152
0.0864342 0.045860387 0.36400002 4278990359
0.087616481 0.045860387 0.36400002 4278858773
0.088798746 0.045860387 0.36400002 4279055638
0.089981019 0.045860387 0.36400002 4278989847
0.091163293 0.045860387 0.36400002 4279186713
0.092345566 0.045860387 0.36400002 4278923287
0.093527839 0.045860387 0.36400002 4279054357
0.094710112 0.045860387 0.36400002 4279251736
0.095892385 0.045860387 0.36400002 4278856978
0.097074665 0.045860387 0.36400002 4278856465
0.097986996 0.045734394 0.36300001 4278592009
0.099166013 0.045734394 0.36300001 4278195456
0.10034504 0.045734394 0.36300001 4278195458
0.10152406 0.045734394 0.36300001 4278194432
0.10298602 0.045860387 0.36400002 4278193920
0.1041683 0.045860387 0.36400002 4278194944
0.10535057 0.045860387 0.36400002 4278196997
0.1068255 0.045986373 0.36500001 4278921234
0.10801102 0.045986373 0.36500001 4278856465
0.10919655 0.045986373 0.36500001 4279317529
0.11068449 0.046112366 0.36600003 4279318297
0.11187326 0.046112366 0.36600003 4278197508
0.11306203 0.046112366 0.36600003 4278725392
0.11456296 0.046238355 0.36700001 4278989847
0.11575497 0.046238355 0.36700001 4278859027
0.11694699 0.046238355 0.36700001 4278990613
0.11846092 0.046364348 0.36800003 4278859797
0.11965618 0.046364348 0.36800003 4278859797
0.12085145 0.046364348 0.36800003 4278925590
0.12204671 0.046364348 0.36800003 4278859797
0.12324197 0.046364348 0.36800003 4279318810
0.12443724 0.046364348 0.36800003 4278922004
0.043276519 0.047689252 0.36900002 4284841840
0.04447503 0.047689252 0.36900002 4285105012
0.045673542 0.047689252 0.36900002 4285105012
0.046872053 0.047689252 0.36900002 4285105266
0.047940299 0.047560014 0.36800003 4284907887
0.049135566 0.047560014 0.36800003 4284842094
0.050330825 0.047560014 0.36800003 4284710508
0.051386073 0.047430772 0.36700001 4284315496
0.052578092 0.047430772 0.36700001 4283986531
0.05377011 0.047430772 0.36700001 4283920992
0.054812364 0.047301535 0.36600003 4283789404
0.056001134 0.047301535 0.36600003 4282604617
0.057189904 0.047301535 0.36600003 4283724125
0.058219161 0.047172293 0.36500001 4284119653
0.059404682 0.047172293 0.36500001 4283659104
0.060590208 0.047172293 0.36500001 4283001172
0.061775722 0.047172293 0.36500001 4281356347
0.062961243 0.047172293 0.36500001 4280303659
0.063971028 0.047043055 0.36400002 4279119385
0.065153301 0.047043055 0.36400002 4279054103
0.066335566 0.047043055 0.36400002 4279185943
0.06733235 0.046913814 0.36300001 4278791955
0.068511374 0.046913814 0.36300001 4279515424
0.069690399 0.046913814 0.36300001 4279450396
0.070869423 0.046913814 0.36300001 4279450396
0.072048448 0.046913814 0.36300001 4279319578
0.073227473 0.046913814 0.36300001 4279319578
0.074406497 0.046913814 0.36300001 4279319578
0.075585522 0.046913814 0.36300001 4279385371
0.076764546 0.046913814 0.36300001 4278859797
0.077943571 0.046913814 0.36300001 4279057176
0.079122595 0.046913814 0.36300001 4279188762
0.08030162 0.046913814 0.36300001 4279188762
0.081480645 0.046913814 0.36300001 4279057176
0.082659669 0.046913814 0.36300001 4279057176
0.083838694 0.046913814 0.36300001 4279057176
0.085017718 0.046913814 0.36300001 4279188762
0.086196743 0.046913814 0.36300001 4278991383
0.087616481 0.047043055 0.36400002 4278991383
0.088798746 0.047043055 0.36400002 4279057176
0.089981019 0.047043055 0.36400002 4278991383
0.091163293 0.047043055 0.36400002 4278925336
0.092345566 0.047043055 0.36400002 4279056922
0.093527839 0.047043055 0.36400002 4279056922
0.094710112 0.047043055 0.36400002 4279057176
0.095892385 0.047043055 0.36400002 4278859797
0.097074665 0.047043055 0.36400002 4278859797
0.097986996 0.046913814 0.36300001 4279187478
0.099166013 0.046913814 0.36300001 4279121685
0.10034504 0.046913814 0.36300001 4279318297
0.10152406 0.046913814 0.36300001 4279186711
0.10270309 0.046913814 0.36300001 4279252504
0.1041683 0.047043055 0.36400002 4279317527
0.10535057 0.047043055 0.36400002 4279580186
0.10653283 0.047043055 0.36400002 4279448602
0.10801102 0.047172293 0.36500001 4279447578
0.10919655 0.047172293 0.36500001 4278789648
0.11068449 0.047301535 0.36600003 4278328837
0.11187326 0.047301535 0.36600003 4278920974
0.11306203 0.047301535 0.36600003 4279055640
0.11456296 0.047430772 0.36700001 4279056154
0.11575497 0.047430772 0.36700001 4278793750
0.11694699 0.047430772 0.36700001 4278859797
0.11846092 0.047560014 0.36800003 4278794004
0.11965618 0.047560014 0.36800003 4278859797
0.12085145 0.047560014 0.36800003 4279057176
0.12204671 0.047560014 0.36800003 4278925590
0.12324197 0.047560014 0.36800003 4279317527
0.060590208 0.048358217 0.36500001 4284513129
0.061775722 0.048358217 0.36500001 4284710508
0.062961243 0.048358217 0.36500001 4284579436
0.064146765 0.048358217 0.36500001 4284645229
0.065332286 0.048358217 0.36500001 4284776815
0.066153325 0.048093241 0.36300001 4285566331
0.06733235 0.048093241 0.36300001 4285302643
0.068511374 0.048093241 0.36300001 4285237366
0.069690399 0.048093241 0.36300001 4284776813
0.070869423 0.048093241 0.36300001 4283658330
0.072048448 0.048093241 0.36300001 4281553724
0.073227473 0.048093241 0.36300001 4280106793
0.074406497 0.048093241 0.36300001 4279382555
0.075585522 0.048093241 0.36300001 4278988051
0.076764546 0.048093241 0.36300001 4278791185
0.077943571 0.048093241 0.36300001 4278792468
0.079122595 0.048093241 0.36300001 4278990361
0.08030162 0.048093241 0.36300001 4279056152
0.081480645 0.048093241 0.36300001 4279187992
0.082659669 0.048093241 0.36300001 4279122199
0.083838694 0.048093241 0.36300001 4279057176
0.085017718 0.048093241 0.36300001 4278991383
0.086196743 0.048093241 0.36300001 4278991383
0.087375768 0.048093241 0.36300001 4279057176
0.088798746 0.048225731 0.36400002 4279188762
0.089981019 0.048225731 0.36400002 4278991383
0.091163293 0.048225731 0.36400002 4279057176
0.092345566 0.048225731 0.36400002 4279057176
0.093527839 0.048225731 0.36400002 4279189275
0.094710112 0.048225731 0.36400002 4278991896
0.095892385 0.048225731 0.36400002 4278991896
0.096807972 0.048093241 0.36300001 4278926103
0.097986996 0.048093241 0.36300001 4278991896
0.099166013 0.048093241 0.36300001 4279057176
0.10034504 0.048093241 0.36300001 4279188762
0.10152406 0.048093241 0.36300001 4279057176
0.10270309 0.048093241 0.36300001 4279254555
0.1041683 0.048225731 0.36400002 4279057176
0.10535057 0.048225731 0.36400002 4279187992
0.10653283 0.048225731 0.36400002 4279187992
0.10801102 0.048358217 0.36500001 4279187992
0.10919655 0.048358217 0.36500001 4279122199
0.11068449 0.048490711 0.36600003 4279056152
0.11187326 0.048490711 0.36600003 4279121945
0.11306203 0.048490711 0.36600003 4279121945
0.11456296 0.048623197 0.36700001 4279121945
0.11575497 0.048623197 0.36700001 4279056406
0.11726565 0.048755687 0.36800003 4279056406
0.11846092 0.048755687 0.36800003 4279187990
0.11965618 0.048755687 0.36800003 4278925588
0.12085145 0.048755687 0.36800003 4279057174
0.12204671 0.048755687 0.36800003 4279450648
0.070869423 0.049272664 0.36300001 4285105266
0.072048448 0.049272664 0.36300001 4285170546
0.073227473 0.049272664 0.36300001 4285038960
0.074406497 0.049272664 0.36300001 4285038960
0.075585522 0.049272664 0.36300001 4285236852
0.076764546 0.049272664 0.36300001 4285237366
0.077943571 0.049272664 0.36300001 4285566331
0.079122595 0.049272664 0.36300001 4285565815
0.08030162 0.049272664 0.36300001 4285236850
0.081480645 0.049272664 0.36300001 4284118883
0.082659669 0.049272664 0.36300001 4282671439
0.083838694 0.049272664 0.36300001 4280961589
0.085017718 0.049272664 0.36300001 4279908899
0.086196743 0.049272664 0.36300001 4279317529
0.087375768 0.049272664 0.36300001 4278856978
0.088798746 0.049408402 0.36400002 4278725392
0.089981019 0.049408402 0.36400002 4278856978
0.091163293 0.049408402 0.36400002 4279054357
0.092345566 0.049408402 0.36400002 4279055127
0.093527839 0.049408402 0.36400002 4279187226
0.094710112 0.049408402 0.36400002 4278989845
0.095892385 0.049408402 0.36400002 4279186711
0.096807972 0.049272664 0.36300001 4279252504
0.097986996 0.049272664 0.36300001 4279647262
0.099166013 0.049272664 0.36300001 4279384090
0.10034504 0.049272664 0.36300001 4279581469
0.10152406 0.049272664 0.36300001 4279318810
0.10270309 0.049272664 0.36300001 4279253017
0.10388211 0.049272664 0.36300001 4279713568
0.10535057 0.049408402 0.36400002 4279450396
0.10653283 0.049408402 0.36400002 4279450396
0.10801102 0.049544137 0.36500001 4279582236
0.10919655 0.049544137 0.36500001 4279516443
0.11068449 0.049679875 0.36600003 4279648029
0.11187326 0.049679875 0.36600003 4279582236
0.11306203 0.049679875 0.36600003 4279450650
0.11456296 0.049815614 0.36700001 4279582236
0.11575497 0.049815614 0.36700001 4279516443
0.11726565 0.049951352 0.36800003 4279516443
0.11846092 0.049951352 0.36800003 4279516441
0.11965618 0.049951352 0.36800003 4279713820
0.12085145 0.049951352 0.36800003 4279711772
0.085017718 0.050452087 0.36300001 4284973167
0.086196743 0.050452087 0.36300001 4284907633
0.087616481 0.050591078 0.36400002 4284973426
0.088798746 0.050591078 0.36400002 4285105012
0.089981019 0.050591078 0.36400002 4285170805
0.091163293 0.050591078 0.36400002 4285499511
0.092345566 0.050591078 0.36400002 4285105264
0.093527839 0.050591078 0.36400002 4285565815
0.094710112 0.050591078 0.36400002 4285763194
0.095892385 0.050591078 0.36400002 4285697401
0.096807972 0.050452087 0.36300001 4285631608
0.097986996 0.050452087 0.36300001 4285303157
0.099166013 0.050452087 0.36300001 4285039985
0.10034504 0.050452087 0.36300001 4284973680
0.10152406 0.050452087 0.36300001 4285171059
0.10270309 0.050452087 0.36300001 4284710508
0.10388211 0.050452087 0.36300001 4284249955
0.10535057 0.050591078 0.36400002 4283855195
0.10653283 0.050591078 0.36400002 4283065420
0.10801102 0.050730061 0.36500001 4282670662
0.10919655 0.050730061 0.36500001 4281946939
0.11068449 0.050869051 0.36600003 4282013245
0.11187326 0.050869051 0.36600003 4280894762
0.11337094 0.051008034 0.36700001 4280960555
0.11456296 0.051008034 0.36700001 4281026348
0.11575497 0.051008034 0.36700001 4280566311
0.11726565 0.051147025 0.36800003 4281157934
0.11846092 0.051147025 0.36800003 4281881911
0.11965618 0.051147025 0.36800003 4284643167
0.12085145 0.051147025 0.36800003 4286419841
0.087616481 0.051773753 0.36400002 4285301362
0.088798746 0.051773753 0.36400002 4285301108
0.089981019 0.051773753 0.36400002 4285366901
0.091163293 0.051773753 0.36400002 4285301108
0.092345566 0.051773753 0.36400002 4285498487
0.093527839 0.051773753 0.36400002 4285301108
0.094710112 0.051773753 0.36400002 4285301108
0.095892385 0.051773753 0.36400002 4285301108
0.096807972 0.051631514 0.36300001 4285301108
0.097986996 0.051631514 0.36300001 4285103983
0.099166013 0.051631514 0.36300001 4285432948
0.11187326 0.052058224 0.36600003 4285827704
0.11337094 0.052200459 0.36700001 4285630325
0.11456296 0.052200459 0.36700001 4285761911
0.11575497 0.052200459 0.36700001 4285827706
0.11726565 0.052342698 0.36800003 4285761913
0.11846092 0.052342698 0.36800003 4285827706
0.072270416 0.036063142 0.36944437 4294967295
0.072270416 0.036063142 0.36944437 4294901760
0.072408438 0.035593286 0.36934346 4294901760
0.07254646 0.03512343 0.36924252 4294901760
