# .PCD v0.7 - Point Cloud Data file format
VERSION 0.7
FIELDS x y z rgb
SIZE 4 4 4 4
TYPE F F F U
COUNT 1 1 1 1
WIDTH 896
HEIGHT 1
VIEWPOINT 0 0 0 1 0 0 0
POINTS 896
DATA ascii
0.13268666 -0.022795374 0.38500002 4280304422
0.13393714 -0.022795374 0.38500002 4280305444
0.13518763 -0.022795374 0.38500002 4280240164
0.1364381 -0.022795374 0.38500002 4280569643
0.12735309 -0.021488508 0.384 4280172323
0.1289352 -0.02154447 0.38500002 4280502571
0.13018569 -0.02154447 0.38500002 4280371498
0.13143617 -0.02154447 0.38500002 4279912744
0.13268666 -0.02154447 0.38500002 4279782182
0.13393714 -0.02154447 0.38500002 4279453728
0.13518763 -0.02154447 0.38500002 4279453728
0.1364381 -0.02154447 0.38500002 4279454496
0.13768858 -0.02154447 0.38500002 4279586082
0.12328948 -0.020188142 0.38300002 4280502573
0.12453347 -0.020188142 0.38300002 4280436526
0.12610584 -0.020240853 0.384 4279977508
0.12735309 -0.020240853 0.384 4279846692
0.1286003 -0.020240853 0.384 4279519010
0.12984754 -0.020240853 0.384 4279519523
0.13143617 -0.020293564 0.38500002 4279257119
0.13268666 -0.020293564 0.38500002 4279126047
0.13393714 -0.020293564 0.38500002 4279586596
0.13518763 -0.020293564 0.38500002 4279455010
0.1364381 -0.020293564 0.38500002 4279323424
0.13768858 -0.020293564 0.38500002 4279718182
0.11769572 -0.018844813 0.38100001 4279843871
0.11924537 -0.018894276 0.38200003 4280305192
0.1204861 -0.018894276 0.38200003 4279911461
0.12172684 -0.018894276 0.38200003 4279780897
0.12328948 -0.018943736 0.38300002 4279649824
0.12453347 -0.018943736 0.38300002 4279124250
0.12577745 -0.018943736 0.38300002 4279453213
0.12735309 -0.018993197 0.384 4279453726
0.1286003 -0.018993197 0.384 4278928668
0.12984754 -0.018993197 0.384 4279192353
0.13109477 -0.018993197 0.384 4279323939
0.13268666 -0.01904266 0.38500002 4279193123
0.13393714 -0.01904266 0.38500002 4279193121
0.13518763 -0.01904266 0.38500002 4279193121
0.1364381 -0.01904266 0.38500002 4279258144
0.13768858 -0.01904266 0.38500002 4280045865
0.11244984 -0.017560694 0.38000003 4280369452
0.11368408 -0.017560694 0.38000003 4280106791
0.11522074 -0.017606905 0.38100001 4279714852
0.11645823 -0.017606905 0.38100001 4279780645
0.11769572 -0.017606905 0.38100001 4279453476
0.11924537 -0.017653119 0.38200003 4279256097
0.1204861 -0.017653119 0.38200003 4279124765
0.12172684 -0.017653119 0.38200003 4279387937
0.12328948 -0.017699331 0.38300002 4278994461
0.12453347 -0.017699331 0.38300002 4279191840
0.12577745 -0.017699331 0.38300002 4279455012
0.12735309 -0.017745541 0.384 4279783975
0.1286003 -0.017745541 0.384 4279521316
0.12984754 -0.017745541 0.384 4279521318
0.13109477 -0.017745541 0.384 4279258146
0.13234201 -0.017745541 0.384 4279587111
0.10571928 -0.016240109 0.37800002 4284315233
0.10694702 -0.016240109 0.37800002 4280631852
0.10969193 -0.016283071 0.37900001 4280304424
0.11092292 -0.016283071 0.37900001 4280108326
0.11215391 -0.016283071 0.37900001 4279255584
0.11368408 -0.016326034 0.38000003 4279321631
0.11491832 -0.016326034 0.38000003 4279190556
0.11615257 -0.016326034 0.38000003 4279125533
0.11769572 -0.016368998 0.38100001 4278731804
0.11893321 -0.016368998 0.38100001 4278929183
0.1204861 -0.016411962 0.38200003 4278929181
0.12172684 -0.016411962 0.38200003 4279323939
0.12296758 -0.016411962 0.38200003 4279389732
0.12453347 -0.016454924 0.38300002 4279192353
0.12577745 -0.016454924 0.38300002 4278863388
0.12702143 -0.016454924 0.38300002 4279586598
0.1286003 -0.016497888 0.384 4280047149
0.10176611 -0.014972233 0.377 4283459924
0.1029906 -0.014972233 0.377 4280697131
0.10421509 -0.014972233 0.377 4280106791
0.10543959 -0.014972233 0.377 4280108074
0.10666409 -0.014972233 0.377 4279978026
0.10788859 -0.014972233 0.377 4279517473
0.10911308 -0.014972233 0.377 4279321631
0.11063025 -0.015011949 0.37800002 4279124763
0.111858 -0.015011949 0.37800002 4278928154
0.11338491 -0.015051662 0.37900001 4278994461
0.1146159 -0.015051662 0.37900001 4279060765
0.11615257 -0.015091376 0.38000003 4279060765
0.11769572 -0.01513109 0.38100001 4279323937
0.11893321 -0.01513109 0.38100001 4279127330
0.1204861 -0.015170805 0.38200003 4279127330
0.12172684 -0.015170805 0.38200003 4279389732
0.12296758 -0.015170805 0.38200003 4280310321
0.12420832 -0.015170805 0.38200003 4279783463
0.12577745 -0.015210519 0.38300002 4280637489
0.12826541 -0.015210519 0.38300002 4280767792
0.097832426 -0.013710856 0.37600002 4282341956
0.099053673 -0.013710856 0.37600002 4280238631
0.10027492 -0.013710856 0.37600002 4280107813
0.10149617 -0.013710856 0.37600002 4279780645
0.10271741 -0.013710856 0.37600002 4279583781
0.10393866 -0.013710856 0.37600002 4279583781
0.10515992 -0.013710856 0.37600002 4279255584
0.10638116 -0.013710856 0.37600002 4278993177
0.10760242 -0.013710856 0.37600002 4279124763
0.10882366 -0.013710856 0.37600002 4278993947
0.1100449 -0.013710856 0.37600002 4278994461
0.11156207 -0.013747321 0.377 4279060767
0.11278657 -0.013747321 0.377 4279061539
0.11431349 -0.013783786 0.37800002 4279390500
0.11584689 -0.013820251 0.37900001 4279193375
0.11738681 -0.013856716 0.38000003 4279522086
0.11893321 -0.013893181 0.38100001 4280047662
0.12017069 -0.013893181 0.38100001 4280178221
0.12172684 -0.013929646 0.38200003 4280768307
0.12420832 -0.013929646 0.38200003 4280570415
0.060760234 -0.011924523 0.35900003 4284054373
0.061926268 -0.011924523 0.35900003 4285367923
0.093667775 -0.012422762 0.37400001 4281684542
0.095136233 -0.012455978 0.37500003 4280172071
0.096354231 -0.012455978 0.37500003 4279910949
0.097572237 -0.012455978 0.37500003 4279451682
0.098790236 -0.012455978 0.37500003 4279189791
0.10000824 -0.012455978 0.37500003 4279058972
0.10122624 -0.012455978 0.37500003 4278862363
0.10244423 -0.012455978 0.37500003 4278993949
0.10366224 -0.012455978 0.37500003 4278928156
0.10488024 -0.012455978 0.37500003 4279059742
0.10609824 -0.012455978 0.37500003 4279322910
0.10731624 -0.012455978 0.37500003 4279520289
0.10853425 -0.012455978 0.37500003 4279455010
0.10975224 -0.012455978 0.37500003 4279258144
0.11126615 -0.012489194 0.37600002 4278929181
0.11248741 -0.012489194 0.37600002 4279784490
0.11401107 -0.01252241 0.377 4280046635
0.11554123 -0.012555626 0.37800002 4280440623
0.11738681 -0.012622058 0.38000003 4280703282
0.11893321 -0.012655273 0.38100001 4280505903
0.12017069 -0.012655273 0.38100001 4280306471
0.059760205 -0.010788063 0.36000001 4278726423
0.060929481 -0.010788063 0.36000001 4278989595
0.062098764 -0.010788063 0.36000001 4285434745
0.063092306 -0.010758096 0.35900003 4285367921
0.089542113 -0.011147664 0.37200001 4281553208
0.090750366 -0.011147664 0.37200001 4280105508
0.09220583 -0.011177632 0.37300003 4280303657
0.093667775 -0.011207598 0.37400001 4279713570
0.094882526 -0.011207598 0.37400001 4279385887
0.096097283 -0.011207598 0.37400001 4279058718
0.097572237 -0.011237565 0.37500003 4278598167
0.098790236 -0.011237565 0.37500003 4278730007
0.099741548 -0.011207598 0.37400001 4279058972
0.1009563 -0.011207598 0.37400001 4278862877
0.10217104 -0.011207598 0.37400001 4278928670
0.1033858 -0.011207598 0.37400001 4279192355
0.10460055 -0.011207598 0.37400001 4279521320
0.10581531 -0.011207598 0.37400001 4279521318
0.10703006 -0.011207598 0.37400001 4279323939
0.10824481 -0.011207598 0.37400001 4279652391
0.10945956 -0.011207598 0.37400001 4279915563
0.11067431 -0.011207598 0.37400001 4280375602
0.11218824 -0.011237565 0.37500003 4280507188
0.11370865 -0.011267532 0.37600002 4280571698
0.11523557 -0.011297498 0.377 4280767794
0.059760205 -0.0096183857 0.36000001 4278791703
0.060929481 -0.0096183857 0.36000001 4278529558
0.062098764 -0.0096183857 0.36000001 4278857496
0.063268043 -0.0096183857 0.36000001 4285171057
0.084253661 -0.0098855626 0.37 4284841577
0.085455418 -0.0098855626 0.37 4281356345
0.086657174 -0.0098855626 0.37 4280040739
0.088096403 -0.0099122813 0.37100002 4280172838
0.089301407 -0.0099122813 0.37100002 4279909664
0.090750366 -0.0099389981 0.37200001 4279385117
0.09220583 -0.0099657169 0.37300003 4279254301
0.093417332 -0.0099657169 0.37300003 4278991896
0.094882526 -0.0099924337 0.37400001 4278926103
0.096097283 -0.0099924337 0.37400001 4279453730
0.097312033 -0.0099924337 0.37400001 4278993949
0.098526791 -0.0099924337 0.37400001 4279388707
0.099741548 -0.0099924337 0.37400001 4279454500
0.1009563 -0.0099924337 0.37400001 4279520293
0.10217104 -0.0099924337 0.37400001 4279322914
0.1033858 -0.0099924337 0.37400001 4280244016
0.10432088 -0.0099657169 0.37300003 4279586086
0.10553238 -0.0099657169 0.37300003 4280769336
0.10674389 -0.0099657169 0.37300003 4280440371
0.1079554 -0.0099657169 0.37300003 4280506164
0.10916689 -0.0099657169 0.37300003 4280242479
0.11037839 -0.0099657169 0.37300003 4280372782
0.059760205 -0.0084487088 0.36000001 4279185941
0.061098732 -0.0084721772 0.36100003 4278858261
0.062271263 -0.0084721772 0.36100003 4279121179
0.063443795 -0.0084721772 0.36100003 4280633905
0.064616323 -0.0084721772 0.36100003 4285236848
0.082827434 -0.0086599262 0.36900002 4279908381
0.084025949 -0.0086599262 0.36900002 4279843871
0.085455418 -0.0086833946 0.37 4279516705
0.086657174 -0.0086833946 0.37 4279385117
0.087858938 -0.0086833946 0.37 4279056922
0.089301407 -0.008706864 0.37100002 4278991129
0.090506412 -0.008706864 0.37100002 4279123482
0.09195862 -0.0087303324 0.37200001 4278926103
0.093417332 -0.0087538008 0.37300003 4278992666
0.094628833 -0.0087538008 0.37300003 4279124252
0.096097283 -0.0087772692 0.37400001 4279388707
0.097312033 -0.0087772692 0.37400001 4279322914
0.098526791 -0.0087772692 0.37400001 4279191842
0.099741548 -0.0087772692 0.37400001 4279322914
0.1009563 -0.0087772692 0.37400001 4280506416
0.10217104 -0.0087772692 0.37400001 4280309037
0.10310937 -0.0087538008 0.37300003 4280440112
0.10553238 -0.0087538008 0.37300003 4280240426
0.10674389 -0.0087538008 0.37300003 4280568877
0.059760205 -0.0072790319 0.36000001 4278791183
0.061267979 -0.0073194713 0.36200002 4278726160
0.062443756 -0.0073194713 0.36200002 4278858261
0.063619532 -0.0073194713 0.36200002 4279450144
0.064795315 -0.0073194713 0.36200002 4282343753
0.065971084 -0.0073194713 0.36200002 4284776811
0.072643898 -0.0074003497 0.36600003 4285499507
0.074034385 -0.0074205687 0.36700001 4285367921
0.075226404 -0.0074205687 0.36700001 4286157691
0.076418422 -0.0074205687 0.36700001 4284381539
0.077610441 -0.0074205687 0.36700001 4281157936
0.078802451 -0.0074205687 0.36700001 4280236834
0.07999447 -0.0074205687 0.36700001 4279975205
0.081407711 -0.0074407887 0.36800003 4279713316
0.08260297 -0.0074407887 0.36800003 4278991131
0.084025949 -0.0074610082 0.36900002 4278925338
0.085224465 -0.0074610082 0.36900002 4278793750
0.086657174 -0.0074812272 0.37 4278794263
0.087858938 -0.0074812272 0.37 4278860056
0.089301407 -0.0075014471 0.37100002 4278860056
0.090506412 -0.0075014471 0.37100002 4279124252
0.09195862 -0.0075216666 0.37200001 4279255838
0.093417332 -0.0075418861 0.37300003 4279453217
0.094628833 -0.0075418861 0.37300003 4279453730
0.096097283 -0.0075621055 0.37400001 4279453730
0.098526791 -0.0075621055 0.37400001 4280242733
0.099741548 -0.0075621055 0.37400001 4280440112
0.1009563 -0.0075621055 0.37400001 4280636721
0.10217104 -0.0075621055 0.37400001 4280373036
0.1033858 -0.0075621055 0.37400001 4281292600
0.10674389 -0.0075418861 0.37300003 4280896559
0.061586212 -0.0062960298 0.37100002 4279053074
0.061437227 -0.0061602662 0.36300001 4278791953
0.062616251 -0.0061602662 0.36300001 4278858259
0.063795276 -0.0061602662 0.36300001 4278726675
0.064974301 -0.0061602662 0.36300001 4279779625
0.066153325 -0.0061602662 0.36300001 4282279247
0.067517839 -0.0061772368 0.36400002 4285237364
0.068888851 -0.0061942069 0.36500001 4285565813
0.070074365 -0.0061942069 0.36500001 4285236848
0.071455128 -0.0062111774 0.36600003 4285894778
0.072643898 -0.0062111774 0.36600003 4284973163
0.074034385 -0.006228148 0.36700001 4281355827
0.075226404 -0.006228148 0.36700001 4279712285
0.076418422 -0.006228148 0.36700001 4279317529
0.077610441 -0.006228148 0.36700001 4279647264
0.078802451 -0.006228148 0.36700001 4279186711
0.080212444 -0.0062451186 0.36800003 4278989845
0.081407711 -0.0062451186 0.36800003 4278858773
0.08260297 -0.0062451186 0.36800003 4278530578
0.084025949 -0.0062620887 0.36900002 4278794263
0.085224465 -0.0062620887 0.36900002 4278662677
0.086657174 -0.0062790592 0.37 4279254814
0.087858938 -0.0062790592 0.37 4279386654
0.089301407 -0.0062960298 0.37100002 4278926103
0.090750366 -0.0063129999 0.37200001 4279584033
0.09195862 -0.0063129999 0.37200001 4279912998
0.097312033 -0.006346941 0.37400001 4280636467
0.098526791 -0.006346941 0.37400001 4280634670
0.099741548 -0.006346941 0.37400001 4281621819
0.10217104 -0.006346941 0.37400001 4280370217
0.061088212 -0.0050494494 0.36800003 4279711004
0.061775722 -0.0050082849 0.36500001 4278856978
0.062961243 -0.0050082849 0.36500001 4278660369
0.063971028 -0.0049945638 0.36400002 4278727189
0.065153301 -0.0049945638 0.36400002 4278595603
0.066335566 -0.0049945638 0.36400002 4278661396
0.067703329 -0.0050082849 0.36500001 4278989595
0.068888851 -0.0050082849 0.36500001 4279318558
0.070074365 -0.0050082849 0.36500001 4279843873
0.071455128 -0.0050220066 0.36600003 4279778078
0.072842374 -0.0050357278 0.36700001 4279646492
0.074034385 -0.0050357278 0.36700001 4279317527
0.075226404 -0.0050357278 0.36700001 4279318810
0.076418422 -0.0050357278 0.36700001 4278858259
0.077610441 -0.0050357278 0.36700001 4278727187
0.079017177 -0.0050494494 0.36800003 4278924566
0.080212444 -0.0050494494 0.36800003 4279056152
0.081407711 -0.0050494494 0.36800003 4278529808
0.082827434 -0.0050631706 0.36900002 4279386141
0.084025949 -0.0050631706 0.36900002 4279451934
0.085224465 -0.0050631706 0.36900002 4278991896
0.086657174 -0.0050768917 0.37 4279649572
0.088096403 -0.0050906129 0.37100002 4279847205
0.089301407 -0.0050906129 0.37100002 4280176170
0.090750366 -0.0051043341 0.37200001 4280570928
0.094882526 -0.0051317769 0.37400001 4279317527
0.096097283 -0.0051317769 0.37400001 4279514141
0.097312033 -0.0051317769 0.37400001 4280369963
0.10000824 -0.0051454986 0.37500003 4279711774
0.10122624 -0.0051454986 0.37500003 4280960303
0.060218446 -0.0038747236 0.37 4279578650
0.061254211 -0.0038642515 0.36900002 4279447832
0.06211422 -0.003843307 0.36700001 4278988051
0.063133746 -0.003832835 0.36600003 4278726162
0.064322516 -0.003832835 0.36600003 4278792468
0.065332286 -0.0038223625 0.36500001 4279121947
0.066517808 -0.0038223625 0.36500001 4278201356
0.067888819 -0.003832835 0.36600003 4278464017
0.069077589 -0.003832835 0.36600003 4278595603
0.070266359 -0.003832835 0.36600003 4278727189
0.071455128 -0.003832835 0.36600003 4278464015
0.072842374 -0.003843307 0.36700001 4278661394
0.074034385 -0.003843307 0.36700001 4278727187
0.075226404 -0.003843307 0.36700001 4278595601
0.076626651 -0.0038537795 0.36800003 4278924566
0.077821918 -0.0038537795 0.36800003 4278727441
0.079017177 -0.0038537795 0.36800003 4279254555
0.080212444 -0.0038537795 0.36800003 4279451934
0.081628926 -0.0038642515 0.36900002 4279386141
0.082827434 -0.0038642515 0.36900002 4279517727
0.084025949 -0.0038642515 0.36900002 4279846438
0.085455418 -0.0038747236 0.37 4280175403
0.086657174 -0.0038747236 0.37 4280372782
0.088096403 -0.0038851961 0.37100002 4280833587
0.089542113 -0.0038956681 0.37200001 4280832303
0.090750366 -0.0038956681 0.37200001 4279777565
0.09220583 -0.0039061406 0.37300003 4280303139
0.093417332 -0.0039061406 0.37300003 4280959790
0.094882526 -0.0039166128 0.37400001 4281880892
0.096097283 -0.0039166128 0.37400001 4280565545
0.098790236 -0.0039270851 0.37500003 4280632622
0.0603812 -0.0026797792 0.37100002 4279381785
0.06142021 -0.0026725559 0.37 4279382555
0.062283471 -0.0026581099 0.36800003 4279383322
0.063478738 -0.0026581099 0.36800003 4278265611
0.064498261 -0.0026508868 0.36700001 4278726675
0.065690279 -0.0026508868 0.36700001 4278333201
0.06688229 -0.0026508868 0.36700001 4280175918
0.068074308 -0.0026508868 0.36700001 4278859545
0.069266327 -0.0026508868 0.36700001 4278727189
0.070458338 -0.0026508868 0.36700001 4278595603
0.071650356 -0.0026508868 0.36700001 4278661396
0.072842374 -0.0026508868 0.36700001 4278595601
0.074236117 -0.0026581099 0.36800003 4278924566
0.075431384 -0.0026581099 0.36800003 4279450910
0.076626651 -0.0026581099 0.36800003 4279254555
0.077821918 -0.0026581099 0.36800003 4279189275
0.079231896 -0.002665333 0.36900002 4279123482
0.080430411 -0.002665333 0.36900002 4280109864
0.081628926 -0.002665333 0.36900002 4279978024
0.082827434 -0.002665333 0.36900002 4280700977
0.084253661 -0.0026725559 0.37 4280832565
0.085455418 -0.0026725559 0.37 4279844641
0.08689139 -0.0026797792 0.37100002 4279777565
0.088096403 -0.0026797792 0.37100002 4280105248
0.089542113 -0.0026870023 0.37200001 4280302627
0.090994321 -0.0026942254 0.37300003 4280828204
0.09220583 -0.0026942254 0.37300003 4279709723
0.093667775 -0.0027014485 0.37400001 4280038692
0.094882526 -0.0027014485 0.37400001 4281157171
0.058439955 -0.0014862844 0.37400001 4279183383
0.059495199 -0.0014823105 0.37300003 4279052822
0.060543951 -0.0014783364 0.37200001 4279119383
0.061586212 -0.0014743623 0.37100002 4279382809
0.062621966 -0.0014703883 0.37 4279778080
0.063651234 -0.0014664143 0.36900002 4279514908
0.064849749 -0.0014664143 0.36900002 4279120918
0.065869272 -0.0014624404 0.36800003 4279187224
0.067064531 -0.0014624404 0.36800003 4278924568
0.068259798 -0.0014624404 0.36800003 4278201874
0.069455065 -0.0014624404 0.36800003 4279517473
0.070650324 -0.0014624404 0.36800003 4278793750
0.071845591 -0.0014624404 0.36800003 4278859543
0.073040858 -0.0014624404 0.36800003 4278991129
0.074236117 -0.0014624404 0.36800003 4278596371
0.075636357 -0.0014664143 0.36900002 4279649059
0.076834872 -0.0014664143 0.36900002 4279780645
0.078033388 -0.0014664143 0.36900002 4280175657
0.079231896 -0.0014664143 0.36900002 4280438059
0.080430411 -0.0014664143 0.36900002 4280108580
0.081628926 -0.0014664143 0.36900002 4280437291
0.083051898 -0.0014703883 0.37 4280699698
0.084253661 -0.0014703883 0.37 4279908901
0.085686386 -0.0014743623 0.37100002 4281223216
0.08689139 -0.0014743623 0.37100002 4280236321
0.088333853 -0.0014783364 0.37200001 4280499239
0.089542113 -0.0014783364 0.37200001 4280169504
0.090994321 -0.0014823105 0.37300003 4281486136
0.09220583 -0.0014823105 0.37300003 4281947200
0.057684224 -0.00027329492 0.377 4279052310
0.058596212 -0.00027184509 0.37500003 4279183894
0.059654702 -0.00027112017 0.37400001 4278922006
0.060706709 -0.00027039525 0.37300003 4279119637
0.061918214 -0.00027039525 0.37300003 4279317529
0.062960461 -0.00026967033 0.37200001 4279515678
0.063996226 -0.00026894541 0.37100002 4279713568
0.065025486 -0.00026822046 0.37 4279647775
0.06622725 -0.00026822046 0.37 4279582750
0.067246772 -0.00026749558 0.36900002 4279911715
0.068445288 -0.00026749558 0.36900002 4280372782
0.069643795 -0.00026749558 0.36900002 4279780645
0.070842311 -0.00026749558 0.36900002 4279649059
0.072040819 -0.00026749558 0.36900002 4279846438
0.073239334 -0.00026749558 0.36900002 4279978278
0.074437842 -0.00026749558 0.36900002 4280109094
0.075636357 -0.00026749558 0.36900002 4280569645
0.076834872 -0.00026749558 0.36900002 4280701231
0.078033388 -0.00026749558 0.36900002 4280832049
0.079446614 -0.00026822046 0.37 4280042022
0.080648378 -0.00026822046 0.37 4280304424
0.081850141 -0.00026822046 0.37 4281225526
0.083051898 -0.00026822046 0.37 4279973410
0.084481373 -0.00026894541 0.37100002 4279907104
0.085686386 -0.00026894541 0.37100002 4280367655
0.08689139 -0.00026894541 0.37100002 4281880892
0.088333853 -0.00026967033 0.37200001 4281684026
0.058908723 0.00095161662 0.377 4279249689
0.059973713 0.00094909244 0.37600002 4279184406
0.061032213 0.00094656833 0.37500003 4279119637
0.062084213 0.00094404409 0.37400001 4279516191
0.063129716 0.00094151992 0.37300003 4279581984
0.064168721 0.00093899574 0.37200001 4279582496
0.065376982 0.00093899574 0.37200001 4279582496
0.06640625 0.00093647157 0.37100002 4279780899
0.067611255 0.00093647157 0.37100002 4280241450
0.06863077 0.00093394733 0.37 4280175657
0.069832534 0.00093394733 0.37 4280109094
0.07103429 0.00093394733 0.37 4280306473
0.072040819 0.00093142322 0.36900002 4280503852
0.073239334 0.00093142322 0.36900002 4280437805
0.074437842 0.00093142322 0.36900002 4280766770
0.07584133 0.00093394733 0.37 4280897842
0.077043094 0.00093394733 0.37 4280832049
0.078244857 0.00093394733 0.37 4280897329
0.079446614 0.00093394733 0.37 4280040739
0.080648378 0.00093394733 0.37 4281554237
0.081850141 0.00093394733 0.37 4280238377
0.083051898 0.00093394733 0.37 4281552954
0.084481373 0.00093647157 0.37100002 4281487163
0.059064981 0.0021823014 0.37800002 4279315482
0.060133215 0.0021765281 0.377 4279184406
0.061194964 0.0021707548 0.37600002 4279317529
0.062250216 0.0021649816 0.37500003 4279647777
0.063298963 0.0021592083 0.37400001 4279450912
0.064513713 0.0021592083 0.37400001 4279516703
0.065552726 0.002153435 0.37300003 4279779875
0.066764235 0.002153435 0.37300003 4280569391
0.067793489 0.0021476618 0.37200001 4280109610
0.069001749 0.0021476618 0.37200001 4280175657
0.070021272 0.0021418885 0.37100002 4280767024
0.071226276 0.0021418885 0.37100002 4280569645
0.072236054 0.0021361152 0.37 4280701231
0.073437817 0.0021361152 0.37 4280832049
0.074639574 0.0021361152 0.37 4280897844
0.07584133 0.0021361152 0.37 4280897844
0.077043094 0.0021361152 0.37 4281094710
0.078244857 0.0021361152 0.37 4280238118
0.079446614 0.0021361152 0.37 4281684542
0.080648378 0.0021361152 0.37 4282210370
0.081850141 0.0021361152 0.37 4284381539
0.060292721 0.0034104621 0.37800002 4279316762
0.061357714 0.0034014394 0.377 4279778078
0.062416214 0.0033924172 0.37600002 4279648029
0.06346821 0.003383395 0.37500003 4279516957
0.064686216 0.003383395 0.37500003 4279582750
0.065728471 0.0033743724 0.37400001 4280108840
0.066943221 0.0033743724 0.37400001 4280438575
0.067975737 0.0033653502 0.37300003 4280175403
0.069187239 0.0033653502 0.37300003 4280372782
0.07021001 0.0033563275 0.37200001 4280701747
0.071418263 0.0033563275 0.37200001 4280766770
0.072236054 0.0033382827 0.37 4281095221
0.073437817 0.0033382827 0.37 4281095221
0.074639574 0.0033382827 0.37 4281358393
0.07584133 0.0033382827 0.37 4281093938
0.077043094 0.0033382827 0.37 4281357112
0.061357714 0.0046263509 0.377 4279713057
0.06258221 0.0046263509 0.377 4279713822
0.063637458 0.0046140798 0.37600002 4279451164
0.064686216 0.0046018083 0.37500003 4280306473
0.065904215 0.0046018083 0.37500003 4280503598
0.066943221 0.0045895367 0.37400001 4280437805
0.068157971 0.0045895367 0.37400001 4280437805
0.069187239 0.0045772656 0.37300003 4280700977
0.070398748 0.0045772656 0.37300003 4280700977
0.071418263 0.0045649935 0.37200001 4280963637
0.072626516 0.0045649935 0.37200001 4281423675
0.073834777 0.0045649935 0.37200001 4282671689
0.089942954 -0.0074163587 0.37297919 4294967295
0.089942954 -0.0074163587 0.37297919 4294901760
0.089841835 -0.0078908224 0.37285811 4294901760
0.089740716 -0.0083652856 0.37273705 4294901760
0.089639597 -0.0088397497 0.37261596 4294901760
0.08953847 -0.0093142129 0.37249491 4294901760
0.089437351 -0.0097886771 0.37237382 4294901760
0.089336231 -0.01026314 0.37225276 4294901760
0.089235112 -0.010737604 0.37213168 4294901760
0.089133993 -0.011212068 0.37201059 4294901760
0.089032874 -0.011686532 0.37188953 4294901760
0.088931754 -0.012160995 0.37176844 4294901760
0.088830628 -0.012635458 0.37164739 4294901760
0.088729508 -0.013109922 0.3715263 4294901760
0.088628389 -0.013584386 0.37140524 4294901760
0.08852727 -0.014058849 0.37128416 4294901760
0.08842615 -0.014533313 0.37116307 4294901760
0.088325031 -0.015007777 0.37104201 4294901760
0.088223912 -0.015482241 0.37092093 4294901760
0.088122785 -0.015956704 0.37079987 4294901760
0.088021666 -0.016431168 0.37067878 4294901760
0.087920547 -0.016905632 0.37055773 4294901760
0.087819427 -0.017380094 0.37043664 4294901760
0.087718308 -0.017854558 0.37031555 4294901760
0.087617189 -0.018329022 0.37019449 4294901760
0.087516069 -0.018803485 0.37007341 4294901760
0.08741495 -0.019277949 0.36995235 4294901760
0.087313823 -0.019752413 0.36983126 4294901760
0.087212704 -0.020226877 0.36971021 4294901760
0.087111585 -0.020701339 0.36958912 4294901760
0.087010466 -0.021175804 0.36946803 4294901760
0.086909346 -0.021650268 0.36934698 4294901760
0.086808227 -0.022124732 0.36922589 4294901760
0.086707108 -0.022599194 0.36910483 4294901760
0.086605981 -0.023073658 0.36898375 4294901760
0.086504862 -0.023548122 0.36886269 4294901760
0.086403742 -0.024022585 0.3687416 4294901760
0.086302623 -0.024497049 0.36862051 4294901760
0.086201504 -0.024971513 0.36849946 4294901760
0.086100385 -0.025445975 0.36837837 4294901760
0.085999265 -0.02592044 0.36825731 4294901760
0.085898139 -0.026394904 0.36813623 4294901760
0.085797019 -0.026869366 0.36801517 4294901760
0.0856959 -0.02734383 0.36789408 4294901760
0.085594781 -0.027818294 0.367773 4294901760
0.085493661 -0.028292758 0.36765194 4294901760
0.085392542 -0.028767221 0.36753085 4294901760
0.085291423 -0.029241685 0.3674098 4294901760
0.085190296 -0.029716149 0.36728871 4294901760
0.085089177 -0.030190611 0.36716765 4294901760
0.084988058 -0.030665077 0.36704656 4294901760
0.084886938 -0.03113954 0.36692548 4294901760
0.084785819 -0.031614002 0.36680442 4294901760
0.0846847 -0.032088466 0.36668333 4294901760
0.08458358 -0.03256293 0.36656228 4294901760
0.084482454 -0.033037394 0.36644119 4294901760
0.084381334 -0.033511858 0.36632013 4294901760
0.084280215 -0.033986323 0.36619905 4294901760
0.084179096 -0.034460787 0.36607799 4294901760
0.084077977 -0.034935247 0.3659569 4294901760
0.083976857 -0.035409711 0.36583582 4294901760
0.083875738 -0.035884179 0.36571476 4294901760
0.083774611 -0.03635864 0.36559367 4294901760
0.083673492 -0.036833104 0.36547261 4294901760
0.083572373 -0.037307568 0.36535153 4294901760
0.083471254 -0.037782032 0.36523047 4294901760
0.083370134 -0.038256492 0.36510938 4294901760
0.083269015 -0.03873096 0.3649883 4294901760
0.083167896 -0.039205424 0.36486724 4294901760
0.083066776 -0.039679889 0.36474615 4294901760
0.08296565 -0.040154349 0.3646251 4294901760
0.08286453 -0.040628813 0.36450401 4294901760
0.082763411 -0.041103277 0.36438295 4294901760
0.082662292 -0.041577742 0.36426187 4294901760
0.082561173 -0.042052206 0.36414078 4294901760
0.082460053 -0.04252667 0.36401972 4294901760
0.082358927 -0.04300113 0.36389863 4294901760
0.082257807 -0.043475594 0.36377758 4294901760
0.082156688 -0.043950059 0.36365649 4294901760
0.082055569 -0.044424523 0.36353543 4294901760
0.081954449 -0.044898987 0.36341435 4294901760
0.08185333 -0.045373451 0.36329326 4294901760
0.081752211 -0.045847915 0.3631722 4294901760
0.081651092 -0.046322376 0.36305112 4294901760
0.081549965 -0.04679684 0.36293006 4294901760
0.081448846 -0.047271304 0.36280897 4294901760
0.081347726 -0.047745768 0.36268792 4294901760
0.081246607 -0.048220232 0.36256683 4294901760
0.081145488 -0.048694696 0.36244574 4294901760
0.081044368 -0.04916916 0.36232468 4294901760
0.080943242 -0.049643621 0.3622036 4294901760
0.080842122 -0.050118085 0.36208254 4294901760
0.080741003 -0.050592553 0.36196145 4294901760
0.080639884 -0.051067013 0.3618404 4294901760
0.080538765 -0.051541477 0.36171931 4294901760
0.080437645 -0.052015942 0.36159822 4294901760
0.080336526 -0.052490406 0.36147717 4294901760
0.080235407 -0.052964866 0.36135608 4294901760
0.08013428 -0.053439334 0.36123502 4294901760
0.080033161 -0.053913798 0.36111394 4294901760
0.079932041 -0.054388259 0.36099288 4294901760
0.079830922 -0.054862723 0.36087179 4294901760
0.089942954 -0.0074163587 0.37297919 4278255360
0.090413742 -0.0075445613 0.37308839 4278255360
0.090884529 -0.0076727634 0.37319759 4278255360
0.091355309 -0.007800966 0.37330681 4278255360
0.091826096 -0.0079291686 0.37341601 4278255360
0.092296883 -0.0080573708 0.3735252 4278255360
0.092767671 -0.0081855729 0.3736344 4278255360
0.093238458 -0.008313776 0.37374359 4278255360
0.093709238 -0.0084419781 0.37385279 4278255360
0.094180025 -0.0085701803 0.37396201 4278255360
0.094650812 -0.0086983833 0.37407121 4278255360
0.0951216 -0.0088265855 0.37418041 4278255360
0.095592387 -0.0089547876 0.3742896 4278255360
0.096063167 -0.0090829907 0.3743988 4278255360
0.096533954 -0.0092111928 0.37450799 4278255360
0.097004741 -0.009339395 0.37461722 4278255360
0.097475529 -0.0094675981 0.37472641 4278255360
0.097946316 -0.0095958002 0.37483561 4278255360
0.098417103 -0.0097240023 0.37494481 4278255360
0.098887883 -0.0098522045 0.375054 4278255360
0.09935867 -0.0099804075 0.3751632 4278255360
0.099829458 -0.01010861 0.37527242 4278255360
0.10030024 -0.010236813 0.37538162 4278255360
0.10077103 -0.010365015 0.37549081 4278255360
0.10124181 -0.010493217 0.37560001 4278255360
0.1017126 -0.010621419 0.37570921 4278255360
0.10218339 -0.010749622 0.3758184 4278255360
0.10265417 -0.010877824 0.37592763 4278255360
0.10312496 -0.011006027 0.37603682 4278255360
0.10359574 -0.01113423 0.37614602 4278255360
0.10406653 -0.011262432 0.37625521 4278255360
0.10453732 -0.011390634 0.37636441 4278255360
0.1050081 -0.011518836 0.37647361 4278255360
0.10547889 -0.011647039 0.37658283 4278255360
0.10594967 -0.011775242 0.37669203 4278255360
0.10642046 -0.011903444 0.37680122 4278255360
0.10689124 -0.012031646 0.37691042 4278255360
0.10736203 -0.012159849 0.37701961 4278255360
0.10783282 -0.012288051 0.37712881 4278255360
0.10830361 -0.012416254 0.37723804 4278255360
0.10877439 -0.012544457 0.37734723 4278255360
0.10924517 -0.012672659 0.37745643 4278255360
0.10971596 -0.012800861 0.37756562 4278255360
0.11018675 -0.012929063 0.37767482 4278255360
0.11065753 -0.013057265 0.37778401 4278255360
0.11112832 -0.013185468 0.37789324 4278255360
0.1115991 -0.013313672 0.37800243 4278255360
0.11206989 -0.013441874 0.37811163 4278255360
0.11254068 -0.013570076 0.37822083 4278255360
0.11301146 -0.013698278 0.37833002 4278255360
0.11348225 -0.01382648 0.37843925 4278255360
0.11395303 -0.013954682 0.37854844 4278255360
0.11442382 -0.014082885 0.37865764 4278255360
0.11489461 -0.014211087 0.37876683 4278255360
0.11536539 -0.014339291 0.37887603 4278255360
0.11583618 -0.014467493 0.37898523 4278255360
0.11630696 -0.014595695 0.37909445 4278255360
0.11677775 -0.014723897 0.37920365 4278255360
0.11724854 -0.0148521 0.37931284 4278255360
0.11771932 -0.014980302 0.37942204 4278255360
0.11819011 -0.015108505 0.37953123 4278255360
0.1186609 -0.015236707 0.37964043 4278255360
0.11913168 -0.01536491 0.37974966 4278255360
0.11960246 -0.015493112 0.37985885 4278255360
0.12007325 -0.015621314 0.37996805 4278255360
0.12054403 -0.015749516 0.38007724 4278255360
0.12101483 -0.01587772 0.38018644 4278255360
0.12148561 -0.016005922 0.38029563 4278255360
0.12195639 -0.016134124 0.38040486 4278255360
0.12242718 -0.016262326 0.38051406 4278255360
0.12289797 -0.016390529 0.38062325 4278255360
0.12336875 -0.016518731 0.38073245 4278255360
0.12383954 -0.016646935 0.38084164 4278255360
0.12431033 -0.016775137 0.38095084 4278255360
0.12478111 -0.016903339 0.38106006 4278255360
0.12525189 -0.017031541 0.38116926 4278255360
0.12572268 -0.017159743 0.38127846 4278255360
0.12619346 -0.017287945 0.38138765 4278255360
0.12666425 -0.017416149 0.38149685 4278255360
0.12713504 -0.017544352 0.38160604 4278255360
0.12760583 -0.017672554 0.38171527 4278255360
0.12807661 -0.017800756 0.38182446 4278255360
0.1285474 -0.017928958 0.38193366 4278255360
0.12901819 -0.01805716 0.38204286 4278255360
0.12948897 -0.018185364 0.38215205 4278255360
0.12995976 -0.018313566 0.38226125 4278255360
0.13043055 -0.018441768 0.38237047 4278255360
0.13090132 -0.018569971 0.38247967 4278255360
0.13137211 -0.018698173 0.38258886 4278255360
0.1318429 -0.018826375 0.38269806 4278255360
0.13231368 -0.018954577 0.38280725 4278255360
0.13278447 -0.019082781 0.38291645 4278255360
0.13325526 -0.019210983 0.38302568 4278255360
0.13372605 -0.019339185 0.38313487 4278255360
0.13419682 -0.019467387 0.38324407 4278255360
0.13466761 -0.019595589 0.38335326 4278255360
0.13513839 -0.019723792 0.38346246 4278255360
0.13560918 -0.019851996 0.38357168 4278255360
0.13607997 -0.019980198 0.38368088 4278255360
0.13655075 -0.0201084 0.38379008 4278255360
0.13702154 -0.020236602 0.38389927 4278255360
0.089942954 -0.0074163587 0.37297919 4278190335
0.089772873 -0.0074982573 0.3734422 4278190335
0.089602791 -0.007580156 0.37390518 4278190335
0.089432709 -0.0076620551 0.37436819 4278190335
0.089262627 -0.0077439537 0.37483117 4278190335
0.089092545 -0.0078258524 0.37529418 4278190335
0.088922463 -0.007907751 0.37575716 4278190335
0.088752382 -0.0079896497 0.37622017 4278190335
0.0885823 -0.0080715483 0.37668315 4278190335
0.088412218 -0.008153447 0.37714615 4278190335
0.088242136 -0.0082353465 0.37760913 4278190335
0.088072054 -0.0083172452 0.37807214 4278190335
0.087901972 -0.0083991438 0.37853515 4278190335
0.08773189 -0.0084810425 0.37899813 4278190335
0.087561809 -0.0085629411 0.37946114 4278190335
0.087391727 -0.0086448397 0.37992412 4278190335
0.087221645 -0.0087267384 0.38038713 4278190335
0.087051563 -0.008808637 0.38085011 4278190335
0.086881481 -0.0088905357 0.38131312 4278190335
0.086711399 -0.0089724343 0.38177609 4278190335
0.086541317 -0.009054333 0.3822391 4278190335
0.086371236 -0.0091362316 0.38270211 4278190335
0.086201154 -0.0092181312 0.38316509 4278190335
0.086031064 -0.0093000298 0.3836281 4278190335
0.08586099 -0.0093819285 0.38409108 4278190335
0.085690901 -0.0094638271 0.38455409 4278190335
0.085520819 -0.0095457258 0.38501707 4278190335
0.085350737 -0.0096276244 0.38548008 4278190335
0.085180655 -0.0097095231 0.38594306 4278190335
0.085010573 -0.0097914217 0.38640606 4278190335
0.084840491 -0.0098733213 0.38686907 4278190335
0.08467041 -0.0099552199 0.38733205 4278190335
0.084500328 -0.010037119 0.38779506 4278190335
0.084330246 -0.010119017 0.38825804 4278190335
0.084160164 -0.010200916 0.38872105 4278190335
0.083990082 -0.010282815 0.38918403 4278190335
0.08382 -0.010364713 0.38964704 4278190335
0.083649918 -0.010446612 0.39011002 4278190335
0.083479837 -0.01052851 0.39057302 4278190335
0.083309755 -0.010610409 0.391036 4278190335
0.083139673 -0.010692308 0.39149901 4278190335
0.082969591 -0.010774206 0.39196202 4278190335
0.082799509 -0.010856105 0.392425 4278190335
0.082629427 -0.010938005 0.39288801 4278190335
0.082459345 -0.011019903 0.39335099 4278190335
0.082289264 -0.011101802 0.393814 4278190335
0.082119182 -0.011183701 0.39427698 4278190335
0.0819491 -0.011265599 0.39473999 4278190335
0.081779018 -0.011347498 0.39520296 4278190335
0.081608936 -0.011429397 0.39566597 4278190335
0.081438854 -0.011511296 0.39612895 4278190335
0.081268772 -0.011593195 0.39659196 4278190335
0.081098691 -0.011675093 0.39705497 4278190335
0.080928609 -0.011756992 0.39751795 4278190335
0.080758527 -0.011838891 0.39798096 4278190335
0.080588445 -0.011920789 0.39844394 4278190335
0.080418363 -0.012002688 0.39890695 4278190335
0.080248281 -0.012084587 0.39936993 4278190335
0.0800782 -0.012166485 0.39983293 4278190335
0.079908118 -0.012248384 0.40029591 4278190335
0.079738036 -0.012330282 0.40075892 4278190335
0.079567954 -0.012412181 0.40122193 4278190335
0.079397872 -0.01249408 0.40168491 4278190335
0.07922779 -0.012575979 0.40214792 4278190335
0.079057708 -0.012657878 0.4026109 4278190335
0.078887627 -0.012739777 0.40307391 4278190335
0.078717545 -0.012821676 0.40353689 4278190335
0.078547463 -0.012903575 0.40399989 4278190335
0.078377381 -0.012985473 0.40446287 4278190335
0.078207299 -0.013067372 0.40492588 4278190335
0.078037217 -0.013149271 0.40538889 4278190335
0.077867135 -0.013231169 0.40585187 4278190335
0.077697054 -0.013313068 0.40631488 4278190335
0.077526972 -0.013394967 0.40677786 4278190335
0.07735689 -0.013476865 0.40724087 4278190335
0.077186808 -0.013558764 0.40770385 4278190335
0.077016726 -0.013640663 0.40816686 4278190335
0.076846644 -0.013722561 0.40862983 4278190335
0.076676562 -0.01380446 0.40909284 4278190335
0.076506473 -0.013886359 0.40955585 4278190335
0.076336391 -0.013968257 0.41001883 4278190335
0.076166309 -0.014050156 0.41048181 4278190335
0.075996228 -0.014132055 0.41094482 4278190335
0.075826146 -0.014213953 0.41140783 4278190335
0.075656064 -0.014295852 0.41187081 4278190335
0.075485982 -0.014377751 0.41233382 4278190335
0.0753159 -0.01445965 0.4127968 4278190335
0.075145818 -0.014541549 0.4132598 4278190335
0.074975736 -0.014623448 0.41372278 4278190335
0.074805655 -0.014705347 0.41418579 4278190335
0.074635573 -0.014787246 0.41464877 4278190335
0.074465491 -0.014869144 0.41511178 4278190335
0.074295409 -0.014951043 0.41557479 4278190335
0.074125327 -0.015032941 0.41603777 4278190335
0.073955245 -0.01511484 0.41650078 4278190335
0.073785163 -0.015196739 0.41696376 4278190335
0.073615082 -0.015278637 0.41742676 4278190335
0.073445 -0.015360536 0.41788974 4278190335
0.073274918 -0.015442435 0.41835275 4278190335
0.073104836 -0.015524333 0.41881573 4278190335
0.072934754 -0.015606232 0.41927874 4278190335
0.089942954 -0.0074163587 0.37297919 4294967295
0.090963446 -0.0069249664 0.37020123 4294967295
0.091983937 -0.006433574 0.36742324 4294967295
0.093004428 -0.0059421817 0.36464527 4294967295
0.094024926 -0.0054507889 0.36186731 4294967295
0.095045418 -0.0049593966 0.35908934 4294967295
0.096065909 -0.0044680042 0.35631135 4294967295
0.0970864 -0.0039766114 0.35353339 4294967295
0.098106891 -0.0034852196 0.35075542 4294967295
0.099127382 -0.0029938268 0.34797743 4294967295
0.10014787 -0.0025024344 0.34519947 4294967295
0.10116836 -0.0020110421 0.3424215 4294967295
0.10218886 -0.0015196498 0.33964354 4294967295
0.10320935 -0.0010282574 0.33686554 4294967295
0.10422985 -0.00053686462 0.33408758 4294967295
0.10525034 -4.5471825e-05 0.33130962 4294967295
0.10627083 0.00044591958 0.32853162 4294967295
0.10729132 0.00093731238 0.32575366 4294967295
0.10831182 0.0014287052 0.3229757 4294967295
0.10933231 0.001920097 0.3201977 4294967295
0.1103528 0.0024114898 0.31741974 4294967295
0.11137329 0.0029028817 0.31464177 4294967295
0.11239378 0.0033942745 0.31186381 4294967295
0.11341427 0.0038856673 0.30908582 4294967295
0.11443476 0.0043770592 0.30630785 4294967295
0.11545525 0.004868452 0.30352989 4294967295
0.11647575 0.0053598438 0.30075192 4294967295
0.11749624 0.0058512376 0.29797393 4294967295
0.11851674 0.0063426294 0.29519597 4294967295
0.11953723 0.0068340213 0.292418 4294967295
0.12055772 0.007325415 0.28964001 4294967295
0.12157821 0.0078168064 0.28686205 4294967295
0.1225987 0.0083081983 0.28408408 4294967295
0.1236192 0.008799592 0.28130609 4294967295
0.12463969 0.0092909839 0.27852812 4294967295
0.12566018 0.0097823758 0.27575016 4294967295
0.12668067 0.010273769 0.27297217 4294967295
0.12770116 0.010765161 0.2701942 4294967295
0.12872165 0.011256553 0.26741624 4294967295
0.12974215 0.011747945 0.26463827 4294967295
0.13076264 0.012239339 0.26186028 4294967295
0.13178313 0.012730731 0.25908232 4294967295
0.13280362 0.013222123 0.25630435 4294967295
0.13382411 0.013713516 0.25352639 4294967295
0.1348446 0.014204908 0.2507484 4294967295
0.13586509 0.0146963 0.24797043 4294967295
0.13688558 0.015187694 0.24519245 4294967295
0.13790607 0.015679086 0.24241449 4294967295
0.13892657 0.016170477 0.23963651 4294967295
0.13994707 0.016661871 0.23685853 4294967295
0.14096756 0.017153263 0.23408057 4294967295
0.14198805 0.017644655 0.2313026 4294967295
0.14300855 0.018136047 0.22852463 4294967295
0.14402904 0.018627439 0.22574666 4294967295
0.14504953 0.019118834 0.22296867 4294967295
0.14607002 0.019610226 0.2201907 4294967295
0.14709051 0.020101618 0.21741273 4294967295
0.148111 0.02059301 0.21463476 4294967295
0.14913149 0.021084402 0.2118568 4294967295
0.15015198 0.021575794 0.20907882 4294967295
0.15117249 0.022067189 0.20630084 4294967295
0.15219298 0.022558581 0.20352286 4294967295
0.15321347 0.023049973 0.2007449 4294967295
0.15423396 0.023541365 0.19796693 4294967295
0.15525445 0.024032755 0.19518895 4294967295
0.15627494 0.024524147 0.19241099 4294967295
0.15729544 0.025015542 0.189633 4294967295
0.15831593 0.025506934 0.18685503 4294967295
0.15933642 0.025998326 0.18407705 4294967295
0.16035691 0.026489718 0.18129909 4294967295
0.1613774 0.02698111 0.17852113 4294967295
0.16239789 0.027472502 0.17574315 4294967295
0.16341838 0.027963897 0.17296517 4294967295
0.16443887 0.028455289 0.17018719 4294967295
0.16545936 0.028946681 0.16740923 4294967295
0.16647986 0.029438073 0.16463125 4294967295
0.16750035 0.029929465 0.16185328 4294967295
0.16852084 0.030420857 0.15907532 4294967295
0.16954133 0.030912248 0.15629734 4294967295
0.17056184 0.031403642 0.15351936 4294967295
0.17158233 0.031895034 0.15074138 4294967295
0.17260282 0.032386426 0.14796342 4294967295
0.17362331 0.032877818 0.14518546 4294967295
0.1746438 0.03336921 0.14240748 4294967295
0.17566429 0.033860601 0.13962951 4294967295
0.17668478 0.034351997 0.13685152 4294967295
0.17770527 0.034843389 0.13407356 4294967295
0.17872576 0.035334781 0.13129558 4294967295
0.17974626 0.035826173 0.12851761 4294967295
0.18076675 0.036317565 0.12573965 4294967295
0.18178724 0.036808956 0.12296167 4294967295
0.18280774 0.037300352 0.12018368 4294967295
0.18382823 0.037791744 0.11740571 4294967295
0.18484873 0.038283136 0.11462775 4294967295
0.18586922 0.038774528 0.11184978 4294967295
0.18688971 0.039265919 0.10907182 4294967295
0.1879102 0.039757311 0.10629383 4294967295
0.18893069 0.040248707 0.10351586 4294967295
0.18995118 0.040740099 0.10073787 4294967295
0.19097167 0.041231491 0.097959906 4294967295
0.19199216 0.041722883 0.095181942 4294967295
