# .PCD v0.7 - Point Cloud Data file format
VERSION 0.7
FIELDS x y z rgb
SIZE 4 4 4 4
TYPE F F F U
COUNT 1 1 1 1
WIDTH 1044
HEIGHT 1
VIEWPOINT 0 0 0 1 0 0 0
POINTS 1044
DATA ascii
0.030528188 -0.0096183857 0.36000001 4281745445
0.041751873 -0.007198154 0.35600001 4279243520
0.042908158 -0.007198154 0.35600001 4278848768
0.044064447 -0.007198154 0.35600001 4279111680
0.045220733 -0.007198154 0.35600001 4278650880
0.046377026 -0.007198154 0.35600001 4278848512
0.047533315 -0.007198154 0.35600001 4278716928
0.0486896 -0.007198154 0.35600001 4279177478
0.052304983 -0.0072183735 0.35700002 4279575320
0.037231006 -0.0060584438 0.35700002 4279309057
0.038390543 -0.0060584438 0.35700002 4279309059
0.049985908 -0.0060584438 0.35700002 4281218599
0.051145446 -0.0060584438 0.35700002 4281547566
0.052304983 -0.0060584438 0.35700002 4280957227
0.059744742 -0.005990562 0.35300002 4280498738
0.060718793 -0.0059735915 0.35200003 4283921003
0.026425533 -0.0050494494 0.36800003 4282204708
0.027545739 -0.0050357278 0.36700001 4282139169
0.035009723 -0.0049122358 0.35800001 4279243264
0.053464517 -0.0048985146 0.35700002 4281023018
0.055471081 -0.0048710718 0.35500002 4280826925
0.056624118 -0.0048710718 0.35500002 4280958511
0.057614405 -0.0048573501 0.354 4281484855
0.058764197 -0.0048573501 0.354 4281155636
0.059744742 -0.004843629 0.35300002 4280958257
0.060891286 -0.004843629 0.35300002 4280958259
0.062037833 -0.004843629 0.35300002 4280497455
0.063184381 -0.004843629 0.35300002 4284381552
0.030697789 -0.003790946 0.36200002 4282139433
0.033941485 -0.0037595294 0.35900003 4281614376
0.046507299 -0.0037385849 0.35700002 4281615153
0.04882637 -0.0037385849 0.35700002 4281088811
0.049985908 -0.0037385849 0.35700002 4281352497
0.059744742 -0.0036966959 0.35300002 4281286704
0.060891286 -0.0036966959 0.35300002 4284576104
0.062037833 -0.0036966959 0.35300002 4280891696
0.063184381 -0.0036966959 0.35300002 4280300329
0.028502844 -0.0026292175 0.36400002 4282008619
0.029603563 -0.0026219941 0.36300001 4281483306
0.030697789 -0.002614771 0.36200002 4281351722
0.038390543 -0.0025786555 0.35700002 4281417776
0.039550081 -0.0025786555 0.35700002 4281680948
0.041869152 -0.0025786555 0.35700002 4281484083
0.04302869 -0.0025786555 0.35700002 4281615157
0.044188224 -0.0025786555 0.35700002 4281285425
0.047666837 -0.0025786555 0.35700002 4278720011
0.04882637 -0.0025786555 0.35700002 4278983185
0.049985908 -0.0025786555 0.35700002 4278983185
0.054624055 -0.0025786555 0.35700002 4281419060
0.061063781 -0.0025569859 0.354 4281285679
0.062037833 -0.0025497628 0.35300002 4281022766
0.063184381 -0.0025497628 0.35300002 4280958257
0.064513162 -0.0025569859 0.354 4281090356
0.027320571 -0.0014465442 0.36400002 4281416232
0.028424539 -0.0014425701 0.36300001 4282140468
0.029603563 -0.0014425701 0.36300001 4281352495
0.033941485 -0.0014266741 0.35900003 4281813048
0.038390543 -0.0014187261 0.35700002 4281286706
0.042908158 -0.001414752 0.35600001 4281483831
0.045347761 -0.0014187261 0.35700002 4280958257
0.047666837 -0.0014187261 0.35700002 4281287735
0.049985908 -0.0014187261 0.35700002 4279772186
0.053464517 -0.0014187261 0.35700002 4281549876
0.054624055 -0.0014187261 0.35700002 4281287474
0.058930203 -0.001410778 0.35500002 4281023534
0.059913989 -0.001406804 0.354 4281352499
0.061063781 -0.001406804 0.354 4281023018
0.062213577 -0.001406804 0.354 4280233504
0.063363373 -0.001406804 0.354 4280300581
0.064513162 -0.001406804 0.354 4281155890
0.06566295 -0.001406804 0.354 4283855461
0.027245512 -0.00026314604 0.36300001 4281219366
0.041751873 -0.00025807158 0.35600001 4285696898
0.042908158 -0.00025807158 0.35600001 4281285938
0.044064447 -0.00025807158 0.35600001 4279640854
0.045220733 -0.00025807158 0.35600001 4279639569
0.046377026 -0.00025807158 0.35600001 4279574289
0.047666837 -0.00025879653 0.35700002 4279181076
0.04882637 -0.00025879653 0.35700002 4279773213
0.049985908 -0.00025879653 0.35700002 4279838492
0.051145446 -0.00025879653 0.35700002 4281286190
0.052451495 -0.00025952145 0.35800001 4281484851
0.053614277 -0.00025952145 0.35800001 4281353269
0.054624055 -0.00025879653 0.35700002 4281353269
0.059096199 -0.00025807158 0.35600001 4281615667
0.06008324 -0.00025734669 0.35500002 4281549874
0.061236281 -0.00025734669 0.35500002 4280431395
0.062213577 -0.00025662174 0.354 4281155118
0.063363373 -0.00025662174 0.354 4279773467
0.064513162 -0.00025662174 0.354 4281089327
0.06566295 -0.00025662174 0.354 4280236330
0.066812746 -0.00025662174 0.354 4284776563
0.02606649 0.00091627805 0.36300001 4282271021
0.038283002 0.00089860882 0.35600001 4280761391
0.04882637 0.000901133 0.35700002 4282735953
0.051145446 0.000901133 0.35700002 4280892718
0.052451495 0.00090365717 0.35800001 4281615669
0.058102667 0.000901133 0.35700002 4281287476
0.059096199 0.00089860882 0.35600001 4281221679
0.060252484 0.00089860882 0.35600001 4280366370
0.061236281 0.00089608465 0.35500002 4280826153
0.062389322 0.00089608465 0.35500002 4280826153
0.063542366 0.00089608465 0.35500002 4280497960
0.064513162 0.00089356041 0.354 4280958511
0.06566295 0.00089356041 0.354 4280761645
0.066812746 0.00089356041 0.354 4279973412
0.067962535 0.00089356041 0.354 4284644977
0.028424539 0.0020957021 0.36300001 4281546780
0.031873565 0.0020899288 0.36200002 4281219105
0.032866746 0.0020783823 0.36000001 4281877548
0.036071472 0.0020610625 0.35700002 4281154866
0.058102667 0.0020610625 0.35700002 4281353267
0.059262205 0.0020610625 0.35700002 4280562981
0.060252484 0.0020552892 0.35600001 4280431395
0.061408777 0.0020552892 0.35600001 4280234018
0.062389322 0.002049516 0.35500002 4280234018
0.063542366 0.002049516 0.35500002 4280694569
0.064695403 0.002049516 0.35500002 4280628776
0.06566295 0.0020437425 0.354 4280498473
0.066812746 0.0020437425 0.354 4280104485
0.067962535 0.0020437425 0.354 4281554759
0.031873565 0.0032661038 0.36200002 4281613089
0.032866746 0.003248059 0.36000001 4281810468
0.035009723 0.0032300141 0.35800001 4281353267
0.036071472 0.0032209919 0.35700002 4281090358
0.054777063 0.0032300141 0.35800001 4283064146
0.058265414 0.0032300141 0.35800001 4281353269
0.059262205 0.0032209919 0.35700002 4280628262
0.060421735 0.0032209919 0.35700002 4280365604
0.061408777 0.0032119695 0.35600001 4279970592
0.062565066 0.0032119695 0.35600001 4279970592
0.063542366 0.0032029471 0.35500002 4280101918
0.064695403 0.0032029471 0.35500002 4281154606
0.06566295 0.0031939247 0.354 4280694569
0.066812746 0.0031939247 0.354 4279775520
0.067962535 0.0031939247 0.354 4279778859
0.031873565 0.0044422788 0.36200002 4281547296
0.032866746 0.0044177361 0.36000001 4281415710
0.033846941 0.0043931929 0.35800001 4282010417
0.045093711 0.0043563787 0.35500002 4283195986
0.047399797 0.0043563787 0.35500002 4283196502
0.049845889 0.0043686498 0.35600001 4281419070
0.051002178 0.0043686498 0.35600001 4280761393
0.058265414 0.0043931929 0.35800001 4279839776
0.059428204 0.0043931929 0.35800001 4280693801
0.060421735 0.0043809214 0.35700002 4280299043
0.061408777 0.0043686498 0.35600001 4280102178
0.062565066 0.0043686498 0.35600001 4280233764
0.063542366 0.0043563787 0.35500002 4280365350
0.064695403 0.0043563787 0.35500002 4281615155
0.06566295 0.0043441067 0.354 4280168223
0.066812746 0.0043441067 0.354 4280038690
0.067962535 0.0043441067 0.354 4279450660
0.068917103 0.0043318355 0.35300002 4280042799
0.031961612 0.0056339744 0.36300001 4281350689
0.033846941 0.0055563715 0.35800001 4281350689
0.034911931 0.005540851 0.35700002 4282010163
0.048552833 0.0055098101 0.35500002 4283064398
0.049705874 0.0055098101 0.35500002 4282735435
0.051002178 0.0055253301 0.35600001 4281484601
0.059428204 0.0055563715 0.35800001 4280628008
0.060421735 0.005540851 0.35700002 4280364836
0.061581276 0.005540851 0.35700002 4280167457
0.062565066 0.0055253301 0.35600001 4280365350
0.063542366 0.0055098101 0.35500002 4280496936
0.064513162 0.0054942891 0.354 4280562729
0.06566295 0.0054942891 0.354 4280694567
0.066624016 0.0054787686 0.35300002 4279643930
0.067770556 0.0054787686 0.35300002 4278990107
0.068917103 0.0054787686 0.35300002 4279385119
0.033752397 0.0067007807 0.35700002 4281613091
0.040367514 0.0066444711 0.354 4281155118
0.046116479 0.0066444711 0.354 4282138663
0.047399797 0.0066632414 0.35500002 4281678886
0.048552833 0.0066632414 0.35500002 4281614124
0.049705874 0.0066632414 0.35500002 4282735433
0.050858919 0.0066632414 0.35500002 4283064398
0.059428204 0.0067195501 0.35800001 4279970592
0.060590982 0.0067195501 0.35800001 4280365350
0.061581276 0.0067007807 0.35700002 4280233764
0.062565066 0.0066820108 0.35600001 4280431143
0.063542366 0.0066632414 0.35500002 4280233764
0.064513162 0.0066444711 0.354 4280431143
0.065477468 0.0066257017 0.35300002 4281748023
0.066624016 0.0066257017 0.35300002 4279644443
0.067770556 0.0066257017 0.35300002 4278661396
0.068721868 0.0066069323 0.35200003 4279056154
0.069865167 0.0066069323 0.35200003 4279779111
0.04151731 0.0077946531 0.354 4281743907
0.042667102 0.0077946531 0.354 4281744157
0.043816894 0.0077946531 0.354 4281612314
0.044966683 0.0077946531 0.354 4281875740
0.046116479 0.0077946531 0.354 4282270496
0.047266271 0.0077946531 0.354 4281809693
0.048552833 0.0078166723 0.35500002 4282798650
0.049705874 0.0078166723 0.35500002 4283064396
0.050858919 0.0078166723 0.35500002 4283064398
0.060590982 0.0078827282 0.35800001 4280562729
0.061581276 0.0078607099 0.35700002 4280496936
0.062565066 0.0078386907 0.35600001 4279970592
0.063363373 0.0077946531 0.354 4280167971
0.064513162 0.0077946531 0.354 4280562729
0.065477468 0.0077726347 0.35300002 4280235299
0.066435277 0.0077506159 0.35200003 4279514395
0.067578569 0.0077506159 0.35200003 4278858775
0.068721868 0.0077506159 0.35200003 4278924568
0.069666684 0.0077285971 0.35100001 4278595349
0.039217725 0.0089448346 0.354 4281615659
0.040367514 0.0089448346 0.354 4282730025
0.04151731 0.0089448346 0.354 4282203422
0.042667102 0.0089448346 0.354 4282796072
0.043816894 0.0089448346 0.354 4283059242
0.044966683 0.0089448346 0.354 4282730277
0.046116479 0.0089448346 0.354 4282994219
0.047266271 0.0089448346 0.354 4282467882
0.048416063 0.0089448346 0.354 4282667064
0.049705874 0.0089701032 0.35500002 4283130189
0.060590982 0.0090459064 0.35800001 4280300581
0.061581276 0.0090206396 0.35700002 4280365350
0.062389322 0.0089701032 0.35500002 4280233764
0.063363373 0.0089448346 0.354 4279970592
0.064330921 0.0089195678 0.35300002 4280036385
0.065291978 0.0088943001 0.35200003 4279972129
0.066435277 0.0088943001 0.35200003 4279644445
0.067578569 0.0088943001 0.35200003 4278530578
0.068526633 0.0088690314 0.35100001 4278530578
0.069666684 0.0088690314 0.35100001 4278727957
0.039217725 0.010095018 0.354 4281747245
0.040367514 0.010095018 0.354 4282732076
0.04151731 0.010095018 0.354 4282862892
0.042667102 0.010095018 0.354 4282731047
0.043816894 0.010095018 0.354 4282665254
0.044966683 0.010095018 0.354 4282467877
0.046116479 0.010095018 0.354 4282731049
0.047266271 0.010095018 0.354 4282468402
0.048416063 0.010095018 0.354 4283391818
0.049705874 0.010123535 0.35500002 4283392852
0.060590982 0.010209085 0.35800001 4283194701
0.061408777 0.010152051 0.35600001 4280036639
0.062389322 0.010123535 0.35500002 4280168225
0.063363373 0.010095018 0.354 4280167971
0.064148679 0.010037985 0.35200003 4280036385
0.065291978 0.010037985 0.35200003 4279905821
0.066246539 0.010009467 0.35100001 4279709723
0.067386582 0.010009467 0.35100001 4278661394
0.068526633 0.010009467 0.35100001 4278596371
0.069666684 0.010009467 0.35100001 4278596371
0.070605002 0.0099809505 0.35000002 4279121693
0.04151731 0.0112452 0.354 4282667060
0.061408777 0.011308732 0.35600001 4280101918
0.062389322 0.011276967 0.35500002 4280430116
0.063184381 0.011213434 0.35300002 4280299043
0.064148679 0.011181668 0.35200003 4279838492
0.065106489 0.011149902 0.35100001 4279445781
0.066246539 0.011149902 0.35100001 4279711002
0.067386582 0.011149902 0.35100001 4278661394
0.068526633 0.011149902 0.35100001 4278596371
0.069468208 0.011118136 0.35000002 4278727957
0.070605002 0.011118136 0.35000002 4278925336
0.071741804 0.011118136 0.35000002 4280041772
0.061408777 0.012465413 0.35600001 4282141499
0.062389322 0.012430398 0.35500002 4280365088
0.063184381 0.012360367 0.35300002 4280036639
0.064148679 0.012325352 0.35200003 4279576858
0.065106489 0.012290337 0.35100001 4279184406
0.066246539 0.012290337 0.35100001 4279318297
0.067386582 0.012290337 0.35100001 4278661648
0.068331406 0.012255322 0.35000002 4278661648
0.069468208 0.012255322 0.35000002 4278596625
0.070605002 0.012255322 0.35000002 4278398992
0.071741804 0.012255322 0.35000002 4278793752
0.072878607 0.012255322 0.35000002 4279450658
0.074015409 0.012255322 0.35000002 4279975727
0.094449915 0.012710519 0.36300001 4279908381
0.09562894 0.012710519 0.36300001 4280105500
0.096541286 0.012675504 0.36200002 4279184658
0.097717062 0.012675504 0.36200002 4279908383
0.098619647 0.012640489 0.36100003 4279908383
0.099792175 0.012640489 0.36100003 4279579416
0.10157138 0.012570458 0.35900003 4279514393
0.10593958 0.012535443 0.35800001 4279055127
0.061408777 0.013622093 0.35600001 4282076990
0.062565066 0.013622093 0.35600001 4280234016
0.063184381 0.0135073 0.35300002 4279642651
0.063966438 0.013430771 0.35100001 4279314967
0.065106489 0.013430771 0.35100001 4279053592
0.066246539 0.013430771 0.35100001 4279186459
0.067386582 0.013430771 0.35100001 4278924568
0.068526633 0.013430771 0.35100001 4278727187
0.069666684 0.013430771 0.35100001 4278728470
0.070605002 0.013392507 0.35000002 4278794263
0.071741804 0.013392507 0.35000002 4278728470
0.072878607 0.013392507 0.35000002 4278728470
0.074015409 0.013392507 0.35000002 4278925084
0.075366922 0.013430771 0.35100001 4278924316
0.076506972 0.013430771 0.35100001 4279450148
0.077868246 0.013469037 0.35200003 4279055390
0.081293397 0.013660357 0.35700002 4279383072
0.082452938 0.013660357 0.35700002 4279251486
0.083846673 0.013698622 0.35800001 4279383072
0.085009463 0.013698622 0.35800001 4279383072
0.091163293 0.013928208 0.36400002 4279252506
0.092345566 0.013928208 0.36400002 4279186713
0.093527839 0.013928208 0.36400002 4279318299
0.094449915 0.013889942 0.36300001 4279120918
0.09562894 0.013889942 0.36300001 4279186711
0.096541286 0.013851679 0.36200002 4279120918
0.097717062 0.013851679 0.36200002 4278858259
0.098619647 0.013813416 0.36100003 4278726673
0.099515744 0.01377515 0.36000001 4278858259
0.10040534 0.013736886 0.35900003 4278792466
0.10157138 0.013736886 0.35900003 4278792466
0.10245124 0.013698622 0.35800001 4278792466
0.10361402 0.013698622 0.35800001 4278858259
0.10477679 0.013698622 0.35800001 4278792466
0.10593958 0.013698622 0.35800001 4278792466
0.10710236 0.013698622 0.35800001 4278858259
0.10826515 0.013698622 0.35800001 4278858513
0.10942794 0.013698622 0.35800001 4279121685
0.11028182 0.013660357 0.35700002 4278990099
0.11144136 0.013660357 0.35700002 4279121685
0.11260089 0.013660357 0.35700002 4278990099
0.061408777 0.014778772 0.35600001 4283459156
0.06274081 0.014820287 0.35700002 4279313684
0.064258337 0.014903313 0.35900003 4279315482
0.063966438 0.014571206 0.35100001 4279118615
0.065106489 0.014571206 0.35100001 4279054873
0.066435277 0.01461272 0.35200003 4279120666
0.067386582 0.014571206 0.35100001 4279121947
0.068526633 0.014571206 0.35100001 4278727957
0.069666684 0.014571206 0.35100001 4278663447
0.070806727 0.014571206 0.35100001 4278795546
0.071946777 0.014571206 0.35100001 4279124511
0.073086828 0.014571206 0.35100001 4278597654
0.074226879 0.014571206 0.35100001 4278662677
0.075581647 0.01461272 0.35200003 4278662677
0.076724946 0.01461272 0.35200003 4278531093
0.078089461 0.014654233 0.35300002 4278465300
0.079684928 0.01473726 0.35500002 4278661396
0.081065685 0.014778772 0.35600001 4278858775
0.082452938 0.014820287 0.35700002 4278661396
0.083846673 0.0148618 0.35800001 4278727189
0.085009463 0.0148618 0.35800001 4278858775
0.086412959 0.014903313 0.35900003 4278858773
0.087822936 0.014944826 0.36000001 4278858773
0.089239419 0.014986341 0.36100003 4278924566
0.090912841 0.015069366 0.36300001 4278924566
0.092091866 0.015069366 0.36300001 4278924566
0.09327089 0.015069366 0.36300001 4278661394
0.094449915 0.015069366 0.36300001 4278727187
0.095365502 0.015027854 0.36200002 4278727957
0.096541286 0.015027854 0.36200002 4278727957
0.097447127 0.014986341 0.36100003 4278793750
0.098619647 0.014986341 0.36100003 4278727957
0.099515744 0.014944826 0.36000001 4278727957
0.10040534 0.014903313 0.35900003 4278859543
0.10157138 0.014903313 0.35900003 4278727957
0.10245124 0.0148618 0.35800001 4278793750
0.10361402 0.0148618 0.35800001 4278727957
0.10477679 0.0148618 0.35800001 4278991129
0.10593958 0.0148618 0.35800001 4278859797
0.10710236 0.0148618 0.35800001 4279057176
0.10826515 0.0148618 0.35800001 4279320346
0.10912228 0.014820287 0.35700002 4279320346
0.11028182 0.014820287 0.35700002 4279254553
0.11144136 0.014820287 0.35700002 4279451164
0.11260089 0.014820287 0.35700002 4279320348
0.11376042 0.014820287 0.35700002 4279254301
0.061088212 0.016472604 0.36800003 4284182879
0.062283471 0.016472604 0.36800003 4284182879
0.063133746 0.016383078 0.36600003 4284446051
0.063092306 0.016069742 0.35900003 4280236067
0.064795315 0.016204027 0.36200002 4279381785
0.063966438 0.015711641 0.35100001 4278987797
0.065106489 0.015711641 0.35100001 4278858009
0.066624016 0.015801165 0.35300002 4279055388
0.067770556 0.015801165 0.35300002 4279385889
0.068721868 0.015756404 0.35200003 4279385889
0.069865167 0.015756404 0.35200003 4279058205
0.071008459 0.015756404 0.35200003 4279058718
0.072151758 0.015756404 0.35200003 4279058718
0.073295057 0.015756404 0.35200003 4283269470
0.074438356 0.015756404 0.35200003 4278794517
0.075796366 0.015801165 0.35300002 4278991896
0.076942913 0.015801165 0.35300002 4278794263
0.078310676 0.015845928 0.354 4278794263
0.079684928 0.015890691 0.35500002 4278662677
0.081065685 0.015935453 0.35600001 4278728470
0.082452938 0.015980216 0.35700002 4278662677
0.083846673 0.016024979 0.35800001 4278860056
0.085009463 0.016024979 0.35800001 4278794263
0.086412959 0.016069742 0.35900003 4278925849
0.087822936 0.016114503 0.36000001 4278925849
0.089239419 0.016159266 0.36100003 4278728470
0.09066239 0.016204027 0.36200002 4279321377
0.091838174 0.016204027 0.36200002 4279452963
0.09301395 0.016204027 0.36200002 4279584549
0.094189726 0.016204027 0.36200002 4279189791
0.095365502 0.016204027 0.36200002 4279189791
0.096274599 0.016159266 0.36100003 4279255584
0.097447127 0.016159266 0.36100003 4279255584
0.098346457 0.016114503 0.36000001 4279123998
0.099515744 0.016114503 0.36000001 4279123998
0.10040534 0.016069742 0.35900003 4279254814
0.10157138 0.016069742 0.35900003 4279320607
0.10245124 0.016024979 0.35800001 4279189021
0.10361402 0.016024979 0.35800001 4279254814
0.10477679 0.016024979 0.35800001 4279189021
0.10593958 0.016024979 0.35800001 4278925849
0.1068032 0.015980216 0.35700002 4279123228
0.10796274 0.015980216 0.35700002 4279386654
0.10912228 0.015980216 0.35700002 4279649313
0.11028182 0.015980216 0.35700002 4279386141
0.11144136 0.015980216 0.35700002 4279978278
0.11260089 0.015980216 0.35700002 4279517727
0.11376042 0.015980216 0.35700002 4280109864
0.061254211 0.017716285 0.36900002 4284182879
0.062283471 0.017668275 0.36800003 4283919707
0.063133746 0.017572252 0.36600003 4283985500
0.063443795 0.017332194 0.36100003 4282604615
0.064795315 0.017380204 0.36200002 4279448600
0.065606602 0.017284181 0.36000001 4278988564
0.066404909 0.017188158 0.35800001 4279055388
0.067001484 0.017044123 0.35500002 4279318558
0.067962535 0.016996112 0.354 4279779877
0.069112331 0.016996112 0.354 4279846440
0.070262127 0.016996112 0.354 4279846692
0.071210191 0.0169481 0.35300002 4279255838
0.072356731 0.0169481 0.35300002 4278862363
0.073503278 0.0169481 0.35300002 4278336019
0.074649826 0.0169481 0.35300002 4278862363
0.076011084 0.016996112 0.354 4278993179
0.07716088 0.016996112 0.354 4279058972
0.078531891 0.017044123 0.35500002 4278730007
0.079909392 0.017092135 0.35600001 4278927386
0.081293397 0.017140146 0.35700002 4279058972
0.082452938 0.017140146 0.35700002 4279124511
0.083846673 0.017188158 0.35800001 4279189791
0.085009463 0.017188158 0.35800001 4279124511
0.086412959 0.017236169 0.35900003 4278993179
0.087578982 0.017236169 0.35900003 4279190558
0.088992216 0.017284181 0.36000001 4279124765
0.090411946 0.017332194 0.36100003 4278993179
0.091584474 0.017332194 0.36100003 4279190558
0.092757009 0.017332194 0.36100003 4279980074
0.093929537 0.017332194 0.36100003 4279387937
0.095102072 0.017332194 0.36100003 4279387937
0.096274599 0.017332194 0.36100003 4279387937
0.097177185 0.017284181 0.36000001 4279584549
0.098346457 0.017284181 0.36000001 4279781158
0.099515744 0.017284181 0.36000001 4280109864
0.10040534 0.017236169 0.35900003 4279912485
0.10157138 0.017236169 0.35900003 4279978278
0.10245124 0.017188158 0.35800001 4279912485
0.10361402 0.017188158 0.35800001 4280109864
0.10477679 0.017188158 0.35800001 4280109610
0.10593958 0.017188158 0.35800001 4280372012
0.1068032 0.017140146 0.35700002 4280240426
0.10796274 0.017140146 0.35700002 4280306219
0.10912228 0.017140146 0.35700002 4280438059
0.11028182 0.017140146 0.35700002 4280306473
0.11144136 0.017140146 0.35700002 4280503852
0.11260089 0.017140146 0.35700002 4280372266
0.11376042 0.017140146 0.35700002 4280503338
0.0603812 0.019017726 0.37100002 4284117086
0.061254211 0.018915204 0.36900002 4284380258
0.062283471 0.018863944 0.36800003 4284182879
0.063133746 0.018761422 0.36600003 4283788121
0.063795276 0.018607639 0.36300001 4284577637
0.064795315 0.018556379 0.36200002 4278527500
0.06578885 0.018505119 0.36100003 4279185689
0.066590399 0.018402597 0.35900003 4279055900
0.067378961 0.018300075 0.35700002 4279911209
0.068346508 0.018248815 0.35600001 4279781158
0.069502793 0.018248815 0.35600001 4279912744
0.07046061 0.018197555 0.35500002 4279912744
0.071613647 0.018197555 0.35500002 4280111147
0.072766684 0.018197555 0.35500002 4280111660
0.073919728 0.018197555 0.35500002 4280045613
0.075072773 0.018197555 0.35500002 4279716648
0.07622581 0.018197555 0.35500002 4279585316
0.077378854 0.018197555 0.35500002 4279387937
0.078753106 0.018248815 0.35600001 4279519523
0.079909392 0.018248815 0.35600001 4279519523
0.081293397 0.018300075 0.35700002 4279519523
0.082452938 0.018300075 0.35700002 4279716902
0.083846673 0.018351335 0.35800001 4279585314
0.085009463 0.018351335 0.35800001 4279519521
0.086172245 0.018351335 0.35800001 4279979561
0.087578982 0.018402597 0.35900003 4279847205
0.08874502 0.018402597 0.35900003 4280044584
0.090161495 0.018453857 0.36000001 4280044584
0.091330774 0.018453857 0.36000001 4280110377
0.092757009 0.018505119 0.36100003 4280044584
0.093929537 0.018505119 0.36100003 4280176170
0.095102072 0.018505119 0.36100003 4280176170
0.096274599 0.018505119 0.36100003 4280701747
0.097177185 0.018453857 0.36000001 4280438575
0.098346457 0.018453857 0.36000001 4280700977
0.099515744 0.018453857 0.36000001 4280700463
0.10040534 0.018402597 0.35900003 4281358393
0.10157138 0.018402597 0.35900003 4280634670
0.10245124 0.018351335 0.35800001 4280897329
0.10361402 0.018351335 0.35800001 4280172836
0.10477679 0.018351335 0.35800001 4280172838
0.10593958 0.018351335 0.35800001 4280634157
0.1068032 0.018300075 0.35700002 4280305192
0.10796274 0.018300075 0.35700002 4279844641
0.10912228 0.018300075 0.35700002 4279976227
0.11028182 0.018300075 0.35700002 4280436008
0.11144136 0.018300075 0.35700002 4280699180
0.11260089 0.018300075 0.35700002 4281028915
0.11376042 0.018300075 0.35700002 4281028145
0.061254211 0.020114122 0.36900002 4284117086
0.062283471 0.020059614 0.36800003 4284051293
0.063133746 0.019950593 0.36600003 4284051293
0.063971028 0.019841574 0.36400002 4283919707
0.064974301 0.019787064 0.36300001 4280565545
0.06578885 0.019678045 0.36100003 4279449115
0.066775888 0.019623535 0.36000001 4279779877
0.067756437 0.019569024 0.35900003 4279781160
0.068730474 0.019514514 0.35800001 4279781158
0.069893263 0.019514514 0.35800001 4279846951
0.07085757 0.019460006 0.35700002 4280175916
0.072017103 0.019460006 0.35700002 4280175916
0.072971664 0.019405494 0.35600001 4280176940
0.07412795 0.019405494 0.35600001 4280045354
0.075284243 0.019405494 0.35600001 4280045354
0.076440528 0.019405494 0.35600001 4279979561
0.077596813 0.019405494 0.35600001 4279979561
0.078974329 0.019460006 0.35700002 4279650596
0.080133863 0.019460006 0.35700002 4279848488
0.081293397 0.019460006 0.35700002 4279716902
0.082452938 0.019460006 0.35700002 4280045352
0.083846673 0.019514514 0.35800001 4279913766
0.085009463 0.019514514 0.35800001 4279978278
0.086172245 0.019514514 0.35800001 4279450396
0.087578982 0.019569024 0.35900003 4280239914
0.08874502 0.019569024 0.35900003 4280371500
0.090161495 0.019623535 0.36000001 4280437291
0.091330774 0.019623535 0.36000001 4279383320
0.092500061 0.019623535 0.36000001 4278591755
0.093929537 0.019678045 0.36100003 4278920720
0.095102072 0.019678045 0.36100003 4279117588
0.096274599 0.019678045 0.36100003 4279511576
0.097177185 0.019623535 0.36000001 4279774746
0.098346457 0.019623535 0.36000001 4279379988
0.099515744 0.019623535 0.36000001 4279379990
0.10040534 0.019569024 0.35900003 4280498473
0.10157138 0.019569024 0.35900003 4280038688
0.10273741 0.019569024 0.35900003 4280565032
0.10361402 0.019514514 0.35800001 4279511576
0.10477679 0.019514514 0.35800001 4281816126
0.10593958 0.019514514 0.35800001 4280896559
0.10710236 0.019514514 0.35800001 4280370215
0.10796274 0.019460006 0.35700002 4279711004
0.10912228 0.019460006 0.35700002 4279973662
0.11028182 0.019460006 0.35700002 4280434473
0.11144136 0.019460006 0.35700002 4280631852
0.11260089 0.019460006 0.35700002 4280634159
0.11376042 0.019460006 0.35700002 4280567596
0.06142021 0.021370798 0.37 4284182879
0.062283471 0.021255283 0.36800003 4284117086
0.063133746 0.021139765 0.36600003 4284117088
0.063971028 0.021024248 0.36400002 4283985502
0.064974301 0.020966487 0.36300001 4284446303
0.065971084 0.020908728 0.36200002 4280170526
0.066961378 0.020850971 0.36100003 4279977508
0.067945167 0.020793211 0.36000001 4279780899
0.069114447 0.020793211 0.36000001 4280044330
0.070088498 0.020735452 0.35900003 4279912744
0.071254529 0.020735452 0.35900003 4280045100
0.072218828 0.020677693 0.35800001 4280110893
0.073381618 0.020677693 0.35800001 4280111147
0.074336179 0.020619934 0.35700002 4280045354
0.07549572 0.020619934 0.35700002 4280111147
0.076655254 0.020619934 0.35700002 4279782182
0.077814788 0.020619934 0.35700002 4280110377
0.078974329 0.020619934 0.35700002 4279716389
0.080358319 0.020677693 0.35800001 4279716389
0.081521109 0.020677693 0.35800001 4279847205
0.082683891 0.020677693 0.35800001 4279386654
0.083846673 0.020677693 0.35800001 4279912998
0.085009463 0.020677693 0.35800001 4279843873
0.086172245 0.020677693 0.35800001 4279843360
0.087335028 0.020677693 0.35800001 4280568879
0.08874502 0.020735452 0.35900003 4280239914
0.089911051 0.020735452 0.35900003 4279446551
0.091330774 0.020793211 0.36000001 4281419571
0.092500061 0.020793211 0.36000001 4280959020
0.09366934 0.020793211 0.36000001 4280235299
0.095102072 0.020850971 0.36100003 4281419058
0.096007906 0.020793211 0.36000001 4280036635
0.097177185 0.020793211 0.36000001 4281220397
0.098346457 0.020793211 0.36000001 4280168223
0.099515744 0.020793211 0.36000001 4280366370
0.10040534 0.020735452 0.35900003 4281221679
0.10157138 0.020735452 0.35900003 4280366370
0.10273741 0.020735452 0.35900003 4280235297
0.10390345 0.020735452 0.35900003 4281421370
0.10477679 0.020677693 0.35800001 4281158968
0.10593958 0.020677693 0.35800001 4280632624
0.10710236 0.020677693 0.35800001 4280894512
0.10826515 0.020677693 0.35800001 4281223216
0.10912228 0.020619934 0.35700002 4281748790
0.11028182 0.020619934 0.35700002 4280696872
0.11144136 0.020619934 0.35700002 4280894764
0.11260089 0.020619934 0.35700002 4280829485
0.11376042 0.020619934 0.35700002 4280632106
0.063133746 0.022328936 0.36600003 4284051293
0.064146765 0.022267926 0.36500001 4283919707
0.064974301 0.02214591 0.36300001 4283722328
0.065971084 0.022084903 0.36200002 4283788119
0.067146868 0.022084903 0.36200002 4280042274
0.068133906 0.022023896 0.36100003 4279912485
0.069306433 0.022023896 0.36100003 4280044330
0.070478961 0.022023896 0.36100003 4280175916
0.071453013 0.021962887 0.36000001 4280242479
0.072622284 0.021962887 0.36000001 4280374065
0.073586598 0.021901879 0.35900003 4280111147
0.0745444 0.02184087 0.35800001 4280045354
0.07570719 0.02184087 0.35800001 4279913768
0.076869972 0.02184087 0.35800001 4279912998
0.078032754 0.02184087 0.35800001 4279847205
0.079195544 0.02184087 0.35800001 4279584033
0.080358319 0.02184087 0.35800001 4279452447
0.081521109 0.02184087 0.35800001 4279649826
0.082683891 0.02184087 0.35800001 4279517727
0.083846673 0.02184087 0.35800001 4278727441
0.085009463 0.02184087 0.35800001 4279119383
0.086172245 0.02184087 0.35800001 4280699952
0.087335028 0.02184087 0.35800001 4280174121
0.08874502 0.021901879 0.35900003 4278987799
0.089911051 0.021901879 0.35900003 4279379992
0.091330774 0.021962887 0.36000001 4279511063
0.092500061 0.021962887 0.36000001 4279577369
0.09366934 0.021962887 0.36000001 4279906334
0.094838627 0.021962887 0.36000001 4280169506
0.096274599 0.022023896 0.36100003 4280630057
0.097177185 0.021962887 0.36000001 4281420343
0.098346457 0.021962887 0.36000001 4282012480
0.099515744 0.021962887 0.36000001 4281288757
0.10068502 0.021962887 0.36000001 4281749306
0.10157138 0.021901879 0.35900003 4282210624
0.10273741 0.021901879 0.35900003 4281815866
0.10390345 0.021901879 0.35900003 4281618233
0.10477679 0.02184087 0.35800001 4281684540
0.10593958 0.02184087 0.35800001 4281552954
0.10710236 0.02184087 0.35800001 4282276677
0.10826515 0.02184087 0.35800001 4281947966
0.10942794 0.02184087 0.35800001 4282473796
0.11059073 0.02184087 0.35800001 4283130441
0.11175352 0.02184087 0.35800001 4283985750
0.11291629 0.02184087 0.35800001 4284710243
0.11407907 0.02184087 0.35800001 4285433968
0.065971084 0.02326108 0.36200002 4283787608
0.067146868 0.02326108 0.36200002 4283198033
0.068322644 0.02326108 0.36200002 4280699182
0.069498412 0.02326108 0.36200002 4280569393
0.070674196 0.02326108 0.36200002 4280570161
0.071651496 0.023196824 0.36100003 4280373549
0.072824016 0.023196824 0.36100003 4280111147
0.073791571 0.023132564 0.36000001 4279979561
0.074752629 0.023068309 0.35900003 4279913768
0.07570719 0.023004051 0.35800001 4279913768
0.076869972 0.023004051 0.35800001 4279716389
0.078032754 0.023004051 0.35800001 4279452193
0.079195544 0.023004051 0.35800001 4279386400
0.080358319 0.023004051 0.35800001 4279189021
0.081521109 0.023004051 0.35800001 4279254814
0.082683891 0.023004051 0.35800001 4279056924
0.083846673 0.023004051 0.35800001 4279779109
0.085009463 0.023004051 0.35800001 4279778596
0.086172245 0.023004051 0.35800001 4279844389
0.087335028 0.023004051 0.35800001 4279779109
0.08874502 0.023068309 0.35900003 4279975975
0.089911051 0.023068309 0.35900003 4280369452
0.091330774 0.023132564 0.36000001 4280171303
0.092500061 0.023132564 0.36000001 4280434475
0.09366934 0.023132564 0.36000001 4281289784
0.094838627 0.023132564 0.36000001 4281618487
0.096274599 0.023196824 0.36100003 4283000140
0.097447127 0.023196824 0.36100003 4284250207
0.098346457 0.023132564 0.36000001 4284249953
0.099515744 0.023132564 0.36000001 4284381539
0.10068502 0.023132564 0.36000001 4284710504
0.10157138 0.023068309 0.35900003 4284776299
0.10273741 0.023068309 0.35900003 4284973678
0.10390345 0.023068309 0.35900003 4284907372
0.10506947 0.023068309 0.35900003 4285236337
0.10593958 0.023004051 0.35800001 4284841577
0.10710236 0.023004051 0.35800001 4285038956
0.10826515 0.023004051 0.35800001 4285103979
0.10942794 0.023004051 0.35800001 4285169772
0.11059073 0.023004051 0.35800001 4285432431
0.11175352 0.023004051 0.35800001 4285366892
0.11291629 0.023004051 0.35800001 4285432685
0.11407907 0.023004051 0.35800001 4285629040
0.068322644 0.024437254 0.36200002 4283261775
0.069498412 0.024437254 0.36200002 4282605382
0.070674196 0.024437254 0.36200002 4281751357
0.071849972 0.024437254 0.36200002 4281093938
0.072824016 0.024369748 0.36100003 4279844641
0.073996551 0.024369748 0.36100003 4279714852
0.08058279 0.024234736 0.35900003 4279121697
0.081521109 0.024167228 0.35800001 4279647273
0.086172245 0.024167228 0.35800001 4279974704
0.087335028 0.024167228 0.35800001 4280237363
0.08874502 0.024234736 0.35900003 4280434742
0.089911051 0.024234736 0.35900003 4281091126
0.091330774 0.024302242 0.36000001 4283788891
0.092500061 0.024302242 0.36000001 4284117086
0.09366934 0.024302242 0.36000001 4284182879
0.095102072 0.024369748 0.36100003 4284511844
0.096274599 0.024369748 0.36100003 4284511842
0.097447127 0.024369748 0.36100003 4284709221
0.098619647 0.024369748 0.36100003 4284709221
0.099792175 0.024369748 0.36100003 4284840809
0.10096471 0.024369748 0.36100003 4284972395
0.10213724 0.024369748 0.36100003 4284906602
0.10330977 0.024369748 0.36100003 4284972395
0.1044823 0.024369748 0.36100003 4285103981
0.10565482 0.024369748 0.36100003 4285301358
0.10682735 0.024369748 0.36100003 4285169259
0.10799988 0.024369748 0.36100003 4285432431
0.10917241 0.024369748 0.36100003 4285432431
0.11034494 0.024369748 0.36100003 4285498224
0.11151747 0.024369748 0.36100003 4285432431
0.11269 0.024369748 0.36100003 4285498224
0.11386252 0.024369748 0.36100003 4285564017
0.11503505 0.024369748 0.36100003 4285695603
0.070869423 0.025684183 0.36300001 4283261262
0.072048448 0.025684183 0.36300001 4282867017
0.075499564 0.013017309 0.35736796 4294967295
0.075499564 0.013017309 0.35736796 4294901760
0.075643845 0.012545627 0.35728613 4294901760
0.075788133 0.012073944 0.35720429 4294901760
0.075932413 0.011602261 0.35712245 4294901760
0.076076694 0.011130579 0.35704058 4294901760
0.076220982 0.010658897 0.35695875 4294901760
0.076365262 0.010187214 0.35687691 4294901760
0.076509543 0.009715531 0.35679507 4294901760
0.076653831 0.0092438497 0.35671324 4294901760
0.076798111 0.0087721664 0.3566314 4294901760
0.076942392 0.0083004842 0.35654956 4294901760
0.07708668 0.0078288019 0.35646769 4294901760
0.07723096 0.0073571191 0.35638586 4294901760
0.077375241 0.0068854368 0.35630402 4294901760
0.077519529 0.0064137541 0.35622218 4294901760
0.077663809 0.0059420713 0.35614035 4294901760
0.07780809 0.0054703895 0.35605851 4294901760
0.077952377 0.0049987072 0.35597664 4294901760
0.078096658 0.004527024 0.3558948 4294901760
0.078240938 0.0040553417 0.35581297 4294901760
0.078385226 0.0035836594 0.35573113 4294901760
0.078529507 0.0031119771 0.35564929 4294901760
0.078673787 0.0026402948 0.35556746 4294901760
0.078818075 0.0021686116 0.35548562 4294901760
0.078962356 0.0016969293 0.35540375 4294901760
0.079106644 0.001225247 0.35532191 4294901760
0.079250924 0.00075356476 0.35524008 4294901760
0.079395205 0.00028188154 0.35515824 4294901760
0.079539493 -0.00018980075 0.3550764 4294901760
0.079683773 -0.0006614821 0.35499457 4294901760
0.079828054 -0.0011331663 0.3549127 4294901760
0.079972342 -0.0016048476 0.35483086 4294901760
0.080116622 -0.0020765299 0.35474902 4294901760
0.080260903 -0.0025482131 0.35466719 4294901760
0.080405191 -0.0030198945 0.35458535 4294901760
0.080549471 -0.0034915777 0.35450351 4294901760
0.080693752 -0.0039632609 0.35442168 4294901760
0.08083804 -0.0044349423 0.35433981 4294901760
0.08098232 -0.0049066255 0.35425797 4294901760
0.081126601 -0.0053783068 0.35417613 4294901760
0.081270888 -0.0058499901 0.3540943 4294901760
0.081415169 -0.0063216733 0.35401246 4294901760
0.081559449 -0.0067933546 0.35393062 4294901760
0.081703737 -0.0072650379 0.35384879 4294901760
0.081848018 -0.0077367192 0.35376692 4294901760
0.081992298 -0.0082084024 0.35368508 4294901760
0.082136586 -0.0086800857 0.35360324 4294901760
0.082280867 -0.009151767 0.35352141 4294901760
0.082425147 -0.0096234502 0.35343957 4294901760
0.082569435 -0.010095133 0.35335773 4294901760
0.082713716 -0.010566815 0.3532759 4294901760
0.082857996 -0.011038496 0.35319403 4294901760
0.083002284 -0.011510179 0.35311219 4294901760
0.083146565 -0.011981861 0.35303035 4294901760
0.083290845 -0.012453546 0.35294852 4294901760
0.083435133 -0.012925227 0.35286668 4294901760
0.083579414 -0.01339691 0.35278484 4294901760
0.083723694 -0.013868592 0.35270298 4294901760
0.083867982 -0.014340273 0.35262114 4294901760
0.084012263 -0.014811956 0.3525393 4294901760
0.084156543 -0.015283641 0.35245746 4294901760
0.084300831 -0.015755322 0.35237563 4294901760
0.084445111 -0.016227003 0.35229379 4294901760
0.084589392 -0.016698688 0.35221195 4294901760
0.08473368 -0.01717037 0.35213009 4294901760
0.08487796 -0.017642051 0.35204825 4294901760
0.085022241 -0.018113736 0.35196641 4294901760
0.085166529 -0.018585417 0.35188457 4294901760
0.085310809 -0.019057099 0.35180274 4294901760
0.08545509 -0.019528784 0.3517209 4294901760
0.085599378 -0.020000465 0.35163903 4294901760
0.085743658 -0.020472147 0.3515572 4294901760
0.085887939 -0.020943832 0.35147536 4294901760
0.086032227 -0.021415513 0.35139352 4294901760
0.086176507 -0.021887194 0.35131168 4294901760
0.086320788 -0.022358876 0.35122985 4294901760
0.086465076 -0.022830561 0.35114801 4294901760
0.086609356 -0.023302242 0.35106614 4294901760
0.086753637 -0.023773924 0.35098431 4294901760
0.086897925 -0.024245609 0.35090247 4294901760
0.087042205 -0.02471729 0.35082063 4294901760
0.087186486 -0.025188971 0.35073879 4294901760
0.087330773 -0.025660656 0.35065696 4294901760
0.087475054 -0.026132338 0.35057512 4294901760
0.087619334 -0.026604019 0.35049325 4294901760
0.087763622 -0.027075704 0.35041142 4294901760
0.087907903 -0.027547386 0.35032958 4294901760
0.088052191 -0.028019067 0.35024774 4294901760
0.088196471 -0.028490748 0.3501659 4294901760
0.088340752 -0.028962433 0.35008407 4294901760
0.088485032 -0.029434115 0.35000223 4294901760
0.08862932 -0.0299058 0.34992036 4294901760
0.088773601 -0.030377481 0.34983853 4294901760
0.088917889 -0.030849162 0.34975669 4294901760
0.089062169 -0.031320844 0.34967485 4294901760
0.08920645 -0.031792525 0.34959301 4294901760
0.089350738 -0.03226421 0.34951118 4294901760
0.089495018 -0.032735892 0.34942931 4294901760
0.089639299 -0.033207577 0.34934747 4294901760
0.089783587 -0.033679258 0.34926564 4294901760
0.089927867 -0.034150939 0.3491838 4294901760
0.075499564 0.013017309 0.35736796 4278255360
0.075978272 0.013160303 0.35738778 4278255360
0.076456979 0.013303298 0.35740757 4278255360
0.076935686 0.013446292 0.35742739 4278255360
0.077414393 0.013589287 0.35744721 4278255360
0.077893101 0.013732282 0.35746703 4278255360
0.078371808 0.013875276 0.35748681 4278255360
0.078850515 0.01401827 0.35750663 4278255360
0.079329222 0.014161265 0.35752645 4278255360
0.079807922 0.014304259 0.35754624 4278255360
0.080286629 0.014447253 0.35756606 4278255360
0.080765337 0.014590248 0.35758588 4278255360
0.081244044 0.014733243 0.3576057 4278255360
0.081722751 0.014876237 0.35762548 4278255360
0.082201459 0.015019231 0.3576453 4278255360
0.082680166 0.015162226 0.35766512 4278255360
0.083158873 0.01530522 0.35768494 4278255360
0.08363758 0.015448214 0.35770473 4278255360
0.084116288 0.01559121 0.35772455 4278255360
0.084594995 0.015734203 0.35774437 4278255360
0.085073702 0.015877198 0.35776415 4278255360
0.085552409 0.016020194 0.35778397 4278255360
0.086031117 0.016163187 0.35780379 4278255360
0.086509824 0.016306182 0.35782361 4278255360
0.086988524 0.016449176 0.3578434 4278255360
0.087467238 0.016592171 0.35786322 4278255360
0.087945938 0.016735164 0.35788304 4278255360
0.088424653 0.01687816 0.35790282 4278255360
0.088903353 0.017021153 0.35792264 4278255360
0.08938206 0.017164148 0.35794246 4278255360
0.089860767 0.017307144 0.35796228 4278255360
0.090339474 0.017450137 0.35798207 4278255360
0.090818182 0.017593132 0.35800189 4278255360
0.091296889 0.017736126 0.35802171 4278255360
0.091775596 0.017879121 0.3580415 4278255360
0.092254303 0.018022116 0.35806131 4278255360
0.092733011 0.01816511 0.35808113 4278255360
0.093211718 0.018308105 0.35810095 4278255360
0.093690425 0.018451098 0.35812074 4278255360
0.094169125 0.018594094 0.35814056 4278255360
0.09464784 0.018737089 0.35816038 4278255360
0.095126539 0.018880082 0.3581802 4278255360
0.095605254 0.019023076 0.35819998 4278255360
0.096083954 0.019166071 0.3582198 4278255360
0.096562661 0.019309066 0.35823962 4278255360
0.097041368 0.01945206 0.35825941 4278255360
0.097520076 0.019595055 0.35827923 4278255360
0.097998783 0.019738048 0.35829905 4278255360
0.09847749 0.019881044 0.35831887 4278255360
0.098956198 0.020024039 0.35833865 4278255360
0.099434905 0.020167032 0.35835847 4278255360
0.099913612 0.020310028 0.35837829 4278255360
0.10039232 0.020453021 0.35839808 4278255360
0.10087103 0.020596016 0.3584179 4278255360
0.10134973 0.020739011 0.35843772 4278255360
0.10182844 0.020882005 0.35845754 4278255360
0.10230715 0.021024998 0.35847732 4278255360
0.10278586 0.021167994 0.35849714 4278255360
0.10326456 0.021310989 0.35851696 4278255360
0.10374326 0.021453982 0.35853675 4278255360
0.10422197 0.021596977 0.35855657 4278255360
0.10470068 0.021739971 0.35857639 4278255360
0.10517938 0.021882966 0.35859621 4278255360
0.10565809 0.022025961 0.35861599 4278255360
0.1061368 0.022168955 0.35863581 4278255360
0.10661551 0.022311948 0.35865563 4278255360
0.10709421 0.022454944 0.35867545 4278255360
0.10757292 0.022597939 0.35869524 4278255360
0.10805163 0.022740934 0.35871506 4278255360
0.10853034 0.022883927 0.35873488 4278255360
0.10900904 0.023026921 0.35875466 4278255360
0.10948774 0.023169916 0.35877448 4278255360
0.10996646 0.023312911 0.3587943 4278255360
0.11044516 0.023455907 0.35881412 4278255360
0.11092387 0.0235989 0.35883391 4278255360
0.11140257 0.023741893 0.35885373 4278255360
0.11188129 0.023884889 0.35887355 4278255360
0.11235999 0.024027884 0.35889333 4278255360
0.11283869 0.024170877 0.35891315 4278255360
0.1133174 0.024313873 0.35893297 4278255360
0.11379611 0.024456866 0.35895279 4278255360
0.11427481 0.024599861 0.35897258 4278255360
0.11475352 0.024742857 0.3589924 4278255360
0.11523223 0.02488585 0.35901222 4278255360
0.11571094 0.025028843 0.35903201 4278255360
0.11618964 0.025171839 0.35905182 4278255360
0.11666835 0.025314834 0.35907164 4278255360
0.11714706 0.025457829 0.35909146 4278255360
0.11762576 0.025600823 0.35911125 4278255360
0.11810447 0.025743816 0.35913107 4278255360
0.11858317 0.025886811 0.35915089 4278255360
0.11906189 0.026029807 0.35917071 4278255360
0.11954059 0.026172802 0.35919049 4278255360
0.1200193 0.026315795 0.35921031 4278255360
0.120498 0.026458789 0.35923013 4278255360
0.12097671 0.026601784 0.35924992 4278255360
0.12145542 0.026744779 0.35926974 4278255360
0.12193413 0.026887774 0.35928956 4278255360
0.12241283 0.027030768 0.35930938 4278255360
0.12289154 0.027173761 0.35932916 4278255360
0.12337025 0.027316757 0.35934898 4278255360
0.075499564 0.013017309 0.35736796 4278190335
0.075488508 0.012928571 0.35785991 4278190335
0.075477451 0.012839832 0.35835183 4278190335
0.075466394 0.012751094 0.35884377 4278190335
0.075455338 0.012662355 0.35933572 4278190335
0.075444281 0.012573617 0.35982767 4278190335
0.075433224 0.012484878 0.36031958 4278190335
0.075422168 0.01239614 0.36081153 4278190335
0.075411111 0.012307402 0.36130348 4278190335
0.075400054 0.012218663 0.3617954 4278190335
0.075388998 0.012129925 0.36228734 4278190335
0.075377941 0.012041186 0.36277929 4278190335
0.075366884 0.011952448 0.36327124 4278190335
0.075355828 0.011863709 0.36376315 4278190335
0.075344771 0.011774971 0.3642551 4278190335
0.075333714 0.011686233 0.36474705 4278190335
0.075322658 0.011597495 0.36523896 4278190335
0.075311601 0.011508756 0.36573091 4278190335
0.075300545 0.011420017 0.36622286 4278190335
0.075289488 0.011331279 0.36671478 4278190335
0.075278431 0.011242541 0.36720672 4278190335
0.075267375 0.011153802 0.36769867 4278190335
0.075256318 0.011065064 0.36819062 4278190335
0.075245261 0.010976326 0.36868253 4278190335
0.075234205 0.010887587 0.36917448 4278190335
0.075223148 0.010798849 0.36966643 4278190335
0.075212091 0.010710111 0.37015834 4278190335
0.075201035 0.010621372 0.37065029 4278190335
0.075189978 0.010532633 0.37114224 4278190335
0.075178921 0.010443895 0.37163419 4278190335
0.075167865 0.010355157 0.3721261 4278190335
0.075156808 0.010266419 0.37261805 4278190335
0.075145751 0.010177679 0.37311 4278190335
0.075134695 0.010088941 0.37360191 4278190335
0.075123638 0.010000203 0.37409386 4278190335
0.075112581 0.0099114645 0.37458581 4278190335
0.075101525 0.0098227262 0.37507775 4278190335
0.075090468 0.009733988 0.37556967 4278190335
0.075079411 0.0096452497 0.37606162 4278190335
0.075068355 0.0095565114 0.37655357 4278190335
0.075057298 0.0094677722 0.37704548 4278190335
0.075046241 0.0093790339 0.37753743 4278190335
0.075035185 0.0092902957 0.37802938 4278190335
0.075024128 0.0092015574 0.37852132 4278190335
0.075013071 0.0091128191 0.37901324 4278190335
0.075002015 0.0090240808 0.37950519 4278190335
0.074990958 0.0089353416 0.37999713 4278190335
0.074979901 0.0088466033 0.38048905 4278190335
0.074968845 0.0087578651 0.380981 4278190335
0.074957788 0.0086691268 0.38147295 4278190335
0.074946731 0.0085803885 0.38196486 4278190335
0.074935667 0.0084916502 0.38245681 4278190335
0.074924611 0.0084029119 0.38294876 4278190335
0.074913554 0.0083141737 0.3834407 4278190335
0.074902497 0.0082254345 0.38393262 4278190335
0.074891441 0.0081366962 0.38442457 4278190335
0.074880384 0.0080479579 0.38491651 4278190335
0.074869327 0.0079592196 0.38540843 4278190335
0.074858271 0.0078704813 0.38590038 4278190335
0.074847214 0.0077817431 0.38639233 4278190335
0.074836157 0.0076930043 0.38688427 4278190335
0.074825101 0.0076042661 0.38737619 4278190335
0.074814044 0.0075155278 0.38786814 4278190335
0.074802987 0.007426789 0.38836008 4278190335
0.074791931 0.0073380508 0.388852 4278190335
0.074780874 0.0072493125 0.38934395 4278190335
0.074769817 0.0071605737 0.38983589 4278190335
0.074758761 0.0070718355 0.39032784 4278190335
0.074747704 0.0069830972 0.39081976 4278190335
0.074736647 0.0068943589 0.39131171 4278190335
0.074725591 0.0068056206 0.39180365 4278190335
0.074714534 0.0067168823 0.39229557 4278190335
0.074703477 0.0066281431 0.39278752 4278190335
0.074692421 0.0065394049 0.39327946 4278190335
0.074681364 0.0064506666 0.39377141 4278190335
0.074670307 0.0063619283 0.39426333 4278190335
0.074659251 0.00627319 0.39475527 4278190335
0.074648194 0.0061844517 0.39524722 4278190335
0.074637137 0.0060957135 0.39573914 4278190335
0.074626081 0.0060069743 0.39623109 4278190335
0.074615024 0.005918236 0.39672303 4278190335
0.074603967 0.0058294977 0.39721495 4278190335
0.074592911 0.0057407594 0.3977069 4278190335
0.074581854 0.0056520212 0.39819884 4278190335
0.074570797 0.0055632829 0.39869079 4278190335
0.074559741 0.0054745441 0.39918271 4278190335
0.074548684 0.0053858059 0.39967465 4278190335
0.074537627 0.0052970676 0.4001666 4278190335
0.074526571 0.0052083288 0.40065855 4278190335
0.074515514 0.005119591 0.40115047 4278190335
0.074504457 0.0050308527 0.40164241 4278190335
0.074493401 0.0049421135 0.40213436 4278190335
0.074482344 0.0048533753 0.40262628 4278190335
0.074471287 0.004764637 0.40311822 4278190335
0.074460231 0.0046758987 0.40361017 4278190335
0.074449174 0.0045871604 0.40410209 4278190335
0.074438117 0.0044984221 0.40459403 4278190335
0.074427061 0.0044096829 0.40508598 4278190335
0.074416004 0.0043209447 0.40557793 4278190335
0.074404947 0.0042322064 0.40606984 4278190335
0.074393891 0.0041434681 0.40656179 4278190335
0.075499564 0.013017309 0.35736796 4294967295
0.075565904 0.013549739 0.35441634 4294967295
0.075632244 0.01408217 0.35146469 4294967295
0.075698584 0.014614601 0.34851307 4294967295
0.075764924 0.01514703 0.34556144 4294967295
0.075831264 0.015679462 0.34260982 4294967295
0.075897604 0.016211892 0.33965817 4294967295
