# .PCD v0.7 - Point Cloud Data file format
VERSION 0.7
FIELDS x y z rgb
SIZE 4 4 4 4
TYPE F F F U
COUNT 1 1 1 1
WIDTH 674
HEIGHT 1
VIEWPOINT 0 0 0 1 0 0 0
POINTS 674
DATA ascii
-0.020694694 0.043292593 0.58500004 4279059488
-0.018762486 0.04321859 0.58400005 4278993949
-0.016721256 0.042848568 0.57900006 4278994461
-0.014789398 0.042700555 0.57700002 4278731802
-0.01284815 0.042478543 0.574 4278863390
-0.010945526 0.042330533 0.57200003 4279060769
-0.0089923441 0.041886508 0.56600004 4279060515
-0.007128696 0.041738499 0.56400001 4278863136
-0.0052874316 0.041664492 0.56300002 4278862623
-0.0034526633 0.041590489 0.56200004 4278467353
-0.020588567 0.044961553 0.58200002 4279059488
-0.018633975 0.04480705 0.58000004 4279059488
-0.016663495 0.044575289 0.57700002 4278796830
-0.014712502 0.044343524 0.574 4278796830
-0.012803384 0.044189021 0.57200003 4278928670
-0.010907256 0.044034515 0.57000005 4278862877
-0.0089923441 0.043725502 0.56600004 4278862877
-0.007128696 0.043570992 0.56400001 4279455014
-0.0052874316 0.043493737 0.56300002 4278201611
-0.0034526633 0.043416485 0.56200004 4279123998
-0.0016243907 0.043339234 0.56100005 4279059488
0.00019738587 0.043261975 0.56 4278862623
-0.022440281 0.046772029 0.58100003 4280238379
-0.020482441 0.046611026 0.57900006 4278993949
-0.018537592 0.046450019 0.57700002 4278928156
-0.016605737 0.046289016 0.57500005 4278862623
-0.01466124 0.046047505 0.57200003 4278796830
-0.012758617 0.045886502 0.57000005 4278862877
-0.010868984 0.045725495 0.56800002 4278862877
-0.0089764558 0.045483984 0.565 4278731289
-0.007128696 0.045403484 0.56400001 4278928154
-0.0052874316 0.045322981 0.56300002 4278530062
-0.0034526633 0.045242481 0.56200004 4279452193
-0.0016243907 0.045161977 0.56100005 4278927902
0.00019738587 0.045081474 0.56 4279256867
0.0020126663 0.04500097 0.55900002 4278797084
0.0038282992 0.04500097 0.55900002 4278862877
-0.022363035 0.048492257 0.57900006 4279975975
-0.020411689 0.048324749 0.57700002 4278993949
-0.018505465 0.048241001 0.57600003 4279125535
-0.016547976 0.047989741 0.57300001 4278928156
-0.014635609 0.047822241 0.57100004 4278796570
-0.012736233 0.047654737 0.56900001 4278862363
-0.010849848 0.047487233 0.56700003 4278731291
-0.0089764558 0.047319729 0.565 4278928668
-0.007128696 0.047235977 0.56400001 4278795798
-0.0052874316 0.047152225 0.56300002 4278196992
-0.0034526633 0.047068477 0.56200004 4279056922
-0.0016243907 0.046984725 0.56100005 4278198533
0.00019738587 0.046900969 0.56 4278591755
0.0020126663 0.046817217 0.55900002 4278262792
0.0038214508 0.046733469 0.55800003 4278196742
0.0056338357 0.046733469 0.55800003 4278198023
0.0074328766 0.046649717 0.55700004 4278725392
0.010932107 0.046147205 0.551 4279649059
0.012721756 0.046147205 0.551 4279058459
0.014511405 0.046147205 0.551 4278992666
0.016301055 0.046147205 0.551 4279124763
-0.022324409 0.050286483 0.57800001 4279976490
-0.020411689 0.050199483 0.57700002 4278862623
-0.018473336 0.050025482 0.57500005 4278796830
-0.016547976 0.049851477 0.57300001 4278797084
-0.014635609 0.04967748 0.57100004 4278731291
-0.012736233 0.049503475 0.56900001 4278731291
-0.010849848 0.049329475 0.56700003 4278797084
-0.0089764558 0.04915547 0.565 4278928668
-0.007128696 0.04906847 0.56400001 4279190554
-0.0052874316 0.048981469 0.56300002 4278198534
-0.0034526633 0.048894472 0.56200004 4279320094
-0.0016243907 0.048807472 0.56100005 4278394378
0.00019738587 0.048720468 0.56 4279115535
0.0020162668 0.048720468 0.56 4278720779
0.0038282992 0.048633467 0.55900002 4278720779
0.0056338357 0.048546467 0.55800003 4278655502
0.0074328766 0.048459467 0.55700004 4278655502
0.0092254207 0.048372466 0.55600005 4278852111
0.010971788 0.048111461 0.55300003 4278524429
0.012767934 0.048111461 0.55300003 4278195968
0.014564078 0.048111461 0.55300003 4278595601
0.016360223 0.048111461 0.55300003 4278197760
0.018189201 0.048198462 0.55400002 4278196992
0.019952513 0.048111461 0.55300003 4278200330
0.021748658 0.048111461 0.55300003 4278398994
0.023502227 0.048024464 0.55200005 4279056922
0.025249299 0.047937457 0.551 4279584033
0.026989875 0.04785046 0.55000001 4279124765
0.028671635 0.047676459 0.54800004 4279256351
0.030395973 0.047589459 0.54700005 4278928154
0.032113813 0.047502454 0.546 4278862361
0.033887222 0.047502454 0.546 4278666009
0.035595316 0.047415454 0.54500002 4278731802
0.037365481 0.047415454 0.54500002 4278731802
0.039135639 0.047415454 0.54500002 4278863388
0.0409058 0.047415454 0.54500002 4279192353
0.042675961 0.047415454 0.54500002 4279060767
0.044527672 0.047502454 0.546 4279389734
0.046301086 0.047502454 0.546 4279718445
0.048074491 0.047502454 0.546 4279652654
-0.022324409 0.052164465 0.57800001 4279779109
-0.020376313 0.051983967 0.57600003 4278927902
-0.018473336 0.051893719 0.57500005 4278862623
-0.016547976 0.051713217 0.57300001 4278797084
-0.014635609 0.051532719 0.57100004 4278731291
-0.012736233 0.051352218 0.56900001 4278797084
-0.010849848 0.05117172 0.56700003 4278797084
-0.0089923441 0.051081471 0.56600004 4278731291
-0.007128696 0.050900966 0.56400001 4279520293
-0.0052874316 0.050810717 0.56300002 4278331917
-0.0034526633 0.050720468 0.56200004 4279649059
-0.0016243907 0.050630223 0.56100005 4278394378
0.00019773837 0.050630223 0.56100005 4279774748
0.0020162668 0.050539967 0.56 4278787853
0.0038282992 0.050449718 0.55900002 4279840543
0.0056338357 0.050359469 0.55800003 4279314199
0.0074462211 0.050359469 0.55800003 4279577371
0.0092420131 0.05026922 0.55700004 4279708957
0.011011469 0.050088719 0.55500001 4279642651
0.012791022 0.04999847 0.55400002 4278196228
0.014590414 0.04999847 0.55400002 4279450910
0.016389808 0.04999847 0.55400002 4279320348
0.018189201 0.04999847 0.55400002 4279977508
0.019988593 0.04999847 0.55400002 4279582496
0.021748658 0.049908221 0.55300003 4279845668
0.023502227 0.049817972 0.55200005 4279845668
0.025249299 0.049727716 0.551 4279056152
0.026989875 0.049637467 0.55000001 4278727187
0.028723955 0.049547222 0.54900002 4278266122
0.03045154 0.049456973 0.54800004 4278196224
0.032172631 0.049366724 0.54700005 4278198531
0.033949289 0.049366724 0.54700005 4278200585
0.035660628 0.049276467 0.546 4278727957
0.037434038 0.049276467 0.546 4278991642
0.039207447 0.049276467 0.546 4279452963
0.040980853 0.049276467 0.546 4279058972
0.042754266 0.049276467 0.546 4278664982
0.044527672 0.049276467 0.546 4278797082
0.046385888 0.049366724 0.54700005 4278731289
0.048162542 0.049366724 0.54700005 4278666781
0.050030496 0.049456973 0.54800004 4278666781
0.051810402 0.049456973 0.54800004 4279193125
0.053590305 0.049456973 0.54800004 4279126310
-0.022363035 0.054135952 0.57900006 4279910949
-0.020411689 0.05394895 0.57700002 4279059488
-0.018473336 0.053761955 0.57500005 4278796830
-0.016547976 0.053574953 0.57300001 4278796830
-0.014635609 0.053387959 0.57100004 4278665244
-0.012758617 0.053294457 0.57000005 4278797084
-0.010868984 0.053107459 0.56800002 4278797084
-0.0089923441 0.052920461 0.56600004 4278928156
-0.0071413354 0.05282696 0.565 4278199809
-0.0052968231 0.052733462 0.56400001 4278197504
-0.0034588068 0.052639961 0.56300002 4279451680
-0.0016272862 0.052546464 0.56200004 4278656267
0.00019773837 0.052452967 0.56100005 4278787855
0.0020162668 0.052359466 0.56 4278985234
0.0038282992 0.052265964 0.55900002 4278985234
0.0056439321 0.052265964 0.55900002 4279182100
0.0074462211 0.052172467 0.55800003 4279049744
0.0092420131 0.05207897 0.55700004 4280630827
0.01103131 0.051985472 0.55600005 4278328072
0.012837199 0.051985472 0.55600005 4279250201
0.014616751 0.051891968 0.55500001 4279779875
0.016419392 0.051891968 0.55500001 4278198537
0.018222034 0.051891968 0.55500001 4278263306
0.019988593 0.05179847 0.55400002 4279318558
0.021787986 0.05179847 0.55400002 4278464017
0.023544803 0.051704973 0.55300003 4278266890
0.025295125 0.051611476 0.55200005 4278465037
0.027038947 0.051517971 0.551 4278199811
0.028776275 0.051424474 0.55000001 4279254555
0.030507108 0.051330976 0.54900002 4279123482
0.032231446 0.051237479 0.54800004 4279123482
0.034011353 0.051237479 0.54800004 4279255068
0.035725944 0.051143982 0.54700005 4279452447
0.037502602 0.051143982 0.54700005 4279584033
0.03927926 0.051143982 0.54700005 4278859543
0.041055914 0.051143982 0.54700005 4278727959
0.042832572 0.051143982 0.54700005 4278200074
0.04469078 0.051237479 0.54800004 4278597654
0.046470687 0.051237479 0.54800004 4278862361
0.04825059 0.051237479 0.54800004 4278600216
0.050030496 0.051237479 0.54800004 4278600216
0.051810402 0.051237479 0.54800004 4278731802
0.053590305 0.051237479 0.54800004 4278994209
0.055471253 0.051330976 0.54900002 4278530843
-0.024327371 0.056210674 0.58100003 4278854668
-0.022401659 0.056113929 0.58000004 4279648289
-0.020447064 0.05592043 0.57800001 4278993949
-0.018505465 0.055726934 0.57600003 4278796830
-0.016605737 0.055630188 0.57500005 4278665244
-0.014686871 0.055436686 0.57300001 4278731037
-0.012781001 0.055243194 0.57100004 4278731037
-0.010888119 0.055049695 0.56900001 4278731291
-0.0090082316 0.0548562 0.56700003 4278665498
-0.0071413354 0.054662701 0.565 4278268689
-0.0052968231 0.054565955 0.56400001 4279516703
-0.0034588068 0.054469205 0.56300002 4279123228
-0.0016272862 0.05437246 0.56200004 4278196999
0.00019773837 0.054275714 0.56100005 4278458890
0.0020162668 0.054178961 0.56 4278983697
0.0038282992 0.054082215 0.55900002 4278852111
0.0056439321 0.054082215 0.55900002 4278983183
0.0074462211 0.053985465 0.55800003 4278983183
0.0092586055 0.053985465 0.55800003 4278524170
0.011051151 0.05388872 0.55700004 4278524170
0.012837199 0.053791974 0.55600005 4279317529
0.014643088 0.053791974 0.55600005 4279056154
0.016419392 0.053695221 0.55500001 4278657550
0.018222034 0.053695221 0.55500001 4278722832
0.020024672 0.053695221 0.55500001 4279843106
0.021787986 0.053598475 0.55400002 4279253019
0.023544803 0.053501725 0.55300003 4278199046
0.025295125 0.053404979 0.55200005 4278398222
0.027038947 0.053308226 0.551 4279451934
0.028828595 0.053308226 0.551 4278859797
0.030562676 0.05321148 0.55000001 4279056406
0.032290261 0.053114735 0.54900002 4279122199
0.034073416 0.053114735 0.54900002 4278860056
0.035856567 0.053114735 0.54900002 4278267919
0.037639722 0.053114735 0.54900002 4278860826
0.039422873 0.053114735 0.54900002 4279255584
0.041206025 0.053114735 0.54900002 4278992666
0.042989179 0.053114735 0.54900002 4279716389
0.044772331 0.053114735 0.54900002 4278200588
0.046555486 0.053114735 0.54900002 4279058459
0.048338637 0.053114735 0.54900002 4278665498
0.050121788 0.053114735 0.54900002 4278533912
0.051904947 0.053114735 0.54900002 4278731291
0.053688098 0.053114735 0.54900002 4278796570
0.055471253 0.053114735 0.54900002 4279123746
0.057254404 0.053114735 0.54900002 4285898122
-0.020517817 0.057998408 0.58000004 4278928156
-0.018601848 0.05789841 0.57900006 4278862109
-0.016663495 0.057698414 0.57700002 4278731037
-0.014738135 0.057498422 0.57500005 4278731037
-0.012803384 0.057198428 0.57200003 4278731037
-0.010907256 0.056998435 0.57000005 4278665244
-0.009024119 0.056798436 0.56800002 4278665244
-0.0071539758 0.056598444 0.56600004 4278598169
-0.0052968231 0.056398448 0.56400001 4278531091
-0.0034588068 0.05629845 0.56300002 4279189021
-0.0016272862 0.056198455 0.56200004 4279452193
0.00019773837 0.056098457 0.56100005 4279320609
0.0020162668 0.055998456 0.56 4279451428
0.0038351475 0.055998456 0.56 4280108074
0.0056439321 0.055898461 0.55900002 4279843621
0.0074462211 0.055798467 0.55800003 4278987029
0.0092586055 0.055798467 0.55800003 4278789136
0.011051151 0.055698469 0.55700004 4278195972
0.012860288 0.055698469 0.55700004 4279975975
0.014643088 0.055598475 0.55600005 4278661396
0.016448978 0.055598475 0.55600005 4279579936
0.018222034 0.055498473 0.55500001 4279513373
0.020024672 0.055498473 0.55500001 4279515676
0.021787986 0.055398475 0.55400002 4279253017
0.023544803 0.055298481 0.55300003 4279582498
0.025340948 0.055298481 0.55300003 4278661396
0.027088022 0.055198483 0.55200005 4278199301
0.028828595 0.055098481 0.551 4279450910
0.030618245 0.055098481 0.551 4278266636
0.032349076 0.054998487 0.55000001 4278199303
0.034135479 0.054998487 0.55000001 4278198018
0.035921879 0.054998487 0.55000001 4279647777
0.037708282 0.054998487 0.55000001 4278397197
0.039494682 0.054998487 0.55000001 4279647523
0.041281082 0.054998487 0.55000001 4279123482
0.043067485 0.054998487 0.55000001 4279584033
0.044853885 0.054998487 0.55000001 4278990359
0.046640288 0.054998487 0.55000001 4278861080
0.048426684 0.054998487 0.55000001 4278796830
0.050213084 0.054998487 0.55000001 4278731037
0.051999487 0.054998487 0.55000001 4278993695
0.053785887 0.054998487 0.55000001 4278927132
0.05557229 0.054998487 0.55000001 4279320355
0.05735869 0.054998487 0.55000001 4285569411
-0.014815029 0.05967639 0.57800001 4279846186
-0.012870535 0.059366655 0.57500005 4279584810
-0.010964662 0.059160158 0.57300001 4279255845
-0.0090558939 0.058850423 0.57000005 4279255845
-0.0071792542 0.058643926 0.56800002 4279519271
-0.0053062146 0.058334187 0.565 4278992925
-0.0034649502 0.05823094 0.56400001 4279058718
-0.0016272862 0.058024451 0.56200004 4279058718
0.00019773837 0.057921205 0.56100005 4279058718
0.0020162668 0.057817955 0.56 4279124511
0.0038351475 0.057817955 0.56 4279058718
0.0056439321 0.057714708 0.55900002 4278992925
0.0074462211 0.057611465 0.55800003 4278992925
0.0092586055 0.057611465 0.55800003 4279058207
0.011051151 0.057508219 0.55700004 4278992414
0.012860288 0.057508219 0.55700004 4279123230
0.014643088 0.057404973 0.55600005 4279583781
0.016448978 0.057404973 0.55600005 4280108842
0.018222034 0.057301722 0.55500001 4279779109
0.020024672 0.057301722 0.55500001 4278858007
0.021787986 0.057198476 0.55400002 4278331663
0.02358738 0.057198476 0.55400002 4278196480
0.025340948 0.057095233 0.55300003 4278197508
0.027088022 0.056991987 0.55200005 4278198792
0.028880918 0.056991987 0.55200005 4278792468
0.030673815 0.056991987 0.55200005 4279056154
0.032407895 0.056888737 0.551 4279450912
0.034197543 0.056888737 0.551 4279516705
0.035987191 0.056888737 0.551 4279779877
0.037776843 0.056888737 0.551 4279648291
0.039566487 0.056888737 0.551 4278661396
0.041356135 0.056888737 0.551 4279385887
0.043145787 0.056888737 0.551 4279517727
0.044935435 0.056888737 0.551 4278859543
0.046725087 0.056888737 0.551 4278992666
0.048514735 0.056888737 0.551 4278862363
0.050304379 0.056888737 0.551 4278928156
0.052094031 0.056888737 0.551 4279125535
0.053883679 0.056888737 0.551 4278992925
0.055673331 0.056888737 0.551 4279584299
0.05735869 0.05678549 0.55000001 4285634436
-0.016865652 0.062193345 0.58400005 4285302643
-0.014917555 0.061980352 0.58200002 4285566329
-0.012960069 0.061660871 0.57900006 4285171571
-0.011022069 0.061341383 0.57600003 4283724895
-0.0090876687 0.060915399 0.57200003 4280896827
-0.007204534 0.06070241 0.57000005 4279646760
-0.0053156065 0.060276426 0.56600004 4279186974
-0.0034649502 0.060063433 0.56400001 4279384867
-0.0016301817 0.059956938 0.56300002 4279715113
0.00019773837 0.059743952 0.56100005 4279649320
0.0020162668 0.05963745 0.56 4279780906
0.0038351475 0.05963745 0.56 4279255332
0.0056439321 0.059530959 0.55900002 4279321379
0.0074462211 0.059424464 0.55800003 4278663962
0.0092586055 0.059424464 0.55800003 4279124513
0.011051151 0.059317969 0.55700004 4279058720
0.012860288 0.059317969 0.55700004 4279058720
0.014643088 0.059211474 0.55600005 4278927134
0.016448978 0.059211474 0.55600005 4278992927
0.018222034 0.059104975 0.55500001 4279058718
0.020024672 0.059104975 0.55500001 4278992925
0.021787986 0.05899848 0.55400002 4279058718
0.02358738 0.05899848 0.55400002 4279123998
0.025340948 0.058891986 0.55300003 4278860826
0.027137095 0.058891986 0.55300003 4279058205
0.028880918 0.058785491 0.55200005 4279715365
0.030673815 0.058785491 0.55200005 4279188510
0.032466713 0.058785491 0.55200005 4279319326
0.03425961 0.058785491 0.55200005 4278398224
0.036052506 0.058785491 0.55200005 4278197504
0.037845407 0.058785491 0.55200005 4278196736
0.039638299 0.058785491 0.55200005 4278196480
0.041431196 0.058785491 0.55200005 4278529042
0.043224096 0.058785491 0.55200005 4278595089
0.045016989 0.058785491 0.55200005 4279056924
0.046809889 0.058785491 0.55200005 4279320607
0.048602786 0.058785491 0.55200005 4279190045
0.050395682 0.058785491 0.55200005 4279058972
0.052188579 0.058785491 0.55200005 4279059742
0.053981476 0.058785491 0.55200005 4278993695
0.055673331 0.058678992 0.551 4278859295
0.057462979 0.058678992 0.551 4286422671
-0.0053249979 0.062225163 0.56700003 4284907887
-0.0034710935 0.062005669 0.565 4285105266
-0.0016301817 0.061786182 0.56300002 4285302643
0.00019809084 0.061676439 0.56200004 4284776811
0.0020198673 0.061566696 0.56100005 4283198812
0.0038351475 0.061456949 0.56 4281553987
0.0056439321 0.061347205 0.55900002 4279844139
0.0074462211 0.061237462 0.55800003 4279515687
0.0092586055 0.061237462 0.55800003 4279254566
0.011051151 0.061127719 0.55700004 4279846449
0.012860288 0.061127719 0.55700004 4279715117
0.014643088 0.061017975 0.55600005 4279583529
0.016448978 0.061017975 0.55600005 4279518504
0.018222034 0.060908224 0.55500001 4279387431
0.020024672 0.060908224 0.55500001 4279124513
0.021787986 0.060798481 0.55400002 4279058720
0.02358738 0.060798481 0.55400002 4279058720
0.025340948 0.060688738 0.55300003 4278992927
0.027137095 0.060688738 0.55300003 4278927132
0.028933238 0.060688738 0.55300003 4279058718
0.030673815 0.060578994 0.55200005 4279058718
0.032466713 0.060578994 0.55200005 4278795546
0.03425961 0.060578994 0.55200005 4278992925
0.036052506 0.060578994 0.55200005 4279123998
0.037913963 0.060688738 0.55300003 4279254814
0.039710108 0.060688738 0.55300003 4279452193
0.041506253 0.060688738 0.55300003 4279450910
0.043302398 0.060688738 0.55300003 4279582496
0.045098543 0.060688738 0.55300003 4279254816
0.046894688 0.060688738 0.55300003 4279189791
0.048602786 0.060578994 0.55200005 4279124511
0.050395682 0.060578994 0.55200005 4279124511
0.052188579 0.060578994 0.55200005 4279059490
0.053981476 0.060578994 0.55200005 4278993697
0.055774376 0.060578994 0.55200005 4280963135
-0.017125569 0.067005239 0.59300005 4285761913
-0.0053343894 0.064180396 0.56800002 4284842094
-0.0034710935 0.06384141 0.565 4284775788
-0.0016301817 0.063615426 0.56300002 4284775786
0.00019809084 0.063502438 0.56200004 4284841579
0.0020198673 0.063389443 0.56100005 4284841581
0.0038351475 0.063276447 0.56 4284973167
0.0056439321 0.063163452 0.55900002 4285236339
0.0074595655 0.063163452 0.55900002 4285499511
0.0092586055 0.063050456 0.55800003 4285697403
0.011051151 0.062937468 0.55700004 4286092675
0.012860288 0.062937468 0.55700004 4285764993
0.014643088 0.062824473 0.55600005 4284119914
0.016448978 0.062824473 0.55600005 4282278995
0.018222034 0.062711477 0.55500001 4280239410
0.020024672 0.062711477 0.55500001 4279121445
0.021787986 0.062598482 0.55400002 4278924836
0.02358738 0.062598482 0.55400002 4278793763
0.025340948 0.062485494 0.55300003 4278991140
0.027137095 0.062485494 0.55300003 4279386148
0.028933238 0.062485494 0.55300003 4279649574
0.030729383 0.062485494 0.55300003 4279321379
0.032525528 0.062485494 0.55300003 4279255586
0.034321673 0.062485494 0.55300003 4279321379
0.036117818 0.062485494 0.55300003 4279321379
0.037913963 0.062485494 0.55300003 4279452711
0.039710108 0.062485494 0.55300003 4279584297
0.041506253 0.062485494 0.55300003 4279649574
0.043302398 0.062485494 0.55300003 4279583781
0.045098543 0.062485494 0.55300003 4279321379
0.046894688 0.062485494 0.55300003 4279124513
0.048690833 0.062485494 0.55300003 4279387685
0.050486978 0.062485494 0.55300003 4279124513
0.052283123 0.062485494 0.55300003 4279124259
0.054079268 0.062485494 0.55300003 4278924834
-0.017241085 0.069396921 0.597 4285630327
-0.0034710935 0.065677151 0.565 4284578409
-0.0016301817 0.065444671 0.56300002 4284709995
0.00019809084 0.065328434 0.56200004 4284709995
0.0020198673 0.06521219 0.56100005 4284841581
0.0038351475 0.065095939 0.56 4285103983
0.0056439321 0.064979702 0.55900002 4285301362
0.0074595655 0.064979702 0.55900002 4285367155
0.0092586055 0.064863458 0.55800003 4285499511
0.011051151 0.064747214 0.55700004 4285762683
0.012860288 0.064747214 0.55700004 4285697149
0.014643088 0.064630978 0.55600005 4285762942
0.016448978 0.064630978 0.55600005 4285631356
0.025340948 0.064282246 0.55300003 4284513389
0.027137095 0.064282246 0.55300003 4284514159
0.028933238 0.064282246 0.55300003 4284382573
0.030729383 0.064282246 0.55300003 4283790688
0.032525528 0.064282246 0.55300003 4281751105
0.034321673 0.064282246 0.55300003 4282934609
0.036117818 0.064282246 0.55300003 4283067478
0.037913963 0.064282246 0.55300003 4282672720
0.039710108 0.064282246 0.55300003 4282212169
0.041506253 0.064282246 0.55300003 4281423423
0.043302398 0.064282246 0.55300003 4280568116
0.045098543 0.064282246 0.55300003 4279910445
0.046894688 0.064282246 0.55300003 4279713066
0.048690833 0.064282246 0.55300003 4279319594
0.050486978 0.064282246 0.55300003 4279188008
0.052283123 0.064282246 0.55300003 4282344273
0.054079268 0.064282246 0.55300003 4286027398
-0.017356604 0.071814604 0.60100001 4285563767
-0.021685209 0.083207004 0.61300004 4285497456
-0.023676235 0.085198708 0.61300004 4285825909
-0.021685209 0.097148903 0.61300004 4285366642
-0.02175596 0.10146226 0.61500001 4285498224
-0.021791337 0.10763159 0.61600006 4285760630
-0.023676235 0.11706591 0.61300004 4286154620
-0.023676235 0.1190576 0.61300004 4285760116
-0.025541645 0.1323486 0.61000001 4285629044
-0.025709132 0.13521142 0.61400002 4285497204
-0.027703403 0.13720636 0.61400002 4285628278
-0.029794414 0.13965474 0.61600006 4286549378
-0.027838763 0.13988145 0.61700004 4285365618
0.014925215 0.056361426 0.5597257 4294967295
0.014925215 0.056361426 0.5597257 4294901760
0.014925215 0.056361426 0.56022573 4294901760
0.014925215 0.056361426 0.56072569 4294901760
0.014925215 0.056361426 0.56122571 4294901760
0.014925215 0.056361426 0.56172568 4294901760
0.014925215 0.056361426 0.5622257 4294901760
0.014925215 0.056361426 0.56272572 4294901760
0.014925215 0.056361426 0.56322569 4294901760
0.014925215 0.056361426 0.56372571 4294901760
0.014925215 0.056361426 0.56422567 4294901760
0.014925215 0.056361426 0.5647257 4294901760
0.014925215 0.056361426 0.56522572 4294901760
0.014925215 0.056361426 0.56572568 4294901760
0.014925215 0.056361426 0.56622571 4294901760
0.014925215 0.056361426 0.56672573 4294901760
0.014925215 0.056361426 0.56722569 4294901760
0.014925215 0.056361426 0.56772572 4294901760
0.014925215 0.056361426 0.56822568 4294901760
0.014925215 0.056361426 0.56872571 4294901760
0.014925215 0.056361426 0.56922573 4294901760
0.014925215 0.056361426 0.56972569 4294901760
0.014925215 0.056361426 0.57022572 4294901760
0.014925215 0.056361426 0.57072568 4294901760
0.014925215 0.056361426 0.5712257 4294901760
0.014925215 0.056361426 0.57172573 4294901760
0.014925215 0.056361426 0.57222569 4294901760
0.014925215 0.056361426 0.57272571 4294901760
0.014925215 0.056361426 0.57322568 4294901760
0.014925215 0.056361426 0.5737257 4294901760
0.014925215 0.056361426 0.57422572 4294901760
0.014925215 0.056361426 0.57472569 4294901760
0.014925215 0.056361426 0.57522571 4294901760
0.014925215 0.056361426 0.57572567 4294901760
0.014925215 0.056361426 0.5762257 4294901760
0.014925215 0.056361426 0.57672572 4294901760
0.014925215 0.056361426 0.57722569 4294901760
0.014925215 0.056361426 0.57772571 4294901760
0.014925215 0.056361426 0.57822573 4294901760
0.014925215 0.056361426 0.5787257 4294901760
0.014925215 0.056361426 0.57922572 4294901760
0.014925215 0.056361426 0.57972568 4294901760
0.014925215 0.056361426 0.58022571 4294901760
0.014925215 0.056361426 0.58072573 4294901760
0.014925215 0.056361426 0.58122569 4294901760
0.014925215 0.056361426 0.58172572 4294901760
0.014925215 0.056361426 0.58222568 4294901760
0.014925215 0.056361426 0.5827257 4294901760
0.014925215 0.056361426 0.58322573 4294901760
0.014925215 0.056361426 0.58372569 4294901760
0.014925215 0.056361426 0.58422571 4294901760
0.014925215 0.056361426 0.58472574 4294901760
0.014925215 0.056361426 0.5852257 4294901760
0.014925215 0.056361426 0.58572572 4294901760
0.014925215 0.056361426 0.58622569 4294901760
0.014925215 0.056361426 0.58672571 4294901760
0.014925215 0.056361426 0.58722574 4294901760
0.014925215 0.056361426 0.5877257 4294901760
0.014925215 0.056361426 0.58822572 4294901760
0.014925215 0.056361426 0.58872569 4294901760
0.014925215 0.056361426 0.58922571 4294901760
0.014925215 0.056361426 0.58972573 4294901760
0.014925215 0.056361426 0.5902257 4294901760
0.014925215 0.056361426 0.59072572 4294901760
0.014925215 0.056361426 0.59122568 4294901760
0.014925215 0.056361426 0.59172571 4294901760
0.014925215 0.056361426 0.59222573 4294901760
0.014925215 0.056361426 0.59272569 4294901760
0.014925215 0.056361426 0.59322572 4294901760
0.014925215 0.056361426 0.59372568 4294901760
0.014925215 0.056361426 0.5942257 4294901760
0.014925215 0.056361426 0.59472573 4294901760
0.014925215 0.056361426 0.59522569 4294901760
0.014925215 0.056361426 0.59572572 4294901760
0.014925215 0.056361426 0.59622574 4294901760
0.014925215 0.056361426 0.5967257 4294901760
0.014925215 0.056361426 0.59722573 4294901760
0.014925215 0.056361426 0.59772569 4294901760
0.014925215 0.056361426 0.59822571 4294901760
0.014925215 0.056361426 0.59872574 4294901760
0.014925215 0.056361426 0.5992257 4294901760
0.014925215 0.056361426 0.59972572 4294901760
0.014925215 0.056361426 0.60022569 4294901760
0.014925215 0.056361426 0.60072571 4294901760
0.014925215 0.056361426 0.60122573 4294901760
0.014925215 0.056361426 0.6017257 4294901760
0.014925215 0.056361426 0.60222572 4294901760
0.014925215 0.056361426 0.60272574 4294901760
0.014925215 0.056361426 0.60322571 4294901760
0.014925215 0.056361426 0.60372573 4294901760
0.014925215 0.056361426 0.6042257 4294901760
0.014925215 0.056361426 0.60472572 4294901760
0.014925215 0.056361426 0.60522574 4294901760
0.014925215 0.056361426 0.60572571 4294901760
0.014925215 0.056361426 0.60622573 4294901760
0.014925215 0.056361426 0.60672569 4294901760
0.014925215 0.056361426 0.60722572 4294901760
0.014925215 0.056361426 0.60772574 4294901760
0.014925215 0.056361426 0.6082257 4294901760
0.014925215 0.056361426 0.60872573 4294901760
0.014925215 0.056361426 0.60922569 4294901760
0.014925215 0.056361426 0.60972571 4294901760
0.014925215 0.056361426 0.5597257 4278255360
0.015077041 0.056321509 0.56020039 4278255360
0.015228868 0.056281593 0.56067514 4278255360
0.015380695 0.05624168 0.56114984 4278255360
0.015532522 0.056201763 0.56162459 4278255360
0.015684348 0.056161847 0.56209928 4278255360
0.015836174 0.05612193 0.56257403 4278255360
0.015988002 0.056082014 0.56304872 4278255360
0.016139828 0.056042101 0.56352341 4278255360
0.016291654 0.056002185 0.56399816 4278255360
0.01644348 0.055962268 0.56447285 4278255360
0.016595306 0.055922352 0.56494761 4278255360
0.016747134 0.055882435 0.5654223 4278255360
0.01689896 0.055842519 0.56589699 4278255360
0.017050786 0.055802606 0.56637174 4278255360
0.017202612 0.05576269 0.56684643 4278255360
0.01735444 0.055722773 0.56732118 4278255360
0.017506266 0.055682857 0.56779587 4278255360
0.017658092 0.05564294 0.56827062 4278255360
0.017809918 0.055603027 0.56874532 4278255360
0.017961744 0.055563111 0.56922001 4278255360
0.018113572 0.055523194 0.56969476 4278255360
0.018265398 0.055483278 0.57016945 4278255360
0.018417224 0.055443361 0.5706442 4278255360
0.01856905 0.055403449 0.57111889 4278255360
0.018720876 0.055363532 0.57159364 4278255360
0.018872704 0.055323616 0.57206833 4278255360
0.01902453 0.055283699 0.57254303 4278255360
0.019176356 0.055243783 0.57301778 4278255360
0.019328183 0.05520387 0.57349247 4278255360
0.01948001 0.055163953 0.57396722 4278255360
0.019631837 0.055124037 0.57444191 4278255360
0.019783663 0.05508412 0.5749166 4278255360
0.019935489 0.055044204 0.57539135 4278255360
0.020087317 0.055004288 0.57586604 4278255360
0.020239143 0.054964375 0.57634079 4278255360
0.020390969 0.054924458 0.57681549 4278255360
0.020542795 0.054884542 0.57729024 4278255360
0.020694621 0.054844625 0.57776493 4278255360
0.020846449 0.054804709 0.57823962 4278255360
0.020998275 0.054764796 0.57871437 4278255360
0.021150101 0.05472488 0.57918906 4278255360
0.021301927 0.054684963 0.57966381 4278255360
0.021453753 0.054645047 0.5801385 4278255360
0.021605581 0.05460513 0.5806132 4278255360
0.021757407 0.054565217 0.58108795 4278255360
0.021909233 0.054525301 0.58156264 4278255360
0.022061059 0.054485384 0.58203739 4278255360
0.022212885 0.054445468 0.58251208 4278255360
0.022364713 0.054405551 0.58298683 4278255360
0.022516539 0.054365635 0.58346152 4278255360
0.022668365 0.054325722 0.58393621 4278255360
0.022820193 0.054285806 0.58441097 4278255360
0.022972018 0.054245889 0.58488566 4278255360
0.023123845 0.054205973 0.58536041 4278255360
0.023275672 0.054166056 0.5858351 4278255360
0.023427498 0.054126143 0.58630985 4278255360
0.023579326 0.054086227 0.58678454 4278255360
0.02373115 0.05404631 0.58725923 4278255360
0.023882978 0.054006394 0.58773398 4278255360
0.024034806 0.053966478 0.58820868 4278255360
0.02418663 0.053926565 0.58868343 4278255360
0.024338458 0.053886648 0.58915812 4278255360
0.024490284 0.053846732 0.58963281 4278255360
0.02464211 0.053806815 0.59010756 4278255360
0.024793936 0.053766899 0.59058225 4278255360
0.024945762 0.053726986 0.591057 4278255360
0.02509759 0.05368707 0.59153169 4278255360
0.025249416 0.053647153 0.59200644 4278255360
0.025401242 0.053607237 0.59248114 4278255360
0.02555307 0.05356732 0.59295583 4278255360
0.025704894 0.053527407 0.59343058 4278255360
0.025856722 0.053487491 0.59390527 4278255360
0.026008548 0.053447574 0.59438002 4278255360
0.026160374 0.053407658 0.59485471 4278255360
0.026312202 0.053367741 0.5953294 4278255360
0.026464026 0.053327825 0.59580415 4278255360
0.026615854 0.053287912 0.59627885 4278255360
0.02676768 0.053247996 0.5967536 4278255360
0.026919506 0.053208079 0.59722829 4278255360
0.027071334 0.053168163 0.59770304 4278255360
0.02722316 0.053128246 0.59817773 4278255360
0.027374987 0.053088333 0.59865242 4278255360
0.027526813 0.053048417 0.59912717 4278255360
0.027678639 0.0530085 0.59960186 4278255360
0.027830467 0.052968584 0.60007662 4278255360
0.027982293 0.052928668 0.60055131 4278255360
0.028134119 0.052888751 0.60102606 4278255360
0.028285947 0.052848838 0.60150075 4278255360
0.028437771 0.052808922 0.60197544 4278255360
0.028589599 0.052769005 0.60245019 4278255360
0.028741425 0.052729089 0.60292488 4278255360
0.028893251 0.052689172 0.60339963 4278255360
0.029045079 0.05264926 0.60387433 4278255360
0.029196903 0.052609343 0.60434902 4278255360
0.029348731 0.052569427 0.60482377 4278255360
0.029500557 0.05252951 0.60529846 4278255360
0.029652383 0.052489594 0.60577321 4278255360
0.029804211 0.052449681 0.6062479 4278255360
0.029956037 0.052409764 0.60672265 4278255360
0.030107863 0.052369848 0.60719734 4278255360
