# .PCD v0.7 - Point Cloud Data file format
VERSION 0.7
FIELDS x y z rgb
SIZE 4 4 4 4
TYPE F F F U
COUNT 1 1 1 1
WIDTH 1022
HEIGHT 1
VIEWPOINT 0 0 0 1 0 0 0
POINTS 1022
DATA ascii
-0.0032376396 -0.015792524 0.52700001 4284894532
-0.0015230472 -0.015762558 0.52600002 4285022775
0.00018540173 -0.015762558 0.52600002 4284825396
-0.017220363 -0.014320708 0.53600001 4285828476
-0.015450555 -0.01429399 0.53500003 4286288255
-0.013687242 -0.014267272 0.53400004 4286814597
-0.011908042 -0.014213837 0.53200001 4287204992
-0.01016097 -0.014187119 0.53100002 4285688162
-0.0084045054 -0.014133684 0.52900004 4283773739
-0.0066610333 -0.014080248 0.52700001 4285614144
-0.0049493364 -0.014080248 0.52700001 4284954415
-0.0032314961 -0.01405353 0.52600002 4284559398
-0.0015230472 -0.01405353 0.52600002 4285017634
0.00018540173 -0.01405353 0.52600002 4284754462
0.0018938506 -0.01405353 0.52600002 4284428323
0.0036022994 -0.01405353 0.52600002 4284035362
-0.024138959 -0.01255572 0.53500003 4285824622
-0.022401279 -0.01255572 0.53500003 4284830790
-0.020663599 -0.01255572 0.53500003 4283973684
-0.018925916 -0.01255572 0.53500003 4284629048
-0.017188234 -0.01255572 0.53500003 4283773475
-0.015450555 -0.01255572 0.53500003 4283640093
-0.013661611 -0.012508783 0.53300005 4283968806
-0.011908042 -0.012485313 0.53200001 4283576108
-0.010141834 -0.012438376 0.53000003 4283444522
-0.0084045054 -0.012414908 0.52900004 4284230694
-0.0066610333 -0.01236797 0.52700001 4285084459
-0.0049493364 -0.01236797 0.52700001 4284031769
-0.0032314961 -0.012344502 0.52600002 4284756775
-0.0015230472 -0.012344502 0.52600002 4284753177
0.00018540173 -0.012344502 0.52600002 4284227603
0.0018938506 -0.012344502 0.52600002 4283835927
0.0036022994 -0.012344502 0.52600002 4283639321
0.0053107482 -0.012344502 0.52600002 4283120168
-0.029297139 -0.010797231 0.53400004 4286026368
-0.027562706 -0.010797231 0.53400004 4286748806
-0.025828272 -0.010797231 0.53400004 4284365876
-0.024138959 -0.01081745 0.53500003 4284756523
-0.022401279 -0.01081745 0.53500003 4284951589
-0.020663599 -0.01081745 0.53500003 4285215275
-0.018925916 -0.01081745 0.53500003 4284625191
-0.017188234 -0.01081745 0.53500003 4283639069
-0.015421676 -0.010797231 0.53400004 4285293654
-0.013661611 -0.010777012 0.53300005 4287402625
-0.011908042 -0.010756792 0.53200001 4286747261
-0.010141834 -0.010716353 0.53000003 4286681468
-0.0084045054 -0.010696134 0.52900004 4287197026
-0.0066610333 -0.010655694 0.52700001 4284294941
-0.0049399454 -0.010635475 0.52600002 4285015836
-0.0032314961 -0.010635475 0.52600002 4284621591
-0.0015230472 -0.010635475 0.52600002 4284753175
0.00018504927 -0.010615256 0.52500004 4283899151
0.0018902502 -0.010615256 0.52500004 4282980879
0.0035954511 -0.010615256 0.52500004 4283047702
0.0053107482 -0.010635475 0.52600002 4282983705
-0.029352002 -0.0090791807 0.53500003 4285894269
-0.027614322 -0.0090791807 0.53500003 4284242764
-0.025876639 -0.0090791807 0.53500003 4285610803
-0.024138959 -0.0090791807 0.53500003 4289756014
-0.022401279 -0.0090791807 0.53500003 4285279269
-0.020663599 -0.0090791807 0.53500003 4284621339
-0.018925916 -0.0090791807 0.53500003 4285090880
-0.017188234 -0.0090791807 0.53500003 4286942326
-0.015421676 -0.0090622101 0.53400004 4286878332
-0.013661611 -0.0090452395 0.53300005 4287468416
-0.011885659 -0.0090112984 0.53100002 4286939762
-0.010141834 -0.0089943279 0.53000003 4286806893
-0.0083886171 -0.0089603867 0.528 4285349687
-0.0066610333 -0.0089434162 0.52700001 4284293657
-0.0049399454 -0.0089264465 0.52600002 4284359191
-0.0032314961 -0.0089264465 0.52600002 4284030739
-0.0015201517 -0.008909476 0.52500004 4282979335
0.00018504927 -0.008909476 0.52500004 4282913801
0.0018902502 -0.008909476 0.52500004 4282455565
0.0035954511 -0.008909476 0.52500004 4282127885
0.0053006518 -0.008909476 0.52500004 4283638807
-0.029352002 -0.0073409108 0.53500003 4287207562
-0.027614322 -0.0073409108 0.53500003 4283184686
-0.025876639 -0.0073409108 0.53500003 4285280806
-0.024138959 -0.0073409108 0.53500003 4285478185
-0.022401279 -0.0073409108 0.53500003 4284622876
-0.020663599 -0.0073409108 0.53500003 4284096278
-0.018890541 -0.0073271897 0.53400004 4285744185
-0.017156107 -0.0073271897 0.53400004 4284365872
-0.015392796 -0.0073134685 0.53300005 4283902495
-0.013635978 -0.0072997469 0.53200001 4283902241
-0.011885659 -0.0072860257 0.53100002 4283179290
-0.010141834 -0.0072723045 0.53000003 4283770657
-0.0083886171 -0.0072448612 0.528 4284296226
-0.0066610333 -0.00723114 0.52700001 4283703319
-0.0049399454 -0.0072174189 0.52600002 4283966491
-0.0032314961 -0.0072174189 0.52600002 4283440915
-0.0015201517 -0.0072036977 0.52500004 4282915598
0.00018504927 -0.0072036977 0.52500004 4282258440
0.0018902502 -0.0072036977 0.52500004 4282789145
0.0035954511 -0.0072036977 0.52500004 4284237104
0.0053006518 -0.0072036977 0.52500004 4283509018
-0.031147793 -0.0056131133 0.53600001 4286157954
-0.029352002 -0.005602641 0.53500003 4287468936
-0.027614322 -0.005602641 0.53500003 4283249196
-0.025876639 -0.005602641 0.53500003 4284556829
-0.024138959 -0.005602641 0.53500003 4284293657
-0.022401279 -0.005602641 0.53500003 4283570448
-0.020663599 -0.005602641 0.53500003 4284294171
-0.018890541 -0.0055921692 0.53400004 4284163868
-0.017156107 -0.0055921692 0.53400004 4283178772
-0.015392796 -0.005581697 0.53300005 4282653459
-0.013635978 -0.0055712243 0.53200001 4282720024
-0.011885659 -0.005560752 0.53100002 4282394146
-0.010141834 -0.0055502802 0.53000003 4282527270
-0.0083886171 -0.0055293352 0.528 4282330143
-0.0066610333 -0.005518863 0.52700001 4283247395
-0.0049399454 -0.0055083912 0.52600002 4282719250
-0.0032314961 -0.0055083912 0.52600002 4283245335
-0.0015201517 -0.0054979189 0.52500004 4283573014
0.00018504927 -0.0054979189 0.52500004 4282388740
0.0018902502 -0.0054979189 0.52500004 4283977003
0.0035954511 -0.0054979189 0.52500004 4283847214
0.0053006518 -0.0054979189 0.52500004 4284831288
0.0070058531 -0.0054979189 0.52500004 4283575063
0.008711054 -0.0054979189 0.52500004 4283640345
-0.031205904 -0.0038788177 0.537 4285828989
-0.029406866 -0.0038715946 0.53600001 4287404424
-0.027665935 -0.0038715946 0.53600001 4282461475
-0.025876639 -0.0038643717 0.53500003 4283901727
-0.024138959 -0.0038643717 0.53500003 4283638296
-0.022401279 -0.0038643717 0.53500003 4283112465
-0.020663599 -0.0038643717 0.53500003 4283047186
-0.018890541 -0.0038571486 0.53400004 4282587664
-0.017156107 -0.0038571486 0.53400004 4281996301
-0.015392796 -0.0038499255 0.53300005 4282662195
-0.013635978 -0.0038427021 0.53200001 4287272068
-0.011885659 -0.003835479 0.53100002 4286419326
-0.010141834 -0.0038282559 0.53000003 4286156154
-0.0084045054 -0.0038210331 0.52900004 4287206527
-0.0066736727 -0.0038138095 0.528 4281145869
-0.0049493364 -0.0038065866 0.52700001 4282260498
-0.0032314961 -0.0037993635 0.52600002 4282325777
-0.0015230472 -0.0037993635 0.52600002 4283507475
0.00018540173 -0.0037993635 0.52600002 4284164120
0.0018938506 -0.0037993635 0.52600002 4283576596
0.0035954511 -0.0037921404 0.52500004 4284174893
0.0053006518 -0.0037921404 0.52500004 4283387946
0.0070058531 -0.0037921404 0.52500004 4284964927
0.008711054 -0.0037921404 0.52500004 4284099610
0.010436095 -0.0037993635 0.52600002 4284362782
-0.031205904 -0.00213405 0.537 4285894782
-0.029461728 -0.00213405 0.537 4287598980
-0.027665935 -0.0021300761 0.53600001 4283577389
-0.025925007 -0.0021300761 0.53600001 4283376669
-0.024184078 -0.0021300761 0.53600001 4283310874
-0.022401279 -0.0021261021 0.53500003 4282259469
-0.020663599 -0.0021261021 0.53500003 4282127885
-0.018890541 -0.0021221281 0.53400004 4280618757
-0.017156107 -0.0021221281 0.53400004 4287073660
-0.015392796 -0.0021181542 0.53300005 4286025083
-0.013635978 -0.00211418 0.53200001 4286222462
-0.011885659 -0.0021102058 0.53100002 4286091646
-0.010141834 -0.0021062319 0.53000003 4285762681
-0.0084045054 -0.0021022579 0.52900004 4286942590
-0.0066736727 -0.0020982837 0.528 4281803799
-0.0049493364 -0.0020943098 0.52700001 4282522643
-0.0032376396 -0.0020943098 0.52700001 4282193678
-0.0015230472 -0.0020903358 0.52600002 4282193676
0.00018540173 -0.0020903358 0.52600002 4282850577
0.0018938506 -0.0020903358 0.52600002 4284295193
0.0036022994 -0.0020903358 0.52600002 4283837720
0.0053107482 -0.0020903358 0.52600002 4285229119
0.0070191976 -0.0020903358 0.52600002 4284900665
0.0087276455 -0.0020903358 0.52600002 4284235812
0.010436095 -0.0020903358 0.52600002 4284229911
-0.031264018 -0.0003900071 0.53800005 4286223747
-0.029516594 -0.0003900071 0.53800005 4285754207
-0.027717551 -0.00038928216 0.537 4282983455
-0.025973374 -0.00038928216 0.537 4285022007
-0.024184078 -0.00038855724 0.53600001 4282455567
-0.022443149 -0.00038855724 0.53600001 4282194191
-0.020663599 -0.00038783232 0.53500003 4280945156
-0.018925916 -0.00038783232 0.53500003 4286879107
-0.017156107 -0.0003871074 0.53400004 4285894265
-0.015392796 -0.00038638251 0.53300005 4285894267
-0.013635978 -0.00038565753 0.53200001 4285960060
-0.011885659 -0.00038493265 0.53100002 4285960060
-0.010141834 -0.00038420773 0.53000003 4285960060
-0.0084045054 -0.00038348281 0.52900004 4282267178
-0.0066736727 -0.00038275786 0.528 4282853407
-0.0049587279 -0.00038275786 0.528 4283244313
-0.0032376396 -0.00038203294 0.52700001 4282849555
-0.0015259427 -0.00038203294 0.52700001 4282390287
0.00018575421 -0.00038203294 0.52700001 4285287228
0.001897451 -0.00038203294 0.52700001 4282653963
0.0036091479 -0.00038203294 0.52700001 4283704341
0.0053107482 -0.00038130803 0.52600002 4283515167
0.0070191976 -0.00038130803 0.52600002 4282202127
0.0087276455 -0.00038130803 0.52600002 4284832564
0.010455935 -0.00038203294 0.52700001 4283773462
-0.031322129 0.0013605342 0.53900003 4285960062
-0.029516594 0.00135801 0.53800005 4283513903
-0.027769169 0.00135801 0.53800005 4283839016
-0.025973374 0.0013554858 0.537 4283574048
-0.024184078 0.0013529615 0.53600001 4282521875
-0.022443149 0.0013529615 0.53600001 4281012234
-0.020663599 0.0013504374 0.53500003 4287597953
-0.018925916 0.0013504374 0.53500003 4286091644
-0.017156107 0.0013479133 0.53400004 4285960060
-0.015392796 0.0013453892 0.53300005 4286091648
-0.013661611 0.0013453892 0.53300005 4286355331
-0.011908042 0.0013428648 0.53200001 4283591262
-0.01016097 0.0013403407 0.53100002 4279377690
-0.0084203929 0.0013378165 0.53000003 4280427545
-0.0066863131 0.0013352924 0.52900004 4280226829
-0.0049587279 0.0013327681 0.528 4282064920
-0.003243783 0.0013327681 0.528 4282457363
-0.0015259427 0.0013302439 0.52700001 4282391055
0.00018575421 0.0013302439 0.52700001 4284105518
0.001897451 0.0013302439 0.52700001 4283778602
0.0036091479 0.0013302439 0.52700001 4283181077
0.0053208447 0.0013302439 0.52700001 4282653959
0.007032542 0.0013302439 0.52700001 4286147654
0.0087442379 0.0013302439 0.52700001 4284633900
0.010475776 0.0013327681 0.528 4284824349
-0.031322129 0.0031118002 0.53900003 4286815369
-0.029516594 0.0031060271 0.53800005 4283445544
-0.027769169 0.0031060271 0.53800005 4283838501
-0.025973374 0.0031002534 0.537 4282850838
-0.024229197 0.0031002534 0.537 4282128400
-0.022443149 0.0030944804 0.53600001 4282991930
-0.020663599 0.0030887071 0.53500003 4286023798
-0.018925916 0.0030887071 0.53500003 4285960058
-0.017156107 0.0030829338 0.53400004 4285763708
-0.015392796 0.0030771606 0.53300005 4286618251
-0.013661611 0.0030771606 0.53300005 4279247901
-0.011908042 0.0030713871 0.53200001 4279179800
-0.01016097 0.0030656138 0.53100002 4279310616
-0.0084203929 0.0030598408 0.53000003 4281943355
-0.0066863131 0.0030540675 0.52900004 4280430370
-0.0049681198 0.0030540675 0.52900004 4283323207
-0.003243783 0.003048294 0.528 4280095757
-0.0015288382 0.003048294 0.528 4281409041
0.00018575421 0.0030425207 0.52700001 4283648817
0.001897451 0.0030425207 0.52700001 4281019148
0.0036091479 0.0030425207 0.52700001 4281936146
0.0053208447 0.0030425207 0.52700001 4283835925
0.007032542 0.0030425207 0.52700001 4284755996
0.0087442379 0.0030425207 0.52700001 4284886037
0.010495617 0.0030540675 0.52900004 4285016338
0.012306165 0.0030771606 0.53300005 4284949775
-0.033072803 0.0048630661 0.53900003 4286092161
-0.031322129 0.0048630661 0.53900003 4285562220
-0.029571457 0.0048630661 0.53900003 4283969321
-0.027769169 0.0048540439 0.53800005 4283968804
-0.025973374 0.0048450213 0.537 4282390285
-0.024229197 0.0048450213 0.537 4281404937
-0.022443149 0.0048359991 0.53600001 4287272840
-0.02070222 0.0048359991 0.53600001 4285893497
-0.018925916 0.0048269765 0.53500003 4285828985
-0.017156107 0.0048179543 0.53400004 4286026878
-0.015392796 0.0048089321 0.53300005 4279050524
-0.013661611 0.0048089321 0.53300005 4279377179
-0.011908042 0.0047999094 0.53200001 4279245593
-0.01016097 0.0047908872 0.53100002 4278718477
-0.0084203929 0.0047818646 0.53000003 4280101153
-0.0066989521 0.0047818646 0.53000003 4278916877
-0.0049681198 0.0047728424 0.52900004 4278587144
-0.003243783 0.0047638197 0.528 4278717445
-0.0015288382 0.0047638197 0.528 4279637254
0.00018610668 0.0047638197 0.528 4280623888
0.001897451 0.0047547976 0.52700001 4280557323
0.0036091479 0.0047547976 0.52700001 4281477910
0.0053208447 0.0047547976 0.52700001 4283835923
0.007032542 0.0047547976 0.52700001 4285082394
0.0087442379 0.0047547976 0.52700001 4285410074
0.010475776 0.0047638197 0.528 4286660141
0.012283075 0.0047999094 0.53200001 4284948753
-0.033072803 0.0066143326 0.53900003 4286222460
-0.031322129 0.0066143326 0.53900003 4282791977
-0.029516594 0.006602061 0.53800005 4284429868
-0.027769169 0.006602061 0.53800005 4283047956
-0.025973374 0.0065897889 0.537 4282391055
-0.024229197 0.0065897889 0.537 4280879878
-0.022443149 0.0065775178 0.53600001 4285958005
-0.020663599 0.0065652463 0.53500003 4285893497
-0.018925916 0.0065652463 0.53500003 4285697401
-0.017156107 0.0065529752 0.53400004 4285302130
-0.015392796 0.0065407036 0.53300005 4279509790
-0.013661611 0.0065407036 0.53300005 4278982934
-0.011908042 0.0065284315 0.53200001 4282865486
-0.01016097 0.0065161604 0.53100002 4286090113
-0.0084203929 0.0065038889 0.53000003 4286090624
-0.0066989521 0.0065038889 0.53000003 4287669908
-0.0049681198 0.0064916178 0.52900004 4285695605
-0.003243783 0.0064793457 0.528 4281219634
-0.0015288382 0.0064793457 0.528 4281877044
0.00018575421 0.0064670742 0.52700001 4279704590
0.001897451 0.0064670742 0.52700001 4280032010
0.0036022994 0.006454803 0.52600002 4280162567
0.0053107482 0.006454803 0.52600002 4283311893
0.0070191976 0.006454803 0.52600002 4284424980
0.0087276455 0.006454803 0.52600002 4284685329
0.010455935 0.0064670742 0.52700001 4284882708
0.012236899 0.0065038889 0.53000003 4284488720
-0.03475887 0.008350078 0.53800005 4285894782
-0.033072803 0.0083655985 0.53900003 4287401598
-0.031264018 0.008350078 0.53800005 4284365360
-0.029516594 0.008350078 0.53800005 4285941564
-0.027769169 0.008350078 0.53800005 4283375897
-0.025973374 0.0083345566 0.537 4282193680
-0.024229197 0.0083345566 0.537 4283249709
-0.022443149 0.008319037 0.53600001 4286024568
-0.020663599 0.0083035165 0.53500003 4285892982
-0.018890541 0.0082879961 0.53400004 4286550914
-0.017156107 0.0082879961 0.53400004 4279509268
-0.015392796 0.0082724756 0.53300005 4281943357
-0.013635978 0.0082569541 0.53200001 4281746491
-0.011908042 0.0082569541 0.53200001 4282208058
-0.01016097 0.0082414337 0.53100002 4282929723
-0.0084203929 0.0082259132 0.53000003 4282601789
-0.0066989521 0.0082259132 0.53000003 4282405183
-0.0049681198 0.0082103927 0.52900004 4284643428
-0.003243783 0.0081948712 0.528 4281814079
-0.0015288382 0.0081948712 0.528 4281483317
0.00018575421 0.0081793517 0.52700001 4279311889
0.001897451 0.0081793517 0.52700001 4279899659
0.0036022994 0.0081638312 0.52600002 4280030729
0.0053107482 0.0081638312 0.52600002 4281866762
0.0070058531 0.0081483107 0.52500004 4283966743
0.008711054 0.0081483107 0.52500004 4284621078
0.010436095 0.0081638312 0.52600002 4284621078
0.012167633 0.0081793517 0.52700001 4283504141
0.013932003 0.0082103927 0.52900004 4282913801
-0.038182613 0.010079325 0.537 4285828735
-0.036438435 0.010079325 0.537 4286026368
-0.03475887 0.010098096 0.53800005 4286552710
-0.033011444 0.010098096 0.53800005 4285880398
-0.031264018 0.010098096 0.53800005 4285413683
-0.029516594 0.010098096 0.53800005 4285084459
-0.027717551 0.010079325 0.537 4283111182
-0.025973374 0.010079325 0.537 4282193678
-0.024184078 0.010060555 0.53600001 4282260500
-0.022443149 0.010060555 0.53600001 4287329643
-0.020663599 0.010041786 0.53500003 4283184168
-0.018890541 0.010023016 0.53400004 4283117862
-0.01712398 0.010004248 0.53300005 4279897862
-0.015392796 0.010004248 0.53300005 4282731588
-0.013635978 0.0099854767 0.53200001 4283523152
-0.011885659 0.0099667069 0.53100002 4281546780
-0.01016097 0.0099667069 0.53100002 4283321129
-0.0084203929 0.0099479379 0.53000003 4282796842
-0.0066863131 0.009929168 0.52900004 4284509264
-0.0049681198 0.009929168 0.52900004 4280168225
-0.003243783 0.0099103972 0.528 4282864970
-0.0015288382 0.0099103972 0.528 4278851599
0.00018575421 0.0098916283 0.52700001 4279706393
0.0018938506 0.0098728584 0.52600002 4279769358
0.0036022994 0.0098728584 0.52600002 4279702793
0.0053006518 0.0098540895 0.52500004 4280486656
0.0070058531 0.0098540895 0.52500004 4282850577
0.0086944615 0.0098353196 0.52400005 4283242253
0.010416255 0.0098540895 0.52500004 4283176973
0.012121457 0.0098540895 0.52500004 4282783760
0.013852993 0.0098728584 0.52600002 4282258699
-0.038182613 0.011824093 0.537 4286091907
-0.036438435 0.011824093 0.537 4286223232
-0.03475887 0.011846112 0.53800005 4284376663
-0.033011444 0.011846112 0.53800005 4285149230
-0.031264018 0.011846112 0.53800005 4286794053
-0.029516594 0.011846112 0.53800005 4287518028
-0.027717551 0.011824093 0.537 4283110669
-0.025973374 0.011824093 0.537 4282455567
-0.024184078 0.011802074 0.53600001 4282587153
-0.022443149 0.011802074 0.53600001 4284033052
-0.020663599 0.011780055 0.53500003 4284427040
-0.018890541 0.011758037 0.53400004 4284098845
-0.01712398 0.011736019 0.53300005 4280551681
-0.015363916 0.011713998 0.53200001 4282403388
-0.013635978 0.011713998 0.53200001 4282798914
-0.011885659 0.01169198 0.53100002 4281941538
-0.010141834 0.011669962 0.53000003 4281743900
-0.0084203929 0.011669962 0.53000003 4280689929
-0.0066863131 0.011647943 0.52900004 4283257146
-0.0049681198 0.011647943 0.52900004 4279771670
-0.003243783 0.011625923 0.528 4282601285
-0.0015288382 0.011625923 0.528 4281943868
0.00018575421 0.011603905 0.52700001 4280167711
0.0018938506 0.011581887 0.52600002 4279703824
0.0035954511 0.011559867 0.52500004 4279702795
0.0053006518 0.011559867 0.52500004 4280881413
0.0069925091 0.011537849 0.52400005 4283048469
0.0086944615 0.011537849 0.52400005 4282915598
0.010396414 0.011537849 0.52400005 4282718989
0.012098368 0.011537849 0.52400005 4282259469
0.01380032 0.011537849 0.52400005 4282391057
-0.038182613 0.01356886 0.537 4286223495
-0.036438435 0.01356886 0.537 4287010697
-0.034694262 0.01356886 0.537 4283515448
-0.033011444 0.013594129 0.53800005 4284556579
-0.031264018 0.013594129 0.53800005 4287319370
-0.029461728 0.01356886 0.537 4284818720
-0.027717551 0.01356886 0.537 4283833108
-0.025973374 0.01356886 0.537 4282849553
-0.024184078 0.013543592 0.53600001 4282717967
-0.022401279 0.013518325 0.53500003 4284031253
-0.020663599 0.013518325 0.53500003 4284359191
-0.018890541 0.013493057 0.53400004 4283965460
-0.01712398 0.01346779 0.53300005 4280878848
-0.015363916 0.01344252 0.53200001 4280824356
-0.013610347 0.013417253 0.53100002 4283588684
-0.011885659 0.013417253 0.53100002 4281810468
-0.010141834 0.013391986 0.53000003 4281743902
-0.0084203929 0.013391986 0.53000003 4281414683
-0.0066863131 0.013366718 0.52900004 4284048204
-0.0049681198 0.013366718 0.52900004 4279903256
-0.003243783 0.013341448 0.528 4280363040
-0.0015288382 0.013341448 0.528 4278983185
0.00018575421 0.013316181 0.52700001 4278719500
0.0018938506 0.013290914 0.52600002 4279440652
0.0035954511 0.013265646 0.52500004 4279506188
0.0052905558 0.013240378 0.52400005 4281934101
0.0069925091 0.013240378 0.52400005 4283049239
0.0086778682 0.01321511 0.523 4282326029
0.010376574 0.01321511 0.523 4282130193
0.012075279 0.01321511 0.523 4281800717
0.013773983 0.01321511 0.523 4281931533
-0.038182613 0.015313628 0.537 4286223493
-0.036438435 0.015313628 0.537 4287732623
-0.034694262 0.015313628 0.537 4283776053
-0.033011444 0.015342146 0.53800005 4285148455
-0.031205904 0.015313628 0.537 4285016099
-0.029461728 0.015313628 0.537 4284358939
-0.027717551 0.015313628 0.537 4283767829
-0.025973374 0.015313628 0.537 4283046159
-0.024184078 0.015285112 0.53600001 4283046159
-0.022401279 0.015256595 0.53500003 4283899667
-0.020663599 0.015256595 0.53500003 4284030739
-0.018890541 0.015228079 0.53400004 4283768597
-0.01712398 0.015199562 0.53300005 4282324494
-0.015363916 0.015171044 0.53200001 4279506961
-0.013610347 0.015142526 0.53100002 4278652424
-0.011885659 0.015142526 0.53100002 4283852106
-0.010141834 0.01511401 0.53000003 4282799416
-0.0084203929 0.01511401 0.53000003 4283194174
-0.0066863131 0.015085493 0.52900004 4280825630
-0.0049681198 0.015085493 0.52900004 4281350700
-0.003243783 0.015056975 0.528 4280825128
-0.0015288382 0.015056975 0.528 4281549110
0.00018575421 0.015028458 0.52700001 4278981900
0.0018938506 0.014999942 0.52600002 4279769358
0.0035954511 0.014971425 0.52500004 4280031245
0.0052905558 0.014942909 0.52400005 4281999379
0.0069925091 0.014942909 0.52400005 4282720274
0.0086778682 0.014914391 0.523 4281540109
0.010376574 0.014914391 0.523 4280885261
0.012075279 0.014914391 0.523 4280884493
0.013773983 0.014914391 0.523 4281080076
-0.038182613 0.017058397 0.537 4286157700
-0.036438435 0.017058397 0.537 4287340432
-0.03475887 0.017090164 0.53800005 4282792754
-0.033011444 0.017090164 0.53800005 4284494118
-0.031264018 0.017090164 0.53800005 4284163870
-0.029461728 0.017058397 0.537 4283899415
-0.027717551 0.017058397 0.537 4284163357
-0.025973374 0.017058397 0.537 4283571218
-0.024184078 0.017026631 0.53600001 4283439632
-0.022401279 0.016994866 0.53500003 4283176208
-0.020663599 0.016994866 0.53500003 4283046418
-0.018890541 0.0169631 0.53400004 4282328344
-0.01712398 0.016931335 0.53300005 4282595881
-0.015363916 0.016899567 0.53200001 4279310865
-0.013610347 0.0168678 0.53100002 4279441687
-0.011885659 0.0168678 0.53100002 4278915594
-0.010141834 0.016836034 0.53000003 4279968536
-0.0084203929 0.016836034 0.53000003 4279442190
-0.0066989521 0.016836034 0.53000003 4279179018
-0.0049681198 0.016804269 0.52900004 4278850568
-0.003249927 0.016804269 0.52900004 4282141499
-0.0015288382 0.016772501 0.528 4280625696
0.00018575421 0.016740736 0.52700001 4279504905
0.0018938506 0.01670897 0.52600002 4281278999
0.0035954511 0.016677205 0.52500004 4280490253
0.0052905558 0.016645439 0.52400005 4282787094
0.0069925091 0.016645439 0.52400005 4282258953
0.0086778682 0.016613672 0.523 4281410320
0.010376574 0.016613672 0.523 4280558093
0.012075279 0.016613672 0.523 4280688398
0.013773983 0.016613672 0.523 4281145869
-0.038182613 0.018803164 0.537 4286092421
-0.036438435 0.018803164 0.537 4286420613
-0.03475887 0.01883818 0.53800005 4285562222
-0.033011444 0.01883818 0.53800005 4283312936
-0.031264018 0.01883818 0.53800005 4283509540
-0.029516594 0.01883818 0.53800005 4283113495
-0.027717551 0.018803164 0.537 4283901981
-0.025973374 0.018803164 0.537 4284492320
-0.024184078 0.018768148 0.53600001 4283702804
-0.022443149 0.018768148 0.53600001 4287194971
-0.020663599 0.018733134 0.53500003 4286679154
-0.018890541 0.01869812 0.53400004 4285894517
-0.01712398 0.018663105 0.53300005 4285697653
-0.015363916 0.018628089 0.53200001 4286748808
-0.013610347 0.018593073 0.53100002 4278588941
-0.011885659 0.018593073 0.53100002 4279311384
-0.01016097 0.018593073 0.53100002 4278652424
-0.0084203929 0.018558059 0.53000003 4280100381
-0.0066989521 0.018558059 0.53000003 4281745976
-0.0049681198 0.018523045 0.52900004 4283456848
-0.003249927 0.018523045 0.52900004 4278719498
-0.0015288382 0.018488027 0.528 4280619534
0.00018575421 0.018453013 0.52700001 4286208080
0.0018938506 0.018417997 0.52600002 4283904294
0.0035954511 0.018382983 0.52500004 4282392084
0.0052905558 0.018347967 0.52400005 4283441944
0.0069925091 0.018347967 0.52400005 4282391309
0.0086778682 0.018312952 0.523 4280819980
0.010376574 0.018312952 0.523 4280163337
0.012075279 0.018312952 0.523 4281540111
0.013773983 0.018312952 0.523 4281998609
-0.036506295 0.020586198 0.53800005 4286157441
-0.03475887 0.020586198 0.53800005 4286223234
-0.033011444 0.020586198 0.53800005 4286086511
-0.031264018 0.020586198 0.53800005 4282529584
-0.029516594 0.020586198 0.53800005 4283051045
-0.027769169 0.020586198 0.53800005 4286669914
-0.025973374 0.020547932 0.537 4284229661
-0.024229197 0.020547932 0.537 4284162585
-0.022443149 0.020509668 0.53600001 4283375383
-0.020663599 0.020471403 0.53500003 4287530102
-0.018890541 0.020433141 0.53400004 4285696886
-0.01712398 0.020394877 0.53300005 4285763192
-0.015363916 0.02035661 0.53200001 4285828985
-0.013635978 0.02035661 0.53200001 4286420611
-0.011885659 0.020318346 0.53100002 4280628522
-0.01016097 0.020318346 0.53100002 4278521868
-0.0084203929 0.020280082 0.53000003 4280758832
-0.0066989521 0.020280082 0.53000003 4279179798
-0.0049775112 0.020280082 0.53000003 4279769617
-0.003249927 0.020241819 0.52900004 4281146648
-0.0015288382 0.020203553 0.528 4284360736
0.00018575421 0.020165289 0.52700001 4284227605
0.0018938506 0.020127025 0.52600002 4285741355
0.0035954511 0.020088762 0.52500004 4284953123
0.0053006518 0.020088762 0.52500004 4283310356
0.0069925091 0.020050498 0.52400005 4281932301
0.0086944615 0.020050498 0.52400005 4280228358
0.010376574 0.020012232 0.523 4281084437
0.012075279 0.020012232 0.523 4282261268
0.013773983 0.020012232 0.523 4282261781
-0.034823477 0.022375727 0.53900003 4286157700
-0.033072803 0.022375727 0.53900003 4285960062
-0.031322129 0.022375727 0.53900003 4287076488
-0.029571457 0.022375727 0.53900003 4281607199
-0.027769169 0.022334214 0.53800005 4281540123
-0.026021743 0.022334214 0.53800005 4283904296
-0.024229197 0.0222927 0.537 4284492320
-0.022443149 0.022251187 0.53600001 4284556316
-0.020663599 0.022209672 0.53500003 4284163618
-0.018890541 0.022168159 0.53400004 4285760626
-0.01712398 0.022126647 0.53300005 4285894265
-0.015363916 0.022085132 0.53200001 4285960060
-0.013610347 0.022043619 0.53100002 4285894267
-0.011885659 0.022043619 0.53100002 4285960058
-0.01016097 0.022043619 0.53100002 4286617990
-0.0084203929 0.022002107 0.53000003 4286552458
-0.0066989521 0.022002107 0.53000003 4281353528
-0.0049775112 0.022002107 0.53000003 4282397996
-0.003249927 0.021960594 0.52900004 4283378465
-0.0015288382 0.021919077 0.528 4284753179
0.00018575421 0.021877564 0.52700001 4284753177
0.0018938506 0.021836052 0.52600002 4285474845
0.0036022994 0.021836052 0.52600002 4285015064
0.0053006518 0.021794539 0.52500004 4282851858
0.0070058531 0.021794539 0.52500004 4281869842
0.0086944615 0.021753026 0.52400005 4281215251
0.010396414 0.021753026 0.52400005 4281411603
0.012098368 0.021753026 0.52400005 4282457361
0.01380032 0.021753026 0.52400005 4282656537
-0.034823477 0.024126993 0.53900003 4286091907
-0.033134162 0.024171755 0.54000002 4286157954
-0.03138024 0.024171755 0.54000002 4286026368
-0.029571457 0.024126993 0.53900003 4287272072
-0.027820785 0.024126993 0.53900003 4281608484
-0.026021743 0.02408223 0.53800005 4285815375
-0.024229197 0.024037465 0.537 4283904548
-0.022443149 0.023992704 0.53600001 4285016097
-0.020663599 0.023947943 0.53500003 4284752925
-0.018890541 0.02390318 0.53400004 4284892220
-0.01712398 0.023858419 0.53300005 4287073660
-0.015363916 0.023813654 0.53200001 4285827704
-0.013610347 0.023768893 0.53100002 4285894267
-0.011885659 0.023768893 0.53100002 4285894267
-0.01016097 0.023768893 0.53100002 4285960060
-0.0084203929 0.023724129 0.53000003 4285828989
-0.0066989521 0.023724129 0.53000003 4286486919
-0.0049775112 0.023724129 0.53000003 4281084448
-0.003249927 0.023679368 0.52900004 4282985506
-0.0015288382 0.023634603 0.528 4284687384
0.00018575421 0.023589842 0.52700001 4285277466
0.001897451 0.023589842 0.52700001 4285343002
0.0036022994 0.023545079 0.52600002 4284356366
0.0053107482 0.023545079 0.52600002 4282849805
0.0070058531 0.023500318 0.52500004 4282197010
0.008711054 0.023500318 0.52500004 4281673746
0.010436095 0.023545079 0.52600002 4282327826
0.012144544 0.023545079 0.52600002 4282194703
0.013852993 0.023545079 0.52600002 4282263062
-0.034888085 0.025926271 0.54000002 4286026114
-0.033134162 0.025926271 0.54000002 4286091907
-0.03138024 0.025926271 0.54000002 4286092161
-0.029626319 0.025926271 0.54000002 4286157441
-0.027820785 0.02587826 0.53900003 4286352251
-0.026021743 0.02583025 0.53800005 4282723111
-0.024229197 0.025782235 0.537 4286472533
-0.022443149 0.025734225 0.53600001 4284624419
-0.020663599 0.025686214 0.53500003 4285017121
-0.018855166 0.025590193 0.53300005 4285081631
-0.017091852 0.025542177 0.53200001 4284030487
-0.015363916 0.025542177 0.53200001 4287664768
-0.013610347 0.025494168 0.53100002 4286089845
-0.011885659 0.025494168 0.53100002 4286025083
-0.010141834 0.025446156 0.53000003 4285894267
-0.0084203929 0.025446156 0.53000003 4285828474
-0.0066989521 0.025446156 0.53000003 4285828474
-0.0049681198 0.025398144 0.52900004 4287076488
-0.003249927 0.025398144 0.52900004 4281609761
-0.0015288382 0.025350131 0.528 4285346599
0.00018575421 0.02530212 0.52700001 4285409054
0.001897451 0.02530212 0.52700001 4284685072
0.0036091479 0.02530212 0.52700001 4287384899
0.0053107482 0.02525411 0.52600002 4285015836
0.0070191976 0.02525411 0.52600002 4284161810
0.0087442379 0.02530212 0.52700001 4282851342
0.010455935 0.02530212 0.52700001 4282916368
0.012167633 0.02530212 0.52700001 4282523154
0.013879329 0.02530212 0.52700001 4281934867
-0.033195518 0.027732046 0.54100001 4286157700
-0.031438351 0.027732046 0.54100001 4286157700
-0.029681183 0.027732046 0.54100001 4286026114
-0.027872398 0.027680786 0.54000002 4286091648
-0.02607011 0.027629526 0.53900003 4285492064
-0.024229197 0.027527003 0.537 4282854697
-0.022443149 0.027475743 0.53600001 4287263330
-0.020624975 0.027373223 0.53400004 4284363046
-0.018855166 0.027321963 0.53300005 4285147937
-0.017091852 0.027270699 0.53200001 4285344803
-0.015335036 0.027219439 0.53100002 4284687902
-0.013610347 0.027219439 0.53100002 4285217076
-0.011863275 0.027168179 0.53000003 4285751892
-0.010141834 0.027168179 0.53000003 4287201903
-0.0084203929 0.027168179 0.53000003 4287334772
-0.0066989521 0.027168179 0.53000003 4286479465
-0.0049681198 0.027116919 0.52900004 4285684048
-0.003249927 0.027116919 0.52900004 4285679676
-0.0015288382 0.027065657 0.528 4285277468
0.00018610668 0.027065657 0.528 4285539611
0.001897451 0.027014397 0.52700001 4285014298
0.0036091479 0.027014397 0.52700001 4285739561
0.0053208447 0.027014397 0.52700001 4284685329
0.007032542 0.027014397 0.52700001 4284161038
0.0087608304 0.027065657 0.528 4283178510
0.010475776 0.027065657 0.528 4282784784
0.01221381 0.027116919 0.52900004 4282195473
0.013932003 0.027116919 0.52900004 4281279249
-0.033195518 0.02948981 0.54100001 4286091907
-0.031438351 0.02948981 0.54100001 4286223493
-0.029736049 0.029544322 0.54200006 4286091907
-0.027924014 0.02948981 0.54100001 4286026114
-0.02607011 0.029380793 0.53900003 4286748291
-0.024229197 0.02927177 0.537 4282729012
-0.022401279 0.029162752 0.53500003 4283115807
-0.020624975 0.029108243 0.53400004 4284428325
-0.018855166 0.029053735 0.53300005 4286134319
-0.017091852 0.028999222 0.53200001 4285738791
-0.015335036 0.028944712 0.53100002 4287254333
-0.013584715 0.028890204 0.53000003 4286597178
-0.011863275 0.028890204 0.53000003 4285147683
-0.010141834 0.028890204 0.53000003 4285607975
-0.0084203929 0.028890204 0.53000003 4285476902
-0.0066863131 0.028835695 0.52900004 4285543465
-0.0049681198 0.028835695 0.52900004 4285279269
-0.003249927 0.028835695 0.52900004 4284885281
-0.0015288382 0.028781181 0.528 4285081631
0.00018610668 0.028781181 0.528 4284949273
0.0019010515 0.028781181 0.528 4285473820
0.0036159963 0.028781181 0.528 4285014039
0.0053309412 0.028781181 0.528 4284161040
0.007045886 0.028781181 0.528 4283504393
0.0087774238 0.028835695 0.52900004 4282586635
0.010495617 0.028835695 0.52900004 4282456848
0.012236899 0.028890204 0.53000003 4281999892
0.01395834 0.028890204 0.53000003 4280885263
-0.029790912 0.031363092 0.54300004 4286157700
-0.027975632 0.031305335 0.54200006 4286091907
-0.02607011 0.031132057 0.53900003 4286092161
-0.024229197 0.031016538 0.537 4287077256
-0.022401279 0.030901022 0.53500003 4285023804
-0.020624975 0.030843263 0.53400004 4285348144
-0.018819788 0.030727744 0.53200001 4285673768
-0.017059725 0.030669985 0.53100002 4285343261
-0.015335036 0.030669985 0.53100002 4285277466
-0.013584715 0.030612227 0.53000003 4285212443
-0.011863275 0.030612227 0.53000003 4284160788
-0.010141834 0.030612227 0.53000003 4284294943
-0.0084203929 0.030612227 0.53000003 4283967522
-0.0066863131 0.03055447 0.52900004 4283244313
-0.0049681198 0.03055447 0.52900004 4284171579
-0.003243783 0.030496707 0.528 4287070580
-0.0015288382 0.030496707 0.528 4286340695
0.00018610668 0.030496707 0.528 4284031519
0.0019010515 0.030496707 0.528 4284358939
0.0036159963 0.030496707 0.528 4283964181
0.0053309412 0.030496707 0.528 4283111182
0.0070592314 0.03055447 0.52900004 4282586121
0.0087940162 0.030612227 0.53000003 4282193678
0.010515457 0.030612227 0.53000003 4282326291
0.012259987 0.030669985 0.53100002 4281935898
-0.028027246 0.033127356 0.54300004 4286091907
-0.02607011 0.032883324 0.53900003 4286157954
-0.024229197 0.032761306 0.537 4286092159
-0.022401279 0.032639291 0.53500003 4285817172
-0.020586351 0.032517277 0.53300005 4284757290
-0.018819788 0.032456264 0.53200001 4285148705
-0.017059725 0.032395259 0.53100002 4284686871
-0.015306157 0.032334249 0.53000003 4284423701
-0.013584715 0.032334249 0.53000003 4283964433
-0.011863275 0.032334249 0.53000003 4287132264
-0.010141834 0.032334249 0.53000003 4287140221
-0.0084045054 0.032273244 0.52900004 4286483576
-0.0066863131 0.032273244 0.52900004 4286286710
-0.0049681198 0.032273244 0.52900004 4285892982
-0.003243783 0.032212231 0.528 4285892982
-0.0015288382 0.032212231 0.528 4287796613
0.00018610668 0.032212231 0.528 4282721821
0.0019010515 0.032212231 0.528 4283572762
0.0036159963 0.032212231 0.528 4283310104
0.0053410381 0.032273244 0.52900004 4282587664
0.0070592314 0.032273244 0.52900004 4282521873
0.0087940162 0.032334249 0.53000003 4282326291
0.010535298 0.032395259 0.53100002 4282328344
0.012259987 0.032395259 0.53100002 4280753939
-0.026021743 0.034570336 0.53800005 4286026114
-0.024184078 0.034441818 0.53600001 4286026114
-0.022359408 0.034313306 0.53400004 4286875000
-0.020586351 0.034249049 0.53300005 4283707944
-0.018819788 0.034184791 0.53200001 4284296224
-0.017059725 0.034120534 0.53100002 4283834903
-0.015306157 0.034056276 0.53000003 4283440917
-0.013584715 0.034056276 0.53000003 4282849553
-0.011840892 0.033992022 0.52900004 4281078540
-0.010122699 0.033992022 0.52900004 4286411369
-0.0084045054 0.033992022 0.52900004 4286612855
-0.0066863131 0.033992022 0.52900004 4286481269
-0.0049587279 0.033927761 0.528 4284638297
-0.003243783 0.033927761 0.528 4282333234
-0.0015288382 0.033927761 0.528 4281473816
0.00018610668 0.033927761 0.528 4282459426
0.0019010515 0.033927761 0.528 4283643436
0.0036159963 0.033927761 0.528 4282261270
0.0053410381 0.033992022 0.52900004 4282523158
0.0070592314 0.033992022 0.52900004 4282523670
0.0087940162 0.034056276 0.53000003 4282196758
0.010535298 0.034120534 0.53100002 4281672211
-0.025973374 0.036250841 0.537 4286091907
-0.024138959 0.036115833 0.53500003 4286223493
-0.022359408 0.036048327 0.53400004 4286550916
-0.020547727 0.035913311 0.53200001 4282531381
-0.018784413 0.035845805 0.53100002 4284035112
-0.017059725 0.035845805 0.53100002 4283442975
-0.015306157 0.035778299 0.53000003 4282786328
-0.013584715 0.035778299 0.53000003 4282655256
-0.011840892 0.035710797 0.52900004 4282524955
-0.010122699 0.035710797 0.52900004 4282195736
-0.0083886171 0.035643287 0.528 4282065435
-0.0066736727 0.035643287 0.528 4281671193
-0.0049587279 0.035643287 0.528 4282331435
-0.003243783 0.035643287 0.528 4283451715
-0.0015317338 0.035710797 0.52900004 4284639067
0.00018610668 0.035643287 0.528 4285625960
0.0019010515 0.035643287 0.528 4285560937
0.003622845 0.035710797 0.52900004 4284835674
0.0053410381 0.035710797 0.52900004 4281343255
0.0070592314 0.035710797 0.52900004 4281277203
-0.025925007 0.037924856 0.53600001 4286091907
-0.024138959 0.037854102 0.53500003 4286091907
-0.022317536 0.037712593 0.53300005 4286026114
-0.020547727 0.037641834 0.53200001 4286748554
-0.018784413 0.03757108 0.53100002 4283320127
-0.017027598 0.037500326 0.53000003 4282527018
-0.015306157 0.037500326 0.53000003 4282394146
-0.013559084 0.037429571 0.52900004 4282525219
-0.011840892 0.037429571 0.52900004 4282525732
-0.010103562 0.037358813 0.528 4282791471
-0.0083727296 0.037288059 0.52700001 4286285173
-0.0066610333 0.037288059 0.52700001 4286615935
-0.0049493364 0.037288059 0.52700001 4286286972
-0.0032376396 0.037288059 0.52700001 4286090363
-0.0015288382 0.037358813 0.528 4285498741
-0.025925007 0.039666373 0.53600001 4286223493
-0.02409384 0.039518367 0.53400004 4286157700
-0.022317536 0.039444365 0.53300005 4286091907
-0.020547727 0.039370354 0.53200001 4286157700
-0.018784413 0.039296351 0.53100002 4286091648
-0.017027598 0.039222348 0.53000003 4286945672
-0.015277278 0.039148346 0.52900004 4286351738
-0.013559084 0.039148346 0.52900004 4286154359
-0.011818508 0.039074335 0.528 4286879109
-0.010084427 0.039000332 0.52700001 4286025083
-0.0083568422 0.038926329 0.52600002 4285894269
-0.0066357548 0.038852327 0.52500004 4285828476
-0.004930554 0.038852327 0.52500004 4285894269
-0.0032314961 0.038926329 0.52600002 4285696890
-0.02409384 0.041253388 0.53400004 4286091907
-0.022317536 0.041176133 0.53300005 4286091907
-0.020547727 0.041098878 0.53200001 4286026114
-0.018784413 0.041021626 0.53100002 4286026114
-0.017027598 0.040944371 0.53000003 4286026114
-0.015277278 0.04086712 0.52900004 4285959808
-0.013533452 0.040789861 0.528 4285959808
-0.011796124 0.04071261 0.52700001 4285960062
-0.010065292 0.040635359 0.52600002 4285894269
-0.0083250673 0.040480852 0.52400005 4285894267
-0.0066231154 0.040480852 0.52400005 4285960060
-0.0049211625 0.040480852 0.52400005 4286091648
-0.0032253526 0.040558103 0.52500004 4285762683
-0.016995471 0.042585894 0.52900004 4286026114
-0.015277278 0.042585894 0.52900004 4286026114
-0.013533452 0.042505387 0.528 4285894528
-0.011773741 0.042344384 0.52600002 4285828735
-0.010046156 0.042263884 0.52500004 4285894782
-0.0083091799 0.042102877 0.523 4285697403
-0.006597836 0.042022374 0.52200001 4285894782
-0.0049023791 0.042022374 0.52200001 4285828989
-0.0082932925 0.043718405 0.52200001 4285828735
-0.010370389 0.012058409 0.5301795 4294967295
-0.010370389 0.012058409 0.5301795 4294901760
-0.010370389 0.012058409 0.53067952 4294901760
-0.010370389 0.012058409 0.53117949 4294901760
-0.010370389 0.012058409 0.53167951 4294901760
-0.010370389 0.012058409 0.53217947 4294901760
-0.010370389 0.012058409 0.5326795 4294901760
-0.010370389 0.012058409 0.53317952 4294901760
-0.010370389 0.012058409 0.53367949 4294901760
-0.010370389 0.012058409 0.53417951 4294901760
-0.010370389 0.012058409 0.53467947 4294901760
-0.010370389 0.012058409 0.5351795 4294901760
-0.010370389 0.012058409 0.53567952 4294901760
-0.010370389 0.012058409 0.53617948 4294901760
-0.010370389 0.012058409 0.53667951 4294901760
-0.010370389 0.012058409 0.53717953 4294901760
-0.010370389 0.012058409 0.53767949 4294901760
-0.010370389 0.012058409 0.53817952 4294901760
-0.010370389 0.012058409 0.53867948 4294901760
-0.010370389 0.012058409 0.5391795 4294901760
-0.010370389 0.012058409 0.53967953 4294901760
-0.010370389 0.012058409 0.54017949 4294901760
-0.010370389 0.012058409 0.54067951 4294901760
-0.010370389 0.012058409 0.54117948 4294901760
-0.010370389 0.012058409 0.5416795 4294901760
-0.010370389 0.012058409 0.54217952 4294901760
-0.010370389 0.012058409 0.54267949 4294901760
-0.010370389 0.012058409 0.54317951 4294901760
-0.010370389 0.012058409 0.54367948 4294901760
-0.010370389 0.012058409 0.5441795 4294901760
-0.010370389 0.012058409 0.54467952 4294901760
-0.010370389 0.012058409 0.54517949 4294901760
-0.010370389 0.012058409 0.54567951 4294901760
-0.010370389 0.012058409 0.54617953 4294901760
-0.010370389 0.012058409 0.5466795 4294901760
-0.010370389 0.012058409 0.54717952 4294901760
-0.010370389 0.012058409 0.54767948 4294901760
-0.010370389 0.012058409 0.54817951 4294901760
-0.010370389 0.012058409 0.54867953 4294901760
-0.010370389 0.012058409 0.54917949 4294901760
-0.010370389 0.012058409 0.54967952 4294901760
-0.010370389 0.012058409 0.55017948 4294901760
-0.010370389 0.012058409 0.5506795 4294901760
-0.010370389 0.012058409 0.55117953 4294901760
-0.010370389 0.012058409 0.55167949 4294901760
-0.010370389 0.012058409 0.55217952 4294901760
-0.010370389 0.012058409 0.55267948 4294901760
-0.010370389 0.012058409 0.5531795 4294901760
-0.010370389 0.012058409 0.55367953 4294901760
-0.010370389 0.012058409 0.55417949 4294901760
-0.010370389 0.012058409 0.55467951 4294901760
-0.010370389 0.012058409 0.55517948 4294901760
-0.010370389 0.012058409 0.5556795 4294901760
-0.010370389 0.012058409 0.55617952 4294901760
-0.010370389 0.012058409 0.55667949 4294901760
-0.010370389 0.012058409 0.55717951 4294901760
-0.010370389 0.012058409 0.55767953 4294901760
-0.010370389 0.012058409 0.5581795 4294901760
-0.010370389 0.012058409 0.55867952 4294901760
-0.010370389 0.012058409 0.55917948 4294901760
-0.010370389 0.012058409 0.55967951 4294901760
-0.010370389 0.012058409 0.56017953 4294901760
-0.010370389 0.012058409 0.5606795 4294901760
-0.010370389 0.012058409 0.56117952 4294901760
-0.010370389 0.012058409 0.56167948 4294901760
-0.010370389 0.012058409 0.56217951 4294901760
-0.010370389 0.012058409 0.56267953 4294901760
-0.010370389 0.012058409 0.56317949 4294901760
-0.010370389 0.012058409 0.56367952 4294901760
-0.010370389 0.012058409 0.56417954 4294901760
-0.010370389 0.012058409 0.5646795 4294901760
-0.010370389 0.012058409 0.56517953 4294901760
-0.010370389 0.012058409 0.56567949 4294901760
-0.010370389 0.012058409 0.56617951 4294901760
-0.010370389 0.012058409 0.56667954 4294901760
-0.010370389 0.012058409 0.5671795 4294901760
-0.010370389 0.012058409 0.56767952 4294901760
-0.010370389 0.012058409 0.56817949 4294901760
-0.010370389 0.012058409 0.56867951 4294901760
-0.010370389 0.012058409 0.56917953 4294901760
-0.010370389 0.012058409 0.5696795 4294901760
-0.010370389 0.012058409 0.57017952 4294901760
-0.010370389 0.012058409 0.57067949 4294901760
-0.010370389 0.012058409 0.57117951 4294901760
-0.010370389 0.012058409 0.57167953 4294901760
-0.010370389 0.012058409 0.5721795 4294901760
-0.010370389 0.012058409 0.57267952 4294901760
-0.010370389 0.012058409 0.57317948 4294901760
-0.010370389 0.012058409 0.57367951 4294901760
-0.010370389 0.012058409 0.57417953 4294901760
-0.010370389 0.012058409 0.57467949 4294901760
-0.010370389 0.012058409 0.57517952 4294901760
-0.010370389 0.012058409 0.57567954 4294901760
-0.010370389 0.012058409 0.5761795 4294901760
-0.010370389 0.012058409 0.57667953 4294901760
-0.010370389 0.012058409 0.57717949 4294901760
-0.010370389 0.012058409 0.57767951 4294901760
-0.010370389 0.012058409 0.57817954 4294901760
-0.010370389 0.012058409 0.5786795 4294901760
-0.010370389 0.012058409 0.57917953 4294901760
-0.010370389 0.012058409 0.57967949 4294901760
-0.010370389 0.012058409 0.58017951 4294901760
-0.010370389 0.012058409 0.5301795 4278255360
-0.010197124 0.012049071 0.53064841 4278255360
-0.010023857 0.012039735 0.53111738 4278255360
-0.0098505924 0.012030398 0.53158629 4278255360
-0.0096773263 0.012021061 0.5320552 4278255360
-0.0095040612 0.012011724 0.53252411 4278255360
-0.0093307961 0.012002387 0.53299308 4278255360
-0.00915753 0.011993051 0.53346199 4278255360
-0.0089842649 0.011983713 0.5339309 4278255360
-0.0088109989 0.011974376 0.53439987 4278255360
-0.0086377338 0.011965039 0.53486878 4278255360
-0.0084644677 0.011955703 0.53533769 4278255360
-0.0082912026 0.011946365 0.5358066 4278255360
-0.0081179375 0.011937029 0.53627557 4278255360
-0.0079446714 0.011927691 0.53674448 4278255360
-0.0077714059 0.011918355 0.53721339 4278255360
-0.0075981403 0.011909017 0.53768229 4278255360
-0.0074248752 0.01189968 0.53815126 4278255360
-0.0072516091 0.011890343 0.53862017 4278255360
-0.007078344 0.011881007 0.53908908 4278255360
-0.0069050784 0.011871669 0.53955805 4278255360
-0.0067318128 0.011862332 0.54002696 4278255360
-0.0065585477 0.011852995 0.54049587 4278255360
-0.0063852821 0.011843659 0.54096478 4278255360
-0.0062120166 0.011834322 0.54143375 4278255360
-0.006038751 0.011824984 0.54190266 4278255360
-0.0058654859 0.011815648 0.54237157 4278255360
-0.0056922198 0.011806311 0.54284054 4278255360
-0.0055189542 0.011796974 0.54330945 4278255360
-0.0053456891 0.011787636 0.54377836 4278255360
-0.0051724231 0.0117783 0.54424727 4278255360
-0.004999158 0.011768963 0.54471624 4278255360
-0.0048258924 0.011759626 0.54518515 4278255360
-0.0046526268 0.011750288 0.54565406 4278255360
-0.0044793612 0.011740952 0.54612303 4278255360
-0.0043060961 0.011731615 0.54659194 4278255360
-0.0041328301 0.011722278 0.54706085 4278255360
-0.003959565 0.01171294 0.54752976 4278255360
-0.0037862994 0.011703604 0.54799873 4278255360
-0.0036130343 0.011694267 0.54846764 4278255360
-0.0034397682 0.01168493 0.54893655 4278255360
-0.0032665031 0.011675593 0.54940546 4278255360
-0.0030932375 0.011666256 0.54987442 4278255360
-0.0029199719 0.011656919 0.55034333 4278255360
-0.0027467064 0.011647582 0.55081224 4278255360
-0.0025734412 0.011638245 0.55128121 4278255360
-0.0024001757 0.011628908 0.55175012 4278255360
-0.0022269096 0.011619572 0.55221903 4278255360
-0.0020536445 0.011610234 0.55268794 4278255360
-0.0018803785 0.011600897 0.55315691 4278255360
-0.0017071133 0.01159156 0.55362582 4278255360
-0.0015338482 0.011582224 0.55409473 4278255360
-0.0013605831 0.011572886 0.5545637 4278255360
-0.0011873171 0.011563549 0.55503261 4278255360
-0.001014051 0.011554212 0.55550152 4278255360
-0.00084078591 0.011544876 0.55597043 4278255360
-0.00066751987 0.011535538 0.5564394 4278255360
-0.00049425475 0.011526201 0.55690831 4278255360
-0.00032098964 0.011516864 0.55737722 4278255360
-0.00014772452 0.011507528 0.55784619 4278255360
2.5542453e-05 0.01149819 0.5583151 4278255360
0.00019880757 0.011488853 0.55878401 4278255360
0.00037207268 0.011479517 0.55925292 4278255360
0.0005453378 0.01147018 0.55972189 4278255360
0.00071860384 0.011460843 0.5601908 4278255360
0.00089186896 0.011451505 0.56065971 4278255360
0.001065135 0.011442169 0.56112862 4278255360
0.0012384001 0.011432832 0.56159759 4278255360
0.0014116662 0.011423495 0.5620665 4278255360
0.0015849313 0.011414157 0.56253541 4278255360
0.0017581964 0.011404821 0.56300437 4278255360
0.0019314615 0.011395484 0.56347328 4278255360
0.0021047285 0.011386147 0.56394219 4278255360
0.0022779936 0.011376809 0.5644111 4278255360
0.0024512587 0.011367473 0.56488007 4278255360
0.0026245248 0.011358136 0.56534898 4278255360
0.0027977899 0.011348799 0.56581789 4278255360
0.002971055 0.011339461 0.56628686 4278255360
0.0031443201 0.011330125 0.56675577 4278255360
0.0033175871 0.011320788 0.56722468 4278255360
0.0034908522 0.011311451 0.56769359 4278255360
0.0036641173 0.011302114 0.56816256 4278255360
0.0038373824 0.011292777 0.56863147 4278255360
0.0040106485 0.011283441 0.56910038 4278255360
0.0041839136 0.011274103 0.56956935 4278255360
0.0043571796 0.011264766 0.57003826 4278255360
0.0045304447 0.011255429 0.57050717 4278255360
0.0047037108 0.011246093 0.57097608 4278255360
0.0048769759 0.011236755 0.57144505 4278255360
