# .PCD v0.7 - Point Cloud Data file format
VERSION 0.7
FIELDS x y z rgb
SIZE 4 4 4 4
TYPE F F F U
COUNT 1 1 1 1
WIDTH 1067
HEIGHT 1
VIEWPOINT 0 0 0 1 0 0 0
POINTS 1067
DATA ascii
0.050546836 0.040103752 0.34500003 4278399759
0.051517628 0.039987508 0.34400001 4278400529
0.052634943 0.039987508 0.34400001 4278268943
0.053596001 0.039871268 0.34300002 4278663701
0.054550558 0.03975502 0.34200001 4278334736
0.055661373 0.03975502 0.34200001 4278268943
0.056772191 0.03975502 0.34200001 4278400529
0.057883006 0.03975502 0.34200001 4278334736
0.039911389 0.04182215 0.35000002 4279057176
0.041048191 0.04182215 0.35000002 4278860308
0.04218499 0.04182215 0.35000002 4279123480
0.043198012 0.041702658 0.34900001 4278729492
0.044331562 0.041702658 0.34900001 4278597906
0.045465115 0.041702658 0.34900001 4278334734
0.046465151 0.041583166 0.34800002 4278334736
0.047458682 0.041463673 0.347 4278532115
0.048445724 0.041344184 0.34600002 4278400529
0.049569536 0.041344184 0.34600002 4278532115
0.050546836 0.041224692 0.34500003 4278268943
0.051517628 0.0411052 0.34400001 4278333966
0.052481938 0.040985707 0.34300002 4278268173
0.053596001 0.040985707 0.34300002 4278399759
0.054550558 0.040866215 0.34200001 4278197760
0.055661373 0.040866215 0.34200001 4278196480
0.056772191 0.040866215 0.34200001 4278464015
0.057883006 0.040866215 0.34200001 4278399246
0.058821328 0.040746726 0.34100002 4278203150
0.059928901 0.040746726 0.34100002 4278597908
0.037852861 0.043204818 0.35200003 4279379477
0.03888537 0.043082077 0.35100001 4279711774
0.04002542 0.043082077 0.35100001 4278991896
0.041048191 0.042959336 0.35000002 4278794515
0.04218499 0.042959336 0.35000002 4278861078
0.043321788 0.042959336 0.35000002 4278729492
0.044331562 0.042836595 0.34900001 4278400527
0.045465115 0.042836595 0.34900001 4278400527
0.046465151 0.042713854 0.34800002 4278334736
0.047458682 0.04259111 0.347 4278334736
0.048445724 0.042468373 0.34600002 4278400529
0.049426273 0.042345632 0.34500003 4278334736
0.050546836 0.042345632 0.34500003 4278399759
0.051517628 0.042222891 0.34400001 4278465552
0.052481938 0.04210015 0.34300002 4278333966
0.053596001 0.04210015 0.34300002 4278465552
0.054550558 0.041977406 0.34200001 4278330634
0.055661373 0.041977406 0.34200001 4279054103
0.056772191 0.041977406 0.34200001 4278198534
0.057883006 0.041977406 0.34200001 4278595601
0.058821328 0.041854668 0.34100002 4278662931
0.059928901 0.041854668 0.34100002 4278334736
0.061036471 0.041854668 0.34100002 4278268943
0.062144034 0.041854668 0.34100002 4278334736
0.037852861 0.044348504 0.35200003 4279182096
0.038996156 0.044348504 0.35200003 4279909151
0.04002542 0.044222515 0.35100001 4279123480
0.041165467 0.044222515 0.35100001 4278728722
0.04218499 0.044096526 0.35000002 4278795285
0.043321788 0.044096526 0.35000002 4278663699
0.044331562 0.043970533 0.34900001 4278334734
0.045465115 0.043970533 0.34900001 4278532113
0.046465151 0.043844543 0.34800002 4278400527
0.047458682 0.04371855 0.347 4278334734
0.048445724 0.043592565 0.34600002 4278532113
0.049426273 0.043466575 0.34500003 4278400527
0.050546836 0.043466575 0.34500003 4278465550
0.051517628 0.043340582 0.34400001 4278399759
0.052481938 0.043214593 0.34300002 4278531345
0.053596001 0.043214593 0.34300002 4278333966
0.054550558 0.043088604 0.34200001 4278857748
0.055661373 0.043088604 0.34200001 4278856724
0.056772191 0.043088604 0.34200001 4278726675
0.057883006 0.043088604 0.34200001 4278529294
0.058821328 0.042962614 0.34100002 4278333453
0.059928901 0.042962614 0.34100002 4278333966
0.061036471 0.042962614 0.34100002 4278202380
0.062144034 0.042962614 0.34100002 4278399759
0.06306611 0.042836621 0.34 4278399759
0.037960395 0.045621425 0.35300002 4279380242
0.038996156 0.045492187 0.35200003 4279778332
0.04002542 0.045362946 0.35100001 4278662929
0.041165467 0.045362946 0.35100001 4278597906
0.04218499 0.045233708 0.35000002 4279058457
0.043321788 0.045233708 0.35000002 4278795285
0.044331562 0.045104466 0.34900001 4278597906
0.045465115 0.045104466 0.34900001 4278532113
0.046465151 0.044975229 0.34800002 4278334734
0.047458682 0.044845987 0.347 4278400529
0.048445724 0.044716749 0.34600002 4278532115
0.049426273 0.044587512 0.34500003 4278268943
0.050546836 0.044587512 0.34500003 4278531343
0.051517628 0.04445827 0.34400001 4278465550
0.052481938 0.044329032 0.34300002 4278531345
0.053596001 0.044329032 0.34300002 4278201609
0.054710064 0.044329032 0.34300002 4278194944
0.055661373 0.044199791 0.34200001 4278195460
0.056772191 0.044199791 0.34200001 4278660880
0.057883006 0.044199791 0.34200001 4278529808
0.058821328 0.044070557 0.34100002 4278198019
0.059928901 0.044070557 0.34100002 4278195712
0.061036471 0.044070557 0.34100002 4278194944
0.061961792 0.043941315 0.34 4278196740
0.06306611 0.043941315 0.34 4278395914
0.063981704 0.043812077 0.33900002 4278331404
0.065082774 0.043812077 0.33900002 4278660880
0.066183843 0.043812077 0.33900002 4278726673
0.037960395 0.04676836 0.35300002 4279249424
0.038996156 0.046635874 0.35200003 4279582234
0.040139455 0.046635874 0.35200003 4278662929
0.041165467 0.046503384 0.35100001 4278795285
0.042305518 0.046503384 0.35100001 4278993177
0.043321788 0.046370897 0.35000002 4278664212
0.04445859 0.046370897 0.35000002 4278532113
0.045465115 0.046238404 0.34900001 4278597906
0.046465151 0.046105918 0.34800002 4278532113
0.047458682 0.045973428 0.347 4278334734
0.048445724 0.045840941 0.34600002 4278400529
0.049569536 0.045840941 0.34600002 4278532115
0.050546836 0.045708455 0.34500003 4278334736
0.051517628 0.045575965 0.34400001 4278334736
0.052481938 0.045443479 0.34300002 4278465552
0.053596001 0.045443479 0.34300002 4278399246
0.054710064 0.045443479 0.34300002 4278196486
0.055661373 0.045310989 0.34200001 4279183381
0.056772191 0.045310989 0.34200001 4278661394
0.057883006 0.045310989 0.34200001 4278398222
0.058821328 0.045178503 0.34100002 4278195461
0.059928901 0.045178503 0.34100002 4278456326
0.061036471 0.045178503 0.34100002 4278390535
0.061961792 0.045046009 0.34 4278456328
0.06306611 0.045046009 0.34 4278456328
0.063981704 0.044913523 0.33900002 4278456839
0.065082774 0.044913523 0.33900002 4278326019
0.066183843 0.044913523 0.33900002 4278194688
0.067086443 0.044781037 0.33800003 4278195201
0.068184264 0.044781037 0.33800003 4278263304
0.069282085 0.044781037 0.33800003 4278988564
0.070379913 0.044781037 0.33800003 4278660880
0.071477741 0.044781037 0.33800003 4278464269
0.072360836 0.044648547 0.33700001 4278661648
0.037960395 0.047915291 0.35300002 4279315217
0.038996156 0.047779553 0.35200003 4279648027
0.040139455 0.047779553 0.35200003 4278728722
0.041165467 0.047643814 0.35100001 4278861078
0.042305518 0.047643814 0.35100001 4278927384
0.043321788 0.04750808 0.35000002 4278730005
0.04445859 0.04750808 0.35000002 4278532113
0.045465115 0.047372341 0.34900001 4278334734
0.046465151 0.047236603 0.34800002 4278334736
0.047458682 0.047100864 0.347 4278532115
0.048585739 0.047100864 0.347 4278334736
0.049569536 0.04696513 0.34600002 4278334736
0.050546836 0.046829391 0.34500003 4278532115
0.051517628 0.046693653 0.34400001 4278531345
0.052634943 0.046693653 0.34400001 4278596625
0.053596001 0.046557918 0.34300002 4278465039
0.054710064 0.046557918 0.34300002 4278195202
0.055661373 0.04642218 0.34200001 4279381271
0.056772191 0.04642218 0.34200001 4278726673
0.057883006 0.04642218 0.34200001 4278529294
0.058993824 0.04642218 0.34200001 4278391814
0.059928901 0.046286441 0.34100002 4278587912
0.061036471 0.046286441 0.34100002 4278587914
0.061961792 0.046150703 0.34 4278587144
0.06306611 0.046150703 0.34 4278652937
0.064170435 0.046150703 0.34 4278587144
0.065082774 0.046014968 0.33900002 4278652935
0.066183843 0.046014968 0.33900002 4278652935
0.067284919 0.046014968 0.33900002 4278587142
0.068184264 0.04587923 0.33800003 4278522119
0.069282085 0.04587923 0.33800003 4278391046
0.070379913 0.04587923 0.33800003 4278194951
0.071477741 0.04587923 0.33800003 4278195458
0.072360836 0.045743492 0.33700001 4278195970
0.073455416 0.045743492 0.33700001 4278199561
0.074549995 0.045743492 0.33700001 4278595087
0.075644568 0.045743492 0.33700001 4278529808
0.076739147 0.045743492 0.33700001 4278530062
0.084227271 0.045064807 0.33200002 4278333966
0.037960395 0.049062226 0.35300002 4279183631
0.038996156 0.048923239 0.35200003 4279319578
0.040139455 0.048923239 0.35200003 4278794515
0.041282751 0.048923239 0.35200003 4278926101
0.042305518 0.048784252 0.35100001 4278992662
0.043445565 0.048784252 0.35100001 4278861076
0.04445859 0.048645265 0.35000002 4278400525
0.045465115 0.048506279 0.34900001 4278532111
0.046598669 0.048506279 0.34900001 4278662929
0.047595453 0.048367295 0.34800002 4278465552
0.048585739 0.048228305 0.347 4278531345
0.049569536 0.048089322 0.34600002 4278465552
0.050546836 0.047950335 0.34500003 4278399759
0.051517628 0.047811348 0.34400001 4278465552
0.052634943 0.047811348 0.34400001 4278531345
0.053596001 0.047672361 0.34300002 4278530832
0.054710064 0.047672361 0.34300002 4278260996
0.055824131 0.047672361 0.34300002 4279578650
0.056772191 0.047533374 0.34200001 4278726673
0.057883006 0.047533374 0.34200001 4278595087
0.058993824 0.047533374 0.34200001 4278456839
0.059928901 0.047394387 0.34100002 4279114769
0.061036471 0.047394387 0.34100002 4278325253
0.062144034 0.047394387 0.34100002 4279114769
0.06306611 0.047255401 0.34 4278917390
0.064170435 0.047255401 0.34 4279707420
0.065082774 0.047116414 0.33900002 4278917644
0.066183843 0.047116414 0.33900002 4278719752
0.067284919 0.047116414 0.33900002 4278522119
0.068385988 0.047116414 0.33900002 4278587142
0.069282085 0.046977431 0.33800003 4278456326
0.070379913 0.046977431 0.33800003 4278456328
0.071477741 0.046977431 0.33800003 4278456328
0.072575562 0.046977431 0.33800003 4278391046
0.073455416 0.04683844 0.33700001 4278196740
0.074549995 0.04683844 0.33700001 4278725392
0.075644568 0.04683844 0.33700001 4278195969
0.076511435 0.046699457 0.33600003 4278196228
0.077602766 0.046699457 0.33600003 4278194944
0.078459881 0.046560466 0.33500001 4278198024
0.079547957 0.046560466 0.33500001 4278726160
0.080395341 0.046421483 0.33400002 4278726673
0.081480168 0.046421483 0.33400002 4278530062
0.082317799 0.046282496 0.333 4278595855
0.083399378 0.046282496 0.333 4278595855
0.084227271 0.046143509 0.33200002 4278465039
0.085305609 0.046143509 0.33200002 4278333966
0.086383946 0.046143509 0.33200002 4278531345
0.087462284 0.046143509 0.33200002 4278728724
0.037960395 0.050209161 0.35300002 4278854668
0.039106943 0.050209161 0.35300002 4279187992
0.040139455 0.050066926 0.35200003 4278729492
0.041282751 0.050066926 0.35200003 4278992664
0.042426046 0.050066926 0.35200003 4278992664
0.043445565 0.04992469 0.35100001 4278663699
0.044585612 0.04992469 0.35100001 4278532113
0.045595393 0.049782455 0.35000002 4278400527
0.046598669 0.049640216 0.34900001 4278532113
0.047595453 0.049497984 0.34800002 4278334734
0.048585739 0.049355745 0.347 4278268943
0.049569536 0.049213514 0.34600002 4278268943
0.050546836 0.049071278 0.34500003 4278399759
0.051667392 0.049071278 0.34500003 4278531345
0.052634943 0.048929039 0.34400001 4278530832
0.053596001 0.048786808 0.34300002 4278529294
0.054710064 0.048786808 0.34300002 4278195464
0.055824131 0.048786808 0.34300002 4279118101
0.056772191 0.048644569 0.34200001 4278792466
0.057883006 0.048644569 0.34200001 4278660880
0.058993824 0.048644569 0.34200001 4278654472
0.059928901 0.048502333 0.34100002 4279049490
0.061036471 0.048502333 0.34100002 4278721549
0.062144034 0.048502333 0.34100002 4279379479
0.06306611 0.048360098 0.34 4278260744
0.064170435 0.048360098 0.34 4279051027
0.065274753 0.048360098 0.34 4278194176
0.066183843 0.048217863 0.33900002 4279115535
0.067284919 0.048217863 0.33900002 4279379477
0.068385988 0.048217863 0.33900002 4278655756
0.069282085 0.048075628 0.33800003 4279115537
0.070379913 0.048075628 0.33800003 4278654986
0.071477741 0.048075628 0.33800003 4278785804
0.072575562 0.048075628 0.33800003 4278456839
0.073455416 0.047933392 0.33700001 4278657548
0.074549995 0.047933392 0.33700001 4278922769
0.075644568 0.047933392 0.33700001 4278857746
0.076739147 0.047933392 0.33700001 4278857746
0.077602766 0.047791157 0.33600003 4279054357
0.07869409 0.047791157 0.33600003 4279317529
0.079547957 0.047648918 0.33500001 4278329099
0.080636039 0.047648918 0.33500001 4278195973
0.081480168 0.047506686 0.33400002 4278195712
0.082317799 0.047364447 0.333 4278195969
0.083399378 0.047364447 0.333 4278196997
0.084480964 0.047364447 0.333 4278659086
0.085305609 0.047222216 0.33200002 4278660880
0.086383946 0.047222216 0.33200002 4278464269
0.087462284 0.047222216 0.33200002 4278530062
0.088540621 0.047222216 0.33200002 4278727441
0.089618966 0.047222216 0.33200002 4278465039
0.090697289 0.047222216 0.33200002 4278530832
0.091775626 0.047222216 0.33200002 4278465037
0.092574291 0.04707998 0.33100003 4278596623
0.09364938 0.04707998 0.33100003 4278530830
0.039106943 0.051356092 0.35300002 4279384344
0.040253483 0.051356092 0.35300002 4278926101
0.041282751 0.051210608 0.35200003 4278729492
0.042426046 0.051210608 0.35200003 4278993177
0.043569341 0.051210608 0.35200003 4278730005
0.044585612 0.051065121 0.35100001 4278334734
0.045595393 0.050919637 0.35000002 4278597906
0.046598669 0.05077415 0.34900001 4278400527
0.047595453 0.05062867 0.34800002 4278334734
0.048585739 0.050483182 0.347 4278532113
0.049569536 0.050337698 0.34600002 4278532113
0.050546836 0.050192215 0.34500003 4278597908
0.051667392 0.050192215 0.34500003 4278662931
0.052634943 0.050046727 0.34400001 4278661648
0.053596001 0.049901247 0.34300002 4278528013
0.054710064 0.049901247 0.34300002 4278654986
0.055824131 0.049901247 0.34300002 4278788621
0.056772191 0.04975576 0.34200001 4278858259
0.057883006 0.04975576 0.34200001 4278265611
0.058993824 0.04975576 0.34200001 4278654472
0.059928901 0.049610276 0.34100002 4278654218
0.061036471 0.049610276 0.34100002 4278326021
0.062144034 0.049610276 0.34100002 4278983951
0.06306611 0.049464788 0.34 4278524683
0.064170435 0.049464788 0.34 4279051025
0.065274753 0.049464788 0.34 4278457093
0.066183843 0.049319305 0.33900002 4279312914
0.067284919 0.049319305 0.33900002 4278195205
0.068385988 0.049319305 0.33900002 4278195205
0.069487065 0.049319305 0.33900002 4278194947
0.070379913 0.049173824 0.33800003 4279051025
0.071477741 0.049173824 0.33800003 4279511065
0.072575562 0.049173824 0.33800003 4278326021
0.07367339 0.049173824 0.33800003 4279249685
0.074549995 0.049028337 0.33700001 4278856976
0.075644568 0.049028337 0.33700001 4278661134
0.076739147 0.049028337 0.33700001 4278792720
0.077602766 0.048882853 0.33600003 4279055125
0.07869409 0.048882853 0.33600003 4278726160
0.079547957 0.048737366 0.33500001 4278660880
0.080636039 0.048737366 0.33500001 4278726673
0.081480168 0.048591882 0.33400002 4278857746
0.082565002 0.048591882 0.33400002 4278726160
0.083399378 0.048446395 0.333 4279054357
0.084480964 0.048446395 0.333 4278461707
0.08556255 0.048446395 0.333 4278195969
0.086383946 0.048300914 0.33200002 4278195456
0.087462284 0.048300914 0.33200002 4278194944
0.088540621 0.048300914 0.33200002 4278197251
0.089618966 0.048300914 0.33200002 4278725392
0.090697289 0.048300914 0.33200002 4278858259
0.091775626 0.048300914 0.33200002 4278661134
0.092574291 0.048155431 0.33100003 4278726925
0.09364938 0.048155431 0.33100003 4278792718
0.094724469 0.048155431 0.33100003 4278859025
0.095799558 0.048155431 0.33100003 4278596623
0.096581966 0.048009943 0.33000001 4278531343
0.097653806 0.048009943 0.33000001 4278728722
0.098725647 0.048009943 0.33000001 4278465550
0.099797487 0.048009943 0.33000001 4278465550
0.10086933 0.048009943 0.33000001 4278532111
0.10194118 0.048009943 0.33000001 4278795283
0.10301302 0.048009943 0.33000001 4278861076
0.10408485 0.048009943 0.33000001 4278861076
0.10515669 0.048009943 0.33000001 4278795283
0.039106943 0.052503027 0.35300002 4279511828
0.040253483 0.052503027 0.35300002 4278727441
0.04140003 0.052503027 0.35300002 4278859795
0.042426046 0.052354295 0.35200003 4278927384
0.043569341 0.052354295 0.35200003 4278730005
0.04471264 0.052354295 0.35200003 4278532113
0.045725662 0.052205559 0.35100001 4278663699
0.046732195 0.052056827 0.35000002 4278597906
0.047732219 0.051908091 0.34900001 4278532113
0.048725758 0.051759358 0.34800002 4278334734
0.049569536 0.05146189 0.34600002 4278597906
0.050693344 0.05146189 0.34600002 4278465552
0.051667392 0.051313158 0.34500003 4278531345
0.052634943 0.051164422 0.34400001 4278529808
0.053752258 0.051164422 0.34400001 4278593806
0.054710064 0.05101569 0.34300002 4279052820
0.055824131 0.05101569 0.34300002 4279119383
0.056772191 0.050866954 0.34200001 4278792468
0.057883006 0.050866954 0.34200001 4278461966
0.058993824 0.050866954 0.34200001 4278654472
0.059928901 0.050718222 0.34100002 4278719498
0.061036471 0.050718222 0.34100002 4278587912
0.062144034 0.050718222 0.34100002 4278652935
0.06306611 0.050569486 0.34 4278522119
0.064170435 0.050569486 0.34 4278522119
0.065274753 0.050569486 0.34 4278390533
0.066379078 0.050569486 0.34 4278522632
0.067284919 0.050420754 0.33900002 4278522632
0.068385988 0.050420754 0.33900002 4278851597
0.069487065 0.050420754 0.33900002 4279249685
0.070588134 0.050420754 0.33900002 4278789134
0.071477741 0.050272021 0.33800003 4278260996
0.072575562 0.050272021 0.33800003 4278522886
0.07367339 0.050272021 0.33800003 4279052820
0.074771211 0.050272021 0.33800003 4278857746
0.075644568 0.050123286 0.33700001 4278462988
0.076739147 0.050123286 0.33700001 4278196480
0.077602766 0.049974553 0.33600003 4278393097
0.07869409 0.049974553 0.33600003 4278327304
0.079547957 0.049825817 0.33500001 4278197761
0.080636039 0.049825817 0.33500001 4278661394
0.081724122 0.049825817 0.33500001 4278200072
0.082565002 0.049677085 0.33400002 4278331656
0.083649829 0.049677085 0.33400002 4278726414
0.084480964 0.049528349 0.333 4278792720
0.08556255 0.049528349 0.333 4278792466
0.086644135 0.049528349 0.333 4278857746
0.087462284 0.049379617 0.33200002 4279317527
0.088540621 0.049379617 0.33200002 4278856463
0.089618966 0.049379617 0.33200002 4279053074
0.090697289 0.049379617 0.33200002 4278196997
0.091775626 0.049379617 0.33200002 4278194944
0.092574291 0.049230885 0.33100003 4278193920
0.09364938 0.049230885 0.33100003 4278196224
0.094724469 0.049230885 0.33100003 4278197763
0.095799558 0.049230885 0.33100003 4278792207
0.096874639 0.049230885 0.33100003 4278923793
0.097653806 0.049082149 0.33000001 4278726925
0.098725647 0.049082149 0.33000001 4278661646
0.099797487 0.049082149 0.33000001 4278530830
0.10086933 0.049082149 0.33000001 4278465037
0.10194118 0.049082149 0.33000001 4278662927
0.10301302 0.049082149 0.33000001 4278531341
0.10408485 0.049082149 0.33000001 4278662927
0.10515669 0.049082149 0.33000001 4278794513
0.10622853 0.049082149 0.33000001 4278861076
0.10730037 0.049082149 0.33000001 4278795283
0.10837222 0.049082149 0.33000001 4278795283
0.10944406 0.049082149 0.33000001 4278927382
0.11051589 0.049082149 0.33000001 4278664980
0.11158773 0.049082149 0.33000001 4278862359
0.11265957 0.049082149 0.33000001 4278928152
0.11373141 0.049082149 0.33000001 4278993175
0.040253483 0.053649958 0.35300002 4278723080
0.04140003 0.053649958 0.35300002 4279317268
0.042546574 0.053649958 0.35300002 4279780129
0.043569341 0.053497978 0.35200003 4278926103
0.04471264 0.053497978 0.35200003 4278926103
0.045725662 0.053345989 0.35100001 4279123482
0.046732195 0.053194009 0.35000002 4279255068
0.047732219 0.053042024 0.34900001 4278991896
0.048725758 0.052890044 0.34800002 4279189275
0.049712799 0.052738059 0.347 4278860310
0.050693344 0.052586075 0.34600002 4278860310
0.051667392 0.052434094 0.34500003 4278728724
0.052634943 0.05228211 0.34400001 4278989847
0.053752258 0.05228211 0.34400001 4278198277
0.054710064 0.052130129 0.34300002 4278921236
0.055824131 0.052130129 0.34300002 4278988310
0.056772191 0.051978145 0.34200001 4278924568
0.057883006 0.051978145 0.34200001 4278858775
0.058993824 0.051978145 0.34200001 4279118613
0.059928901 0.051826164 0.34100002 4278524681
0.061036471 0.051826164 0.34100002 4278851597
0.062144034 0.051826164 0.34100002 4278522632
0.06306611 0.051674176 0.34 4278719498
0.064170435 0.051674176 0.34 4278522121
0.065274753 0.051674176 0.34 4278652937
0.066379078 0.051674176 0.34 4278718730
0.067284919 0.051522195 0.33900002 4278522121
0.068385988 0.051522195 0.33900002 4278522119
0.069487065 0.051522195 0.33900002 4278260228
0.070588134 0.051522195 0.33900002 4278194691
0.071477741 0.051370215 0.33800003 4278458377
0.072575562 0.051370215 0.33800003 4278523400
0.07367339 0.051370215 0.33800003 4278725392
0.074771211 0.051370215 0.33800003 4278792466
0.075644568 0.05121823 0.33700001 4278197508
0.076739147 0.05121823 0.33700001 4278326019
0.07783372 0.05121823 0.33700001 4278522886
0.07869409 0.05106625 0.33600003 4278654472
0.079785421 0.05106625 0.33600003 4278194944
0.080636039 0.050914265 0.33500001 4278197250
0.081724122 0.050914265 0.33500001 4278922771
0.082565002 0.050762285 0.33400002 4279054355
0.083649829 0.050762285 0.33400002 4278197762
0.084734663 0.050762285 0.33400002 4278857746
0.08556255 0.050610296 0.333 4278331404
0.086644135 0.050610296 0.333 4278198278
0.087725721 0.050610296 0.333 4278660367
0.088540621 0.050458316 0.33200002 4278792466
0.089618966 0.050458316 0.33200002 4278792466
0.090697289 0.050458316 0.33200002 4278792466
0.091775626 0.050458316 0.33200002 4278792466
0.092853971 0.050458316 0.33200002 4278791953
0.09364938 0.050306335 0.33100003 4278988564
0.094724469 0.050306335 0.33100003 4278856465
0.095799558 0.050306335 0.33100003 4278393865
0.096874639 0.050306335 0.33100003 4278195202
0.097949728 0.050306335 0.33100003 4278196226
0.099024817 0.050306335 0.33100003 4278195200
0.099797487 0.050154351 0.33000001 4278330121
0.10086933 0.050154351 0.33000001 4278593806
0.10194118 0.050154351 0.33000001 4278595341
0.10301302 0.050154351 0.33000001 4278661646
0.10408485 0.050154351 0.33000001 4278596621
0.10515669 0.050154351 0.33000001 4278530828
0.10655044 0.050306335 0.33100003 4278794513
0.10762553 0.050306335 0.33100003 4278662927
0.10870063 0.050306335 0.33100003 4278662927
0.10977571 0.050306335 0.33100003 4278794513
0.1108508 0.050306335 0.33100003 4278730003
0.11192589 0.050306335 0.33100003 4278533394
0.11300097 0.050306335 0.33100003 4278795796
0.11407606 0.050306335 0.33100003 4279190041
0.11480326 0.050154351 0.33000001 4279386652
0.1158751 0.050154351 0.33000001 4279451934
0.04140003 0.054796893 0.35300002 4280695337
0.042546574 0.054796893 0.35300002 4282539849
0.043693118 0.054796893 0.35300002 4279579164
0.04471264 0.05464166 0.35200003 4279252504
0.045725662 0.054486427 0.35100001 4279516189
0.046732195 0.054331198 0.35000002 4279779875
0.047732219 0.054175962 0.34900001 4279516703
0.048725758 0.054020733 0.34800002 4279451680
0.049712799 0.0538655 0.347 4279320094
0.050693344 0.053710267 0.34600002 4279254555
0.051667392 0.053555038 0.34500003 4279320348
0.052634943 0.053399805 0.34400001 4279188762
0.053752258 0.053399805 0.34400001 4278991383
0.054710064 0.053244572 0.34300002 4278990359
0.055824131 0.053244572 0.34300002 4279121431
0.056772191 0.053089339 0.34200001 4278859543
0.057883006 0.053089339 0.34200001 4278859543
0.058821328 0.05293411 0.34100002 4278727957
0.059928901 0.05293411 0.34100002 4278924566
0.061036471 0.05293411 0.34100002 4278923539
0.061961792 0.052778874 0.34 4279251734
0.06306611 0.052778874 0.34 4279644957
0.064170435 0.052778874 0.34 4279183894
0.065274753 0.052778874 0.34 4278720779
0.066183843 0.052623644 0.33900002 4278457093
0.067284919 0.052623644 0.33900002 4278390533
0.068385988 0.052623644 0.33900002 4278587912
0.069487065 0.052623644 0.33900002 4278653189
0.070588134 0.052623644 0.33900002 4278522373
0.071477741 0.052468415 0.33800003 4278588166
0.072575562 0.052468415 0.33800003 4278522886
0.07367339 0.052468415 0.33800003 4278857746
0.074771211 0.052468415 0.33800003 4278595087
0.075644568 0.052313179 0.33700001 4278394376
0.076739147 0.052313179 0.33700001 4278522886
0.07783372 0.052313179 0.33700001 4278719498
0.07869409 0.05215795 0.33600003 4278587912
0.079785421 0.05215795 0.33600003 4278195715
0.080636039 0.052002717 0.33500001 4278263304
0.081724122 0.052002717 0.33500001 4278660369
0.082812198 0.052002717 0.33500001 4278726160
0.083649829 0.051847484 0.33400002 4278196736
0.084734663 0.051847484 0.33400002 4278527246
0.085819498 0.051847484 0.33400002 4278723855
0.086644135 0.051692251 0.333 4279184406
0.087725721 0.051692251 0.333 4279250451
0.088807307 0.051692251 0.333 4278659084
0.089888893 0.051692251 0.333 4278595341
0.090697289 0.051537022 0.33200002 4278792720
0.091775626 0.051537022 0.33200002 4278660880
0.092853971 0.051537022 0.33200002 4278858259
0.093932308 0.051537022 0.33200002 4278792466
0.094724469 0.051381789 0.33100003 4278727187
0.095799558 0.051381789 0.33100003 4278661394
0.096874639 0.051381789 0.33100003 4278858261
0.097949728 0.051381789 0.33100003 4279186713
0.099024817 0.051381789 0.33100003 4279054357
0.10009991 0.051381789 0.33100003 4278922258
0.101175 0.051381789 0.33100003 4278987027
0.10225009 0.051381789 0.33100003 4278328070
0.10332518 0.051381789 0.33100003 4278195713
0.10440026 0.051381789 0.33100003 4278196994
0.10547535 0.051381789 0.33100003 4278726160
0.10655044 0.051381789 0.33100003 4278595853
0.10762553 0.051381789 0.33100003 4278661646
0.10870063 0.051381789 0.33100003 4278596621
0.10977571 0.051381789 0.33100003 4278794513
0.1108508 0.051381789 0.33100003 4278662927
0.11192589 0.051381789 0.33100003 4278860306
0.11300097 0.051381789 0.33100003 4278662927
0.11407606 0.051381789 0.33100003 4278926099
0.11515115 0.051381789 0.33100003 4279189273
0.11622624 0.051381789 0.33100003 4278991894
0.11730133 0.051381789 0.33100003 4279382807
0.04140003 0.055943821 0.35300002 4282733638
0.042546574 0.055943821 0.35300002 4283524951
0.045725662 0.055626858 0.35100001 4283526232
0.046732195 0.05546838 0.35000002 4281618233
0.047732219 0.055309895 0.34900001 4279710750
0.048725758 0.055151418 0.34800002 4279185943
0.049712799 0.054992933 0.347 4279318299
0.050693344 0.054834455 0.34600002 4279516443
0.051667392 0.054675978 0.34500003 4279648029
0.052634943 0.054517493 0.34400001 4279582750
0.053752258 0.054517493 0.34400001 4279385371
0.054710064 0.054359011 0.34300002 4279385371
0.055824131 0.054359011 0.34300002 4279320348
0.056772191 0.05420053 0.34200001 4279254555
0.057883006 0.05420053 0.34200001 4278925590
0.058821328 0.054042049 0.34100002 4278925590
0.059928901 0.054042049 0.34100002 4278794004
0.061036471 0.054042049 0.34100002 4278859797
0.061961792 0.053883567 0.34 4278794004
0.06306611 0.053883567 0.34 4278727441
0.064170435 0.053883567 0.34 4278924820
0.065274753 0.053883567 0.34 4278792720
0.066183843 0.053725086 0.33900002 4278923539
0.067284919 0.053725086 0.33900002 4279054357
0.068385988 0.053725086 0.33900002 4279053844
0.069487065 0.053725086 0.33900002 4279183379
0.070379913 0.053566609 0.33800003 4278589959
0.071477741 0.053566609 0.33800003 4278457093
0.072575562 0.053566609 0.33800003 4278654984
0.07367339 0.053566609 0.33800003 4278660367
0.074771211 0.053566609 0.33800003 4279055125
0.075644568 0.053408124 0.33700001 4278987281
0.076739147 0.053408124 0.33700001 4278722828
0.07783372 0.053408124 0.33700001 4278851849
0.07869409 0.053249646 0.33600003 4278654470
0.079785421 0.053249646 0.33600003 4279053074
0.080636039 0.053091161 0.33500001 4278593806
0.081724122 0.053091161 0.33500001 4278198277
0.082812198 0.053091161 0.33500001 4278198020
0.083649829 0.052932683 0.33400002 4278197511
0.084734663 0.052932683 0.33400002 4278658832
0.085819498 0.052932683 0.33400002 4278988051
0.086644135 0.052774198 0.333 4279054357
0.087725721 0.052774198 0.333 4278922256
0.088807307 0.052774198 0.333 4278329351
0.089888893 0.052774198 0.333 4278197506
0.090970472 0.052774198 0.333 4278725138
0.091775626 0.052615721 0.33200002 4278195200
0.092853971 0.052615721 0.33200002 4278856724
0.093932308 0.052615721 0.33200002 4278397710
0.095010646 0.052615721 0.33200002 4278726675
0.095799558 0.052457239 0.33100003 4278331917
0.096874639 0.052457239 0.33100003 4278661394
0.097949728 0.052457239 0.33100003 4278661394
0.099024817 0.052457239 0.33100003 4278727187
0.10009991 0.052457239 0.33100003 4278858259
0.101175 0.052457239 0.33100003 4278858259
0.10225009 0.052457239 0.33100003 4278923539
0.10332518 0.052457239 0.33100003 4279055125
0.10440026 0.052457239 0.33100003 4278922769
0.10547535 0.052457239 0.33100003 4278195200
0.10655044 0.052457239 0.33100003 4278792720
0.10762553 0.052457239 0.33100003 4279055892
0.10870063 0.052457239 0.33100003 4278530830
0.10977571 0.052457239 0.33100003 4278530830
0.1108508 0.052457239 0.33100003 4278596621
0.11192589 0.052457239 0.33100003 4278794000
0.11300097 0.052457239 0.33100003 4278926099
0.11407606 0.052457239 0.33100003 4278794515
0.11515115 0.052457239 0.33100003 4278728720
0.11622624 0.052457239 0.33100003 4278794513
0.11730133 0.052457239 0.33100003 4279318549
0.054710064 0.055473458 0.34300002 4279253271
0.055824131 0.055473458 0.34300002 4279647775
0.056772191 0.055311725 0.34200001 4279385117
0.057883006 0.055311725 0.34200001 4279516957
0.058821328 0.055149995 0.34100002 4279451164
0.059928901 0.055149995 0.34100002 4279451164
0.061036471 0.055149995 0.34100002 4279254555
0.061961792 0.054988265 0.34 4279057176
0.06306611 0.054988265 0.34 4278925590
0.064170435 0.054988265 0.34 4278728211
0.065082774 0.054826535 0.33900002 4278596625
0.066183843 0.054826535 0.33900002 4278728211
0.067284919 0.054826535 0.33900002 4278728211
0.068385988 0.054826535 0.33900002 4278530832
0.069282085 0.054664806 0.33800003 4278858773
0.070379913 0.054664806 0.33800003 4278792466
0.071477741 0.054664806 0.33800003 4279054355
0.072575562 0.054664806 0.33800003 4278922769
0.07367339 0.054664806 0.33800003 4278857746
0.074549995 0.054503076 0.33700001 4278593293
0.075644568 0.054503076 0.33700001 4278393865
0.076739147 0.054503076 0.33700001 4278195459
0.077602766 0.054341346 0.33600003 4278193408
0.07869409 0.054341346 0.33600003 4278657035
0.079785421 0.054341346 0.33600003 4279315732
0.080636039 0.054179613 0.33500001 4278921486
0.081724122 0.054179613 0.33500001 4278922769
0.082812198 0.054179613 0.33500001 4279185941
0.083649829 0.054017887 0.33400002 4279054357
0.084734663 0.054017887 0.33400002 4278988564
0.085819498 0.054017887 0.33400002 4278329867
0.086904332 0.054017887 0.33400002 4278196996
0.087725721 0.053856153 0.333 4278198276
0.088807307 0.053856153 0.333 4278988562
0.089888893 0.053856153 0.333 4278198283
0.090970472 0.053856153 0.333 4278196742
0.091775626 0.053694423 0.33200002 4278788623
0.092853971 0.053694423 0.33200002 4278525451
0.093932308 0.053694423 0.33200002 4278922006
0.095010646 0.053694423 0.33200002 4278197513
0.096088983 0.053694423 0.33200002 4279052820
0.097167313 0.053694423 0.33200002 4278197511
0.097949728 0.053532697 0.33100003 4278922769
0.099024817 0.053532697 0.33100003 4278726160
0.10009991 0.053532697 0.33100003 4278397195
0.101175 0.053532697 0.33100003 4279055638
0.10225009 0.053532697 0.33100003 4278727187
0.10332518 0.053532697 0.33100003 4278727187
0.10440026 0.053532697 0.33100003 4279054357
0.10547535 0.053532697 0.33100003 4278327300
0.10655044 0.053532697 0.33100003 4278792466
0.10795068 0.053694423 0.33200002 4278792720
0.10902902 0.053694423 0.33200002 4278596625
0.11010735 0.053694423 0.33200002 4278596625
0.11118568 0.053694423 0.33200002 4278530828
0.11226402 0.053694423 0.33200002 4278530828
0.11334236 0.053694423 0.33200002 4278859793
0.11407606 0.053532697 0.33100003 4278530830
0.11515115 0.053532697 0.33100003 4278596623
0.11622624 0.053532697 0.33100003 4278465037
0.11730133 0.053532697 0.33100003 4279121170
0.056772191 0.056422915 0.34200001 4280566061
0.057713758 0.056257937 0.34100002 4279118613
0.058821328 0.056257937 0.34100002 4279251482
0.059928901 0.056257937 0.34100002 4279515678
0.060857475 0.056092955 0.34 4279647777
0.061961792 0.056092955 0.34 4279450910
0.06306611 0.056092955 0.34 4279320348
0.063981704 0.055927977 0.33900002 4279254555
0.065082774 0.055927977 0.33900002 4279188762
0.066183843 0.055927977 0.33900002 4278991383
0.067284919 0.055927977 0.33900002 4278859797
0.068184264 0.055763002 0.33800003 4278596625
0.069282085 0.055763002 0.33800003 4278793750
0.070379913 0.055763002 0.33800003 4278596371
0.071477741 0.055763002 0.33800003 4278661394
0.072575562 0.055763002 0.33800003 4278661394
0.073455416 0.055598021 0.33700001 4278727187
0.074549995 0.055598021 0.33700001 4278858773
0.075644568 0.055598021 0.33700001 4278858259
0.076739147 0.055598021 0.33700001 4278923539
0.077602766 0.055433042 0.33600003 4279185941
0.07869409 0.055433042 0.33600003 4279053842
0.079785421 0.055433042 0.33600003 4279184146
0.080636039 0.05526806 0.33500001 4278195968
0.081724122 0.05526806 0.33500001 4278194432
0.082565002 0.055103082 0.33400002 4278195201
0.083649829 0.055103082 0.33400002 4278263304
0.084734663 0.055103082 0.33400002 4278659086
0.085819498 0.055103082 0.33400002 4278856978
0.086644135 0.0549381 0.333 4278988564
0.087725721 0.0549381 0.333 4278923539
0.088807307 0.0549381 0.333 4278857746
0.089888893 0.0549381 0.333 4278857746
0.090970472 0.0549381 0.333 4279054355
0.091775626 0.054773122 0.33200002 4278856463
0.092853971 0.054773122 0.33200002 4278526730
0.093932308 0.054773122 0.33200002 4279118613
0.095010646 0.054773122 0.33200002 4278197513
0.096088983 0.054773122 0.33200002 4279052820
0.097167313 0.054773122 0.33200002 4278263304
0.098245651 0.054773122 0.33200002 4278987027
0.099323988 0.054773122 0.33200002 4278591755
0.10040233 0.054773122 0.33200002 4278790418
0.10148066 0.054773122 0.33200002 4278198791
0.102559 0.054773122 0.33200002 4278661394
0.10363734 0.054773122 0.33200002 4278661394
0.10471567 0.054773122 0.33200002 4279251736
0.10579401 0.054773122 0.33200002 4278854414
0.10687234 0.054773122 0.33200002 4278595087
0.10795068 0.054773122 0.33200002 4278858773
0.10902902 0.054773122 0.33200002 4278990613
0.11010735 0.054773122 0.33200002 4278794004
0.11118568 0.054773122 0.33200002 4278596625
0.11226402 0.054773122 0.33200002 4278728211
0.11334236 0.054773122 0.33200002 4278596625
0.1144207 0.054773122 0.33200002 4278596623
0.11549903 0.054773122 0.33200002 4278925588
0.11657737 0.054773122 0.33200002 4278727439
0.11730133 0.054608148 0.33100003 4278988562
0.057713758 0.057365883 0.34100002 4283986272
0.058821328 0.057365883 0.34100002 4284315237
0.059928901 0.057365883 0.34100002 4284709995
0.060857475 0.057197653 0.34 4283658334
0.061961792 0.057197653 0.34 4280895544
0.06306611 0.057197653 0.34 4279119383
0.063981704 0.057029426 0.33900002 4279054355
0.065082774 0.057029426 0.33900002 4279318297
0.066183843 0.057029426 0.33900002 4279450396
0.067086443 0.056861199 0.33800003 4279450910
0.068184264 0.056861199 0.33800003 4279188508
0.069282085 0.056861199 0.33800003 4279254301
0.070379913 0.056861199 0.33800003 4279056922
0.071477741 0.056861199 0.33800003 4278925336
0.072360836 0.056692969 0.33700001 4278859543
0.073455416 0.056692969 0.33700001 4278727957
0.074549995 0.056692969 0.33700001 4278530578
0.075644568 0.056692969 0.33700001 4278530578
0.076511435 0.056524742 0.33600003 4278596371
0.077602766 0.056524742 0.33600003 4278530578
0.07869409 0.056524742 0.33600003 4278465039
0.079547957 0.056356512 0.33500001 4278792720
0.080636039 0.056356512 0.33500001 4278858513
0.081724122 0.056356512 0.33500001 4279120918
0.082565002 0.056188285 0.33400002 4279186711
0.083649829 0.056188285 0.33400002 4279317016
0.084734663 0.056188285 0.33400002 4278592523
0.08556255 0.056020055 0.333 4278196740
0.086644135 0.056020055 0.333 4278194432
0.087725721 0.056020055 0.333 4278195969
0.088807307 0.056020055 0.333 4278196740
0.089888893 0.056020055 0.333 4278592523
0.090970472 0.056020055 0.333 4279449113
0.091775626 0.055851828 0.33200002 4279252504
0.092853971 0.055851828 0.33200002 4278857746
0.093932308 0.055851828 0.33200002 4279055379
0.095010646 0.055851828 0.33200002 4278792207
0.096088983 0.055851828 0.33200002 4278856976
0.097167313 0.055851828 0.33200002 4278856978
0.098245651 0.055851828 0.33200002 4279119637
0.099323988 0.055851828 0.33200002 4278198278
0.10040233 0.055851828 0.33200002 4279052820
0.10148066 0.055851828 0.33200002 4278196480
0.102559 0.055851828 0.33200002 4278858259
0.10363734 0.055851828 0.33200002 4278726673
0.10471567 0.055851828 0.33200002 4278197254
0.10579401 0.055851828 0.33200002 4279183892
0.10687234 0.055851828 0.33200002 4278859027
0.10795068 0.055851828 0.33200002 4278859027
0.10935742 0.056020055 0.333 4278661646
0.110439 0.056020055 0.333 4278596623
0.11152058 0.056020055 0.333 4278596623
0.11260217 0.056020055 0.333 4278530830
0.11334236 0.055851828 0.33200002 4278728209
0.1144207 0.055851828 0.33200002 4278794002
0.11549903 0.055851828 0.33200002 4278859797
0.11657737 0.055851828 0.33200002 4278859027
0.11765572 0.055851828 0.33200002 4279317781
0.058821328 0.058473825 0.34100002 4284446053
0.059928901 0.058473825 0.34100002 4284577639
0.060857475 0.058302343 0.34 4284512362
0.061961792 0.058302343 0.34 4284710254
0.06306611 0.058302343 0.34 4284841840
0.063981704 0.058130868 0.33900002 4285368184
0.065082774 0.058130868 0.33900002 4285367925
0.066183843 0.058130868 0.33900002 4284381028
0.067086443 0.057959393 0.33800003 4280566061
0.068184264 0.057959393 0.33800003 4279053590
0.069282085 0.057959393 0.33800003 4279383838
0.070379913 0.057959393 0.33800003 4279581471
0.071266264 0.057787914 0.33700001 4279187738
0.072360836 0.057787914 0.33700001 4279450910
0.073455416 0.057787914 0.33700001 4279254301
0.074549995 0.057787914 0.33700001 4279056922
0.075420104 0.057616439 0.33600003 4279056922
0.076511435 0.057616439 0.33600003 4278925336
0.077602766 0.057616439 0.33600003 4278727957
0.078459881 0.057444956 0.33500001 4278727957
0.079547957 0.057444956 0.33500001 4278925590
0.080636039 0.057444956 0.33500001 4278859797
0.081480168 0.057273481 0.33400002 4278925590
0.082565002 0.057273481 0.33400002 4278728211
0.083649829 0.057273481 0.33400002 4278728211
0.084480964 0.057102002 0.333 4278661394
0.08556255 0.057102002 0.333 4278858259
0.086644135 0.057102002 0.333 4279055638
0.087725721 0.057102002 0.333 4279055125
0.088807307 0.057102002 0.333 4278922771
0.089888893 0.057102002 0.333 4279381785
0.090970472 0.057102002 0.333 4278195713
0.091775626 0.056930527 0.33200002 4278194944
0.092853971 0.056930527 0.33200002 4278195200
0.093932308 0.056930527 0.33200002 4278194944
0.095010646 0.056930527 0.33200002 4278921488
0.096088983 0.056930527 0.33200002 4278922769
0.097167313 0.056930527 0.33200002 4278858000
0.098245651 0.056930527 0.33200002 4278858513
0.099323988 0.056930527 0.33200002 4278726673
0.10040233 0.056930527 0.33200002 4278923539
0.10148066 0.056930527 0.33200002 4279054609
0.102559 0.056930527 0.33200002 4278923793
0.10363734 0.056930527 0.33200002 4278858513
0.10471567 0.056930527 0.33200002 4278458888
0.10611266 0.057102002 0.333 4279381271
0.10719424 0.057102002 0.333 4278859027
0.10827583 0.057102002 0.333 4278661648
0.10935742 0.057102002 0.333 4278728209
0.110439 0.057102002 0.333 4278728209
0.11152058 0.057102002 0.333 4278465039
0.11260217 0.057102002 0.333 4278728211
0.11368375 0.057102002 0.333 4278596623
0.11476534 0.057102002 0.333 4278728209
0.11584692 0.057102002 0.333 4278859795
0.11657737 0.056930527 0.33200002 4278728209
0.11765572 0.056930527 0.33200002 4279319062
0.063981704 0.059232317 0.33900002 4285169522
0.065082774 0.059232317 0.33900002 4285103729
0.065988615 0.059057593 0.33800003 4284840557
0.067086443 0.059057593 0.33800003 4284775534
0.068184264 0.059057593 0.33800003 4284578155
0.069282085 0.059057593 0.33800003 4285039735
0.070379913 0.059057593 0.33800003 4284381289
0.071266264 0.058882862 0.33700001 4282867789
0.072360836 0.058882862 0.33700001 4280170274
0.073455416 0.058882862 0.33700001 4278988051
0.074549995 0.058882862 0.33700001 4279054357
0.075420104 0.058708139 0.33600003 4279186711
0.076511435 0.058708139 0.33600003 4279384090
0.077602766 0.058708139 0.33600003 4279516443
0.078459881 0.058533408 0.33500001 4279122199
0.079547957 0.058533408 0.33500001 4279187992
0.080395341 0.058358684 0.33400002 4279187992
0.081480168 0.058358684 0.33400002 4279056406
0.082565002 0.058358684 0.33400002 4278859797
0.083399378 0.058183957 0.333 4278728211
0.084480964 0.058183957 0.333 4278794004
0.08556255 0.058183957 0.333 4278924820
0.086644135 0.058183957 0.333 4278727441
0.087725721 0.058183957 0.333 4278727441
0.088807307 0.058183957 0.333 4278859027
0.089888893 0.058183957 0.333 4279055892
0.090970472 0.058183957 0.333 4279055892
0.091775626 0.05800923 0.33200002 4278989847
0.092853971 0.05800923 0.33200002 4279120920
0.093932308 0.05800923 0.33200002 4279251736
0.095010646 0.05800923 0.33200002 4278987281
0.096088983 0.05800923 0.33200002 4278460169
0.097167313 0.05800923 0.33200002 4278195713
0.098245651 0.05800923 0.33200002 4278196484
0.099323988 0.05800923 0.33200002 4278394630
0.10040233 0.05800923 0.33200002 4278329351
0.10148066 0.05800923 0.33200002 4278659084
0.102559 0.05800923 0.33200002 4278792205
0.10363734 0.05800923 0.33200002 4279186963
0.10503107 0.058183957 0.333 4278524168
0.10611266 0.058183957 0.333 4279382039
0.10719424 0.058183957 0.333 4278924818
0.10827583 0.058183957 0.333 4279056404
0.10968582 0.058358684 0.33400002 4278596623
0.11077066 0.058358684 0.33400002 4278794002
0.11185548 0.058358684 0.33400002 4278728209
0.11260217 0.058183957 0.333 4278794002
0.11368375 0.058183957 0.333 4278728207
0.11476534 0.058183957 0.333 4278794000
0.11584692 0.058183957 0.333 4278530830
0.11692851 0.058183957 0.333 4279187990
0.071266264 0.059977815 0.33700001 4284380260
0.072360836 0.059977815 0.33700001 4283984989
0.073455416 0.059977815 0.33700001 4283722328
0.07432878 0.059799839 0.33600003 4283920475
0.075420104 0.059799839 0.33600003 4280499754
0.076511435 0.059799839 0.33600003 4280104994
0.077602766 0.059799839 0.33600003 4278988051
0.078459881 0.059621859 0.33500001 4279251223
0.079547957 0.059621859 0.33500001 4279251734
0.080395341 0.059443887 0.33400002 4279317527
0.081480168 0.059443887 0.33400002 4279384090
0.082565002 0.059443887 0.33400002 4279516189
0.083399378 0.059265908 0.333 4279450650
0.084480964 0.059265908 0.333 4279187478
0.08556255 0.059265908 0.333 4279516441
0.086644135 0.059265908 0.333 4279187476
0.087725721 0.059265908 0.333 4279385369
0.088807307 0.059265908 0.333 4278990611
0.089888893 0.059265908 0.333 4278924818
0.090970472 0.059265908 0.333 4278924818
0.091775626 0.059087936 0.33200002 4278924818
0.092853971 0.059087936 0.33200002 4279055890
0.093932308 0.059087936 0.33200002 4279121683
0.095010646 0.059087936 0.33200002 4278858513
0.096088983 0.059087936 0.33200002 4278990099
0.097167313 0.059087936 0.33200002 4279121172
0.098245651 0.059087936 0.33200002 4279383320
0.099323988 0.059087936 0.33200002 4279448600
0.10040233 0.059087936 0.33200002 4279118353
0.10148066 0.059087936 0.33200002 4278196480
0.102559 0.059087936 0.33200002 4278195200
0.10394949 0.059265908 0.333 4278327554
0.10503107 0.059265908 0.333 4279052306
0.10611266 0.059265908 0.333 4279055125
0.10751615 0.059443887 0.33400002 4278661646
0.10860099 0.059443887 0.33400002 4278727439
0.10968582 0.059443887 0.33400002 4278924818
0.11077066 0.059443887 0.33400002 4278859025
0.11185548 0.059443887 0.33400002 4278661646
0.11294031 0.059443887 0.33400002 4278924818
0.11402515 0.059443887 0.33400002 4278924818
0.11510998 0.059443887 0.33400002 4279187990
0.11584692 0.059265908 0.333 4278727441
0.11692851 0.059265908 0.333 4279253271
0.083399378 0.060347855 0.333 4280499752
0.084480964 0.060347855 0.333 4279644697
0.08556255 0.060347855 0.333 4279184398
0.086644135 0.060347855 0.333 4279579670
0.087725721 0.060347855 0.333 4279383061
0.088807307 0.060347855 0.333 4279515160
0.089888893 0.060347855 0.333 4279515160
0.090697289 0.060166635 0.33200002 4279515930
0.091775626 0.060166635 0.33200002 4279253271
0.092853971 0.060166635 0.33200002 4279319064
0.093932308 0.060166635 0.33200002 4279187478
0.095010646 0.060166635 0.33200002 4279253271
0.096088983 0.060166635 0.33200002 4279319064
0.097167313 0.060166635 0.33200002 4279253271
0.098245651 0.060166635 0.33200002 4279253271
0.099323988 0.060166635 0.33200002 4279187478
0.10040233 0.060166635 0.33200002 4279384344
0.10148066 0.060166635 0.33200002 4279318551
0.10286791 0.060347855 0.333 4279186965
0.10394949 0.060347855 0.333 4279186965
0.10503107 0.060347855 0.333 4279120918
0.10643132 0.060529083 0.33400002 4279055638
0.10751615 0.060529083 0.33400002 4279056152
0.10860099 0.060529083 0.33400002 4278727441
0.10968582 0.060529083 0.33400002 4279056404
0.11077066 0.060529083 0.33400002 4278924816
0.11185548 0.060529083 0.33400002 4278990609
0.11294031 0.060529083 0.33400002 4278859023
0.11402515 0.060529083 0.33400002 4278859025
0.11510998 0.060529083 0.33400002 4279122197
0.11619481 0.060529083 0.33400002 4278858511
0.089888893 0.06142981 0.333 4282604615
0.090697289 0.061245337 0.33200002 4281091376
0.091775626 0.061245337 0.33200002 4279513625
0.092853971 0.061245337 0.33200002 4279119637
0.093932308 0.061245337 0.33200002 4279251223
0.095010646 0.061245337 0.33200002 4279382807
0.096088983 0.061245337 0.33200002 4279778332
0.097167313 0.061245337 0.33200002 4279515160
0.098245651 0.061245337 0.33200002 4279647516
0.099323988 0.061245337 0.33200002 4279384344
0.10040233 0.061245337 0.33200002 4279319064
0.10178632 0.06142981 0.333 4279385371
0.10286791 0.06142981 0.333 4279187992
0.10394949 0.06142981 0.333 4279319578
0.10534649 0.061614286 0.33400002 4279319578
0.10643132 0.061614286 0.33400002 4279056406
0.10751615 0.061614286 0.33400002 4279385369
0.10860099 0.061614286 0.33400002 4279056402
0.11001422 0.061798759 0.33500001 4279187988
0.1111023 0.061798759 0.33500001 4278990609
0.11219037 0.061798759 0.33500001 4278859023
0.11327846 0.061798759 0.33500001 4279187990
0.11436654 0.061798759 0.33500001 4279187990
0.11510998 0.061614286 0.33400002 4279122197
0.11619481 0.061614286 0.33400002 4279252758
0.097167313 0.06232404 0.33200002 4283065168
0.098245651 0.06232404 0.33200002 4281880376
0.099323988 0.06232404 0.33200002 4280169756
0.10070474 0.062511757 0.333 4279053072
0.10178632 0.062511757 0.333 4279250453
0.10286791 0.062511757 0.333 4279251221
0.10394949 0.062511757 0.333 4279777819
0.10534649 0.062699482 0.33400002 4279646746
0.10643132 0.062699482 0.33400002 4279712539
0.10751615 0.062699482 0.33400002 4279515928
0.10892613 0.062887207 0.33500001 4279384342
0.11001422 0.062887207 0.33500001 4279582234
0.1111023 0.062887207 0.33500001 4279253269
0.11219037 0.062887207 0.33500001 4279319062
0.11327846 0.062887207 0.33500001 4279319062
0.11436654 0.062887207 0.33500001 4279319062
0.11545462 0.062887207 0.33500001 4279055379
0.10070474 0.063593708 0.333 4285498226
0.10178632 0.063593708 0.333 4285827704
0.10286791 0.063593708 0.333 4285894265
0.10426166 0.063784689 0.33400002 4285368434
0.10534649 0.063784689 0.33400002 4284513127
0.10643132 0.063784689 0.33400002 4282867017
0.10751615 0.063784689 0.33400002 4281289009
0.10892613 0.063975655 0.33500001 4279578391
0.11001422 0.063975655 0.33500001 4279184660
0.1111023 0.063975655 0.33500001 4278921234
0.11219037 0.063975655 0.33500001 4278856465
0.11327846 0.063975655 0.33500001 4279513625
0.11436654 0.063975655 0.33500001 4281353778
0.10426166 0.064869888 0.33400002 4285432435
0.10534649 0.064869888 0.33400002 4285432435
0.10643132 0.064869888 0.33400002 4285366642
0.10783806 0.065064102 0.33500001 4285366642
0.10892613 0.065064102 0.33500001 4285564021
0.11001422 0.065064102 0.33500001 4285563251
0.1111023 0.065064102 0.33500001 4285498228
0.11219037 0.065064102 0.33500001 4285629812
0.11327846 0.065064102 0.33500001 4285564019
0.076829292 0.05196134 0.33806887 4294967295
0.076829292 0.05196134 0.33806887 4294901760
