# .PCD v0.7 - Point Cloud Data file format
VERSION 0.7
FIELDS x y z rgb
SIZE 4 4 4 4
TYPE F F F U
COUNT 1 1 1 1
WIDTH 820
HEIGHT 1
VIEWPOINT 0 0 0 1 0 0 0
POINTS 820
DATA ascii
0.065901689 -0.060116939 0.46000001 4286290572
0.067395777 -0.060116939 0.46000001 4286356878
0.06291353 -0.058622357 0.46000001 4286027400
0.064407609 -0.058622357 0.46000001 4284318576
0.065901689 -0.058622357 0.46000001 4282476886
0.067395777 -0.058622357 0.46000001 4280638270
0.069039613 -0.058749799 0.46100003 4280375612
0.070536949 -0.058749799 0.46100003 4281358407
0.05681343 -0.05700358 0.45900002 4285895044
0.058304261 -0.05700358 0.45900002 4285632640
0.059795097 -0.05700358 0.45900002 4285961605
0.061285932 -0.05700358 0.45900002 4283792486
0.062776759 -0.05700358 0.45900002 4281558091
0.064267598 -0.05700358 0.45900002 4280507709
0.065758429 -0.05700358 0.45900002 4280311352
0.067395777 -0.05712777 0.46000001 4279852084
0.068889849 -0.05712777 0.46000001 4279326254
0.070536949 -0.05725196 0.46100003 4281033542
0.054961015 -0.055149417 0.45600003 4285697665
0.056565877 -0.055270359 0.45700002 4285895814
0.058050212 -0.055270359 0.45700002 4283660900
0.059534553 -0.055270359 0.45700002 4281952077
0.061018892 -0.055270359 0.45700002 4280573502
0.062639996 -0.0553913 0.45800003 4279917879
0.064127579 -0.0553913 0.45800003 4279655471
0.06561517 -0.0553913 0.45800003 4279655469
0.067249268 -0.055512242 0.45900002 4279523883
0.068740092 -0.055512242 0.45900002 4279194922
0.070383936 -0.055633184 0.46000001 4279718195
0.053010803 -0.053197056 0.45200002 4286092421
0.054719958 -0.053432442 0.45400003 4283463267
0.056318324 -0.053550132 0.45500001 4281754446
0.057796162 -0.053550132 0.45500001 4280178744
0.059274007 -0.053550132 0.45500001 4279786293
0.060885374 -0.053667828 0.45600003 4279195435
0.062366456 -0.053667828 0.45600003 4279196205
0.063987561 -0.053785518 0.45700002 4279064615
0.065471902 -0.053785518 0.45700002 4279196201
0.067102753 -0.053903215 0.45800003 4279194920
0.068590336 -0.053903215 0.45800003 4279457578
0.070383936 -0.054138597 0.46000001 4279715887
0.049742259 -0.051385131 0.44900003 4285632642
0.05120061 -0.051385131 0.44900003 4283990125
0.052776244 -0.051499572 0.45000002 4281097286
0.054478899 -0.051728461 0.45200002 4280443201
0.055946995 -0.051728461 0.45200002 4279786553
0.057542115 -0.051842902 0.45300001 4279459123
0.05901346 -0.051842902 0.45300001 4278933292
0.06061833 -0.051957346 0.45400003 4278999337
0.062092919 -0.051957346 0.45400003 4278933544
0.06370753 -0.052071787 0.45500001 4279327019
0.065185368 -0.052071787 0.45500001 4278734882
0.066809729 -0.052186236 0.45600003 4279325222
0.068440571 -0.052300677 0.45700002 4280244276
0.070230931 -0.052529562 0.45900002 4280569913
0.048068829 -0.049703892 0.44700003 4285173374
0.049631473 -0.049815089 0.44800001 4281491276
0.051086575 -0.049815089 0.44800001 4280837446
0.052658964 -0.049926285 0.44900003 4279852346
0.054237843 -0.050037477 0.45000002 4279393330
0.055699442 -0.050037477 0.45000002 4278999339
0.057288069 -0.050148673 0.45100003 4279394097
0.05875292 -0.050148673 0.45100003 4278933546
0.060217768 -0.050148673 0.45100003 4279393582
0.061819382 -0.050259866 0.45200002 4279129640
0.063427493 -0.050371058 0.45300001 4279587883
0.065042108 -0.050482254 0.45400003 4278533398
0.066516705 -0.050482254 0.45400003 4279783213
0.068141051 -0.050593447 0.45500001 4280375350
0.044861998 -0.047927711 0.44400004 4286027911
0.046408396 -0.048035655 0.44500002 4283002716
0.047961291 -0.048143599 0.44600001 4280835647
0.049409904 -0.048143599 0.44600001 4280048180
0.050858509 -0.048143599 0.44600001 4279524400
0.052424401 -0.048251547 0.44700003 4279064619
0.053996786 -0.048359491 0.44800001 4279262509
0.055451889 -0.048359491 0.44800001 4278933544
0.057034019 -0.048467435 0.44900003 4278933544
0.058492374 -0.048467435 0.44900003 4278998824
0.060084246 -0.048575379 0.45000002 4278931748
0.061545841 -0.048575379 0.45000002 4278468632
0.063147463 -0.048683327 0.45100003 4278860828
0.064755581 -0.048791271 0.45200002 4281097536
0.066370189 -0.048899215 0.45300001 4279847982
0.067991294 -0.049007162 0.45400003 4279979055
0.043224297 -0.046275716 0.44200003 4284449651
0.044760954 -0.046380412 0.44300002 4281296202
0.046199817 -0.046380412 0.44300002 4280376893
0.047746222 -0.046485111 0.44400004 4279787057
0.049188334 -0.046485111 0.44400004 4279260711
0.050744478 -0.046589803 0.44500002 4279328300
0.052189842 -0.046589803 0.44500002 4278999335
0.053755727 -0.046694499 0.44600001 4278999337
0.055204336 -0.046694499 0.44600001 4278998824
0.056779969 -0.046799198 0.44700003 4278998056
0.058231827 -0.046799198 0.44700003 4278931236
0.059817206 -0.046903893 0.44800001 4278202123
0.061409075 -0.047008589 0.44900003 4279716648
0.062867433 -0.047008589 0.44900003 4280045615
0.064469047 -0.047113284 0.45000002 4278598169
0.066077165 -0.047217984 0.45100003 4280505914
0.06784153 -0.047427371 0.45300001 4281754700
0.043028712 -0.044636719 0.44000003 4280835649
0.044558875 -0.044738166 0.44100001 4279326767
0.045991242 -0.044738166 0.44100001 4279196205
0.047531147 -0.044839613 0.44200003 4279196203
0.048966765 -0.044839613 0.44200003 4278933029
0.050516412 -0.04494106 0.44300002 4278867749
0.051955279 -0.04494106 0.44300002 4279394093
0.053514674 -0.045042507 0.44400004 4278734367
0.054956786 -0.045042507 0.44400004 4279129125
0.05652592 -0.045143954 0.44500002 4278664730
0.058101553 -0.045245402 0.44600001 4279058718
0.059683688 -0.045346849 0.44700003 4279454246
0.061135538 -0.045346849 0.44700003 4278927902
0.062727414 -0.045448296 0.44800001 4279979820
0.064325787 -0.045549743 0.44900003 4279453476
0.06593065 -0.04565119 0.45000002 4280308537
0.04112687 -0.042716127 0.43500003 4280115772
0.042735331 -0.04291252 0.43700001 4279393332
0.044255752 -0.043010719 0.43800002 4279131693
0.045782663 -0.043108914 0.43900001 4279000105
0.047316074 -0.043207116 0.44000003 4278868519
0.048745196 -0.043207116 0.44000003 4278801956
0.050288346 -0.043305311 0.44100001 4278867236
0.051720716 -0.043305311 0.44100001 4278800673
0.053273614 -0.04340351 0.44200003 4279389732
0.054833006 -0.043501709 0.44300002 4278203919
0.056398895 -0.043599907 0.44400004 4279519523
0.05784101 -0.043599907 0.44400004 4279716902
0.059416644 -0.043698102 0.44500002 4278532628
0.060998768 -0.043796301 0.44600001 4279190558
0.062587395 -0.0438945 0.44700003 4280110893
0.06418252 -0.043992698 0.44800001 4279585062
0.065784141 -0.044090897 0.44900003 4282147407
0.0053511374 -0.038074505 0.40100002 4281552706
0.009281572 -0.038169451 0.40200001 4281681980
0.01192255 -0.038264401 0.40300003 4281881155
0.013231495 -0.038264401 0.40300003 4281290302
0.014540439 -0.038264401 0.40300003 4280305466
0.039531395 -0.041112866 0.43300003 4279721012
0.04112687 -0.041302767 0.43500003 4279394095
0.042539749 -0.041302767 0.43500003 4278869035
0.04405367 -0.041397713 0.43600002 4278803242
0.045574088 -0.04149266 0.43700001 4278540070
0.047100998 -0.041587614 0.43800002 4278671142
0.048523627 -0.041587614 0.43800002 4278207251
0.050060283 -0.04168256 0.43900001 4278998052
0.05160344 -0.04177751 0.44000003 4278206997
0.053153086 -0.041872457 0.44100001 4279190558
0.054585453 -0.041872457 0.44100001 4279651109
0.056144848 -0.041967407 0.44200003 4278861080
0.057710737 -0.042062357 0.44300002 4278399759
0.059283126 -0.042157307 0.44400004 4279846953
0.060998768 -0.0423472 0.44600001 4278728988
0.06244738 -0.0423472 0.44600001 4280044080
0.064039253 -0.04244215 0.44700003 4281294147
-0.0037096546 -0.036221415 0.39500001 4280165393
0.0027462398 -0.036771614 0.40100002 4280762415
0.0040486883 -0.036771614 0.40100002 4280565044
0.0079758754 -0.036863312 0.40200001 4281486399
0.0093046604 -0.036955014 0.40300003 4280892979
0.013231495 -0.036955014 0.40300003 4281287735
0.014576519 -0.037046712 0.40400001 4281552190
0.015888711 -0.037046712 0.40400001 4280369713
0.017200904 -0.037046712 0.40400001 4279255595
0.036549024 -0.039522607 0.43100002 4279918131
0.037948914 -0.039522607 0.43100002 4279459890
0.039531395 -0.039706007 0.43300003 4279000107
0.041032325 -0.039797705 0.43400002 4278868519
0.042344164 -0.039706007 0.43300003 4278671140
0.043851592 -0.039797705 0.43400002 4278934312
0.045365512 -0.039889406 0.43500003 4278473763
0.046885926 -0.039981104 0.43600002 4278669859
0.048412841 -0.040072802 0.43700001 4278734882
0.049832217 -0.040072802 0.43700001 4278469400
0.051368877 -0.040164504 0.43800002 4279784492
0.052912027 -0.040256202 0.43900001 4278927386
0.054461677 -0.040347904 0.44000003 4279123998
0.05601782 -0.040439606 0.44100001 4279255584
0.057580467 -0.040531304 0.44200003 4279716135
0.059149604 -0.040623005 0.44300002 4279123230
0.060862001 -0.040806405 0.44500002 4280635702
0.06244738 -0.040898103 0.44600001 4283266142
-0.0074628587 -0.034495767 0.39000002 4280165127
-0.0037096546 -0.034938019 0.39500001 4282074673
-0.0024328374 -0.035026472 0.39600003 4281944118
-0.0011495242 -0.035114922 0.39700001 4281748025
0.00014063744 -0.035291821 0.39900002 4280892716
0.0014401906 -0.03538027 0.40000001 4281155888
0.0027462398 -0.035468724 0.40100002 4280761130
0.0040587848 -0.035557173 0.40200001 4280695600
0.0053644818 -0.035557173 0.40200001 4281353277
0.015888711 -0.035734076 0.40400001 4281024302
0.017200904 -0.035734076 0.40400001 4281750333
0.018513098 -0.035734076 0.40400001 4279451428
0.019825291 -0.035734076 0.40400001 4279262005
0.021137482 -0.035734076 0.40400001 4279459384
0.033518083 -0.03635323 0.41100001 4279458607
0.034937818 -0.03644168 0.41200003 4279328304
0.037948914 -0.038122244 0.43100002 4278869035
0.039531395 -0.038299147 0.43300003 4278671656
0.041032325 -0.038387597 0.43400002 4278868519
0.042148579 -0.038122244 0.43100002 4278472478
0.04364951 -0.038210694 0.43200001 4278472478
0.045156933 -0.038299147 0.43300003 4279196201
0.046670854 -0.038387597 0.43400002 4278334232
0.048191275 -0.038476046 0.43500003 4278198277
0.049718186 -0.038564496 0.43600002 4280110893
0.051251594 -0.038652945 0.43700001 4278201613
0.052791502 -0.038741399 0.43800002 4279321377
0.0543379 -0.038829848 0.43900001 4278729753
0.055890799 -0.038918301 0.44000003 4278663447
0.05745019 -0.039006751 0.44100001 4279321377
0.059149604 -0.03918365 0.44300002 4279714602
-0.0087071965 -0.033143416 0.38900003 4279967239
-0.0062279128 -0.033399019 0.39200002 4282075443
-0.0037002631 -0.033569422 0.39400002 4281747507
-0.0024328374 -0.033739828 0.39600003 4281878839
-0.0011495242 -0.033825029 0.39700001 4280892716
0.00014028497 -0.03391023 0.39800003 4281221683
0.0014401906 -0.034080632 0.40000001 4281221683
0.0027462398 -0.034165833 0.40100002 4280695339
0.0040587848 -0.034251034 0.40200001 4280958770
0.0053778263 -0.034336239 0.40300003 4281945152
0.0080155563 -0.034421436 0.40400001 4280695598
0.015928041 -0.034506641 0.40500003 4281615407
0.017243482 -0.034506641 0.40500003 4281549612
0.019825291 -0.034421436 0.40400001 4278731804
0.021137482 -0.034421436 0.40400001 4278867240
0.022449676 -0.034421436 0.40400001 4279000109
0.023820685 -0.034506641 0.40500003 4279328822
0.026516879 -0.034591842 0.40600002 4279260213
0.02936968 -0.034847446 0.40900001 4279720500
0.03077317 -0.034932647 0.41000003 4279786545
0.032183155 -0.035017848 0.41100001 4279589680
0.033599637 -0.035103053 0.41200003 4279262511
0.035107419 -0.035273455 0.41400003 4278868521
0.036804281 -0.03561426 0.41800001 4278540070
0.03834454 -0.035784662 0.42000002 4278210848
0.039992332 -0.036040269 0.42300001 4278538273
0.041855201 -0.036466278 0.42800003 4278603296
0.043447427 -0.036636677 0.43000001 4279126049
0.044948358 -0.036721881 0.43100002 4278199305
0.04656332 -0.036892284 0.43300003 4278658066
0.048080489 -0.036977485 0.43400002 4279712033
0.049604155 -0.03706269 0.43500003 4278792468
0.051134314 -0.037147891 0.43600002 4279121433
0.052670971 -0.037233088 0.43700001 4279649574
0.054214124 -0.037318293 0.43800002 4278202382
0.05576377 -0.037403494 0.43900001 4280045615
0.05745019 -0.037573896 0.44100001 4279583529
-0.0087071965 -0.031879514 0.38900003 4284049487
-0.0062120259 -0.03204342 0.39100003 4281878577
-0.0037002631 -0.032289278 0.39400002 4280300327
0.00014028497 -0.032617088 0.39800003 4281813818
0.0014401906 -0.03278099 0.40000001 4281418290
0.0027462398 -0.032862943 0.40100002 4280958509
0.0040587848 -0.032944895 0.40200001 4280761132
0.0080155563 -0.033108801 0.40400001 4280694317
0.01329716 -0.033190753 0.40500003 4281285677
0.0146126 -0.033190753 0.40500003 4282272824
0.015928041 -0.033190753 0.40500003 4282733373
0.017243482 -0.033190753 0.40500003 4283128385
0.018558923 -0.033190753 0.40500003 4282405175
0.019874364 -0.033190753 0.40500003 4278792718
0.021189803 -0.033190753 0.40500003 4278731289
0.022505244 -0.033190753 0.40500003 4278867236
0.023820685 -0.033190753 0.40500003 4278473765
0.025198191 -0.033272706 0.40600002 4279460154
0.026516879 -0.033272706 0.40600002 4283472757
0.03077317 -0.033600517 0.41000003 4279263281
0.032183155 -0.033682469 0.41100001 4279263281
0.033681188 -0.033846375 0.41300002 4278737447
0.035192218 -0.03401028 0.41500002 4278671654
0.036804281 -0.034256134 0.41800001 4278669857
0.038435835 -0.034501996 0.42100003 4278207251
0.039992332 -0.034665897 0.42300001 4279127332
0.041757409 -0.034993708 0.42700002 4278202894
0.043346386 -0.035157613 0.42900002 4278723857
0.044844069 -0.035239566 0.43000001 4279183896
0.046455778 -0.035403471 0.43200001 4279381789
0.047969706 -0.035485424 0.43300003 4280567342
0.04949012 -0.035567377 0.43400002 4278331404
0.051017039 -0.035649329 0.43500003 4279252765
0.052550443 -0.035731282 0.43600002 4279320609
0.054090347 -0.035813231 0.43700001 4279585064
0.05576377 -0.035977136 0.43900001 4280700729
-0.0062120259 -0.030773019 0.39100003 4284643167
-0.0049546966 -0.030851722 0.39200002 4281879609
-0.0011437332 -0.031087831 0.39500001 4281616439
0.0001399325 -0.031245237 0.39700001 4281616439
0.0014365901 -0.031402644 0.39900002 4281484083
0.0027462398 -0.031560052 0.40100002 4281747255
0.0040587848 -0.031638753 0.40200001 4281945406
0.0080353972 -0.031874865 0.40500003 4280760878
0.0093508381 -0.031874865 0.40500003 4280825387
0.010692614 -0.03195357 0.40600002 4280825387
0.012011304 -0.03195357 0.40600002 4280957227
0.013329992 -0.03195357 0.40600002 4282009911
0.01464868 -0.03195357 0.40600002 4282667064
0.015967369 -0.03195357 0.40600002 4282930236
0.017286059 -0.03195357 0.40600002 4282667064
0.018558923 -0.031874865 0.40500003 4283259971
0.019874364 -0.031874865 0.40500003 4279515158
0.021189803 -0.031874865 0.40500003 4279123480
0.022505244 -0.031874865 0.40500003 4278535193
0.023879502 -0.03195357 0.40600002 4278602269
0.025198191 -0.03195357 0.40600002 4278472993
0.026582189 -0.03203227 0.40700001 4278671144
0.027972691 -0.032110974 0.40800002 4278473765
0.02936968 -0.032189678 0.40900001 4279066416
0.03077317 -0.032268383 0.41000003 4278737449
0.032261461 -0.032425791 0.41200003 4278276898
0.033762742 -0.032583196 0.41400003 4278407970
0.035277016 -0.0327406 0.41600001 4278670370
0.036804281 -0.032898009 0.41800001 4278734880
0.038435835 -0.033134121 0.42100003 4278204429
0.039992332 -0.033291526 0.42300001 4279189023
0.041659616 -0.033527635 0.42600003 4278395660
0.043245349 -0.033685043 0.42800003 4279644445
0.044739779 -0.033763744 0.42900002 4278920724
0.046348244 -0.033921152 0.43100002 4278922519
0.04785892 -0.033999857 0.43200001 4280173867
0.049376089 -0.034078561 0.43300003 4278200076
0.051017039 -0.034235965 0.43500003 4279649320
0.052429914 -0.034235965 0.43500003 4279584297
0.054090347 -0.03439337 0.43700001 4283398240
-0.011205262 -0.029276256 0.38800001 4279967237
-0.0099450368 -0.029276256 0.38800001 4282271793
-0.0087071965 -0.029351711 0.38900003 4282076724
-0.0074437237 -0.029351711 0.38900003 4283523916
0.0040688813 -0.030408071 0.40300003 4281880896
0.0053911707 -0.030483523 0.40400001 4281683517
0.0080552371 -0.030634433 0.40600002 4280761130
0.0093739256 -0.030634433 0.40600002 4281023532
0.010692614 -0.030634433 0.40600002 4281023532
0.013362825 -0.030709887 0.40700001 4281483821
0.01468476 -0.030709887 0.40700001 4282733373
0.016006697 -0.030709887 0.40700001 4283194178
0.017286059 -0.030634433 0.40600002 4282996797
0.018604746 -0.030634433 0.40600002 4283326791
0.019923436 -0.030634433 0.40600002 4279712539
0.021242123 -0.030634433 0.40600002 4279254553
0.022560813 -0.030634433 0.40600002 4278928154
0.023879502 -0.030634433 0.40600002 4278797595
0.025260255 -0.030709887 0.40700001 4279392299
0.026582189 -0.030709887 0.40700001 4278800675
0.027972691 -0.030785341 0.40800002 4278604577
0.029441491 -0.03093625 0.41000003 4278539554
0.030848226 -0.031011704 0.41100001 4278671140
0.032339767 -0.031162612 0.41300002 4278802980
0.033762742 -0.031238068 0.41400003 4278932000
0.035277016 -0.031388976 0.41600001 4278866207
0.036892332 -0.031615339 0.41900003 4279325220
0.038435835 -0.031766247 0.42100003 4278204430
0.039992332 -0.031917155 0.42300001 4278396943
0.041561823 -0.032068063 0.42500001 4279249687
0.043144308 -0.032218974 0.42700002 4279183896
0.044739779 -0.032369882 0.42900002 4278920724
0.046240706 -0.032445334 0.43000001 4278527248
0.047748134 -0.03252079 0.43100002 4279384865
0.049376089 -0.032671697 0.43300003 4279781930
0.050899755 -0.032747153 0.43400002 4279386148
0.052429914 -0.032822609 0.43500003 4286027911
-0.011205262 -0.028015604 0.38800001 4282337332
0.01071895 -0.029387502 0.40700001 4282207804
0.012040887 -0.029387502 0.40700001 4282339642
0.013362825 -0.029387502 0.40700001 4282931779
0.01468476 -0.029387502 0.40700001 4283128385
0.016006697 -0.029387502 0.40700001 4283194689
0.017328633 -0.029387502 0.40700001 4283063617
0.018650571 -0.029387502 0.40700001 4283261768
0.019972509 -0.029387502 0.40700001 4279844895
0.021294443 -0.029387502 0.40700001 4279123482
0.022616381 -0.029387502 0.40700001 4278731289
0.023938317 -0.029387502 0.40700001 4278929181
0.02532232 -0.029459707 0.40800002 4279127328
0.026647503 -0.029459707 0.40800002 4279193634
0.028041249 -0.029531913 0.40900001 4278668574
0.029441491 -0.029604118 0.41000003 4278865953
0.030923283 -0.029748529 0.41200003 4279195172
0.032339767 -0.029820735 0.41300002 4279261478
0.033844296 -0.029965144 0.41500002 4278800414
0.035361819 -0.030109555 0.41700003 4278865693
0.036892332 -0.030253965 0.41900003 4279652906
0.038435835 -0.030398376 0.42100003 4280177201
0.039992332 -0.030542785 0.42300001 4279055388
0.041561823 -0.030687196 0.42500001 4279250971
0.043043267 -0.030759402 0.42600003 4278920211
0.044635493 -0.030903812 0.42800003 4279052310
0.046133172 -0.030976016 0.42900002 4279781676
0.047748134 -0.031120427 0.43100002 4279452965
0.049262054 -0.031192631 0.43200001 4281358659
0.0054045157 -0.027927207 0.40500003 4280762674
0.009397014 -0.028065117 0.40700001 4282076988
0.01071895 -0.028065117 0.40700001 4281945402
0.012040887 -0.028065117 0.40700001 4282208056
0.013395658 -0.028134074 0.40800002 4283326023
0.014720841 -0.028134074 0.40800002 4283128898
0.016046027 -0.028134074 0.40800002 4283063105
0.017371211 -0.028134074 0.40800002 4283063617
0.019972509 -0.028065117 0.40700001 4279319324
0.021294443 -0.028065117 0.40700001 4279189275
0.022671949 -0.028134074 0.40800002 4278928156
0.023997135 -0.028134074 0.40800002 4278863390
0.02532232 -0.028134074 0.40800002 4279127582
0.026712814 -0.028203029 0.40900001 4279193375
0.028109811 -0.028271988 0.41000003 4279195172
0.029513298 -0.028340943 0.41100001 4279260965
0.03099834 -0.028478855 0.41300002 4278471449
0.032418072 -0.028547812 0.41400003 4279326758
0.033925846 -0.028685723 0.41600001 4278800160
0.035361819 -0.028754679 0.41700003 4279063334
0.036892332 -0.028892592 0.41900003 4278203664
0.038435835 -0.029030504 0.42100003 4279849006
0.039897792 -0.029099459 0.42200002 4278790168
0.041464031 -0.029237373 0.42400002 4278591505
0.043043267 -0.029375285 0.42600003 4280305194
0.044531204 -0.02944424 0.42700002 4279781160
0.046025638 -0.029513197 0.42800003 4279650090
0.047637347 -0.029651107 0.43000001 4284056170
-0.014985936 -0.025494302 0.38800001 4283586615
-0.013725711 -0.025494302 0.38800001 4282337847
-0.012465486 -0.025494302 0.38800001 4286879111
-0.011205262 -0.025494302 0.38800001 4285432696
0.009397014 -0.026742734 0.40700001 4282143035
0.01071895 -0.026742734 0.40700001 4282603584
0.012070472 -0.026808441 0.40800002 4282866240
0.013395658 -0.026808441 0.40800002 4282339382
0.014720841 -0.026808441 0.40800002 4283194691
0.016046027 -0.026808441 0.40800002 4283194691
0.017371211 -0.026808441 0.40800002 4283261768
0.018696396 -0.026808441 0.40800002 4279776281
0.020021582 -0.026808441 0.40800002 4279385887
0.021346765 -0.026808441 0.40800002 4279255838
0.022671949 -0.026808441 0.40800002 4278993947
0.02405595 -0.026874147 0.40900001 4279191840
0.025384383 -0.026874147 0.40900001 4279061535
0.026778128 -0.026939856 0.41000003 4279127582
0.028178371 -0.027005563 0.41100001 4279786025
0.029585108 -0.027071269 0.41200003 4279260965
0.03099834 -0.027136976 0.41300002 4278931746
0.032496374 -0.027268389 0.41500002 4279326504
0.033925846 -0.027334096 0.41600001 4279062818
0.035446618 -0.027465511 0.41800001 4278997027
0.036892332 -0.027531218 0.41900003 4278335767
0.038435835 -0.027662633 0.42100003 4278465046
0.039897792 -0.02772834 0.42200002 4278725142
0.041464031 -0.027859753 0.42400002 4280371762
0.042942226 -0.02792546 0.42500001 4279650344
0.044531204 -0.028056873 0.42700002 4281557319
0.046025638 -0.028122582 0.42800003 4285830273
-0.014985936 -0.02423365 0.38800001 4283323709
-0.013725711 -0.02423365 0.38800001 4283194185
0.0054045157 -0.025295435 0.40500003 4281614624
0.0067199557 -0.025295435 0.40500003 4281550128
0.0080552371 -0.025357893 0.40600002 4282076472
0.009397014 -0.025420349 0.40700001 4283194951
0.01071895 -0.025420349 0.40700001 4282602814
0.012070472 -0.025482807 0.40800002 4282207796
0.013395658 -0.025482807 0.40800002 4282668347
0.014720841 -0.025482807 0.40800002 4282931519
0.016085355 -0.025545266 0.40900001 4283128898
0.017413788 -0.025545266 0.40900001 4282209591
0.01874222 -0.025545266 0.40900001 4279908635
0.020070653 -0.025545266 0.40900001 4279451934
0.021399084 -0.025545266 0.40900001 4279124252
0.022727517 -0.025545266 0.40900001 4278993949
0.024114769 -0.025607724 0.41000003 4279192353
0.025446448 -0.025607724 0.41000003 4279391013
0.02684344 -0.025670182 0.41100001 4279062818
0.028246932 -0.02573264 0.41200003 4279523369
0.029656915 -0.025795097 0.41300002 4279194918
0.031073397 -0.025857557 0.41400003 4279194918
0.032496374 -0.025920013 0.41500002 4279062818
0.0340074 -0.026044929 0.41700003 4279391015
0.035446618 -0.026107386 0.41800001 4279653674
0.036892332 -0.026169846 0.41900003 4279518756
0.03834454 -0.026232302 0.42000002 4280045100
0.039897792 -0.026357219 0.42200002 4279650857
0.041366238 -0.026419675 0.42300001 4280636215
0.042841185 -0.026482133 0.42400002 4284515692
-0.015024561 -0.023032209 0.38900003 4282272302
-0.013725711 -0.022972999 0.38800001 4282931013
-0.012465486 -0.022972999 0.38800001 4282076220
-0.011205262 -0.022972999 0.38800001 4281878843
0.0040688813 -0.023861131 0.40300003 4281941788
0.0053911707 -0.023920339 0.40400001 4281942558
0.0067199557 -0.023979548 0.40500003 4281943078
0.0080552371 -0.024038756 0.40600002 4283457350
0.0093739256 -0.024038756 0.40600002 4282997058
0.01071895 -0.024097964 0.40700001 4282997058
0.012070472 -0.024157174 0.40800002 4282931265
0.013395658 -0.024157174 0.40800002 4282865472
0.014756921 -0.024216382 0.40900001 4282668347
0.016085355 -0.024216382 0.40900001 4282997824
0.017413788 -0.024216382 0.40900001 4281816118
0.01874222 -0.024216382 0.40900001 4279844125
0.020070653 -0.024216382 0.40900001 4279255066
0.021451406 -0.024275592 0.41000003 4279255836
0.022783088 -0.024275592 0.41000003 4279126049
0.024114769 -0.024275592 0.41000003 4279127332
0.025508514 -0.024334799 0.41100001 4279260197
0.026908753 -0.024394009 0.41200003 4279194404
0.028246932 -0.024394009 0.41200003 4279325990
0.029656915 -0.024453219 0.41300002 4279194404
0.031148452 -0.024571637 0.41500002 4279654957
0.03257468 -0.024630845 0.41600001 4279588394
0.0340074 -0.024690054 0.41700003 4279258916
0.035446618 -0.024749262 0.41800001 4278929181
0.036892332 -0.024808472 0.41900003 4280045867
0.03834454 -0.02486768 0.42000002 4279716902
0.039803248 -0.02492689 0.42100003 4281754183
0.041268446 -0.024986098 0.42200002 4286357898
-0.015024561 -0.021768307 0.38900003 4282272302
-0.013761087 -0.021768307 0.38900003 4284642147
-0.012497614 -0.021768307 0.38900003 4281747255
-0.011234142 -0.021768307 0.38900003 4281615669
0.0040688813 -0.022551743 0.40300003 4282074146
0.0053778263 -0.022551743 0.40300003 4282204962
0.0067033628 -0.022607703 0.40400001 4281548320
0.0080353972 -0.022663662 0.40500003 4280825630
0.0093739256 -0.022719622 0.40600002 4282075958
0.01071895 -0.022775581 0.40700001 4282931527
0.012070472 -0.022831541 0.40800002 4283194951
0.013395658 -0.022831541 0.40800002 4282273849
0.014756921 -0.0228875 0.40900001 4282405435
0.016085355 -0.0228875 0.40900001 4282471228
0.017413788 -0.0228875 0.40900001 4279447830
0.018788045 -0.022943461 0.41000003 4279647516
0.020119727 -0.022943461 0.41000003 4278729492
0.021451406 -0.022943461 0.41000003 4279058970
0.022838654 -0.022999419 0.41100001 4278994461
0.024173584 -0.022999419 0.41100001 4278995744
0.025508514 -0.022999419 0.41100001 4279325992
0.026908753 -0.02305538 0.41200003 4279325992
0.028315492 -0.02311134 0.41300002 4279523371
0.029728726 -0.023167299 0.41400003 4278669087
0.031148452 -0.023223259 0.41500002 4279655473
0.03257468 -0.023279218 0.41600001 4279127332
0.0340074 -0.023335177 0.41700003 4279258916
0.035446618 -0.023391137 0.41800001 4278337046
0.036892332 -0.023447098 0.41900003 4281031997
0.03834454 -0.023503058 0.42000002 4284516719
0.039803248 -0.023559017 0.42100003 4286422410
-0.015063183 -0.020557117 0.39000002 4282601269
-0.013796463 -0.020557117 0.39000002 4284774501
-0.011234142 -0.020504406 0.38900003 4281353267
0.0053644818 -0.021189643 0.40200001 4281481503
0.012040887 -0.021453194 0.40700001 4281220397
0.014756921 -0.021558616 0.40900001 4282340414
0.016085355 -0.021558616 0.40900001 4282867269
0.017456364 -0.021611327 0.41000003 4280107297
0.018788045 -0.021611327 0.41000003 4279320348
0.020168798 -0.021664038 0.41100001 4278993179
0.021503726 -0.021664038 0.41100001 4278993949
0.022838654 -0.021664038 0.41100001 4279192353
0.024173584 -0.021664038 0.41100001 4279193123
0.025570579 -0.021716749 0.41200003 4279062820
0.026908753 -0.021716749 0.41200003 4279654957
0.028315492 -0.021769458 0.41300002 4279392299
0.029728726 -0.021822169 0.41400003 4278800164
0.031148452 -0.02187488 0.41500002 4280115510
0.03257468 -0.02192759 0.41600001 4279522603
0.0340074 -0.021980301 0.41700003 4279717934
0.035446618 -0.022033012 0.41800001 4281689675
0.036892332 -0.022085723 0.41900003 4286422923
0.03834454 -0.022138434 0.42000002 4286225031
0.0397087 -0.022138434 0.42000002 4286290570
0.0053644818 -0.019883504 0.40200001 4287339146
0.012040887 -0.020130811 0.40700001 4282078021
0.014756921 -0.020229734 0.40900001 4280959020
0.016124683 -0.020279195 0.41000003 4280039455
0.017456364 -0.020279195 0.41000003 4280173858
0.01883387 -0.020328658 0.41100001 4279057174
0.020168798 -0.020328658 0.41100001 4278993177
0.021503726 -0.020328658 0.41100001 4279124763
0.022838654 -0.020328658 0.41100001 4280179248
0.024232401 -0.020378118 0.41200003 4279390502
0.025570579 -0.020378118 0.41200003 4278930464
0.026974065 -0.020427579 0.41300002 4279523371
0.028315492 -0.020427579 0.41300002 4279523371
0.029728726 -0.020477042 0.41400003 4279325994
0.031148452 -0.020526502 0.41500002 4280575291
0.03257468 -0.020575963 0.41600001 4281034559
0.0340074 -0.020625426 0.41700003 4284318828
0.035446618 -0.020674886 0.41800001 4286226314
0.036892332 -0.020724349 0.41900003 4286160521
0.038253244 -0.020724349 0.41900003 4286225290
0.014756921 -0.018900851 0.40900001 4280105510
0.016124683 -0.018947065 0.41000003 4279909153
0.017456364 -0.018947065 0.41000003 4279713820
0.01883387 -0.018993275 0.41100001 4279255066
0.020168798 -0.018993275 0.41100001 4278993179
0.021503726 -0.018993275 0.41100001 4279257119
0.022894224 -0.019039489 0.41200003 4279060765
0.024232401 -0.019039489 0.41200003 4279587109
0.025570579 -0.019039489 0.41200003 4279456808
0.026974065 -0.019085702 0.41300002 4279720750
0.028315492 -0.019085702 0.41300002 4279523373
0.029728726 -0.019131914 0.41400003 4280509244
0.031148452 -0.019178126 0.41500002 4281163329
0.03257468 -0.019224338 0.41600001 4286293134
-0.010073194 -0.016884556 0.39300001 4282732603
-0.0061802506 -0.016712705 0.38900003 4281682232
0.017456364 -0.017614933 0.41000003 4281883206
0.01883387 -0.017657895 0.41100001 4279054105
0.020168798 -0.017657895 0.41100001 4279385635
0.021556048 -0.01770086 0.41200003 4279058720
0.022894224 -0.01770086 0.41200003 4279521320
0.024232401 -0.01770086 0.41200003 4279784490
0.025570579 -0.01770086 0.41200003 4280377910
0.026974065 -0.017743822 0.41300002 4279785775
0.028315492 -0.017743822 0.41300002 4280835901
0.029728726 -0.017786786 0.41400003 4284057192
0.026974065 -0.016401943 0.41300002 4284056168
0.032447152 -0.034030113 0.42169878 4294967295
0.032447152 -0.034030113 0.42169878 4294901760
0.032447152 -0.034030113 0.42219877 4294901760
0.032447152 -0.034030113 0.42269877 4294901760
0.032447152 -0.034030113 0.42319879 4294901760
0.032447152 -0.034030113 0.42369878 4294901760
0.032447152 -0.034030113 0.42419878 4294901760
0.032447152 -0.034030113 0.42469877 4294901760
0.032447152 -0.034030113 0.42519879 4294901760
0.032447152 -0.034030113 0.42569879 4294901760
0.032447152 -0.034030113 0.42619878 4294901760
0.032447152 -0.034030113 0.42669877 4294901760
0.032447152 -0.034030113 0.42719877 4294901760
0.032447152 -0.034030113 0.42769879 4294901760
0.032447152 -0.034030113 0.42819878 4294901760
0.032447152 -0.034030113 0.42869878 4294901760
0.032447152 -0.034030113 0.42919877 4294901760
0.032447152 -0.034030113 0.42969877 4294901760
0.032447152 -0.034030113 0.43019879 4294901760
0.032447152 -0.034030113 0.43069878 4294901760
0.032447152 -0.034030113 0.43119878 4294901760
0.032447152 -0.034030113 0.43169877 4294901760
0.032447152 -0.034030113 0.43219879 4294901760
0.032447152 -0.034030113 0.43269879 4294901760
0.032447152 -0.034030113 0.43319878 4294901760
0.032447152 -0.034030113 0.43369877 4294901760
0.032447152 -0.034030113 0.4341988 4294901760
0.032447152 -0.034030113 0.43469879 4294901760
0.032447152 -0.034030113 0.43519878 4294901760
0.032447152 -0.034030113 0.43569878 4294901760
0.032447152 -0.034030113 0.43619877 4294901760
0.032447152 -0.034030113 0.43669879 4294901760
0.032447152 -0.034030113 0.43719879 4294901760
0.032447152 -0.034030113 0.43769878 4294901760
0.032447152 -0.034030113 0.43819878 4294901760
0.032447152 -0.034030113 0.43869877 4294901760
0.032447152 -0.034030113 0.43919879 4294901760
0.032447152 -0.034030113 0.43969879 4294901760
0.032447152 -0.034030113 0.44019878 4294901760
0.032447152 -0.034030113 0.44069877 4294901760
0.032447152 -0.034030113 0.4411988 4294901760
0.032447152 -0.034030113 0.44169879 4294901760
0.032447152 -0.034030113 0.44219878 4294901760
0.032447152 -0.034030113 0.44269878 4294901760
0.032447152 -0.034030113 0.4431988 4294901760
0.032447152 -0.034030113 0.44369879 4294901760
0.032447152 -0.034030113 0.44419879 4294901760
0.032447152 -0.034030113 0.44469878 4294901760
0.032447152 -0.034030113 0.44519877 4294901760
0.032447152 -0.034030113 0.4456988 4294901760
0.032447152 -0.034030113 0.44619879 4294901760
0.032447152 -0.034030113 0.44669878 4294901760
0.032447152 -0.034030113 0.44719878 4294901760
0.032447152 -0.034030113 0.44769877 4294901760
0.032447152 -0.034030113 0.4481988 4294901760
0.032447152 -0.034030113 0.44869879 4294901760
0.032447152 -0.034030113 0.44919878 4294901760
0.032447152 -0.034030113 0.44969878 4294901760
0.032447152 -0.034030113 0.45019877 4294901760
0.032447152 -0.034030113 0.45069879 4294901760
0.032447152 -0.034030113 0.45119879 4294901760
0.032447152 -0.034030113 0.45169878 4294901760
0.032447152 -0.034030113 0.45219877 4294901760
0.032447152 -0.034030113 0.4526988 4294901760
0.032447152 -0.034030113 0.45319879 4294901760
0.032447152 -0.034030113 0.45369878 4294901760
0.032447152 -0.034030113 0.45419878 4294901760
0.032447152 -0.034030113 0.4546988 4294901760
0.032447152 -0.034030113 0.45519879 4294901760
0.032447152 -0.034030113 0.45569879 4294901760
0.032447152 -0.034030113 0.45619878 4294901760
0.032447152 -0.034030113 0.45669878 4294901760
0.032447152 -0.034030113 0.4571988 4294901760
0.032447152 -0.034030113 0.45769879 4294901760
0.032447152 -0.034030113 0.45819879 4294901760
0.032447152 -0.034030113 0.45869878 4294901760
0.032447152 -0.034030113 0.45919877 4294901760
0.032447152 -0.034030113 0.4596988 4294901760
0.032447152 -0.034030113 0.46019879 4294901760
0.032447152 -0.034030113 0.46069878 4294901760
0.032447152 -0.034030113 0.46119878 4294901760
0.032447152 -0.034030113 0.4616988 4294901760
0.032447152 -0.034030113 0.46219879 4294901760
0.032447152 -0.034030113 0.46269879 4294901760
0.032447152 -0.034030113 0.46319878 4294901760
0.032447152 -0.034030113 0.46369877 4294901760
0.032447152 -0.034030113 0.4641988 4294901760
0.032447152 -0.034030113 0.46469879 4294901760
0.032447152 -0.034030113 0.46519879 4294901760
0.032447152 -0.034030113 0.46569878 4294901760
0.032447152 -0.034030113 0.4661988 4294901760
0.032447152 -0.034030113 0.4666988 4294901760
0.032447152 -0.034030113 0.46719879 4294901760
0.032447152 -0.034030113 0.46769878 4294901760
0.032447152 -0.034030113 0.46819878 4294901760
0.032447152 -0.034030113 0.4686988 4294901760
0.032447152 -0.034030113 0.46919879 4294901760
0.032447152 -0.034030113 0.46969879 4294901760
0.032447152 -0.034030113 0.47019878 4294901760
0.032447152 -0.034030113 0.4706988 4294901760
0.032447152 -0.034030113 0.4711988 4294901760
0.032447152 -0.034030113 0.47169879 4294901760
0.032447152 -0.034030113 0.42169878 4278255360
0.032308668 -0.033700865 0.42204866 4278255360
0.03217018 -0.033371616 0.42239854 4278255360
0.032031696 -0.033042368 0.42274842 4278255360
0.031893212 -0.032713119 0.4230983 4278255360
0.031754725 -0.03238387 0.42344818 4278255360
0.031616241 -0.032054618 0.42379805 4278255360
0.031477757 -0.031725369 0.42414793 4278255360
0.031339273 -0.031396121 0.42449784 4278255360
0.031200787 -0.031066872 0.42484772 4278255360
0.031062301 -0.030737624 0.4251976 4278255360
0.030923815 -0.030408375 0.42554748 4278255360
0.030785332 -0.030079126 0.42589736 4278255360
0.030646846 -0.029749878 0.42624724 4278255360
0.030508362 -0.029420629 0.42659712 4278255360
0.030369876 -0.029091379 0.426947 4278255360
0.03023139 -0.02876213 0.42729688 4278255360
0.030092906 -0.028432881 0.42764676 4278255360
0.02995442 -0.028103633 0.42799664 4278255360
0.029815936 -0.027774382 0.42834651 4278255360
0.029677451 -0.027445134 0.42869639 4278255360
0.029538967 -0.027115885 0.42904627 4278255360
0.029400481 -0.026786637 0.42939618 4278255360
0.029261995 -0.026457388 0.42974606 4278255360
0.029123511 -0.026128139 0.43009594 4278255360
0.028985025 -0.025798891 0.43044582 4278255360
0.02884654 -0.025469642 0.4307957 4278255360
0.028708056 -0.025140392 0.43114558 4278255360
0.02856957 -0.024811143 0.43149546 4278255360
0.028431086 -0.024481894 0.43184534 4278255360
0.0282926 -0.024152644 0.43219522 4278255360
0.028154116 -0.023823395 0.4325451 4278255360
0.02801563 -0.023494147 0.43289497 4278255360
0.027877145 -0.023164898 0.43324485 4278255360
0.027738661 -0.02283565 0.43359473 4278255360
0.027600175 -0.022506401 0.43394461 4278255360
0.027461689 -0.022177152 0.43429452 4278255360
0.027323205 -0.021847904 0.4346444 4278255360
0.027184719 -0.021518653 0.43499428 4278255360
0.027046235 -0.021189405 0.43534416 4278255360
0.026907749 -0.020860154 0.43569404 4278255360
0.026769266 -0.020530906 0.43604392 4278255360
0.02663078 -0.020201657 0.4363938 4278255360
0.026492294 -0.019872408 0.43674368 4278255360
0.02635381 -0.01954316 0.43709356 4278255360
0.026215324 -0.019213911 0.43744344 4278255360
0.026076838 -0.018884663 0.43779331 4278255360
0.025938354 -0.018555414 0.43814319 4278255360
0.025799869 -0.018226165 0.43849307 4278255360
0.025661383 -0.017896915 0.43884295 4278255360
0.025522899 -0.017567666 0.43919283 4278255360
0.025384415 -0.017238418 0.43954274 4278255360
0.025245929 -0.016909169 0.43989262 4278255360
0.025107443 -0.01657992 0.4402425 4278255360
0.024968959 -0.01625067 0.44059238 4278255360
0.024830474 -0.015921421 0.44094226 4278255360
0.024691988 -0.015592173 0.44129214 4278255360
0.024553504 -0.015262924 0.44164202 4278255360
0.02441502 -0.014933676 0.4419919 4278255360
0.024276534 -0.014604427 0.44234177 4278255360
0.024138048 -0.014275176 0.44269165 4278255360
0.023999564 -0.013945928 0.44304153 4278255360
0.023861079 -0.013616679 0.44339141 4278255360
0.023722593 -0.013287431 0.44374129 4278255360
0.023584109 -0.012958182 0.44409117 4278255360
0.023445623 -0.012628933 0.44444108 4278255360
0.023307137 -0.012299683 0.44479096 4278255360
0.023168653 -0.011970434 0.44514084 4278255360
0.023030167 -0.011641186 0.44549072 4278255360
0.022891682 -0.011311937 0.4458406 4278255360
0.022753198 -0.010982689 0.44619048 4278255360
0.022614714 -0.01065344 0.44654036 4278255360
0.022476226 -0.010324189 0.44689023 4278255360
0.022337742 -0.0099949408 0.44724011 4278255360
0.022199258 -0.0096656922 0.44758999 4278255360
0.022060772 -0.0093364418 0.44793987 4278255360
0.021922287 -0.0090071931 0.44828975 4278255360
0.021783803 -0.0086779445 0.44863963 4278255360
0.021645319 -0.0083486959 0.44898951 4278255360
0.021506831 -0.0080194455 0.44933942 4278255360
0.021368347 -0.0076901969 0.4496893 4278255360
0.021229863 -0.0073609482 0.45003918 4278255360
0.021091377 -0.0070316996 0.45038906 4278255360
0.020952892 -0.006702451 0.45073894 4278255360
0.020814408 -0.0063732024 0.45108882 4278255360
0.020675922 -0.006043952 0.4514387 4278255360
0.020537436 -0.0057147034 0.45178857 4278255360
0.020398952 -0.0053854547 0.45213845 4278255360
0.020260466 -0.0050562061 0.45248833 4278255360
0.02012198 -0.0047269575 0.45283821 4278255360
0.019983497 -0.0043977089 0.45318809 4278255360
0.019845011 -0.0040684585 0.45353797 4278255360
0.019706525 -0.0037392098 0.45388788 4278255360
0.019568041 -0.0034099612 0.45423776 4278255360
0.019429557 -0.0030807126 0.45458764 4278255360
0.019291071 -0.0027514659 0.45493752 4278255360
0.019152585 -0.0024222173 0.4552874 4278255360
0.019014101 -0.0020929649 0.45563728 4278255360
0.018875616 -0.0017637163 0.45598716 4278255360
0.01873713 -0.0014344677 0.45633703 4278255360
0.018598646 -0.0011052191 0.45668691 4278255360
