# .PCD v0.7 - Point Cloud Data file format
VERSION 0.7
FIELDS x y z rgb
SIZE 4 4 4 4
TYPE F F F U
COUNT 1 1 1 1
WIDTH 1048
HEIGHT 1
VIEWPOINT 0 0 0 1 0 0 0
POINTS 1048
DATA ascii
0.032866746 -0.00026097128 0.36000001 4282471746
0.033941485 -0.00026024636 0.35900003 4282405953
0.035009723 -0.00025952145 0.35800001 4281089323
0.036172509 -0.00025952145 0.35800001 4279573524
0.037231006 -0.00025879653 0.35700002 4279968795
0.038390543 -0.00025879653 0.35700002 4281287222
0.039439294 -0.00025807158 0.35600001 4282012228
0.04059558 -0.00025807158 0.35600001 4282604878
0.041751873 -0.00025807158 0.35600001 4283065431
0.042908158 -0.00025807158 0.35600001 4283261014
0.044064447 -0.00025807158 0.35600001 4280628008
0.045220733 -0.00025807158 0.35600001 4279510813
0.046377026 -0.00025807158 0.35600001 4279445533
0.051002178 -0.00025807158 0.35600001 4280036387
0.052158471 -0.00025807158 0.35600001 4280234016
0.053464517 -0.00025879653 0.35700002 4281419060
0.054624055 -0.00025879653 0.35700002 4281419060
0.055627335 -0.00025807158 0.35600001 4281484853
0.05678362 -0.00025807158 0.35600001 4282142785
0.057939909 -0.00025807158 0.35600001 4281879613
0.058930203 -0.00025734669 0.35500002 4281878841
0.06008324 -0.00025734669 0.35500002 4281747255
0.061063781 -0.00025662174 0.354 4281418290
0.062213577 -0.00025662174 0.354 4280497188
0.063184381 -0.00025589683 0.35300002 4281418290
0.064330921 -0.00025589683 0.35300002 4280234018
0.065477468 -0.00025589683 0.35300002 4280826671
0.066624016 -0.00025589683 0.35300002 4280366633
0.028267931 0.00091122976 0.36100003 4281678884
0.029440459 0.00091122976 0.36100003 4281944109
0.03061299 0.00091122976 0.36100003 4281550380
0.031785518 0.00091122976 0.36100003 4281814070
0.032866746 0.00090870552 0.36000001 4281682230
0.033941485 0.00090618141 0.35900003 4282339642
0.035009723 0.00090365717 0.35800001 4280365340
0.036071472 0.000901133 0.35700002 4281154091
0.037231006 0.000901133 0.35700002 4280957227
0.038283002 0.00089860882 0.35600001 4282471750
0.039439294 0.00089860882 0.35600001 4279774496
0.04059558 0.00089860882 0.35600001 4279445533
0.041634593 0.00089608465 0.35500002 4282537804
0.04278763 0.00089608465 0.35500002 4282143046
0.043940671 0.00089608465 0.35500002 4281352245
0.045093711 0.00089608465 0.35500002 4281616187
0.046246752 0.00089608465 0.35500002 4282274630
0.047533315 0.00089860882 0.35600001 4282406986
0.0486896 0.00089860882 0.35600001 4282275654
0.049845889 0.00089860882 0.35600001 4282669642
0.051002178 0.00089860882 0.35600001 4282801228
0.052158471 0.00089860882 0.35600001 4280300581
0.053464517 0.000901133 0.35700002 4281221683
0.054624055 0.000901133 0.35700002 4281748027
0.055783596 0.000901133 0.35700002 4281945406
0.05678362 0.00089860882 0.35600001 4281945406
0.057939909 0.00089860882 0.35600001 4281879613
0.059096199 0.00089860882 0.35600001 4281484853
0.06008324 0.00089608465 0.35500002 4281155888
0.061236281 0.00089608465 0.35500002 4280694053
0.062213577 0.00089356041 0.354 4280759846
0.063363373 0.00089356041 0.354 4280496674
0.064513162 0.00089356041 0.354 4281483571
0.065477468 0.0008910363 0.35300002 4281220399
0.066624016 0.0008910363 0.35300002 4280892718
0.067770556 0.0008910363 0.35300002 4279644707
0.029522011 0.0020899288 0.36200002 4282073124
0.030697789 0.0020899288 0.36200002 4281217558
0.031873565 0.0020899288 0.36200002 4280626198
0.032866746 0.0020783823 0.36000001 4281349921
0.033941485 0.002072609 0.35900003 4281811753
0.035009723 0.0020668358 0.35800001 4283457861
0.036071472 0.0020610625 0.35700002 4282734400
0.037231006 0.0020610625 0.35700002 4280234016
0.038283002 0.0020552892 0.35600001 4279576606
0.039439294 0.0020552892 0.35600001 4282275400
0.040481549 0.002049516 0.35500002 4283329115
0.041634593 0.002049516 0.35500002 4282737748
0.04278763 0.002049516 0.35500002 4282343505
0.043940671 0.002049516 0.35500002 4282867539
0.045093711 0.002049516 0.35500002 4282077251
0.046246752 0.002049516 0.35500002 4282406986
0.047399797 0.002049516 0.35500002 4282275400
0.048552833 0.002049516 0.35500002 4282209607
0.049845889 0.0020552892 0.35600001 4282275400
0.051002178 0.0020552892 0.35600001 4281946689
0.052158471 0.0020552892 0.35600001 4282209091
0.053464517 0.0020610625 0.35700002 4281945406
0.054624055 0.0020610625 0.35700002 4282340164
0.055783596 0.0020610625 0.35700002 4282208578
0.056943126 0.0020610625 0.35700002 4281748027
0.058102667 0.0020610625 0.35700002 4281616441
0.059096199 0.0020552892 0.35600001 4281615669
0.060252484 0.0020552892 0.35600001 4280694567
0.061236281 0.002049516 0.35500002 4280431395
0.062389322 0.002049516 0.35500002 4280365088
0.063363373 0.0020437425 0.354 4280365088
0.064513162 0.0020437425 0.354 4280957227
0.06566295 0.0020437425 0.354 4280102432
0.066624016 0.0020379694 0.35300002 4280761132
0.067770556 0.0020379694 0.35300002 4280170791
0.068917103 0.0020379694 0.35300002 4279843369
0.029522011 0.0032661038 0.36200002 4282862638
0.03078259 0.003275126 0.36300001 4281875488
0.031961612 0.003275126 0.36300001 4280757782
0.033140637 0.003275126 0.36300001 4281481507
0.033846941 0.0032300141 0.35800001 4281745447
0.035009723 0.0032300141 0.35800001 4283062590
0.036071472 0.0032209919 0.35700002 4282207804
0.037126716 0.0032119695 0.35600001 4281418290
0.038283002 0.0032119695 0.35600001 4282670671
0.039328512 0.0032029471 0.35500002 4282408015
0.040481549 0.0032029471 0.35500002 4282738263
0.041634593 0.0032029471 0.35500002 4282672470
0.042667102 0.0031939247 0.354 4282343505
0.043816894 0.0031939247 0.354 4284579952
0.045093711 0.0032029471 0.35500002 4283788893
0.046246752 0.0032029471 0.35500002 4282406988
0.047399797 0.0032029471 0.35500002 4282143816
0.048552833 0.0032029471 0.35500002 4282275400
0.049705874 0.0032029471 0.35500002 4282209607
0.051002178 0.0032119695 0.35600001 4281880642
0.052158471 0.0032119695 0.35600001 4282275654
0.053464517 0.0032209919 0.35700002 4283328088
0.054624055 0.0032209919 0.35700002 4284314732
0.055783596 0.0032209919 0.35700002 4283985767
0.056943126 0.0032209919 0.35700002 4282340677
0.058102667 0.0032209919 0.35700002 4281155890
0.059262205 0.0032209919 0.35700002 4281286188
0.060252484 0.0032119695 0.35600001 4280365088
0.061408777 0.0032119695 0.35600001 4280365602
0.062389322 0.0032029471 0.35500002 4280168223
0.063542366 0.0032029471 0.35500002 4280233504
0.064513162 0.0031939247 0.354 4280365090
0.06566295 0.0031939247 0.354 4281484083
0.066624016 0.0031849022 0.35300002 4280628774
0.067770556 0.0031849022 0.35300002 4280038692
0.068917103 0.0031849022 0.35300002 4279711524
0.070063643 0.0031849022 0.35300002 4283133791
0.03086739 0.0044668219 0.36400002 4280757264
0.031961612 0.0044545503 0.36300001 4281283354
0.033140637 0.0044545503 0.36300001 4281415710
0.033846941 0.0043931929 0.35800001 4281415712
0.035009723 0.0043931929 0.35800001 4281943339
0.035970427 0.0043686498 0.35600001 4282273849
0.037126716 0.0043686498 0.35600001 4282800713
0.038175467 0.0043563787 0.35500002 4282802771
0.039328512 0.0043563787 0.35500002 4282802773
0.040481549 0.0043563787 0.35500002 4282869336
0.04151731 0.0043441067 0.354 4282737750
0.042667102 0.0043441067 0.354 4282869336
0.043816894 0.0043441067 0.354 4282079050
0.044966683 0.0043441067 0.354 4281747773
0.046116479 0.0043441067 0.354 4282143044
0.047399797 0.0043563787 0.35500002 4284512875
0.048552833 0.0043563787 0.35500002 4283723359
0.049705874 0.0043563787 0.35500002 4282933330
0.050858919 0.0043563787 0.35500002 4281880126
0.052011959 0.0043563787 0.35500002 4280959794
0.053464517 0.0043809214 0.35700002 4283854694
0.054624055 0.0043809214 0.35700002 4284710517
0.055783596 0.0043809214 0.35700002 4284644724
0.056943126 0.0043809214 0.35700002 4284710517
0.058102667 0.0043809214 0.35700002 4285630845
0.059262205 0.0043809214 0.35700002 4281088813
0.060421735 0.0043809214 0.35700002 4280299297
0.061581276 0.0043809214 0.35700002 4280299297
0.062565066 0.0043686498 0.35600001 4280101918
0.063542366 0.0043563787 0.35500002 4280101664
0.064513162 0.0043441067 0.354 4280364836
0.06566295 0.0043441067 0.354 4280694569
0.066624016 0.0043318355 0.35300002 4280366372
0.067770556 0.0043318355 0.35300002 4279841824
0.068917103 0.0043318355 0.35300002 4279712035
0.070063643 0.0043318355 0.35300002 4278857498
0.035970427 0.0055253301 0.35600001 4281089061
0.037126716 0.0055253301 0.35600001 4282207804
0.038175467 0.0055098101 0.35500002 4282803025
0.039328512 0.0055098101 0.35500002 4282606162
0.040367514 0.0054942891 0.354 4282540371
0.04151731 0.0054942891 0.354 4282079820
0.042667102 0.0054942891 0.354 4282144068
0.043816894 0.0054942891 0.354 4281813818
0.044966683 0.0054942891 0.354 4282339390
0.046116479 0.0054942891 0.354 4282273597
0.047266271 0.0054942891 0.354 4282208574
0.048552833 0.0055098101 0.35500002 4282274880
0.049705874 0.0055098101 0.35500002 4282999373
0.050858919 0.0055098101 0.35500002 4282999373
0.052011959 0.0055098101 0.35500002 4282669127
0.053464517 0.005540851 0.35700002 4282999377
0.054624055 0.005540851 0.35700002 4284579703
0.055783596 0.005540851 0.35700002 4284579703
0.056943126 0.005540851 0.35700002 4284710517
0.058102667 0.005540851 0.35700002 4285171321
0.059262205 0.005540851 0.35700002 4285498487
0.060421735 0.005540851 0.35700002 4280891948
0.061581276 0.005540851 0.35700002 4280233504
0.062565066 0.0055253301 0.35600001 4280101664
0.063542366 0.0055098101 0.35500002 4280628008
0.064513162 0.0054942891 0.354 4280233764
0.065477468 0.0054787686 0.35300002 4280235047
0.066624016 0.0054787686 0.35300002 4281419060
0.067770556 0.0054787686 0.35300002 4279447578
0.068721868 0.0054632481 0.35200003 4279054873
0.069865167 0.0054632481 0.35200003 4279252765
0.035970427 0.0066820108 0.35600001 4280693272
0.03702243 0.0066632414 0.35500002 4283523916
0.038175467 0.0066632414 0.35500002 4282274880
0.039328512 0.0066632414 0.35500002 4282209859
0.040367514 0.0066444711 0.354 4282604365
0.04151731 0.0066444711 0.354 4281353267
0.042667102 0.0066444711 0.354 4280429848
0.043816894 0.0066444711 0.354 4280561175
0.044966683 0.0066444711 0.354 4281020956
0.046116479 0.0066444711 0.354 4281415712
0.047266271 0.0066444711 0.354 4281943078
0.048416063 0.0066444711 0.354 4282667314
0.049705874 0.0066632414 0.35500002 4280365854
0.050858919 0.0066632414 0.35500002 4282867017
0.052011959 0.0066632414 0.35500002 4282998603
0.053464517 0.0067007807 0.35700002 4283261779
0.054624055 0.0067007807 0.35700002 4284842356
0.055783596 0.0067007807 0.35700002 4284776563
0.056943126 0.0067007807 0.35700002 4285039735
0.058102667 0.0067007807 0.35700002 4285039735
0.059262205 0.0067007807 0.35700002 4284972915
0.060421735 0.0067007807 0.35700002 4281155636
0.061753768 0.0067195501 0.35800001 4280562215
0.062565066 0.0066820108 0.35600001 4280562215
0.063542366 0.0066632414 0.35500002 4280628262
0.064513162 0.0066444711 0.354 4280234018
0.065477468 0.0066257017 0.35300002 4280103202
0.066435277 0.0066069323 0.35200003 4280958509
0.067578569 0.0066069323 0.35200003 4279579418
0.068721868 0.0066069323 0.35200003 4278989845
0.069865167 0.0066069323 0.35200003 4278924566
0.070806727 0.0065881624 0.35100001 4279779623
0.035970427 0.0078386907 0.35600001 4281350689
0.03702243 0.0078166723 0.35500002 4284378965
0.038175467 0.0078166723 0.35500002 4283523916
0.039328512 0.0078166723 0.35500002 4283261516
0.040367514 0.0077946531 0.354 4282470462
0.04151731 0.0077946531 0.354 4281350437
0.042667102 0.0077946531 0.354 4281744159
0.043816894 0.0077946531 0.354 4281547032
0.044966683 0.0077946531 0.354 4280823052
0.046116479 0.0077946531 0.354 4281744154
0.047266271 0.0077946531 0.354 4282270494
0.048416063 0.0077946531 0.354 4281349651
0.049565855 0.0077946531 0.354 4282997826
0.050858919 0.0078166723 0.35500002 4282801476
0.052011959 0.0078166723 0.35500002 4283064396
0.053464517 0.0078607099 0.35700002 4284511844
0.054624055 0.0078607099 0.35700002 4285105014
0.055783596 0.0078607099 0.35700002 4285170807
0.056943126 0.0078607099 0.35700002 4285301880
0.058102667 0.0078607099 0.35700002 4285038708
0.059262205 0.0078607099 0.35700002 4284907635
0.060421735 0.0078607099 0.35700002 4285169524
0.061926268 0.0079047475 0.35900003 4280364323
0.062565066 0.0078386907 0.35600001 4280628008
0.063363373 0.0077946531 0.354 4280496676
0.064330921 0.0077726347 0.35300002 4280365090
0.065291978 0.0077506159 0.35200003 4280103202
0.066435277 0.0077506159 0.35200003 4280300581
0.067386582 0.0077285971 0.35100001 4280039969
0.068526633 0.0077285971 0.35100001 4278792466
0.069666684 0.0077285971 0.35100001 4278530578
0.070806727 0.0077285971 0.35100001 4279254303
0.035970427 0.0089953709 0.35600001 4280890140
0.03702243 0.0089701032 0.35500002 4284839262
0.038175467 0.0089701032 0.35500002 4283195723
0.039328512 0.0089701032 0.35500002 4283260746
0.040367514 0.0089448346 0.354 4281483306
0.04151731 0.0089448346 0.354 4282665261
0.042667102 0.0089448346 0.354 4282270498
0.043816894 0.0089448346 0.354 4282731047
0.044966683 0.0089448346 0.354 4282731045
0.046116479 0.0089448346 0.354 4282599459
0.047266271 0.0089448346 0.354 4282665252
0.048416063 0.0089448346 0.354 4282994219
0.049565855 0.0089448346 0.354 4282470966
0.050858919 0.0089701032 0.35500002 4283327561
0.052011959 0.0089701032 0.35500002 4284973167
0.053464517 0.0090206396 0.35700002 4285499257
0.054624055 0.0090206396 0.35700002 4285433718
0.055783596 0.0090206396 0.35700002 4285564534
0.056943126 0.0090206396 0.35700002 4285236339
0.058102667 0.0090206396 0.35700002 4284380776
0.059262205 0.0090206396 0.35700002 4283657055
0.060421735 0.0090206396 0.35700002 4283129941
0.062271263 0.0091217114 0.36100003 4280825641
0.063619532 0.0091469781 0.36200002 4280364577
0.063363373 0.0089448346 0.354 4280562215
0.064148679 0.0088943001 0.35200003 4280167457
0.065291978 0.0088943001 0.35200003 4280233764
0.066246539 0.0088690314 0.35100001 4280103202
0.067386582 0.0088690314 0.35100001 4279512857
0.068526633 0.0088690314 0.35100001 4278857748
0.069666684 0.0088690314 0.35100001 4278530580
0.070605002 0.0088437637 0.35000002 4278727959
0.035970427 0.010152051 0.35600001 4280957223
0.03702243 0.010123535 0.35500002 4282536771
0.038175467 0.010123535 0.35500002 4283459408
0.039328512 0.010123535 0.35500002 4283064137
0.040367514 0.010095018 0.354 4282470455
0.04151731 0.010095018 0.354 4282666799
0.042667102 0.010095018 0.354 4282863662
0.043816894 0.010095018 0.354 4282731302
0.044966683 0.010095018 0.354 4282139165
0.046116479 0.010095018 0.354 4282204960
0.047266271 0.010095018 0.354 4282139169
0.048416063 0.010095018 0.354 4282402089
0.049565855 0.010095018 0.354 4283917649
0.050858919 0.010123535 0.35500002 4284247641
0.052011959 0.010123535 0.35500002 4284051295
0.053464517 0.010180569 0.35700002 4284380006
0.054624055 0.010180569 0.35700002 4284445799
0.055783596 0.010180569 0.35700002 4284248420
0.056943126 0.010180569 0.35700002 4284446053
0.058102667 0.010180569 0.35700002 4284511844
0.059262205 0.010180569 0.35700002 4284577637
0.060421735 0.010180569 0.35700002 4284380258
0.062443756 0.010323154 0.36200002 4284905319
0.063619532 0.010323154 0.36200002 4280561954
0.064974301 0.010351671 0.36300001 4280233250
0.063966438 0.010009467 0.35100001 4280233250
0.065106489 0.010009467 0.35100001 4280036639
0.066246539 0.010009467 0.35100001 4279774748
0.067386582 0.010009467 0.35100001 4279447832
0.068331406 0.0099809505 0.35000002 4278857748
0.069468208 0.0099809505 0.35000002 4278596373
0.070605002 0.0099809505 0.35000002 4278464787
0.071741804 0.0099809505 0.35000002 4279254051
0.072878607 0.0099809505 0.35000002 4279910445
0.03702243 0.011276967 0.35500002 4279904799
0.038175467 0.011276967 0.35500002 4279511065
0.039328512 0.011276967 0.35500002 4282273599
0.040367514 0.0112452 0.354 4283326537
0.04151731 0.0112452 0.354 4282866238
0.042667102 0.0112452 0.354 4283062842
0.043816894 0.0112452 0.354 4283391807
0.044966683 0.0112452 0.354 4283324994
0.046116479 0.0112452 0.354 4284443475
0.047266271 0.0112452 0.354 4285036641
0.048416063 0.0112452 0.354 4284839778
0.049565855 0.0112452 0.354 4284642145
0.050858919 0.011276967 0.35500002 4284577122
0.052011959 0.011276967 0.35500002 4284446049
0.053464517 0.011340499 0.35700002 4284511844
0.054624055 0.011340499 0.35700002 4284446051
0.055783596 0.011340499 0.35700002 4284511844
0.056943126 0.011340499 0.35700002 4284446051
0.058102667 0.011340499 0.35700002 4284511844
0.059262205 0.011340499 0.35700002 4284446051
0.060421735 0.011340499 0.35700002 4284248672
0.062616251 0.011531095 0.36300001 4284378975
0.063795276 0.011531095 0.36300001 4280759846
0.064974301 0.011531095 0.36300001 4280364836
0.063966438 0.011149902 0.35100001 4280167457
0.065106489 0.011149902 0.35100001 4279970846
0.066246539 0.011149902 0.35100001 4279314965
0.067194603 0.011118136 0.35000002 4279448602
0.068331406 0.011118136 0.35000002 4278858261
0.069468208 0.011118136 0.35000002 4278530580
0.070605002 0.011118136 0.35000002 4278399507
0.071741804 0.011118136 0.35000002 4278531093
0.072878607 0.011118136 0.35000002 4279910697
0.074015409 0.011118136 0.35000002 4280434225
0.097253717 0.011308732 0.35600001 4283196236
0.09841001 0.011308732 0.35600001 4282538304
0.099286623 0.011276967 0.35500002 4281419823
0.10043967 0.011276967 0.35500002 4280565286
0.1015927 0.011276967 0.35500002 4280302114
0.10274575 0.011276967 0.35500002 4279644184
0.10389878 0.011276967 0.35500002 4280038940
0.10505182 0.011276967 0.35500002 4279709975
0.10620487 0.011276967 0.35500002 4279578389
0.1073579 0.011276967 0.35500002 4279709205
0.10881661 0.011308732 0.35600001 4279775768
0.1099729 0.011308732 0.35600001 4280105246
0.11144136 0.011340499 0.35700002 4280105246
0.11291629 0.011372264 0.35800001 4279711256
0.038175467 0.012430398 0.35500002 4279773213
0.039328512 0.012430398 0.35500002 4280167973
0.040367514 0.012395382 0.354 4280826155
0.04151731 0.012395382 0.354 4280497190
0.042667102 0.012395382 0.354 4280826155
0.043816894 0.012395382 0.354 4280167457
0.044966683 0.012395382 0.354 4284313700
0.046116479 0.012395382 0.354 4284445540
0.062788747 0.012745535 0.36400002 4284182877
0.063971028 0.012745535 0.36400002 4282208578
0.065153301 0.012745535 0.36400002 4280759594
0.063966438 0.012290337 0.35100001 4280101664
0.064920999 0.012255322 0.35000002 4279445785
0.066246539 0.012290337 0.35100001 4279052306
0.067386582 0.012290337 0.35100001 4279384092
0.068331406 0.012255322 0.35000002 4278858261
0.069468208 0.012255322 0.35000002 4278530578
0.070605002 0.012255322 0.35000002 4278531091
0.071741804 0.012255322 0.35000002 4278465298
0.072878607 0.012255322 0.35000002 4278727957
0.074015409 0.012255322 0.35000002 4278989595
0.075366922 0.012290337 0.35100001 4280304174
0.076506972 0.012290337 0.35100001 4280040235
0.090161495 0.012605473 0.36000001 4279974694
0.091330774 0.012605473 0.36000001 4279447578
0.092500061 0.012605473 0.36000001 4280039967
0.094575189 0.012570458 0.35900003 4279843360
0.095474526 0.012535443 0.35800001 4279317529
0.096637316 0.012535443 0.35800001 4279778080
0.097526908 0.012500429 0.35700002 4279449115
0.09841001 0.012465413 0.35600001 4279646492
0.099566296 0.012465413 0.35600001 4279449113
0.10043967 0.012430398 0.35500002 4279514906
0.1015927 0.012430398 0.35500002 4279514906
0.10274575 0.012430398 0.35500002 4279449113
0.10389878 0.012430398 0.35500002 4279383320
0.10505182 0.012430398 0.35500002 4279317527
0.10620487 0.012430398 0.35500002 4279251734
0.10766032 0.012465413 0.35600001 4279317527
0.10881661 0.012465413 0.35600001 4279185941
0.11028182 0.012500429 0.35700002 4278791183
0.11175352 0.012535443 0.35800001 4279185941
0.11291629 0.012535443 0.35800001 4278856976
0.11439773 0.012570458 0.35900003 4278857746
0.11588567 0.012605473 0.36000001 4278791953
0.062788747 0.013928208 0.36400002 4283985500
0.063971028 0.013928208 0.36400002 4282932299
0.065153301 0.013928208 0.36400002 4280299297
0.066335566 0.013928208 0.36400002 4279905053
0.064920999 0.013392507 0.35000002 4279380760
0.066246539 0.013430771 0.35100001 4279052820
0.067386582 0.013430771 0.35100001 4279054357
0.068526633 0.013430771 0.35100001 4279056154
0.069666684 0.013430771 0.35100001 4278728211
0.070806727 0.013430771 0.35100001 4278860310
0.071946777 0.013430771 0.35100001 4279189275
0.073086828 0.013430771 0.35100001 4278399759
0.074226879 0.013430771 0.35100001 4278662677
0.075366922 0.013430771 0.35100001 4278793750
0.076506972 0.013430771 0.35100001 4279187226
0.077647023 0.013430771 0.35100001 4279252506
0.087335028 0.013698622 0.35800001 4278923287
0.088497818 0.013698622 0.35800001 4279120666
0.089911051 0.013736886 0.35900003 4279318299
0.091330774 0.01377515 0.36000001 4279186713
0.092500061 0.01377515 0.36000001 4279120920
0.09366934 0.01377515 0.36000001 4278923541
0.094575189 0.013736886 0.35900003 4278858261
0.09574122 0.013736886 0.35900003 4278989847
0.096637316 0.013698622 0.35800001 4278858261
0.097526908 0.013660357 0.35700002 4278989847
0.098686449 0.013660357 0.35700002 4278792466
0.099566296 0.013622093 0.35600001 4278858259
0.10072259 0.013622093 0.35600001 4278858259
0.1015927 0.013583829 0.35500002 4278727441
0.10274575 0.013583829 0.35500002 4278859027
0.10389878 0.013583829 0.35500002 4278859027
0.10505182 0.013583829 0.35500002 4278661648
0.10650403 0.013622093 0.35600001 4278661394
0.10766032 0.013622093 0.35600001 4278727187
0.10912228 0.013660357 0.35700002 4278661394
0.11028182 0.013660357 0.35700002 4278989845
0.11175352 0.013698622 0.35800001 4278660880
0.1132317 0.013736886 0.35900003 4278792466
0.11471639 0.01377515 0.36000001 4278792466
0.11588567 0.01377515 0.36000001 4279121431
0.11738011 0.013813416 0.36100003 4278858513
0.06075621 0.015193908 0.36600003 4284380258
0.061944973 0.015193908 0.36600003 4284248672
0.062961243 0.015152394 0.36500001 4284117086
0.063971028 0.015110881 0.36400002 4284445538
0.065153301 0.015110881 0.36400002 4279444498
0.066335566 0.015110881 0.36400002 4279577369
0.065106489 0.014571206 0.35100001 4279381787
0.066435277 0.01461272 0.35200003 4279250969
0.067578569 0.01461272 0.35200003 4279251736
0.068721868 0.01461272 0.35200003 4279252506
0.069666684 0.014571206 0.35100001 4278991383
0.070806727 0.014571206 0.35100001 4278794517
0.071946777 0.014571206 0.35100001 4278335249
0.073086828 0.014571206 0.35100001 4279519523
0.074226879 0.014571206 0.35100001 4278334482
0.075581647 0.01461272 0.35200003 4278728724
0.076724946 0.01461272 0.35200003 4278596625
0.077868246 0.01461272 0.35200003 4278596625
0.085931547 0.014820287 0.35700002 4278596625
0.087335028 0.0148618 0.35800001 4278728211
0.088497818 0.0148618 0.35800001 4278596625
0.089911051 0.014903313 0.35900003 4278858773
0.091077082 0.014903313 0.35900003 4278925336
0.092500061 0.014944826 0.36000001 4278596371
0.09366934 0.014944826 0.36000001 4278596371
0.094575189 0.014903313 0.35900003 4278727957
0.09574122 0.014903313 0.35900003 4278727957
0.096637316 0.0148618 0.35800001 4278793750
0.097526908 0.014820287 0.35700002 4278464785
0.098686449 0.014820287 0.35700002 4278793750
0.099566296 0.014778772 0.35600001 4278925590
0.10072259 0.014778772 0.35600001 4278859795
0.10187888 0.014778772 0.35600001 4278859795
0.10303517 0.014778772 0.35600001 4278991896
0.10419145 0.014778772 0.35600001 4278926103
0.10534774 0.014778772 0.35600001 4278991383
0.10650403 0.014778772 0.35600001 4279188762
0.10796274 0.014820287 0.35700002 4279254555
0.10912228 0.014820287 0.35700002 4279320348
0.11059073 0.0148618 0.35800001 4279649313
0.11175352 0.0148618 0.35800001 4279517727
0.1132317 0.014903313 0.35900003 4279385887
0.11471639 0.014944826 0.36000001 4279254555
0.11588567 0.014944826 0.36000001 4279320348
0.11738011 0.014986341 0.36100003 4279386141
0.06075621 0.016383078 0.36600003 4284248672
0.061944973 0.016383078 0.36600003 4284182879
0.062961243 0.016338315 0.36500001 4284051293
0.063971028 0.016293554 0.36400002 4284380256
0.064974301 0.016248791 0.36300001 4280761641
0.066335566 0.016293554 0.36400002 4279710236
0.065106489 0.015711641 0.35100001 4278988310
0.066624016 0.015801165 0.35300002 4279185689
0.067770556 0.015801165 0.35300002 4279120918
0.068917103 0.015801165 0.35300002 4279713568
0.069865167 0.015756404 0.35200003 4279517473
0.071008459 0.015756404 0.35200003 4279386400
0.072151758 0.015756404 0.35200003 4279058459
0.073295057 0.015756404 0.35200003 4278532115
0.074438356 0.015756404 0.35200003 4283466086
0.075581647 0.015756404 0.35200003 4279584297
0.076942913 0.015801165 0.35300002 4278532115
0.078089461 0.015801165 0.35300002 4278729494
0.079460464 0.015845928 0.354 4278597908
0.080837972 0.015890691 0.35500002 4278663701
0.081991017 0.015890691 0.35500002 4278663447
0.083378255 0.015935453 0.35600001 4278860826
0.084534548 0.015935453 0.35600001 4278663701
0.085931547 0.015980216 0.35700002 4278729494
0.087091081 0.015980216 0.35700002 4278532115
0.088497818 0.016024979 0.35800001 4278861080
0.089911051 0.016069742 0.35900003 4278861080
0.091077082 0.016069742 0.35900003 4279190045
0.09224312 0.016069742 0.35900003 4279321631
0.093409151 0.016069742 0.35900003 4279716389
0.094575189 0.016069742 0.35900003 4279058459
0.09574122 0.016069742 0.35900003 4279124252
0.096637316 0.016024979 0.35800001 4279190045
0.097800091 0.016024979 0.35800001 4279124252
0.098686449 0.015980216 0.35700002 4279058459
0.099845983 0.015980216 0.35700002 4279124252
0.10100552 0.015980216 0.35700002 4279255068
0.10216506 0.015980216 0.35700002 4278794515
0.1033246 0.015980216 0.35700002 4279123482
0.10448413 0.015980216 0.35700002 4279254814
0.10564367 0.015980216 0.35700002 4279386654
0.1068032 0.015980216 0.35700002 4279320861
0.10796274 0.015980216 0.35700002 4278860310
0.10942794 0.016024979 0.35800001 4279320861
0.11059073 0.016024979 0.35800001 4279517727
0.11206568 0.016069742 0.35900003 4279715106
0.1132317 0.016069742 0.35900003 4279649311
0.11471639 0.016114503 0.36000001 4280109862
0.11588567 0.016114503 0.36000001 4280043299
0.11738011 0.016159266 0.36100003 4280109092
0.063795276 0.017428216 0.36300001 4283656535
0.064795315 0.017380204 0.36200002 4282669892
0.065606602 0.017284181 0.36000001 4279775770
0.066404909 0.017188158 0.35800001 4279120666
0.067001484 0.017044123 0.35500002 4278923287
0.068154521 0.017044123 0.35500002 4279647775
0.069112331 0.016996112 0.354 4279845668
0.070262127 0.016996112 0.354 4279780645
0.071411915 0.016996112 0.354 4279846438
0.072356731 0.0169481 0.35300002 4279519010
0.073503278 0.0169481 0.35300002 4279058459
0.074649826 0.0169481 0.35300002 4278992925
0.076011084 0.016996112 0.354 4278598169
0.07716088 0.016996112 0.354 4278795800
0.078310676 0.016996112 0.354 4278795800
0.079684928 0.017044123 0.35500002 4278927386
0.080837972 0.017044123 0.35500002 4278796570
0.08222197 0.017092135 0.35600001 4278993949
0.083378255 0.017092135 0.35600001 4278993949
0.084534548 0.017092135 0.35600001 4279058972
0.085931547 0.017140146 0.35700002 4278730007
0.087091081 0.017140146 0.35700002 4278730007
0.088497818 0.017188158 0.35800001 4278927386
0.089660592 0.017188158 0.35800001 4279124765
0.091077082 0.017236169 0.35900003 4279124765
0.09224312 0.017236169 0.35900003 4279585316
0.093409151 0.017236169 0.35900003 4279584549
0.094575189 0.017236169 0.35900003 4279453217
0.09574122 0.017236169 0.35900003 4279913768
0.096637316 0.017188158 0.35800001 4279781412
0.097800091 0.017188158 0.35800001 4280044584
0.098962873 0.017188158 0.35800001 4279781412
0.099845983 0.017140146 0.35700002 4280044582
0.10100552 0.017140146 0.35700002 4279847203
0.10216506 0.017140146 0.35700002 4279912996
0.1033246 0.017140146 0.35700002 4279912996
0.10448413 0.017140146 0.35700002 4280241450
0.10564367 0.017140146 0.35700002 4280241450
0.10710236 0.017188158 0.35800001 4280110377
0.10826515 0.017188158 0.35800001 4280110123
0.10942794 0.017188158 0.35800001 4280372782
0.11089964 0.017236169 0.35900003 4280372782
0.11206568 0.017236169 0.35900003 4280372782
0.1132317 0.017236169 0.35900003 4280307243
0.11471639 0.017284181 0.36000001 4280438059
0.11588567 0.017284181 0.36000001 4280634924
0.11738011 0.017332194 0.36100003 4280634411
0.063619532 0.018556379 0.36200002 4283985500
0.064616323 0.018505119 0.36100003 4283788891
0.065606602 0.018453857 0.36000001 4279579164
0.066590399 0.018402597 0.35900003 4279120666
0.067378961 0.018300075 0.35700002 4279516191
0.068346508 0.018248815 0.35600001 4279911463
0.069307566 0.018197555 0.35500002 4279912231
0.07046061 0.018197555 0.35500002 4279912231
0.071613647 0.018197555 0.35500002 4279912231
0.072766684 0.018197555 0.35500002 4279912744
0.073919728 0.018197555 0.35500002 4280045100
0.074861296 0.018146293 0.354 4280045613
0.07622581 0.018197555 0.35500002 4279717418
0.077378854 0.018197555 0.35500002 4279914027
0.078531891 0.018197555 0.35500002 4279519523
0.079909392 0.018248815 0.35600001 4279585316
0.081065685 0.018248815 0.35600001 4279585316
0.08222197 0.018248815 0.35600001 4279848488
0.083378255 0.018248815 0.35600001 4279650855
0.084772006 0.018300075 0.35700002 4279650855
0.085931547 0.018300075 0.35700002 4279716135
0.087091081 0.018300075 0.35700002 4279979561
0.088497818 0.018351335 0.35800001 4279584803
0.089660592 0.018351335 0.35800001 4279847205
0.090823382 0.018351335 0.35800001 4280044584
0.09224312 0.018402597 0.35900003 4280176170
0.093409151 0.018402597 0.35900003 4280109864
0.094575189 0.018402597 0.35900003 4280306473
0.09574122 0.018402597 0.35900003 4280306473
0.096907258 0.018402597 0.35900003 4280898096
0.097800091 0.018351335 0.35800001 4280963889
0.098962873 0.018351335 0.35800001 4280634924
0.10012566 0.018351335 0.35800001 4281029682
0.10128845 0.018351335 0.35800001 4280371752
0.10245124 0.018351335 0.35800001 4280108580
0.10361402 0.018351335 0.35800001 4279713055
0.10477679 0.018351335 0.35800001 4279514906
0.10593958 0.018351335 0.35800001 4279383320
0.10710236 0.018351335 0.35800001 4280503084
0.10826515 0.018351335 0.35800001 4279581982
0.10973361 0.018402597 0.35900003 4280042533
0.11089964 0.018402597 0.35900003 4280304422
0.11206568 0.018402597 0.35900003 4280699180
0.1132317 0.018402597 0.35900003 4281028145
0.11471639 0.018453857 0.36000001 4281093938
0.11588567 0.018453857 0.36000001 4281028145
0.11738011 0.018505119 0.36100003 4280830253
0.064616323 0.019678045 0.36100003 4283788121
0.065606602 0.019623535 0.36000001 4282539337
0.066590399 0.019569024 0.35900003 4279317529
0.067567699 0.019514514 0.35800001 4279713570
0.068538494 0.019460006 0.35700002 4280108840
0.069698036 0.019460006 0.35700002 4280108840
0.070659086 0.019405494 0.35600001 4279978024
0.071815372 0.019405494 0.35600001 4280109610
0.072971664 0.019405494 0.35600001 4280175916
0.07412795 0.019405494 0.35600001 4280373295
0.075284243 0.019405494 0.35600001 4279979307
0.076440528 0.019405494 0.35600001 4279848234
0.077596813 0.019405494 0.35600001 4279914027
0.078753106 0.019405494 0.35600001 4279914027
0.079909392 0.019405494 0.35600001 4279716389
0.081065685 0.019405494 0.35600001 4279782182
0.082452938 0.019460006 0.35700002 4279847205
0.083612472 0.019460006 0.35700002 4280044584
0.084772006 0.019460006 0.35700002 4280110377
0.085931547 0.019460006 0.35700002 4280110377
0.087091081 0.019460006 0.35700002 4279778332
0.088497818 0.019514514 0.35800001 4280830766
0.089660592 0.019514514 0.35800001 4280832049
0.090823382 0.019514514 0.35800001 4280372012
0.091986172 0.019514514 0.35800001 4278921488
0.093409151 0.019569024 0.35900003 4278920974
0.094575189 0.019569024 0.35900003 4279577621
0.09574122 0.019569024 0.35900003 4278985484
0.096907258 0.019569024 0.35900003 4279708953
0.098073281 0.019569024 0.35900003 4279446551
0.099239312 0.019569024 0.35900003 4279644443
0.10012566 0.019514514 0.35800001 4280236580
0.10128845 0.019514514 0.35800001 4280039203
0.10245124 0.019514514 0.35800001 4279776029
0.10361402 0.019514514 0.35800001 4280892968
0.10477679 0.019514514 0.35800001 4279971612
0.1062355 0.019569024 0.35900003 4281553976
0.10740154 0.019569024 0.35900003 4281093938
0.10856757 0.019569024 0.35900003 4279843358
0.10973361 0.019569024 0.35900003 4280039455
0.11089964 0.019569024 0.35900003 4279840793
0.11206568 0.019569024 0.35900003 4280170274
0.1132317 0.019569024 0.35900003 4280566313
0.11471639 0.019623535 0.36000001 4281224241
0.11588567 0.019623535 0.36000001 4280961069
0.11738011 0.019678045 0.36100003 4281684792
0.065606602 0.020793211 0.36000001 4284248670
0.066590399 0.020735452 0.35900003 4280763692
0.067756437 0.020735452 0.35900003 4280107813
0.068730474 0.020677693 0.35800001 4279912231
0.069893263 0.020677693 0.35800001 4279978024
0.07085757 0.020619934 0.35700002 4280109864
0.072017103 0.020619934 0.35700002 4280307243
0.073176645 0.020619934 0.35700002 4280241963
0.074336179 0.020619934 0.35700002 4280045354
0.07549572 0.020619934 0.35700002 4280045354
0.076655254 0.020619934 0.35700002 4280045354
0.077814788 0.020619934 0.35700002 4280045354
0.078974329 0.020619934 0.35700002 4280110377
0.080133863 0.020619934 0.35700002 4280110377
0.081293397 0.020619934 0.35700002 4279912998
0.082452938 0.020619934 0.35700002 4279847205
0.083612472 0.020619934 0.35700002 4279715619
0.084772006 0.020619934 0.35700002 4279649572
0.085931547 0.020619934 0.35700002 4279648289
0.087091081 0.020619934 0.35700002 4279777567
0.088497818 0.020677693 0.35800001 4280568366
0.089660592 0.020677693 0.35800001 4280699952
0.090823382 0.020677693 0.35800001 4279249685
0.091986172 0.020677693 0.35800001 4281090608
0.093409151 0.020735452 0.35900003 4281156401
0.094575189 0.020735452 0.35900003 4280498471
0.09574122 0.020735452 0.35900003 4280893229
0.096907258 0.020735452 0.35900003 4279774235
0.098073281 0.020735452 0.35900003 4280761130
0.099239312 0.020735452 0.35900003 4279379990
0.10040534 0.020735452 0.35900003 4279840030
0.10157138 0.020735452 0.35900003 4280630057
0.10273741 0.020735452 0.35900003 4279840541
0.10390345 0.020735452 0.35900003 4280037920
0.10506947 0.020735452 0.35900003 4281551929
0.1062355 0.020735452 0.35900003 4280435497
0.10740154 0.020735452 0.35900003 4280830253
0.10856757 0.020735452 0.35900003 4280499491
0.10973361 0.020735452 0.35900003 4280696100
0.11089964 0.020735452 0.35900003 4280827688
0.11206568 0.020735452 0.35900003 4280762665
0.1132317 0.020735452 0.35900003 4281157936
0.11471639 0.020793211 0.36000001 4281092141
0.11588567 0.020793211 0.36000001 4281157934
0.11738011 0.020850971 0.36100003 4281618485
0.065606602 0.021962887 0.36000001 4284051291
0.066775888 0.021962887 0.36000001 4283985498
0.067756437 0.021901879 0.35900003 4280566313
0.06892246 0.021901879 0.35900003 4279912231
0.070088498 0.021901879 0.35900003 4280109864
0.071056046 0.02184087 0.35800001 4280176168
0.072218828 0.02184087 0.35800001 4280307754
0.073381618 0.02184087 0.35800001 4280045354
0.0745444 0.02184087 0.35800001 4280242733
0.07549572 0.021779863 0.35700002 4280045354
0.076655254 0.021779863 0.35700002 4280110377
0.077814788 0.021779863 0.35700002 4279847205
0.078974329 0.021779863 0.35700002 4279715619
0.080133863 0.021779863 0.35700002 4279649826
0.081293397 0.021779863 0.35700002 4279715619
0.082452938 0.021779863 0.35700002 4279320861
0.083612472 0.021779863 0.35700002 4279649826
0.084772006 0.021779863 0.35700002 4278464017
0.085931547 0.021779863 0.35700002 4279053590
0.087335028 0.02184087 0.35800001 4280370217
0.088497818 0.02184087 0.35800001 4280174121
0.089660592 0.02184087 0.35800001 4278329867
0.090823382 0.02184087 0.35800001 4279249174
0.091986172 0.02184087 0.35800001 4279445785
0.093148954 0.02184087 0.35800001 4279577371
0.094575189 0.021901879 0.35900003 4280695852
0.09574122 0.021901879 0.35900003 4280828208
0.096907258 0.021901879 0.35900003 4281617722
0.098073281 0.021901879 0.35900003 4281486134
0.099239312 0.021901879 0.35900003 4281946685
0.10040534 0.021901879 0.35900003 4282144064
0.10157138 0.021901879 0.35900003 4281683513
0.10273741 0.021901879 0.35900003 4281880892
0.10390345 0.021901879 0.35900003 4281749306
0.10506947 0.021901879 0.35900003 4281947198
0.1062355 0.021901879 0.35900003 4281553724
0.10740154 0.021901879 0.35900003 4281356345
0.10856757 0.021901879 0.35900003 4281355575
0.10973361 0.021901879 0.35900003 4282012732
0.11089964 0.021901879 0.35900003 4282604097
0.11206568 0.021901879 0.35900003 4284248922
0.1132317 0.021901879 0.35900003 4284774755
0.11471639 0.021962887 0.36000001 4285498478
0.11588567 0.021962887 0.36000001 4285827443
0.11738011 0.022023896 0.36100003 4285629810
0.066775888 0.023132564 0.36000001 4283656535
0.067945167 0.023132564 0.36000001 4283788121
0.06892246 0.023068309 0.35900003 4281290806
0.070088498 0.023068309 0.35900003 4280569131
0.071254529 0.023068309 0.35900003 4280373547
0.07242056 0.023068309 0.35900003 4280373549
0.073381618 0.023004051 0.35800001 4280307756
0.0745444 0.023004051 0.35800001 4280241963
0.07570719 0.023004051 0.35800001 4280110377
0.076869972 0.023004051 0.35800001 4279912998
0.078032754 0.023004051 0.35800001 4279452447
0.078974329 0.022939794 0.35700002 4279320861
0.080358319 0.023004051 0.35800001 4279255068
0.081521109 0.023004051 0.35800001 4279320861
0.082683891 0.023004051 0.35800001 4279320348
0.083846673 0.023004051 0.35800001 4278595601
0.084772006 0.022939794 0.35700002 4279778596
0.086172245 0.023004051 0.35800001 4280041768
0.087335028 0.023004051 0.35800001 4279844389
0.088497818 0.023004051 0.35800001 4279713316
0.089660592 0.023004051 0.35800001 4280041770
0.090823382 0.023004051 0.35800001 4280172586
0.091986172 0.023004051 0.35800001 4280894512
0.093148954 0.023004051 0.35800001 4281946689
0.094575189 0.023068309 0.35900003 4282077503
0.09574122 0.023068309 0.35900003 4283656787
0.096907258 0.023068309 0.35900003 4284248670
0.098073281 0.023068309 0.35900003 4284709221
0.099239312 0.023068309 0.35900003 4284446049
0.10040534 0.023068309 0.35900003 4284907370
0.10157138 0.023068309 0.35900003 4284907370
0.10273741 0.023068309 0.35900003 4284973163
0.10390345 0.023068309 0.35900003 4285170796
0.10506947 0.023068309 0.35900003 4284776038
0.1062355 0.023068309 0.35900003 4284710245
0.10740154 0.023068309 0.35900003 4284907370
0.10856757 0.023068309 0.35900003 4285169774
0.10973361 0.023068309 0.35900003 4285169774
0.11089964 0.023068309 0.35900003 4285169261
0.11206568 0.023068309 0.35900003 4285497454
0.1132317 0.023068309 0.35900003 4285629294
0.11471639 0.023132564 0.36000001 4285629294
0.11588567 0.023132564 0.36000001 4285629040
0.11738011 0.023196824 0.36100003 4285826419
0.067945167 0.024302242 0.36000001 4283656535
0.069114447 0.024302242 0.36000001 4283590740
0.070283726 0.024302242 0.36000001 4283065166
0.071254529 0.024234736 0.35900003 4282211138
0.07242056 0.024234736 0.35900003 4281554491
0.073586598 0.024234736 0.35900003 4279910949
0.074752629 0.024234736 0.35900003 4279976742
0.07570719 0.024167228 0.35800001 4279713057
0.076869972 0.024167228 0.35800001 4279252506
0.078032754 0.024167228 0.35800001 4279120920
0.079195544 0.024167228 0.35800001 4279318299
0.080358319 0.024167228 0.35800001 4279383838
0.081521109 0.024167228 0.35800001 4279647010
0.082683891 0.024167228 0.35800001 4279909414
0.083846673 0.024167228 0.35800001 4279975209
0.085009463 0.024167228 0.35800001 4280172334
0.086172245 0.024167228 0.35800001 4280172334
0.087335028 0.024167228 0.35800001 4280172334
0.088497818 0.024167228 0.35800001 4280172334
0.089660592 0.024167228 0.35800001 4280565558
0.090823382 0.024167228 0.35800001 4281420093
0.091986172 0.024167228 0.35800001 4283984987
0.093148954 0.024167228 0.35800001 4284248672
0.094575189 0.024234736 0.35900003 4284248672
0.09574122 0.024234736 0.35900003 4284511329
0.096907258 0.024234736 0.35900003 4284642915
0.098073281 0.024234736 0.35900003 4284774501
0.069114447 0.025471918 0.36000001 4283721815
0.070283726 0.025471918 0.36000001 4283195984
0.07242056 0.025401164 0.35900003 4282867017
0.073586598 0.025401164 0.35900003 4283261775
0.074752629 0.025401164 0.35900003 4279379990
0.094575189 0.025401164 0.35900003 4284313952
0.09574122 0.025401164 0.35900003 4284511331
0.096907258 0.025401164 0.35900003 4284708708
0.098073281 0.025401164 0.35900003 4284708708
0.069542199 0.010474206 0.35659593 4294967295
0.069542199 0.010474206 0.35659593 4294901760
0.069542199 0.010474206 0.35709593 4294901760
0.069542199 0.010474206 0.35759592 4294901760
0.069542199 0.010474206 0.35809594 4294901760
0.069542199 0.010474206 0.35859594 4294901760
0.069542199 0.010474206 0.35909593 4294901760
0.069542199 0.010474206 0.35959592 4294901760
0.069542199 0.010474206 0.36009595 4294901760
0.069542199 0.010474206 0.36059594 4294901760
0.069542199 0.010474206 0.36109594 4294901760
0.069542199 0.010474206 0.36159593 4294901760
0.069542199 0.010474206 0.36209592 4294901760
0.069542199 0.010474206 0.36259595 4294901760
0.069542199 0.010474206 0.36309594 4294901760
0.069542199 0.010474206 0.36359593 4294901760
0.069542199 0.010474206 0.36409593 4294901760
0.069542199 0.010474206 0.36459595 4294901760
0.069542199 0.010474206 0.36509594 4294901760
0.069542199 0.010474206 0.36559594 4294901760
0.069542199 0.010474206 0.36609593 4294901760
0.069542199 0.010474206 0.36659592 4294901760
0.069542199 0.010474206 0.36709595 4294901760
0.069542199 0.010474206 0.36759594 4294901760
0.069542199 0.010474206 0.36809593 4294901760
0.069542199 0.010474206 0.36859593 4294901760
0.069542199 0.010474206 0.36909592 4294901760
0.069542199 0.010474206 0.36959594 4294901760
0.069542199 0.010474206 0.37009594 4294901760
0.069542199 0.010474206 0.37059593 4294901760
0.069542199 0.010474206 0.37109593 4294901760
0.069542199 0.010474206 0.37159595 4294901760
0.069542199 0.010474206 0.37209594 4294901760
0.069542199 0.010474206 0.37259594 4294901760
0.069542199 0.010474206 0.37309593 4294901760
0.069542199 0.010474206 0.37359595 4294901760
0.069542199 0.010474206 0.37409595 4294901760
0.069542199 0.010474206 0.37459594 4294901760
0.069542199 0.010474206 0.37509593 4294901760
0.069542199 0.010474206 0.37559593 4294901760
0.069542199 0.010474206 0.37609595 4294901760
0.069542199 0.010474206 0.37659594 4294901760
0.069542199 0.010474206 0.37709594 4294901760
0.069542199 0.010474206 0.37759593 4294901760
0.069542199 0.010474206 0.37809592 4294901760
0.069542199 0.010474206 0.37859595 4294901760
0.069542199 0.010474206 0.37909594 4294901760
0.069542199 0.010474206 0.37959594 4294901760
0.069542199 0.010474206 0.38009593 4294901760
0.069542199 0.010474206 0.38059595 4294901760
0.069542199 0.010474206 0.38109595 4294901760
0.069542199 0.010474206 0.38159594 4294901760
0.069542199 0.010474206 0.38209593 4294901760
0.069542199 0.010474206 0.38259593 4294901760
0.069542199 0.010474206 0.38309595 4294901760
0.069542199 0.010474206 0.38359594 4294901760
0.069542199 0.010474206 0.38409594 4294901760
0.069542199 0.010474206 0.38459593 4294901760
0.069542199 0.010474206 0.38509595 4294901760
0.069542199 0.010474206 0.38559595 4294901760
0.069542199 0.010474206 0.38609594 4294901760
0.069542199 0.010474206 0.38659593 4294901760
0.069542199 0.010474206 0.38709593 4294901760
0.069542199 0.010474206 0.38759595 4294901760
0.069542199 0.010474206 0.38809595 4294901760
0.069542199 0.010474206 0.38859594 4294901760
0.069542199 0.010474206 0.38909593 4294901760
0.069542199 0.010474206 0.38959596 4294901760
0.069542199 0.010474206 0.39009595 4294901760
0.069542199 0.010474206 0.39059594 4294901760
0.069542199 0.010474206 0.39109594 4294901760
0.069542199 0.010474206 0.39159593 4294901760
0.069542199 0.010474206 0.39209595 4294901760
0.069542199 0.010474206 0.39259595 4294901760
0.069542199 0.010474206 0.39309594 4294901760
0.069542199 0.010474206 0.39359593 4294901760
0.069542199 0.010474206 0.39409596 4294901760
0.069542199 0.010474206 0.39459595 4294901760
0.069542199 0.010474206 0.39509594 4294901760
0.069542199 0.010474206 0.39559594 4294901760
0.069542199 0.010474206 0.39609593 4294901760
0.069542199 0.010474206 0.39659595 4294901760
0.069542199 0.010474206 0.39709595 4294901760
0.069542199 0.010474206 0.39759594 4294901760
0.069542199 0.010474206 0.39809594 4294901760
0.069542199 0.010474206 0.39859593 4294901760
0.069542199 0.010474206 0.39909595 4294901760
0.069542199 0.010474206 0.39959595 4294901760
0.069542199 0.010474206 0.40009594 4294901760
0.069542199 0.010474206 0.40059593 4294901760
0.069542199 0.010474206 0.40109593 4294901760
0.069542199 0.010474206 0.40159595 4294901760
0.069542199 0.010474206 0.40209594 4294901760
0.069542199 0.010474206 0.40259594 4294901760
0.069542199 0.010474206 0.40309596 4294901760
0.069542199 0.010474206 0.40359595 4294901760
0.069542199 0.010474206 0.40409595 4294901760
0.069542199 0.010474206 0.40459594 4294901760
0.069542199 0.010474206 0.40509593 4294901760
0.069542199 0.010474206 0.40559596 4294901760
0.069542199 0.010474206 0.40609595 4294901760
0.069542199 0.010474206 0.40659595 4294901760
0.069542199 0.010474206 0.35659593 4278255360
0.069503106 0.010488835 0.3570942 4278255360
0.069464013 0.010503465 0.35759243 4278255360
0.06942492 0.010518095 0.3580907 4278255360
0.069385827 0.010532725 0.35858896 4278255360
0.069346741 0.010547354 0.3590872 4278255360
0.069307648 0.010561984 0.35958546 4278255360
0.069268554 0.010576613 0.36008373 4278255360
0.069229461 0.010591243 0.36058196 4278255360
0.069190368 0.010605873 0.36108023 4278255360
0.069151275 0.010620503 0.36157846 4278255360
0.069112182 0.010635132 0.36207673 4278255360
0.069073088 0.010649762 0.36257499 4278255360
0.069033995 0.010664391 0.36307323 4278255360
0.06899491 0.010679021 0.36357149 4278255360
0.068955816 0.010693651 0.36406976 4278255360
0.068916723 0.01070828 0.364568 4278255360
0.06887763 0.01072291 0.36506626 4278255360
0.068838537 0.010737539 0.36556453 4278255360
0.068799444 0.010752169 0.36606276 4278255360
0.06876035 0.010766799 0.36656103 4278255360
0.068721257 0.010781429 0.36705929 4278255360
0.068682164 0.010796058 0.36755753 4278255360
0.068643078 0.010810688 0.36805579 4278255360
0.068603985 0.010825317 0.36855406 4278255360
0.068564892 0.010839947 0.36905229 4278255360
0.068525799 0.010854577 0.36955056 4278255360
0.068486705 0.010869206 0.37004882 4278255360
0.068447612 0.010883836 0.37054706 4278255360
0.068408519 0.010898465 0.37104532 4278255360
0.068369426 0.010913095 0.37154359 4278255360
0.068330333 0.010927725 0.37204182 4278255360
0.068291247 0.010942355 0.37254009 4278255360
0.068252154 0.010956984 0.37303835 4278255360
0.06821306 0.010971614 0.37353659 4278255360
0.068173967 0.010986243 0.37403485 4278255360
0.068134874 0.011000874 0.37453309 4278255360
0.068095781 0.011015503 0.37503135 4278255360
0.068056688 0.011030132 0.37552962 4278255360
0.068017595 0.011044762 0.37602785 4278255360
0.067978501 0.011059391 0.37652612 4278255360
0.067939416 0.011074021 0.37702438 4278255360
0.067900322 0.011088651 0.37752262 4278255360
0.067861229 0.011103281 0.37802088 4278255360
0.067822136 0.01111791 0.37851915 4278255360
0.067783043 0.01113254 0.37901738 4278255360
0.06774395 0.011147169 0.37951565 4278255360
0.067704856 0.0111618 0.38001391 4278255360
0.067665763 0.011176429 0.38051215 4278255360
0.06762667 0.011191059 0.38101041 4278255360
0.067587584 0.011205688 0.38150865 4278255360
0.067548491 0.011220317 0.38200691 4278255360
0.067509398 0.011234947 0.38250518 4278255360
0.067470305 0.011249577 0.38300341 4278255360
0.067431211 0.011264207 0.38350168 4278255360
0.067392118 0.011278836 0.38399994 4278255360
0.067353025 0.011293466 0.38449818 4278255360
0.067313932 0.011308095 0.38499644 4278255360
0.067274839 0.011322726 0.38549471 4278255360
0.067235753 0.011337355 0.38599294 4278255360
0.06719666 0.011351985 0.38649121 4278255360
0.067157567 0.011366614 0.38698947 4278255360
0.067118473 0.011381244 0.38748771 4278255360
0.06707938 0.011395874 0.38798597 4278255360
0.067040287 0.011410503 0.38848424 4278255360
0.067001194 0.011425133 0.38898247 4278255360
0.066962101 0.011439762 0.38948074 4278255360
0.066923007 0.011454392 0.389979 4278255360
0.066883914 0.011469021 0.39047724 4278255360
0.066844828 0.011483652 0.39097551 4278255360
0.066805735 0.011498281 0.39147377 4278255360
0.066766642 0.011512911 0.39197201 4278255360
