# .PCD v0.7 - Point Cloud Data file format
VERSION 0.7
FIELDS x y z rgb
SIZE 4 4 4 4
TYPE F F F U
COUNT 1 1 1 1
WIDTH 1023
HEIGHT 1
VIEWPOINT 0 0 0 1 0 0 0
POINTS 1023
DATA ascii
-0.095321611 0.027373536 0.42600003 4279124765
-0.093937963 0.027373536 0.42600003 4278727957
-0.09233705 0.027309278 0.42500001 4278198530
-0.090956643 0.027309278 0.42500001 4279190043
-0.062596783 0.026409678 0.41100001 4279060765
-0.061261855 0.026409678 0.41100001 4279258144
-0.059926923 0.026409678 0.41100001 4279323939
-0.10697912 0.029297702 0.43400002 4281946687
-0.10532624 0.029230196 0.43300003 4279453215
-0.10367984 0.02916269 0.43200001 4279255836
-0.10180321 0.029027676 0.43000001 4279453728
-0.099939562 0.028892666 0.42800003 4279256349
-0.098319158 0.028825158 0.42700002 4279190556
-0.09693227 0.028825158 0.42700002 4279453726
-0.095321611 0.028757654 0.42600003 4279124248
-0.093717448 0.028690146 0.42500001 4279912998
-0.09233705 0.028690146 0.42500001 4280044330
-0.090956643 0.028690146 0.42500001 4278796570
-0.089365482 0.02862264 0.42400002 4278334734
-0.087780803 0.028555132 0.42300001 4278794004
-0.086202629 0.028487628 0.42200002 4279320859
-0.084831975 0.028487628 0.42200002 4279123480
-0.063620605 0.027610047 0.40900001 4278928666
-0.062444482 0.027677553 0.41000003 4278928666
-0.061112799 0.027677553 0.41000003 4279126045
-0.059635308 0.027610047 0.40900001 4278929179
-0.058164313 0.027542541 0.40800002 4279126558
-0.05669982 0.027475033 0.40700001 4278929951
-0.055377882 0.027475033 0.40700001 4279062050
-0.05392313 0.027407529 0.40600002 4279062052
-0.052604444 0.027407529 0.40600002 4279127845
-0.051285755 0.027407529 0.40600002 4279654189
-0.049967065 0.027407529 0.40600002 4279851055
-0.048648376 0.027407529 0.40600002 4280047410
-0.1086385 0.030778568 0.43500003 4280694567
-0.10697912 0.030707812 0.43400002 4281881405
-0.10532624 0.030637057 0.43300003 4279453217
-0.10367984 0.030566301 0.43200001 4279387937
-0.10180321 0.03042479 0.43000001 4279453728
-0.10017306 0.030354036 0.42900002 4279387935
-0.098549418 0.030283282 0.42800003 4279124763
-0.09693227 0.030212525 0.42700002 4279190556
-0.095321611 0.030141771 0.42600003 4279255838
-0.093717448 0.030071015 0.42500001 4278198789
-0.09233705 0.030071015 0.42500001 4278200587
-0.090742633 0.03000026 0.42400002 4279190045
-0.089154705 0.029929504 0.42300001 4278591755
-0.087780803 0.029929504 0.42300001 4278721547
-0.086202629 0.029858749 0.42200002 4278524683
-0.084630951 0.029787995 0.42100003 4278656269
-0.083065763 0.029717239 0.42000002 4278328072
-0.081507079 0.029646484 0.41900003 4278394378
-0.080146164 0.029646484 0.41900003 4278197769
-0.073811077 0.029292706 0.41400003 4279584031
-0.072291359 0.02922195 0.41300002 4279649826
-0.067771204 0.029009685 0.41000003 4278928154
-0.066277474 0.028938929 0.40900001 4278928154
-0.064949036 0.028938929 0.40900001 4278797082
-0.063620605 0.028938929 0.40900001 4278928666
-0.062292177 0.028938929 0.40900001 4278994459
-0.060963742 0.028938929 0.40900001 4278994459
-0.0594895 0.028868174 0.40800002 4279257119
-0.058021754 0.028797418 0.40700001 4278994461
-0.05669982 0.028797418 0.40700001 4278994463
-0.055241819 0.028726663 0.40600002 4278929183
-0.05392313 0.028726663 0.40600002 4278929181
-0.052604444 0.028726663 0.40600002 4278929181
-0.051285755 0.028726663 0.40600002 4278600986
-0.049967065 0.028726663 0.40600002 4278995744
-0.048528556 0.028655909 0.40500003 4279127845
-0.047213115 0.028655909 0.40500003 4279061798
-0.045897674 0.028655909 0.40500003 4279522603
-0.044582233 0.028655909 0.40500003 4279982641
-0.1086385 0.032191928 0.43500003 4280101914
-0.10697912 0.032117922 0.43400002 4281552946
-0.10532624 0.032043919 0.43300003 4279453728
-0.10367984 0.031969912 0.43200001 4279256349
-0.10180321 0.031821903 0.43000001 4279387935
-0.10017306 0.0317479 0.42900002 4279124763
-0.098549418 0.031673897 0.42800003 4279256351
-0.09693227 0.03159989 0.42700002 4279124765
-0.095321611 0.031525888 0.42600003 4278993179
-0.093717448 0.031451881 0.42500001 4278197249
-0.09233705 0.031451881 0.42500001 4279649061
-0.090742633 0.031377878 0.42400002 4279912231
-0.089154705 0.031303871 0.42300001 4278721549
-0.087780803 0.031303871 0.42300001 4278655756
-0.086202629 0.03122987 0.42200002 4278786318
-0.084630951 0.031155866 0.42100003 4278852111
-0.083065763 0.031081861 0.42000002 4278786318
-0.081507079 0.031007856 0.41900003 4278852111
-0.079954885 0.030933851 0.41800001 4278786318
-0.078409187 0.030859848 0.41700003 4278851597
-0.076869987 0.030785842 0.41600001 4278852363
-0.075337283 0.030711839 0.41500002 4280565286
-0.073811077 0.030637836 0.41400003 4279844641
-0.072291359 0.030563829 0.41300002 4278791953
-0.070778146 0.030489827 0.41200003 4278197248
-0.069271423 0.03041582 0.41100001 4278198533
-0.067771204 0.030341817 0.41000003 4278197248
-0.066439524 0.030341817 0.41000003 4278199561
-0.064949036 0.03026781 0.40900001 4278595601
-0.063620605 0.03026781 0.40900001 4279122199
-0.062292177 0.03026781 0.40900001 4278926101
-0.06081469 0.030193808 0.40800002 4279190043
-0.0594895 0.030193808 0.40800002 4279256349
-0.058021754 0.030119803 0.40700001 4279058970
-0.05669982 0.030119803 0.40700001 4279125533
-0.055241819 0.030045798 0.40600002 4279322912
-0.05392313 0.030045798 0.40600002 4278993947
-0.052604444 0.030045798 0.40600002 4279059740
-0.051159438 0.029971795 0.40500003 4279257119
-0.049843997 0.029971795 0.40500003 4279059740
-0.048528556 0.029971795 0.40500003 4278797597
-0.047213115 0.029971795 0.40500003 4279126562
-0.045897674 0.029971795 0.40500003 4278797597
-0.044582233 0.029971795 0.40500003 4279192355
-0.043159962 0.029897789 0.40400001 4279193125
-0.041847765 0.029897789 0.40400001 4278995492
-0.040535573 0.029897789 0.40400001 4285308292
-0.03922338 0.029897789 0.40400001 4279453226
-0.1086385 0.033605289 0.43500003 4282273851
-0.10673262 0.033450779 0.43300003 4280961069
-0.10508298 0.033373524 0.43200001 4279190041
-0.10343985 0.033296272 0.43100002 4279058968
-0.10180321 0.033219017 0.43000001 4279387935
-0.10017306 0.033141766 0.42900002 4279387935
-0.098549418 0.033064511 0.42800003 4279124763
-0.09693227 0.032987259 0.42700002 4279256349
-0.095321611 0.032910004 0.42600003 4279190556
-0.093717448 0.032832749 0.42500001 4278198274
-0.092119791 0.032755498 0.42400002 4279254301
-0.090742633 0.032755498 0.42400002 4279977254
-0.089154705 0.032678243 0.42300001 4278524683
-0.087573282 0.032600991 0.42200002 4278919187
-0.086202629 0.032600991 0.42200002 4279840543
-0.084630951 0.032523736 0.42100003 4279708957
-0.083065763 0.032446481 0.42000002 4279972129
-0.081507079 0.03236923 0.41900003 4280498473
-0.079954885 0.032291975 0.41800001 4279445785
-0.078409187 0.032214724 0.41700003 4279182100
-0.076869987 0.032137468 0.41600001 4278983951
-0.075337283 0.032060217 0.41500002 4280170274
-0.073811077 0.031982962 0.41400003 4279320346
-0.072291359 0.031905707 0.41300002 4279255066
-0.070949942 0.031905707 0.41300002 4279386654
-0.06943997 0.031828456 0.41200003 4279386141
-0.067936495 0.031751201 0.41100001 4279451934
-0.066439524 0.031673949 0.41000003 4279649313
-0.064949036 0.031596694 0.40900001 4279582496
-0.063620605 0.031596694 0.40900001 4279779875
-0.062139876 0.031519443 0.40800002 4279253017
-0.06081469 0.031519443 0.40800002 4278726673
-0.059343692 0.031442188 0.40700001 4278199561
-0.058021754 0.031442188 0.40700001 4278197762
-0.056560513 0.031364933 0.40600002 4278197248
-0.055241819 0.031364933 0.40600002 4278529296
-0.05392313 0.031364933 0.40600002 4278727189
-0.052474879 0.031287681 0.40500003 4279320094
-0.051159438 0.031287681 0.40500003 4279584033
-0.049843997 0.031287681 0.40500003 4279519010
-0.048528556 0.031287681 0.40500003 4279190558
-0.047213115 0.031287681 0.40500003 4278993947
-0.045784343 0.031210426 0.40400001 4278994461
-0.044472151 0.031210426 0.40400001 4278862875
-0.043159962 0.031210426 0.40400001 4278994463
-0.041847765 0.031210426 0.40400001 4279257635
-0.040535573 0.031210426 0.40400001 4278862371
-0.03922338 0.031210426 0.40400001 4278862884
-0.037817348 0.031133173 0.40300003 4279125797
-0.036508407 0.031133173 0.40300003 4279189793
-0.10673262 0.034857642 0.43300003 4281421622
-0.10508298 0.034777138 0.43200001 4279058459
-0.10343985 0.034696635 0.43100002 4279255836
-0.10180321 0.034616131 0.43000001 4279519519
-0.10017306 0.034535628 0.42900002 4279124761
-0.098549418 0.034455128 0.42800003 4278993175
-0.09693227 0.034374624 0.42700002 4279124763
-0.095321611 0.034294121 0.42600003 4279124765
-0.093717448 0.034213617 0.42500001 4278196224
-0.092119791 0.034133118 0.42400002 4279714854
-0.090742633 0.034133118 0.42400002 4278858775
-0.089154705 0.034052614 0.42300001 4278196486
-0.087573282 0.033972111 0.42200002 4278393865
-0.085998364 0.033891611 0.42100003 4278854929
-0.084429927 0.033811107 0.42000002 4280038692
-0.083065763 0.033811107 0.42000002 4278524683
-0.081507079 0.033730604 0.41900003 4278195717
-0.079954885 0.0336501 0.41800001 4278589963
-0.078409187 0.033569597 0.41700003 4279643934
-0.076869987 0.033489093 0.41600001 4278656269
-0.075337283 0.033408593 0.41500002 4279579164
-0.073811077 0.03332809 0.41400003 4279123480
-0.072466403 0.03332809 0.41400003 4278199301
-0.070949942 0.033247586 0.41300002 4278527500
-0.06943997 0.033167087 0.41200003 4279516189
-0.067936495 0.033086583 0.41100001 4278199298
-0.066439524 0.033006079 0.41000003 4278464015
-0.064949036 0.032925576 0.40900001 4279254814
-0.063620605 0.032925576 0.40900001 4279452193
-0.062139876 0.032845076 0.40800002 4279386654
-0.06081469 0.032845076 0.40800002 4279386654
-0.059343692 0.032764569 0.40700001 4279452447
-0.058021754 0.032764569 0.40700001 4279189275
-0.056560513 0.032684069 0.40600002 4279320861
-0.055241819 0.032684069 0.40600002 4279386400
-0.053790316 0.032603566 0.40500003 4279320096
-0.052474879 0.032603566 0.40500003 4279911463
-0.051159438 0.032603566 0.40500003 4279121433
-0.049720924 0.032523062 0.40400001 4278923541
-0.048408728 0.032523062 0.40400001 4278791185
-0.047096539 0.032523062 0.40400001 4279055640
-0.045784343 0.032523062 0.40400001 4278928156
-0.044472151 0.032523062 0.40400001 4278993949
-0.043159962 0.032523062 0.40400001 4278993949
-0.041744184 0.032442562 0.40300003 4278928156
-0.04043524 0.032442562 0.40300003 4278797084
-0.039126292 0.032442562 0.40300003 4278797084
-0.037817348 0.032442562 0.40300003 4278993949
-0.036508407 0.032442562 0.40300003 4279058718
-0.10673262 0.036264502 0.43300003 4280764975
-0.10508298 0.03618075 0.43200001 4279321631
-0.10343985 0.036096998 0.43100002 4279453728
-0.10180321 0.036013246 0.43000001 4279190556
-0.10017306 0.035929494 0.42900002 4279387935
-0.098549418 0.035845742 0.42800003 4279190556
-0.09693227 0.03576199 0.42700002 4279190556
-0.095321611 0.035678241 0.42600003 4279320607
-0.093717448 0.035594486 0.42500001 4278264587
-0.092119791 0.035510737 0.42400002 4278661396
-0.090742633 0.035510737 0.42400002 4279319326
-0.089154705 0.035426982 0.42300001 4278787855
-0.087573282 0.035343233 0.42200002 4278590222
-0.085998364 0.035259482 0.42100003 4278655502
-0.084429927 0.03517573 0.42000002 4278787601
-0.083065763 0.03517573 0.42000002 4278721549
-0.081507079 0.035091978 0.41900003 4278853135
-0.079954885 0.035008226 0.41800001 4280301092
-0.078409187 0.034924474 0.41700003 4280236580
-0.076869987 0.034840722 0.41600001 4278722832
-0.075337283 0.03475697 0.41500002 4279646242
-0.073989362 0.03475697 0.41500002 4278595601
-0.072466403 0.034673218 0.41400003 4278526476
-0.070949942 0.034589466 0.41300002 4278853646
-0.06943997 0.034505714 0.41200003 4279841824
-0.067936495 0.034421962 0.41100001 4279647775
-0.066439524 0.034338214 0.41000003 4280042533
-0.065107845 0.034338214 0.41000003 4279055640
-0.063620605 0.034254458 0.40900001 4279187740
-0.062139876 0.03417071 0.40800002 4278266636
-0.06081469 0.03417071 0.40800002 4279188508
-0.059343692 0.034086954 0.40700001 4279255068
-0.058021754 0.034086954 0.40700001 4279058459
-0.056560513 0.034003206 0.40600002 4278993179
-0.055105757 0.033919454 0.40500003 4279058972
-0.053790316 0.033919454 0.40500003 4279190558
-0.052474879 0.033919454 0.40500003 4279124765
-0.051033117 0.033835702 0.40400001 4279321631
-0.049720924 0.033835702 0.40400001 4279190045
-0.048408728 0.033835702 0.40400001 4279451934
-0.047096539 0.033835702 0.40400001 4278196480
-0.045784343 0.033835702 0.40400001 4279189791
-0.044362072 0.03375195 0.40300003 4279124511
-0.043053132 0.03375195 0.40300003 4278928156
-0.041744184 0.03375195 0.40300003 4278796570
-0.04043524 0.03375195 0.40300003 4278862363
-0.039126292 0.03375195 0.40300003 4278796570
-0.037817348 0.03375195 0.40300003 4278730007
-0.036508407 0.03375195 0.40300003 4278597908
-0.03519946 0.03375195 0.40300003 4279250203
-0.10813901 0.037671361 0.43300003 4279180551
-0.10673262 0.037671361 0.43300003 4279909405
-0.10508298 0.037584361 0.43200001 4279320859
-0.10343985 0.03749736 0.43100002 4279190556
-0.10180321 0.03741036 0.43000001 4279256349
-0.10017306 0.037323359 0.42900002 4279256349
-0.098549418 0.037236359 0.42800003 4279190556
-0.09693227 0.037149355 0.42700002 4279124763
-0.095321611 0.037062358 0.42600003 4279189275
-0.093717448 0.036975354 0.42500001 4279055638
-0.09233705 0.036975354 0.42500001 4279450910
-0.090742633 0.036888354 0.42400002 4279648289
-0.089154705 0.036801353 0.42300001 4278590222
-0.087573282 0.036714353 0.42200002 4279049492
-0.085998364 0.036627352 0.42100003 4279114771
-0.084630951 0.036627352 0.42100003 4278982672
-0.083065763 0.036540352 0.42000002 4278982924
-0.081507079 0.036453351 0.41900003 4278982924
-0.079954885 0.036366347 0.41800001 4278917131
-0.078409187 0.036279351 0.41700003 4278983437
-0.076869987 0.036192346 0.41600001 4278655754
-0.075337283 0.036105346 0.41500002 4280107045
-0.073989362 0.036105346 0.41500002 4280108326
-0.072466403 0.036018349 0.41400003 4278722830
-0.070949942 0.035931345 0.41300002 4278918926
-0.06943997 0.035844345 0.41200003 4279973408
-0.067936495 0.035757344 0.41100001 4279384090
-0.066601567 0.035757344 0.41100001 4279252504
-0.065107845 0.035670344 0.41000003 4279450396
-0.063620605 0.03558334 0.40900001 4279385117
-0.062139876 0.035496343 0.40800002 4279845668
-0.06081469 0.035496343 0.40800002 4280174119
-0.059343692 0.035409339 0.40700001 4279713057
-0.057879195 0.035322338 0.40600002 4279120920
-0.056560513 0.035322338 0.40600002 4278989845
-0.055105757 0.035235338 0.40500003 4278726673
-0.053790316 0.035235338 0.40500003 4278200842
-0.052345309 0.035148337 0.40400001 4279320094
-0.051033117 0.035148337 0.40400001 4278200841
-0.049720924 0.035148337 0.40400001 4279124252
-0.048408728 0.035148337 0.40400001 4279189791
-0.046979964 0.035061337 0.40300003 4278196993
-0.045671016 0.035061337 0.40300003 4279123998
-0.044362072 0.035061337 0.40300003 4279124511
-0.043053132 0.035061337 0.40300003 4278928156
-0.041744184 0.035061337 0.40300003 4278796570
-0.04043524 0.035061337 0.40300003 4278928156
-0.039126292 0.035061337 0.40300003 4278928156
-0.037817348 0.035061337 0.40300003 4278860826
-0.036508407 0.035061337 0.40300003 4278795033
-0.03519946 0.035061337 0.40300003 4278922008
-0.10813901 0.039078228 0.43300003 4280561175
-0.10648613 0.038987976 0.43200001 4280631844
-0.10508298 0.038987976 0.43200001 4279321627
-0.10343985 0.038897727 0.43100002 4279190041
-0.10180321 0.038807474 0.43000001 4279256347
-0.10017306 0.038717225 0.42900002 4279387933
-0.098549418 0.038626976 0.42800003 4279124761
-0.09693227 0.038536727 0.42700002 4279256347
-0.095321611 0.038446479 0.42600003 4279056406
-0.093717448 0.038356226 0.42500001 4279055125
-0.09233705 0.038356226 0.42500001 4279056152
-0.090742633 0.038265977 0.42400002 4279451162
-0.089154705 0.038175724 0.42300001 4279451162
-0.087573282 0.038085476 0.42200002 4279713309
-0.086202629 0.038085476 0.42200002 4279645211
-0.084630951 0.037995227 0.42100003 4279381271
-0.083065763 0.037904978 0.42000002 4279051025
-0.081507079 0.037814729 0.41900003 4278656267
-0.079954885 0.037724476 0.41800001 4278654986
-0.078409187 0.037634227 0.41700003 4278917644
-0.076869987 0.037543975 0.41600001 4278787855
-0.075518817 0.037543975 0.41600001 4279843106
-0.073989362 0.037453726 0.41500002 4279713568
-0.072466403 0.037363477 0.41400003 4279777567
-0.070949942 0.037273228 0.41300002 4279579418
-0.06943997 0.037182979 0.41200003 4279515678
-0.067936495 0.037092727 0.41100001 4279779361
-0.066601567 0.037092727 0.41100001 4279779875
-0.065107845 0.037002478 0.41000003 4279450910
-0.063620605 0.036912225 0.40900001 4278200329
-0.062139876 0.036821976 0.40800002 4278726675
-0.06066563 0.036731727 0.40700001 4279779363
-0.059343692 0.036731727 0.40700001 4278396943
-0.057879195 0.036641479 0.40600002 4278461966
-0.056560513 0.036641479 0.40600002 4280174121
-0.055105757 0.03655123 0.40500003 4279779363
-0.053790316 0.03655123 0.40500003 4278265357
-0.052345309 0.036460977 0.40400001 4278196994
-0.051033117 0.036460977 0.40400001 4278660882
-0.049720924 0.036460977 0.40400001 4279451682
-0.048288908 0.036370728 0.40300003 4279320355
-0.046979964 0.036370728 0.40300003 4278199049
-0.045671016 0.036370728 0.40300003 4279123998
-0.044362072 0.036370728 0.40300003 4278993695
-0.043053132 0.036370728 0.40300003 4278862109
-0.041744184 0.036370728 0.40300003 4278862109
-0.04043524 0.036370728 0.40300003 4278862363
-0.039126292 0.036370728 0.40300003 4278796570
-0.037817348 0.036370728 0.40300003 4278927386
-0.036508407 0.036370728 0.40300003 4279321631
-0.03519946 0.036370728 0.40300003 4278462736
-0.10648613 0.040391587 0.43200001 4281418792
-0.10508298 0.040391587 0.43200001 4279254551
-0.10343985 0.040298089 0.43100002 4279124248
-0.10180321 0.040204588 0.43000001 4279124761
-0.10017306 0.040111091 0.42900002 4279058968
-0.098549418 0.040017594 0.42800003 4279124761
-0.09693227 0.039924093 0.42700002 4278993175
-0.095321611 0.039830595 0.42600003 4279255834
-0.093937963 0.039830595 0.42600003 4279584029
-0.09233705 0.039737094 0.42500001 4279386652
-0.090742633 0.039643597 0.42400002 4279386652
-0.089365482 0.039643597 0.42400002 4279123480
-0.087780803 0.039550096 0.42300001 4279255066
-0.086202629 0.039456598 0.42200002 4279255066
-0.084630951 0.039363101 0.42100003 4279386139
-0.083065763 0.0392696 0.42000002 4279386141
-0.081507079 0.039176103 0.41900003 4279386141
-0.079954885 0.039082602 0.41800001 4279912485
-0.078597218 0.039082602 0.41800001 4279780129
-0.077054776 0.038989104 0.41700003 4279910947
-0.075518817 0.038895603 0.41600001 4279647775
-0.073989362 0.038802106 0.41500002 4279055640
-0.072466403 0.038708605 0.41400003 4278331404
-0.070949942 0.038615108 0.41300002 4278198539
-0.06943997 0.038521606 0.41200003 4278195712
-0.067936495 0.038428109 0.41100001 4278195968
-0.066439524 0.038334608 0.41000003 4278330380
-0.065107845 0.038334608 0.41000003 4279185943
-0.063620605 0.038241111 0.40900001 4279515678
-0.062139876 0.03814761 0.40800002 4279516703
-0.06066563 0.038054112 0.40700001 4279582496
-0.059197884 0.037960611 0.40600002 4279451680
-0.057879195 0.037960611 0.40600002 4279517473
-0.056421202 0.037867114 0.40500003 4279320094
-0.055105757 0.037867114 0.40500003 4279320094
-0.053657498 0.037773613 0.40400001 4279649061
-0.052345309 0.037773613 0.40400001 4279450912
-0.051033117 0.037773613 0.40400001 4278199563
-0.049597852 0.037680116 0.40300003 4279385889
-0.048288908 0.037680116 0.40300003 4279319842
-0.046979964 0.037680116 0.40300003 4278199565
-0.045671016 0.037680116 0.40300003 4279123228
-0.044362072 0.037680116 0.40300003 4278992925
-0.043053132 0.037680116 0.40300003 4278927902
-0.041744184 0.037680116 0.40300003 4278731037
-0.04043524 0.037680116 0.40300003 4278862623
-0.039126292 0.037680116 0.40300003 4278862109
-0.037817348 0.037680116 0.40300003 4278993179
-0.036508407 0.037680116 0.40300003 4279058972
-0.03519946 0.037680116 0.40300003 4278527761
-0.10648613 0.041795198 0.43200001 4280888598
-0.10508298 0.041795198 0.43200001 4280761630
-0.10343985 0.041698452 0.43100002 4280039703
-0.10180321 0.041601703 0.43000001 4279516693
-0.10017306 0.041504957 0.42900002 4279385621
-0.098549418 0.041408207 0.42800003 4279386137
-0.09693227 0.041311458 0.42700002 4279255064
-0.095545366 0.041311458 0.42700002 4278861078
-0.093937963 0.041214712 0.42600003 4279124250
-0.09233705 0.041117962 0.42500001 4279124250
-0.090956643 0.041117962 0.42500001 4278992664
-0.089365482 0.041021217 0.42400002 4279058455
-0.087780803 0.040924467 0.42300001 4278861076
-0.086202629 0.040827718 0.42200002 4279058968
-0.084630951 0.040730972 0.42100003 4279124761
-0.083065763 0.040634222 0.42000002 4278927384
-0.081701607 0.040634222 0.42000002 4278927384
-0.080146164 0.040537477 0.41900003 4278927384
-0.078597218 0.040440727 0.41800001 4279124763
-0.077054776 0.040343978 0.41700003 4279190043
-0.075518817 0.040247228 0.41600001 4279386652
-0.073989362 0.040150482 0.41500002 4279452447
-0.072466403 0.040053736 0.41400003 4279386654
-0.070949942 0.039956983 0.41300002 4279320607
-0.06943997 0.039860237 0.41200003 4279649574
-0.067936495 0.039763488 0.41100001 4279714854
-0.066439524 0.039666742 0.41000003 4279846440
-0.064949036 0.039569993 0.40900001 4279581730
-0.063465059 0.039473243 0.40800002 4279252252
-0.062139876 0.039473243 0.40800002 4278462736
-0.06066563 0.039376494 0.40700001 4278198536
-0.059197884 0.039279748 0.40600002 4278196481
-0.057736639 0.039183002 0.40500003 4278198537
-0.056421202 0.039183002 0.40500003 4278199564
-0.054969691 0.039086252 0.40400001 4278660369
-0.053657498 0.039086252 0.40400001 4279647777
-0.052345309 0.039086252 0.40400001 4279516705
-0.050906796 0.038989503 0.40300003 4279451680
-0.049597852 0.038989503 0.40300003 4279714852
-0.048288908 0.038989503 0.40300003 4279649061
-0.046979964 0.038989503 0.40300003 4278529042
-0.045671016 0.038989503 0.40300003 4279255586
-0.044362072 0.038989503 0.40300003 4279190304
-0.043053132 0.038989503 0.40300003 4279058718
-0.041744184 0.038989503 0.40300003 4278993695
-0.04043524 0.038989503 0.40300003 4278927902
-0.039126292 0.038989503 0.40300003 4278664730
-0.037817348 0.038989503 0.40300003 4278663960
-0.036508407 0.038989503 0.40300003 4278860826
-0.10156646 0.042898819 0.42900002 4281220384
-0.10017306 0.042898819 0.42900002 4280102416
-0.098549418 0.042798825 0.42800003 4279710227
-0.09693227 0.042698827 0.42700002 4279776531
-0.095545366 0.042698827 0.42700002 4279581721
-0.093937963 0.042598829 0.42600003 4279319062
-0.09233705 0.042498831 0.42500001 4279319578
-0.090956643 0.042498831 0.42500001 4279188760
-0.089365482 0.042398833 0.42400002 4279254553
-0.087780803 0.042298835 0.42300001 4279386139
-0.086202629 0.042198841 0.42200002 4279058457
-0.084831975 0.042198841 0.42200002 4278861080
-0.083263539 0.042098843 0.42100003 4278795287
-0.081701607 0.041998845 0.42000002 4278795800
-0.080146164 0.04189885 0.41900003 4279058970
-0.078597218 0.041798849 0.41800001 4278993177
-0.077054776 0.041698854 0.41700003 4279124763
-0.075518817 0.041598856 0.41600001 4279124763
-0.073989362 0.041498858 0.41500002 4279190556
-0.072466403 0.041398864 0.41400003 4279255836
-0.070949942 0.041298863 0.41300002 4279255838
-0.06943997 0.041198868 0.41200003 4279321631
-0.067936495 0.04109887 0.41100001 4279256097
-0.066439524 0.040998872 0.41000003 4279058718
-0.064949036 0.040898874 0.40900001 4279124511
-0.063465059 0.040798876 0.40800002 4279190304
-0.061987568 0.040698878 0.40700001 4279190304
-0.060516577 0.040598884 0.40600002 4279189791
-0.059197884 0.040598884 0.40600002 4279452193
-0.057736639 0.040498886 0.40500003 4279320607
-0.056421202 0.040498886 0.40500003 4280043047
-0.054969691 0.040398888 0.40400001 4279582496
-0.053657498 0.040398888 0.40400001 4279976742
-0.052345309 0.040398888 0.40400001 4278726421
-0.050906796 0.040298894 0.40300003 4278199307
-0.049597852 0.040298894 0.40300003 4278198276
-0.048288908 0.040298894 0.40300003 4278197508
-0.046979964 0.040298894 0.40300003 4279384865
-0.045671016 0.040298894 0.40300003 4279190306
-0.044362072 0.040298894 0.40300003 4279190304
-0.043053132 0.040298894 0.40300003 4278927902
-0.041744184 0.040298894 0.40300003 4278927902
-0.04043524 0.040298894 0.40300003 4279059742
-0.039126292 0.040298894 0.40300003 4278664984
-0.037817348 0.040298894 0.40300003 4278663962
-0.036508407 0.040298894 0.40300003 4278729242
-0.09693227 0.044086192 0.42700002 4280034061
-0.095545366 0.044086192 0.42700002 4279442953
-0.093937963 0.043982945 0.42600003 4279312137
-0.09233705 0.043879699 0.42500001 4279115271
-0.090956643 0.043879699 0.42500001 4278786820
-0.089365482 0.043776453 0.42400002 4278920972
-0.087780803 0.043673206 0.42300001 4279315730
-0.086406901 0.043673206 0.42300001 4279514393
-0.084831975 0.04356996 0.42200002 4279318297
-0.083263539 0.043466717 0.42100003 4279253017
-0.081896134 0.043466717 0.42100003 4279516189
-0.080337442 0.043363467 0.42000002 4279319578
-0.078785248 0.04326022 0.41900003 4279254555
-0.077239558 0.043156974 0.41800001 4279189275
-0.075518817 0.042950481 0.41600001 4279320861
-0.073989362 0.042847235 0.41500002 4279649826
-0.072466403 0.042743992 0.41400003 4279583779
-0.070949942 0.042640742 0.41300002 4279321377
-0.06943997 0.042537499 0.41200003 4279190304
-0.067936495 0.042434249 0.41100001 4279387683
-0.066439524 0.042331006 0.41000003 4279058718
-0.064949036 0.042227756 0.40900001 4279190304
-0.063465059 0.04212451 0.40800002 4279387683
-0.061987568 0.042021263 0.40700001 4279124511
-0.060516577 0.041918017 0.40600002 4279256097
-0.05905208 0.041814774 0.40500003 4279256097
-0.057736639 0.041814774 0.40500003 4279256097
-0.056281887 0.041711524 0.40400001 4279321377
-0.054969691 0.041711524 0.40400001 4279321377
-0.053657498 0.041711524 0.40400001 4279321377
-0.052215744 0.041608281 0.40300003 4279321377
-0.050906796 0.041608281 0.40300003 4279386400
-0.049597852 0.041608281 0.40300003 4279451680
-0.048288908 0.041608281 0.40300003 4279649059
-0.046979964 0.041608281 0.40300003 4279386400
-0.045671016 0.041608281 0.40300003 4279124511
-0.044362072 0.041608281 0.40300003 4279124511
-0.043053132 0.041608281 0.40300003 4278993695
-0.041744184 0.041608281 0.40300003 4278862363
-0.04043524 0.041608281 0.40300003 4278993949
-0.039126292 0.041608281 0.40300003 4278599191
-0.037817348 0.041608281 0.40300003 4278992412
-0.036508407 0.041608281 0.40300003 4278398992
-0.09233705 0.045260567 0.42500001 4279507465
-0.090956643 0.045260567 0.42500001 4279375879
-0.089365482 0.045154072 0.42400002 4279376908
-0.087988324 0.045154072 0.42400002 4279376908
-0.086406901 0.045047574 0.42300001 4279442701
-0.084831975 0.044941083 0.42200002 4279574541
-0.083461314 0.044941083 0.42200002 4279641617
-0.081896134 0.044834588 0.42100003 4279905301
-0.080337442 0.044728089 0.42000002 4279840791
-0.078973278 0.044728089 0.42000002 4279578902
-0.077239558 0.044515099 0.41800001 4279711774
-0.075700358 0.044408605 0.41700003 4279843106
-0.073989362 0.044195615 0.41500002 4280239399
-0.072466403 0.04408912 0.41400003 4279976742
-0.070949942 0.043982621 0.41300002 4279976742
-0.06943997 0.043876126 0.41200003 4279779363
-0.067936495 0.043769632 0.41100001 4279780647
-0.066439524 0.043663137 0.41000003 4279715367
-0.064949036 0.043556638 0.40900001 4279583781
-0.063465059 0.043450143 0.40800002 4279715367
-0.061987568 0.043343648 0.40700001 4279583781
-0.060516577 0.043237153 0.40600002 4279583781
-0.05905208 0.043130659 0.40500003 4279583779
-0.057736639 0.043130659 0.40500003 4279649572
-0.056281887 0.043024164 0.40400001 4279649826
-0.054969691 0.043024164 0.40400001 4279781412
-0.053657498 0.043024164 0.40400001 4279649826
-0.052215744 0.042917669 0.40300003 4279452963
-0.050906796 0.042917669 0.40300003 4279321377
-0.049597852 0.042917669 0.40300003 4279452963
-0.048288908 0.042917669 0.40300003 4279321377
-0.046979964 0.042917669 0.40300003 4279255584
-0.045671016 0.042917669 0.40300003 4279190304
-0.044362072 0.042917669 0.40300003 4279190304
-0.043053132 0.042917669 0.40300003 4279059488
-0.041744184 0.042917669 0.40300003 4278796316
-0.04043524 0.042917669 0.40300003 4279190304
-0.039126292 0.042917669 0.40300003 4279189791
-0.037817348 0.042917669 0.40300003 4278793752
-0.036508407 0.042917669 0.40300003 4279843106
-0.084831975 0.046312202 0.42200002 4279638797
-0.083461314 0.046312202 0.42200002 4279836430
-0.081896134 0.046202458 0.42100003 4280428567
-0.080528729 0.046202458 0.42100003 4280429335
-0.078973278 0.046092711 0.42000002 4281350952
-0.077609122 0.046092711 0.42000002 4286616705
-0.076244965 0.046092711 0.42000002 4285827704
-0.074880801 0.046092711 0.42000002 4285893499
-0.073516637 0.046092711 0.42000002 4286223234
-0.067936495 0.04510501 0.41100001 4283789918
-0.066439524 0.044995267 0.41000003 4282606416
-0.064949036 0.04488552 0.40900001 4281817413
-0.063465059 0.044775777 0.40800002 4280830003
-0.061987568 0.044666033 0.40700001 4280434473
-0.060516577 0.04455629 0.40600002 4279908129
-0.05905208 0.044446547 0.40500003 4279843106
-0.057736639 0.044446547 0.40500003 4280106791
-0.056281887 0.0443368 0.40400001 4279712805
-0.054969691 0.0443368 0.40400001 4279450146
-0.053524684 0.044227056 0.40300003 4280042283
-0.052215744 0.044227056 0.40300003 4279910697
-0.050906796 0.044227056 0.40300003 4279976742
-0.049597852 0.044227056 0.40300003 4280108328
-0.048288908 0.044227056 0.40300003 4279780647
-0.046979964 0.044227056 0.40300003 4279912233
-0.045671016 0.044227056 0.40300003 4279714854
-0.044362072 0.044227056 0.40300003 4279649061
-0.043053132 0.044227056 0.40300003 4279452711
-0.041744184 0.044227056 0.40300003 4279321125
-0.04043524 0.044227056 0.40300003 4279714854
-0.039126292 0.044227056 0.40300003 4279254303
-0.037817348 0.044227056 0.40300003 4279973672
-0.05905208 0.045762431 0.40500003 4285894269
-0.057594076 0.045649435 0.40400001 4286289027
-0.056281887 0.045649435 0.40400001 4285499511
-0.054969691 0.045649435 0.40400001 4286157441
-0.053524684 0.045536444 0.40300003 4285895296
-0.052215744 0.045536444 0.40300003 4286026882
-0.050906796 0.045536444 0.40300003 4285632122
-0.049597852 0.045536444 0.40300003 4285369720
-0.048288908 0.045536444 0.40300003 4284514411
-0.046979964 0.045536444 0.40300003 4284185446
-0.045671016 0.045536444 0.40300003 4283593309
-0.044362072 0.045536444 0.40300003 4283131988
-0.043053132 0.045536444 0.40300003 4282212169
-0.041744184 0.045536444 0.40300003 4282015560
-0.04043524 0.045536444 0.40300003 4281948484
-0.039126292 0.045536444 0.40300003 4284776301
-0.056281887 0.046962075 0.40400001 4285762683
-0.054969691 0.046962075 0.40400001 4285828476
-0.053524684 0.046845831 0.40300003 4285828476
-0.052215744 0.046845831 0.40300003 4285696636
-0.050906796 0.046845831 0.40300003 4285696890
-0.049597852 0.046845831 0.40300003 4285367925
-0.048288908 0.046845831 0.40300003 4285105266
-0.041744184 0.046845831 0.40300003 4284710506
-0.069194198 0.036820553 0.41356513 4294967295
-0.069194198 0.036820553 0.41356513 4294901760
-0.0691773 0.036320914 0.41357371 4294901760
-0.069160394 0.035821274 0.4135823 4294901760
-0.069143496 0.035321631 0.41359088 4294901760
-0.069126591 0.034821991 0.41359946 4294901760
-0.069109693 0.034322351 0.41360801 4294901760
-0.069092795 0.033822708 0.4136166 4294901760
-0.06907589 0.033323068 0.41362518 4294901760
-0.069058992 0.032823429 0.41363376 4294901760
-0.069042087 0.032323789 0.41364235 4294901760
-0.069025189 0.031824145 0.41365093 4294901760
-0.069008283 0.031324506 0.41365951 4294901760
-0.068991385 0.030824866 0.4136681 4294901760
-0.068974487 0.030325225 0.41367668 4294901760
-0.068957582 0.029825585 0.41368526 4294901760
-0.068940684 0.029325943 0.41369385 4294901760
-0.068923779 0.028826304 0.4137024 4294901760
-0.068906881 0.028326662 0.41371098 4294901760
-0.068889983 0.027827021 0.41371956 4294901760
-0.068873078 0.027327381 0.41372815 4294901760
-0.06885618 0.026827741 0.41373673 4294901760
-0.068839274 0.026328102 0.41374531 4294901760
-0.068822376 0.025828458 0.4137539 4294901760
-0.068805479 0.025328819 0.41376248 4294901760
-0.068788573 0.024829179 0.41377106 4294901760
-0.068771675 0.024329538 0.41377962 4294901760
-0.06875477 0.023829896 0.4137882 4294901760
-0.068737872 0.023330256 0.41379678 4294901760
-0.068720974 0.022830617 0.41380537 4294901760
-0.068704069 0.022330975 0.41381395 4294901760
-0.068687171 0.021831334 0.41382253 4294901760
-0.068670265 0.021331694 0.41383111 4294901760
-0.068653367 0.020832054 0.4138397 4294901760
-0.068636462 0.020332411 0.41384828 4294901760
-0.068619564 0.019832771 0.41385686 4294901760
-0.068602666 0.019333132 0.41386545 4294901760
-0.068585761 0.01883349 0.413874 4294901760
-0.068568863 0.01833385 0.41388258 4294901760
-0.068551958 0.017834209 0.41389117 4294901760
-0.06853506 0.017334569 0.41389975 4294901760
-0.068518162 0.016834928 0.41390833 4294901760
-0.068501256 0.016335288 0.41391692 4294901760
-0.068484358 0.015835648 0.4139255 4294901760
-0.068467453 0.015336005 0.41393408 4294901760
-0.068450555 0.014836365 0.41394266 4294901760
-0.068433657 0.014336726 0.41395122 4294901760
-0.068416752 0.013837084 0.4139598 4294901760
-0.068399854 0.013337445 0.41396838 4294901760
-0.068382949 0.012837803 0.41397697 4294901760
-0.068366051 0.012338161 0.41398555 4294901760
-0.068349153 0.011838522 0.41399413 4294901760
-0.068332247 0.011338882 0.41400272 4294901760
-0.06831535 0.010839241 0.4140113 4294901760
-0.068298444 0.010339601 0.41401988 4294901760
-0.068281546 0.0098399576 0.41402847 4294901760
-0.068264641 0.0093403179 0.41403705 4294901760
-0.068247743 0.0088406783 0.4140456 4294901760
-0.068230845 0.0083410386 0.41405419 4294901760
-0.06821394 0.0078413971 0.41406277 4294901760
-0.068197042 0.0073417574 0.41407135 4294901760
-0.068180136 0.006842114 0.41407993 4294901760
-0.068163238 0.0063424744 0.41408852 4294901760
-0.068146341 0.0058428347 0.4140971 4294901760
-0.068129435 0.0053431951 0.41410568 4294901760
-0.068112537 0.0048435554 0.41411427 4294901760
-0.068095632 0.004343912 0.41412282 4294901760
-0.068078734 0.0038442686 0.4141314 4294901760
-0.068061836 0.003344629 0.41413999 4294901760
-0.068044931 0.0028449893 0.41414857 4294901760
-0.068028033 0.0023453496 0.41415715 4294901760
-0.068011127 0.00184571 0.41416574 4294901760
-0.067994229 0.0013460703 0.41417432 4294901760
-0.067977324 0.00084642693 0.4141829 4294901760
-0.067960426 0.00034678727 0.41419148 4294901760
-0.067943528 -0.00015285239 0.41420007 4294901760
-0.067926623 -0.00065249205 0.41420865 4294901760
-0.067909725 -0.0011521354 0.4142172 4294901760
-0.06789282 -0.0016517751 0.41422579 4294901760
-0.067875922 -0.0021514148 0.41423437 4294901760
-0.067859024 -0.0026510581 0.41424295 4294901760
-0.067842118 -0.0031506978 0.41425154 4294901760
-0.067825221 -0.0036503375 0.41426012 4294901760
-0.067808315 -0.0041499771 0.4142687 4294901760
-0.067791417 -0.0046496168 0.41427729 4294901760
-0.067774519 -0.0051492564 0.41428587 4294901760
-0.067757614 -0.0056488998 0.41429442 4294901760
-0.067740716 -0.0061485432 0.414303 4294901760
-0.067723811 -0.0066481829 0.41431159 4294901760
-0.067706913 -0.0071478225 0.41432017 4294901760
-0.067690015 -0.0076474622 0.41432875 4294901760
-0.067673109 -0.0081471018 0.41433734 4294901760
-0.067656212 -0.0086467452 0.41434592 4294901760
-0.067639306 -0.0091463849 0.4143545 4294901760
-0.067622408 -0.0096460246 0.41436309 4294901760
-0.067605503 -0.010145664 0.41437167 4294901760
-0.067588605 -0.010645308 0.41438025 4294901760
-0.067571707 -0.011144947 0.41438881 4294901760
-0.067554802 -0.011644591 0.41439739 4294901760
-0.067537904 -0.01214423 0.41440597 4294901760
-0.067520998 -0.01264387 0.41441455 4294901760
-0.067504101 -0.01314351 0.41442314 4294901760
-0.069194198 0.036820553 0.41356513 4278255360
-0.068741895 0.036832199 0.41335234 4278255360
-0.068289585 0.036843844 0.41313952 4278255360
-0.067837283 0.036855489 0.41292673 4278255360
-0.067384981 0.036867134 0.41271392 4278255360
-0.066932671 0.03687878 0.41250113 4278255360
-0.066480368 0.036890425 0.41228831 4278255360
-0.066028066 0.03690207 0.41207552 4278255360
-0.065575764 0.036913715 0.4118627 4278255360
-0.065123454 0.036925361 0.41164991 4278255360
-0.064671151 0.036937006 0.41143709 4278255360
-0.064218849 0.036948655 0.41122431 4278255360
-0.063766539 0.0369603 0.41101149 4278255360
-0.063314237 0.036971945 0.4107987 4278255360
-0.062861934 0.036983591 0.41058588 4278255360
-0.062409628 0.036995236 0.41037309 4278255360
-0.061957322 0.037006881 0.41016027 4278255360
-0.06150502 0.037018526 0.40994748 4278255360
-0.061052714 0.037030172 0.4097347 4278255360
-0.060600407 0.037041817 0.40952188 4278255360
-0.060148105 0.037053462 0.40930909 4278255360
-0.059695799 0.037065107 0.40909627 4278255360
-0.059243493 0.037076753 0.40888348 4278255360
-0.05879119 0.037088398 0.40867066 4278255360
-0.058338888 0.037100043 0.40845788 4278255360
-0.057886582 0.037111688 0.40824506 4278255360
-0.057434276 0.037123334 0.40803227 4278255360
-0.056981973 0.037134979 0.40781945 4278255360
-0.056529667 0.037146624 0.40760666 4278255360
-0.056077361 0.037158269 0.40739384 4278255360
-0.055625059 0.037169918 0.40718105 4278255360
-0.055172753 0.037181564 0.40696824 4278255360
-0.054720446 0.037193209 0.40675545 4278255360
-0.054268144 0.037204854 0.40654263 4278255360
-0.053815838 0.037216499 0.40632984 4278255360
-0.053363532 0.037228145 0.40611705 4278255360
-0.052911229 0.03723979 0.40590423 4278255360
-0.052458927 0.037251435 0.40569144 4278255360
-0.052006621 0.03726308 0.40547863 4278255360
-0.051554315 0.037274726 0.40526584 4278255360
-0.051102012 0.037286371 0.40505302 4278255360
-0.050649706 0.037298016 0.40484023 4278255360
-0.0501974 0.037309662 0.40462741 4278255360
-0.049745098 0.037321307 0.40441462 4278255360
-0.049292792 0.037332952 0.40420181 4278255360
-0.048840486 0.037344597 0.40398902 4278255360
-0.048388183 0.037356243 0.4037762 4278255360
-0.047935881 0.037367888 0.40356341 4278255360
-0.047483575 0.037379533 0.40335059 4278255360
-0.047031268 0.037391178 0.4031378 4278255360
-0.046578966 0.037402824 0.40292501 4278255360
-0.04612666 0.037414473 0.4027122 4278255360
-0.045674354 0.037426118 0.40249941 4278255360
-0.045222051 0.037437763 0.40228659 4278255360
-0.044769745 0.037449408 0.4020738 4278255360
-0.044317439 0.037461054 0.40186098 4278255360
-0.043865137 0.037472699 0.40164819 4278255360
-0.043412834 0.037484344 0.40143538 4278255360
-0.042960528 0.037495989 0.40122259 4278255360
-0.042508222 0.037507635 0.40100977 4278255360
-0.042055916 0.03751928 0.40079698 4278255360
-0.04160361 0.037530925 0.40058416 4278255360
-0.041151308 0.03754257 0.40037137 4278255360
-0.040699005 0.037554216 0.40015855 4278255360
-0.040246699 0.037565861 0.39994577 4278255360
-0.039794393 0.037577506 0.39973295 4278255360
-0.03934209 0.037589151 0.39952016 4278255360
-0.038889784 0.037600797 0.39930737 4278255360
-0.038437478 0.037612442 0.39909455 4278255360
-0.037985176 0.037624087 0.39888176 4278255360
-0.03753287 0.037635736 0.39866894 4278255360
-0.037080567 0.037647381 0.39845616 4278255360
-0.036628261 0.037659027 0.39824334 4278255360
-0.036175955 0.037670672 0.39803055 4278255360
-0.035723653 0.037682317 0.39781773 4278255360
-0.035271347 0.037693962 0.39760494 4278255360
-0.034819044 0.037705608 0.39739212 4278255360
-0.034366738 0.037717253 0.39717934 4278255360
-0.033914436 0.037728898 0.39696652 4278255360
-0.03346213 0.037740543 0.39675373 4278255360
-0.033009823 0.037752189 0.39654091 4278255360
-0.032557521 0.037763834 0.39632812 4278255360
-0.032105215 0.037775479 0.3961153 4278255360
-0.031652912 0.037787125 0.39590251 4278255360
-0.031200606 0.03779877 0.39568973 4278255360
-0.0307483 0.037810415 0.39547691 4278255360
-0.030295994 0.03782206 0.39526412 4278255360
-0.029843692 0.037833706 0.3950513 4278255360
-0.029391386 0.037845351 0.39483851 4278255360
-0.028939083 0.037856996 0.39462569 4278255360
-0.028486777 0.037868641 0.3944129 4278255360
-0.028034471 0.03788029 0.39420009 4278255360
-0.027582169 0.037891936 0.3939873 4278255360
-0.027129862 0.037903581 0.39377448 4278255360
-0.02667756 0.037915226 0.39356169 4278255360
-0.026225254 0.037926871 0.39334887 4278255360
-0.025772952 0.037938517 0.39313608 4278255360
-0.025320642 0.037950162 0.39292327 4278255360
-0.024868339 0.037961807 0.39271048 4278255360
-0.024416033 0.037973452 0.39249766 4278255360
-0.023963731 0.037985098 0.39228487 4278255360
-0.069194198 0.036820553 0.41356513 4278190335
-0.068953045 0.036836226 0.41400284 4278190335
-0.068711892 0.036851902 0.41444057 4278190335
-0.068470739 0.036867574 0.41487828 4278190335
-0.068229586 0.03688325 0.41531602 4278190335
-0.067988433 0.036898922 0.41575372 4278190335
-0.06774728 0.036914598 0.41619146 4278190335
-0.067506127 0.03693027 0.41662917 4278190335
-0.067264974 0.036945947 0.4170669 4278190335
-0.067023821 0.036961619 0.41750461 4278190335
-0.066782668 0.036977291 0.41794235 4278190335
-0.066541515 0.036992967 0.41838005 4278190335
-0.066300362 0.037008639 0.41881779 4278190335
-0.066059202 0.037024315 0.4192555 4278190335
-0.065818049 0.037039988 0.41969323 4278190335
-0.065576896 0.037055664 0.42013094 4278190335
-0.065335743 0.037071336 0.42056867 4278190335
-0.06509459 0.037087012 0.42100638 4278190335
-0.064853437 0.037102684 0.42144409 4278190335
-0.064612284 0.03711836 0.42188182 4278190335
-0.064371131 0.037134033 0.42231953 4278190335
-0.064129978 0.037149705 0.42275727 4278190335
-0.063888825 0.037165381 0.42319497 4278190335
-0.063647673 0.037181053 0.42363271 4278190335
-0.06340652 0.037196729 0.42407042 4278190335
-0.063165367 0.037212402 0.42450815 4278190335
-0.062924214 0.037228078 0.42494586 4278190335
-0.062683061 0.03724375 0.4253836 4278190335
-0.062441908 0.037259426 0.4258213 4278190335
-0.062200755 0.037275098 0.42625904 4278190335
-0.061959602 0.037290774 0.42669675 4278190335
-0.061718449 0.037306447 0.42713448 4278190335
-0.061477296 0.037322119 0.42757219 4278190335
-0.061236139 0.037337795 0.42800993 4278190335
-0.060994986 0.037353467 0.42844763 4278190335
-0.060753834 0.037369143 0.42888534 4278190335
-0.060512681 0.037384816 0.42932308 4278190335
-0.060271528 0.037400492 0.42976078 4278190335
-0.060030375 0.037416164 0.43019852 4278190335
-0.059789222 0.03743184 0.43063623 4278190335
-0.059548069 0.037447512 0.43107396 4278190335
-0.059306916 0.037463184 0.43151167 4278190335
-0.059065763 0.03747886 0.43194941 4278190335
-0.058824606 0.037494533 0.43238711 4278190335
-0.058583453 0.037510209 0.43282485 4278190335
-0.0583423 0.037525881 0.43326256 4278190335
-0.058101147 0.037541557 0.43370029 4278190335
-0.057859994 0.037557229 0.434138 4278190335
-0.057618842 0.037572905 0.43457574 4278190335
-0.057377689 0.037588578 0.43501344 4278190335
-0.057136536 0.03760425 0.43545115 4278190335
-0.056895383 0.037619926 0.43588889 4278190335
-0.05665423 0.037635598 0.43632659 4278190335
-0.056413077 0.037651274 0.43676433 4278190335
-0.056171924 0.037666947 0.43720204 4278190335
-0.055930771 0.037682623 0.43763977 4278190335
-0.055689618 0.037698295 0.43807748 4278190335
-0.055448465 0.037713971 0.43851522 4278190335
-0.055207312 0.037729643 0.43895292 4278190335
-0.054966159 0.037745319 0.43939066 4278190335
-0.054725002 0.037760992 0.43982837 4278190335
-0.05448385 0.037776664 0.4402661 4278190335
-0.054242697 0.03779234 0.44070381 4278190335
-0.054001544 0.037808012 0.44114155 4278190335
-0.053760391 0.037823688 0.44157925 4278190335
-0.053519238 0.037839361 0.44201696 4278190335
-0.053278081 0.037855037 0.4424547 4278190335
-0.053036928 0.037870709 0.44289243 4278190335
-0.052795775 0.037886385 0.44333014 4278190335
-0.052554622 0.037902057 0.44376785 4278190335
-0.052313469 0.037917733 0.44420558 4278190335
-0.052072316 0.037933405 0.44464329 4278190335
-0.051831163 0.037949078 0.44508103 4278190335
-0.051590011 0.037964754 0.44551873 4278190335
-0.051348858 0.037980426 0.44595647 4278190335
-0.051107705 0.037996102 0.44639418 4278190335
-0.050866552 0.038011774 0.44683191 4278190335
-0.050625399 0.03802745 0.44726962 4278190335
-0.050384246 0.038043123 0.44770736 4278190335
-0.050143093 0.038058799 0.44814506 4278190335
-0.04990194 0.038074471 0.4485828 4278190335
-0.049660787 0.038090143 0.4490205 4278190335
-0.049419634 0.038105819 0.44945824 4278190335
-0.049178481 0.038121492 0.44989595 4278190335
-0.048937328 0.038137168 0.45033365 4278190335
-0.048696171 0.03815284 0.45077139 4278190335
-0.048455019 0.038168516 0.45120913 4278190335
-0.048213866 0.038184188 0.45164683 4278190335
-0.047972713 0.038199864 0.45208454 4278190335
-0.04773156 0.038215537 0.45252228 4278190335
-0.047490407 0.038231209 0.45295998 4278190335
-0.04724925 0.038246885 0.45339772 4278190335
-0.047008097 0.038262557 0.45383543 4278190335
-0.046766944 0.038278233 0.45427316 4278190335
-0.046525791 0.038293906 0.45471087 4278190335
-0.046284638 0.038309582 0.45514861 4278190335
-0.046043485 0.038325254 0.45558631 4278190335
-0.045802332 0.03834093 0.45602405 4278190335
-0.04556118 0.038356602 0.45646176 4278190335
-0.045320027 0.038372278 0.45689946 4278190335
-0.045078874 0.038387951 0.4573372 4278190335
-0.069194198 0.036820553 0.41356513 4294967295
-0.070641115 0.036726508 0.4109388 4294967295
-0.072088033 0.036632467 0.40831247 4294967295
-0.073534958 0.036538422 0.40568617 4294967295
-0.074981876 0.036444377 0.40305984 4294967295
-0.076428793 0.036350332 0.40043351 4294967295
-0.077875718 0.036256291 0.39780718 4294967295
-0.079322636 0.036162246 0.39518085 4294967295
-0.080769554 0.036068201 0.39255452 4294967295
-0.082216471 0.03597416 0.38992822 4294967295
-0.083663397 0.035880115 0.38730189 4294967295
-0.085110314 0.03578607 0.38467556 4294967295
-0.086557232 0.035692025 0.38204923 4294967295
-0.088004149 0.035597984 0.3794229 4294967295
-0.089451075 0.035503939 0.37679657 4294967295
-0.090897992 0.035409894 0.37417024 4294967295
-0.09234491 0.035315849 0.37154394 4294967295
-0.093791828 0.035221808 0.36891761 4294967295
-0.095238753 0.035127763 0.36629128 4294967295
-0.09668567 0.035033718 0.36366495 4294967295
-0.098132588 0.034939677 0.36103863 4294967295
-0.099579506 0.034845632 0.35841233 4294967295
-0.10102643 0.034751587 0.355786 4294967295
-0.10247335 0.034657542 0.35315967 4294967295
-0.10392027 0.0345635 0.35053334 4294967295
-0.10536718 0.034469455 0.34790701 4294967295
-0.1068141 0.034375411 0.34528071 4294967295
-0.10826103 0.034281369 0.34265435 4294967295
-0.10970795 0.034187324 0.34002805 4294967295
-0.11115487 0.034093279 0.33740172 4294967295
-0.11260179 0.033999234 0.33477539 4294967295
-0.1140487 0.033905193 0.33214906 4294967295
-0.11549562 0.033811148 0.32952273 4294967295
-0.11694255 0.033717103 0.32689643 4294967295
-0.11838946 0.033623062 0.3242701 4294967295
-0.11983638 0.033529017 0.32164377 4294967295
-0.12128331 0.033434972 0.31901744 4294967295
-0.12273023 0.033340927 0.31639111 4294967295
-0.12417714 0.033246886 0.31376481 4294967295
-0.12562406 0.033152841 0.31113848 4294967295
-0.12707098 0.033058796 0.30851215 4294967295
-0.1285179 0.032964751 0.30588582 4294967295
-0.12996481 0.03287071 0.30325949 4294967295
-0.13141175 0.032776665 0.30063316 4294967295
-0.13285866 0.03268262 0.29800683 4294967295
-0.13430557 0.032588579 0.29538053 4294967295
-0.1357525 0.032494534 0.2927542 4294967295
-0.13719942 0.032400489 0.29012787 4294967295
-0.13864633 0.032306448 0.28750157 4294967295
-0.14009327 0.032212403 0.28487521 4294967295
-0.14154017 0.032118358 0.28224891 4294967295
-0.1429871 0.032024313 0.27962258 4294967295
-0.14443401 0.031930272 0.27699625 4294967295
-0.14588094 0.031836227 0.27436996 4294967295
-0.14732786 0.031742182 0.2717436 4294967295
-0.14877477 0.031648137 0.26911727 4294967295
-0.15022171 0.031554095 0.26649094 4294967295
-0.15166861 0.03146005 0.26386464 4294967295
-0.15311554 0.031366006 0.26123831 4294967295
-0.15456244 0.031271964 0.25861198 4294967295
-0.15600938 0.031177919 0.25598565 4294967295
-0.15745629 0.031083874 0.25335932 4294967295
-0.15890321 0.030989831 0.25073302 4294967295
