# .PCD v0.7 - Point Cloud Data file format
VERSION 0.7
FIELDS x y z rgb
SIZE 4 4 4 4
TYPE F F F U
COUNT 1 1 1 1
WIDTH 784
HEIGHT 1
VIEWPOINT 0 0 0 1 0 0 0
POINTS 784
DATA ascii
0.044246837 -0.03075086 0.46800002 4287015828
0.045766901 -0.03075086 0.46800002 4286686863
0.047286969 -0.03075086 0.46800002 4285438593
0.048911318 -0.030816566 0.46900001 4284716155
0.044246837 -0.02923028 0.46800002 4280244789
0.045766901 -0.02923028 0.46800002 4280048693
0.047286969 -0.02923028 0.46800002 4280247869
0.048807032 -0.02923028 0.46800002 4280313664
0.050327096 -0.02923028 0.46800002 4279655221
0.044246837 -0.0277097 0.46800002 4279328304
0.045766901 -0.0277097 0.46800002 4278934316
0.047286969 -0.0277097 0.46800002 4278868523
0.048807032 -0.0277097 0.46800002 4279000109
0.050327096 -0.0277097 0.46800002 4279000109
0.041118659 -0.026133161 0.46700001 4279394865
0.042635474 -0.026133161 0.46700001 4278605863
0.044152293 -0.026133161 0.46700001 4278540068
0.045766901 -0.02618912 0.46800002 4278211103
0.047286969 -0.02618912 0.46800002 4278408482
0.048807032 -0.02618912 0.46800002 4278342689
0.05043463 -0.02624508 0.46900001 4278736935
0.051957946 -0.02624508 0.46900001 4279787572
0.036333296 -0.024457697 0.46400002 4278672167
0.03792192 -0.024510408 0.46500003 4278803240
0.039432243 -0.024510408 0.46500003 4278671140
0.041030612 -0.024563119 0.46600002 4278407968
0.042635474 -0.024615828 0.46700001 4278276382
0.044152293 -0.024615828 0.46700001 4278407198
0.045669109 -0.024615828 0.46700001 4278341405
0.047286969 -0.024668539 0.46800002 4279063845
0.048807032 -0.024668539 0.46800002 4278273816
0.05043463 -0.02472125 0.46900001 4278800160
0.051957946 -0.02472125 0.46900001 4278864673
0.012366317 -0.020674886 0.41800001 4280903237
0.013756815 -0.020724349 0.41900003 4281495374
0.015153807 -0.020773809 0.42000002 4281363792
0.016557297 -0.020823272 0.42100003 4281101901
0.019383764 -0.020922193 0.42300001 4279130671
0.020757668 -0.020922193 0.42300001 4279986230
0.036176685 -0.022851191 0.46200001 4278342689
0.037758816 -0.022900652 0.46300003 4278211103
0.039347444 -0.022950115 0.46400002 4278342429
0.040942565 -0.022999575 0.46500003 4278538525
0.042544179 -0.023049036 0.46600002 4278538525
0.044152293 -0.023098499 0.46700001 4278205714
0.045669109 -0.023098499 0.46700001 4278199040
0.047286969 -0.023147959 0.46800002 4278993945
0.048807032 -0.023147959 0.46800002 4278203917
0.05043463 -0.02319742 0.46900001 4279456808
0.051957946 -0.02319742 0.46900001 4278666529
0.0055646491 -0.01927055 0.41700003 4279317781
0.0069190655 -0.01927055 0.41700003 4278865955
0.0082734823 -0.01927055 0.41700003 4278604066
0.0096278992 -0.01927055 0.41700003 4278407970
0.011008652 -0.019316763 0.41800001 4279000107
0.012366317 -0.019316763 0.41800001 4283735668
0.013756815 -0.019362975 0.41900003 4280708422
0.019383764 -0.019547824 0.42300001 4279067697
0.020806741 -0.019594038 0.42400002 4278936363
0.022288535 -0.019686462 0.42600003 4278936363
0.02372775 -0.019732675 0.42700002 4278804777
0.025173465 -0.019778887 0.42800003 4278211870
0.026625674 -0.019825099 0.42900002 4278474015
0.034225769 -0.021072833 0.45600003 4278604579
0.036020078 -0.021257682 0.46000001 4278472995
0.037677262 -0.021350106 0.46200001 4278669091
0.039262641 -0.021396318 0.46300003 4278205201
0.040854514 -0.021442531 0.46400002 4278199808
0.042452883 -0.021488745 0.46500003 4278467865
0.044057749 -0.021534955 0.46600002 4279521066
0.045669109 -0.021581167 0.46700001 4279521320
0.047286969 -0.02162738 0.46800002 4279389732
0.048807032 -0.02162738 0.46800002 4278666009
0.05043463 -0.021673592 0.46900001 4279193125
0.052068733 -0.021719806 0.47000003 4280572989
0.0055779936 -0.017958637 0.41800001 4279972629
0.0069356579 -0.017958637 0.41800001 4278862361
0.0082734823 -0.017915675 0.41700003 4278469913
0.0096509876 -0.017958637 0.41800001 4278340376
0.011008652 -0.017958637 0.41800001 4278604318
0.012395903 -0.018001603 0.41900003 4279197486
0.013756815 -0.018001603 0.41900003 4278210853
0.018009858 -0.018173454 0.42300001 4279002417
0.019429589 -0.018216418 0.42400002 4278607144
0.020855812 -0.01825938 0.42500001 4278607398
0.022340855 -0.018345308 0.42700002 4278277663
0.023783321 -0.018388271 0.42800003 4278276896
0.025291096 -0.018474197 0.43000001 4278407968
0.026749803 -0.018517161 0.43100002 4278670624
0.028345628 -0.01864605 0.43400002 4279460140
0.035785165 -0.019634206 0.45700002 4278200839
0.037514158 -0.019763093 0.46000001 4278533144
0.039177842 -0.019849021 0.46200001 4279191588
0.040766466 -0.019891985 0.46300003 4279456297
0.042452883 -0.019977912 0.46500003 4279258916
0.044057749 -0.020020874 0.46600002 4278468630
0.045669109 -0.020063836 0.46700001 4278862877
0.047286969 -0.020106802 0.46800002 4279191842
0.048807032 -0.020106802 0.46800002 4279192355
0.05043463 -0.020149764 0.46900001 4279258918
0.052068733 -0.020192727 0.47000003 4285111422
0.0055779936 -0.016600514 0.41800001 4279841813
0.0069356579 -0.016600514 0.41800001 4279190045
0.0082933232 -0.016600514 0.41800001 4278928154
0.0096509876 -0.016600514 0.41800001 4278733083
0.011008652 -0.016600514 0.41800001 4278931486
0.012395903 -0.016640229 0.41900003 4278604831
0.013789647 -0.016679943 0.42000002 4278934566
0.015189888 -0.016719656 0.42100003 4278738214
0.016596625 -0.016759371 0.42200002 4278475042
0.018009858 -0.016799085 0.42300001 4278935339
0.019429589 -0.016838798 0.42400002 4278803753
0.020904887 -0.016918227 0.42600003 4279000359
0.022340855 -0.016957941 0.42700002 4279328554
0.023838889 -0.017037369 0.42900002 4278206228
0.025349915 -0.017116798 0.43100002 4279653676
0.026873933 -0.017196227 0.43300003 4280640567
0.028476253 -0.017315369 0.43600002 4278401810
0.030440869 -0.017633082 0.44400004 4278200076
0.032098405 -0.017752225 0.44700003 4278397458
0.033925544 -0.017950796 0.45200002 4280704829
0.037351053 -0.01818908 0.45800003 4278468632
0.039008241 -0.018268507 0.46000001 4279060769
0.040678415 -0.018347936 0.46200001 4278204949
0.042361584 -0.018427365 0.46400002 4278204689
0.043963205 -0.01846708 0.46500003 4279125535
0.045571316 -0.018506793 0.46600002 4279059488
0.047185928 -0.018546507 0.46700001 4280573241
0.048807032 -0.018586222 0.46800002 4279323687
0.05043463 -0.018625936 0.46900001 4279389228
0.005591338 -0.015278853 0.41900003 4280104987
0.0069522504 -0.015278853 0.41900003 4279320861
0.0083131632 -0.015278853 0.41900003 4278993949
0.0096740769 -0.015278853 0.41900003 4278798365
0.012395903 -0.015278853 0.41900003 4279458857
0.013789647 -0.015315318 0.42000002 4278735904
0.015189888 -0.015351783 0.42100003 4278539808
0.016596625 -0.015388248 0.42200002 4278606115
0.018052435 -0.015461178 0.42400002 4278934566
0.019475412 -0.015497643 0.42500001 4278868519
0.020904887 -0.015534109 0.42600003 4279328300
0.022393174 -0.015607039 0.42800003 4279195431
0.023894455 -0.015679969 0.43000001 4279257381
0.02540873 -0.015752899 0.43200001 4278202380
0.026998062 -0.015862294 0.43500003 4278723855
0.028606879 -0.015971689 0.43800002 4279052308
0.030372307 -0.016154014 0.44300002 4278459660
0.032098405 -0.016299874 0.44700003 4278263308
0.03377543 -0.016409269 0.45000002 4280177969
0.035550252 -0.01655513 0.45400003 4278202897
0.037187949 -0.01662806 0.45600003 4279323174
0.038923439 -0.016737456 0.45900002 4278994209
0.040590368 -0.016810386 0.46100003 4278928670
0.042270292 -0.016883316 0.46300003 4278402326
0.043868661 -0.016919781 0.46400002 4279191842
0.045571316 -0.016992711 0.46600002 4280705081
0.047185928 -0.017029174 0.46700001 4279060515
0.048807032 -0.017065641 0.46800002 4279652652
0.05043463 -0.017102106 0.46900001 4280965954
0.0056046825 -0.013950695 0.42000002 4280040221
0.0069688428 -0.013950695 0.42000002 4279320859
0.0083131632 -0.01391748 0.41900003 4279124763
0.0096740769 -0.01391748 0.41900003 4279060765
0.011034989 -0.01391748 0.41900003 4278995742
0.012425486 -0.013950695 0.42000002 4278865953
0.01382248 -0.013983912 0.42100003 4278866466
0.015225968 -0.014017127 0.42200002 4278867749
0.016635953 -0.014050343 0.42300001 4279065128
0.018052435 -0.01408356 0.42400002 4278867749
0.019521238 -0.014149992 0.42600003 4279656752
0.020953959 -0.014183206 0.42700002 4279393582
0.022445494 -0.014249639 0.42900002 4279260715
0.023950025 -0.014316071 0.43100002 4280704827
0.025467549 -0.014382503 0.43300003 4278333714
0.027060125 -0.014482151 0.43600002 4278723343
0.02867219 -0.014581798 0.43900001 4280895026
0.030372307 -0.014714662 0.44300002 4280040485
0.032026596 -0.01481431 0.44600001 4278264841
0.033700373 -0.014913958 0.44900003 4279649061
0.03539364 -0.015013605 0.45200002 4278266638
0.037106395 -0.015113253 0.45500001 4278927902
0.03883864 -0.015212902 0.45800003 4278862623
0.040502317 -0.015279333 0.46000001 4280047149
0.042178992 -0.015345764 0.46200001 4278599189
0.043868661 -0.015412197 0.46400002 4278200322
0.045473527 -0.015445413 0.46500003 4279650855
0.047185928 -0.015511844 0.46700001 4280047410
0.048807032 -0.015545061 0.46800002 4279060515
0.0042506182 -0.01261604 0.42100003 4279776022
0.0056180274 -0.01261604 0.42100003 4280042272
0.0069688428 -0.012586073 0.42000002 4279058970
0.0083330041 -0.012586073 0.42000002 4278862361
0.0096971644 -0.012586073 0.42000002 4278929179
0.011061325 -0.012586073 0.42000002 4279193121
0.012425486 -0.012586073 0.42000002 4278865953
0.01382248 -0.01261604 0.42100003 4278604064
0.015225968 -0.012646006 0.42200002 4278801956
0.016635953 -0.012675973 0.42300001 4278933542
0.018095011 -0.012735907 0.42500001 4278999335
0.019521238 -0.012765874 0.42600003 4279656752
0.021003032 -0.012825808 0.42800003 4279721264
0.022445494 -0.012855775 0.42900002 4278732835
0.023950025 -0.012915708 0.43100002 4281295682
0.025526363 -0.013005609 0.43400002 4279648807
0.027060125 -0.013065542 0.43600002 4280764210
0.02867219 -0.013155443 0.43900001 4280040487
0.030372307 -0.01327531 0.44300002 4281554237
0.032026596 -0.01336521 0.44600001 4279385119
0.033700373 -0.013455112 0.44900003 4278199817
0.035315339 -0.013515045 0.45100003 4280700979
0.037024844 -0.013604946 0.45400003 4280177453
0.038753837 -0.013694846 0.45700002 4278200322
0.040502317 -0.013784746 0.46000001 4279255838
0.042178992 -0.01384468 0.46200001 4280571696
0.043774117 -0.013874647 0.46300003 4280244266
0.045473527 -0.013934581 0.46500003 4279980840
0.0042607146 -0.011274885 0.42200002 4280039192
0.0056313714 -0.011274885 0.42200002 4279648027
0.0069854357 -0.011248169 0.42100003 4278993947
0.008352845 -0.011248169 0.42100003 4278599189
0.0097202538 -0.011248169 0.42100003 4278929179
0.011087662 -0.011248169 0.42100003 4279193121
0.012455071 -0.011248169 0.42100003 4278931746
0.013855312 -0.011274885 0.42200002 4279063845
0.015225968 -0.011274885 0.42200002 4278867749
0.016675282 -0.011328321 0.42400002 4278867749
0.018095011 -0.011355039 0.42500001 4279328300
0.019521238 -0.011381757 0.42600003 4279195431
0.021003032 -0.011435192 0.42800003 4279787057
0.022497814 -0.011488628 0.43000001 4278203663
0.024005594 -0.011542063 0.43200001 4279846953
0.025526363 -0.011595499 0.43400002 4279515937
0.02712219 -0.011675651 0.43700001 4280172073
0.02867219 -0.011729087 0.43900001 4279381275
0.030372307 -0.011835958 0.44300002 4278920984
0.031954788 -0.011889393 0.44500002 4281226042
0.033625316 -0.011969547 0.44800001 4279121693
0.035237033 -0.012022982 0.45000002 4279121693
0.03694329 -0.012103136 0.45300001 4280177201
0.038669039 -0.012183289 0.45600003 4280046383
0.04041427 -0.012263442 0.45900002 4280112942
0.042087696 -0.012316878 0.46100003 4279915563
0.043774117 -0.012370314 0.46300003 4279256097
0.0042708106 -0.0099272327 0.42300001 4279974426
0.0056447159 -0.0099272327 0.42300001 4279451162
0.0070020277 -0.0099037644 0.42200002 4278862359
0.0083726849 -0.0099037644 0.42200002 4278994459
0.0097202538 -0.009880296 0.42100003 4279061535
0.011087662 -0.009880296 0.42100003 4279127841
0.012455071 -0.009880296 0.42100003 4278800673
0.013855312 -0.0099037644 0.42200002 4278867236
0.015262048 -0.0099272327 0.42300001 4278868003
0.016675282 -0.0099507011 0.42400002 4278999589
0.018095011 -0.0099741695 0.42500001 4279130923
0.019521238 -0.0099976389 0.42600003 4279525168
0.021003032 -0.010044577 0.42800003 4279785773
0.022497814 -0.010091512 0.43000001 4279455014
0.024005594 -0.01013845 0.43200001 4278596373
0.025526363 -0.010185388 0.43400002 4278856211
0.02712219 -0.010255793 0.43700001 4279314199
0.02867219 -0.010302731 0.43900001 4279379992
0.030303748 -0.010373137 0.44200003 4278461457
0.031954788 -0.010443543 0.44500002 4280700725
0.033550262 -0.01049048 0.44700003 4280506936
0.035237033 -0.010560886 0.45000002 4280047412
0.036861736 -0.010607823 0.45200002 4279653422
0.038499437 -0.010654761 0.45400003 4279850031
0.0042809076 -0.0085730823 0.42400002 4279713309
0.0056447159 -0.0085528623 0.42300001 4279255068
0.0070186201 -0.0085528623 0.42300001 4279125531
0.0083726849 -0.0085326433 0.42200002 4278994459
0.0097433422 -0.0085326433 0.42200002 4279258914
0.011113998 -0.0085326433 0.42200002 4279193634
0.012484656 -0.0085326433 0.42200002 4278800673
0.013855312 -0.0085326433 0.42200002 4279064615
0.015262048 -0.0085528623 0.42300001 4278999076
0.016675282 -0.0085730823 0.42400002 4279196455
0.018095011 -0.0085933013 0.42500001 4279196203
0.019521238 -0.0086135212 0.42600003 4279525170
0.021003032 -0.0086539611 0.42800003 4279916594
0.022497814 -0.0086943991 0.43000001 4280046383
0.023950025 -0.0087146191 0.43100002 4278198278
0.025467549 -0.0087550581 0.43300003 4278264589
0.027060125 -0.008815717 0.43600002 4280175153
0.02867219 -0.0088763749 0.43900001 4280637752
0.030303748 -0.0089370338 0.44200003 4280244789
0.031882979 -0.0089774737 0.44400004 4280113203
0.033475202 -0.0090179117 0.44600001 4279850801
0.035158731 -0.0090785706 0.44900003 4279850801
0.036780186 -0.0091190096 0.45100003 4279519271
0.0029037548 -0.0071954625 0.42400002 4280497438
0.0042809076 -0.0071954625 0.42400002 4279780129
0.0056580603 -0.0071954625 0.42400002 4279255068
0.0070186201 -0.0071784919 0.42300001 4278993945
0.0083925249 -0.0071784919 0.42300001 4279191838
0.0097433422 -0.0071615218 0.42200002 4279193375
0.011113998 -0.0071615218 0.42200002 4279193888
0.012484656 -0.0071615218 0.42200002 4278866720
0.013888145 -0.0071784919 0.42300001 4278933283
0.015262048 -0.0071784919 0.42300001 4279065128
0.016675282 -0.0071954625 0.42400002 4279065128
0.018095011 -0.0072124326 0.42500001 4279459375
0.019521238 -0.0072294036 0.42600003 4279327789
0.021003032 -0.0072633442 0.42800003 4280181301
0.022445494 -0.0072803148 0.42900002 4280113203
0.023950025 -0.0073142555 0.43100002 4280113973
0.025467549 -0.0073481966 0.43300003 4279916594
0.027060125 -0.0073991078 0.43600002 4279982900
0.028606879 -0.0074330484 0.43800002 4279785775
0.030303748 -0.0075009302 0.44200003 4279325224
0.033400148 -0.0075518414 0.44500002 4279255332
0.0029037548 -0.0058178436 0.42400002 4280498721
0.0042809076 -0.0058178436 0.42400002 4279451934
0.0056580603 -0.0058178436 0.42400002 4279321631
0.0070186201 -0.005804122 0.42300001 4279059738
0.0083925249 -0.005804122 0.42300001 4279191838
0.0097664297 -0.005804122 0.42300001 4279193375
0.011140334 -0.005804122 0.42300001 4279325474
0.012514239 -0.005804122 0.42300001 4278800927
0.013888145 -0.005804122 0.42300001 4278999076
0.015298129 -0.0058178436 0.42400002 4278933542
0.016675282 -0.0058178436 0.42400002 4279393580
0.018095011 -0.0058315648 0.42500001 4279721775
0.019521238 -0.0058452864 0.42600003 4279787568
0.020953959 -0.0058590076 0.42700002 4278666011
0.022445494 -0.0058864499 0.42900002 4279916594
0.023894455 -0.0059001711 0.43000001 4279654705
0.025349915 -0.0059138928 0.43100002 4279720498
0.026998062 -0.0059687784 0.43500003 4279391533
0.028541565 -0.0059962207 0.43700001 4279061798
0.030303748 -0.0060648276 0.44200003 4280438323
0.0029037548 -0.0044402243 0.42400002 4280172323
0.0042809076 -0.0044402243 0.42400002 4279255836
0.0056580603 -0.0044402243 0.42400002 4279190043
0.0070352126 -0.0044402243 0.42400002 4279257119
0.0083925249 -0.0044297515 0.42300001 4279126047
0.0097664297 -0.0044297515 0.42300001 4279194404
0.011140334 -0.0044297515 0.42300001 4279129892
0.012514239 -0.0044297515 0.42300001 4278340376
0.013888145 -0.0044297515 0.42300001 4278933542
0.015298129 -0.0044402243 0.42400002 4278867749
0.016675282 -0.0044402243 0.42400002 4279525168
0.018095011 -0.0044506961 0.42500001 4279393582
0.019521238 -0.0044611688 0.42600003 4279194920
0.020953959 -0.0044716406 0.42700002 4279917359
0.022393174 -0.0044821128 0.42800003 4279785773
0.023838889 -0.0044925851 0.42900002 4279257894
0.025291096 -0.0045030573 0.43000001 4279322662
0.0015230015 -0.0030553816 0.42300001 4280368934
0.0028969061 -0.0030553816 0.42300001 4279779361
0.0042809076 -0.0030626049 0.42400002 4279386652
0.0056580603 -0.0030626049 0.42400002 4279386652
0.0070186201 -0.0030553816 0.42300001 4279783461
0.0083925249 -0.0030553816 0.42300001 4279323937
0.0097664297 -0.0030553816 0.42300001 4278997025
0.011140334 -0.0030553816 0.42300001 4279195172
0.012514239 -0.0030553816 0.42300001 4278999076
0.013888145 -0.0030553816 0.42300001 4279131175
0.015262048 -0.0030553816 0.42300001 4278999335
0.016675282 -0.0030626049 0.42400002 4278999335
0.018095011 -0.0030698278 0.42500001 4279261224
0.019475412 -0.0030698278 0.42500001 4279523885
0.020953959 -0.0030842742 0.42700002 4279452963
0.0028969061 -0.0016810115 0.42300001 4280041770
0.0042708106 -0.0016810115 0.42300001 4278989847
0.0056447159 -0.0016810115 0.42300001 4279648291
0.0070186201 -0.0016810115 0.42300001 4279255838
0.0083925249 -0.0016810115 0.42300001 4279586598
0.0097664297 -0.0016810115 0.42300001 4279325992
0.011140334 -0.0016810115 0.42300001 4279326506
0.012514239 -0.0016810115 0.42300001 4279261226
0.013888145 -0.0016810115 0.42300001 4279195433
0.015262048 -0.0016810115 0.42300001 4278931748
0.016675282 -0.0016849856 0.42400002 4278667294
0.018052435 -0.0016849856 0.42400002 4281096768
0.0097664297 -0.00030664125 0.42300001 4279781678
0.011140334 -0.00030664125 0.42300001 4279650605
0.012514239 -0.00030664125 0.42300001 4280176688
0.013888145 -0.00030664125 0.42300001 4282676052
0.024820657 -0.013717145 0.43774921 4294967295
0.024820657 -0.013717145 0.43774921 4294901760
0.024980484 -0.013243377 0.43774939 4294901760
0.02514031 -0.01276961 0.43774956 4294901760
0.025300136 -0.012295843 0.43774974 4294901760
0.025459964 -0.011822076 0.43774992 4294901760
0.02561979 -0.011348308 0.43775013 4294901760
0.025779616 -0.010874541 0.43775031 4294901760
0.025939442 -0.010400774 0.43775049 4294901760
0.026099268 -0.0099270064 0.43775067 4294901760
0.026259094 -0.0094532389 0.43775085 4294901760
0.026418921 -0.0089794714 0.43775102 4294901760
0.026578749 -0.0085057039 0.4377512 4294901760
0.026738575 -0.0080319364 0.43775138 4294901760
0.026898401 -0.0075581698 0.43775159 4294901760
0.027058227 -0.0070844023 0.43775177 4294901760
0.027218053 -0.0066106343 0.43775195 4294901760
0.027377879 -0.0061368677 0.43775213 4294901760
0.027537707 -0.0056630997 0.43775231 4294901760
0.027697533 -0.0051893322 0.43775249 4294901760
0.027857359 -0.0047155656 0.43775266 4294901760
0.028017186 -0.0042417981 0.43775284 4294901760
0.028177012 -0.0037680315 0.43775305 4294901760
0.028336838 -0.003294263 0.43775323 4294901760
0.028496664 -0.0028204955 0.43775341 4294901760
0.02865649 -0.0023467289 0.43775359 4294901760
0.028816318 -0.0018729614 0.43775377 4294901760
0.028976144 -0.0013991948 0.43775395 4294901760
0.02913597 -0.00092542637 0.43775412 4294901760
0.029295797 -0.00045165978 0.4377543 4294901760
0.029455623 2.2107735e-05 0.43775448 4294901760
0.029615451 0.00049587619 0.43775469 4294901760
0.029775277 0.00096964277 0.43775487 4294901760
0.029935103 0.0014434094 0.43775505 4294901760
0.030094929 0.0019171778 0.43775523 4294901760
0.030254755 0.0023909453 0.43775541 4294901760
0.030414581 0.002864711 0.43775558 4294901760
0.030574407 0.0033384804 0.43775576 4294901760
0.030734234 0.003812246 0.43775594 4294901760
0.030894062 0.0042860135 0.43775615 4294901760
0.031053888 0.0047597811 0.43775633 4294901760
0.031213714 0.0052335486 0.43775651 4294901760
0.031373538 0.0057073161 0.43775669 4294901760
0.031533368 0.0061810818 0.43775687 4294901760
0.031693194 0.0066548511 0.43775705 4294901760
0.03185302 0.0071286187 0.43775722 4294901760
0.032012846 0.0076023843 0.4377574 4294901760
0.032172672 0.0080761537 0.43775761 4294901760
0.032332499 0.0085499194 0.43775779 4294901760
0.032492325 0.0090236869 0.43775797 4294901760
0.032652151 0.0094974544 0.43775815 4294901760
0.032811977 0.0099712219 0.43775833 4294901760
0.032971803 0.010444989 0.43775851 4294901760
0.033131629 0.010918755 0.43775868 4294901760
0.033291455 0.011392523 0.43775886 4294901760
0.033451285 0.011866292 0.43775904 4294901760
0.033611111 0.01234006 0.43775925 4294901760
0.033770937 0.012813825 0.43775943 4294901760
0.033930764 0.013287593 0.43775961 4294901760
0.03409059 0.01376136 0.43775979 4294901760
0.034250416 0.014235126 0.43775997 4294901760
0.034410242 0.014708897 0.43776014 4294901760
0.034570068 0.015182663 0.43776032 4294901760
0.034729894 0.01565643 0.4377605 4294901760
0.03488972 0.016130198 0.43776071 4294901760
0.035049547 0.016603963 0.43776089 4294901760
0.035209373 0.017077731 0.43776107 4294901760
0.035369202 0.0175515 0.43776125 4294901760
0.035529025 0.018025268 0.43776143 4294901760
0.035688855 0.018499035 0.4377616 4294901760
0.035848681 0.018972803 0.43776178 4294901760
0.036008507 0.019446567 0.43776196 4294901760
0.036168333 0.019920334 0.43776217 4294901760
0.036328159 0.020394105 0.43776235 4294901760
0.036487985 0.020867873 0.43776253 4294901760
0.036647812 0.021341637 0.43776271 4294901760
0.036807638 0.021815404 0.43776289 4294901760
0.036967464 0.022289172 0.43776307 4294901760
0.03712729 0.022762939 0.43776324 4294901760
0.037287116 0.023236707 0.43776342 4294901760
0.037446946 0.023710474 0.4377636 4294901760
0.037606768 0.024184242 0.43776381 4294901760
0.037766598 0.024658009 0.43776399 4294901760
0.037926421 0.025131777 0.43776417 4294901760
0.03808625 0.025605544 0.43776435 4294901760
0.038246077 0.026079308 0.43776453 4294901760
0.038405903 0.026553079 0.4377647 4294901760
0.038565729 0.027026847 0.43776488 4294901760
0.038725555 0.027500615 0.43776506 4294901760
0.038885381 0.027974382 0.43776527 4294901760
0.039045207 0.028448146 0.43776545 4294901760
0.039205033 0.028921913 0.43776563 4294901760
0.039364859 0.029395685 0.43776581 4294901760
0.039524689 0.029869452 0.43776599 4294901760
0.039684512 0.030343216 0.43776616 4294901760
0.039844342 0.030816983 0.43776634 4294901760
0.040004164 0.031290751 0.43776652 4294901760
0.040163994 0.031764518 0.43776673 4294901760
0.04032382 0.03223829 0.43776691 4294901760
0.040483646 0.032712054 0.43776709 4294901760
0.040643472 0.033185821 0.43776727 4294901760
0.040803298 0.033659589 0.43776745 4294901760
0.024820657 -0.013717145 0.43774921 4278255360
0.02511894 -0.01381792 0.43813762 4278255360
0.02541722 -0.013918696 0.43852606 4278255360
0.025715502 -0.014019471 0.43891448 4278255360
0.026013782 -0.014120246 0.43930289 4278255360
0.026312064 -0.014221022 0.43969133 4278255360
0.026610345 -0.014321798 0.44007975 4278255360
0.026908627 -0.014422573 0.44046816 4278255360
0.027206909 -0.014523349 0.44085661 4278255360
0.027505189 -0.014624124 0.44124502 4278255360
0.027803471 -0.014724899 0.44163343 4278255360
0.028101753 -0.014825675 0.44202188 4278255360
0.028400034 -0.01492645 0.44241029 4278255360
0.028698316 -0.015027226 0.4427987 4278255360
0.028996596 -0.015128002 0.44318712 4278255360
0.029294878 -0.015228777 0.44357556 4278255360
0.029593159 -0.015329552 0.44396397 4278255360
0.029891441 -0.015430328 0.44435239 4278255360
0.030189723 -0.015531103 0.44474083 4278255360
0.030488003 -0.015631879 0.44512925 4278255360
0.030786285 -0.015732653 0.44551766 4278255360
0.031084565 -0.01583343 0.4459061 4278255360
0.031382848 -0.015934205 0.44629452 4278255360
0.031681128 -0.016034981 0.44668293 4278255360
0.031979412 -0.016135756 0.44707137 4278255360
0.032277692 -0.016236532 0.44745979 4278255360
0.032575972 -0.016337307 0.4478482 4278255360
0.032874256 -0.016438082 0.44823664 4278255360
0.033172537 -0.016538858 0.44862506 4278255360
0.033470817 -0.016639633 0.44901347 4278255360
0.033769101 -0.01674041 0.44940192 4278255360
0.034067381 -0.016841184 0.44979033 4278255360
0.034365661 -0.016941959 0.45017874 4278255360
0.034663942 -0.017042736 0.45056719 4278255360
0.034962222 -0.01714351 0.4509556 4278255360
0.035260506 -0.017244287 0.45134401 4278255360
0.035558786 -0.017345062 0.45173246 4278255360
0.035857067 -0.017445838 0.45212087 4278255360
0.036155351 -0.017546613 0.45250928 4278255360
0.036453631 -0.017647387 0.4528977 4278255360
0.036751911 -0.017748164 0.45328614 4278255360
0.037050195 -0.017848939 0.45367455 4278255360
0.037348475 -0.017949715 0.45406297 4278255360
0.037646756 -0.01805049 0.45445141 4278255360
0.03794504 -0.018151265 0.45483983 4278255360
0.03824332 -0.018252041 0.45522824 4278255360
0.0385416 -0.018352816 0.45561668 4278255360
0.03883988 -0.018453592 0.4560051 4278255360
0.039138161 -0.018554367 0.45639351 4278255360
0.039436445 -0.018655144 0.45678195 4278255360
0.039734725 -0.018755918 0.45717037 4278255360
0.040033005 -0.018856693 0.45755878 4278255360
0.040331289 -0.01895747 0.45794722 4278255360
0.040629569 -0.019058244 0.45833564 4278255360
0.04092785 -0.019159021 0.45872405 4278255360
0.041226134 -0.019259796 0.4591125 4278255360
0.041524414 -0.019360572 0.45950091 4278255360
0.041822694 -0.019461347 0.45988932 4278255360
0.042120978 -0.019562121 0.46027777 4278255360
0.042419255 -0.019662898 0.46066618 4278255360
0.042717539 -0.019763673 0.46105459 4278255360
0.043015823 -0.019864449 0.46144304 4278255360
0.043314103 -0.019965224 0.46183145 4278255360
0.043612383 -0.020066001 0.46221986 4278255360
0.043910667 -0.020166775 0.46260828 4278255360
0.044208944 -0.02026755 0.46299672 4278255360
0.044507228 -0.020368326 0.46338513 4278255360
0.044805512 -0.020469101 0.46377355 4278255360
0.045103788 -0.020569876 0.46416199 4278255360
0.045402072 -0.020670652 0.46455041 4278255360
0.045700353 -0.020771427 0.46493882 4278255360
0.045998633 -0.020872204 0.46532726 4278255360
0.046296917 -0.020972978 0.46571568 4278255360
0.046595197 -0.021073755 0.46610409 4278255360
0.046893477 -0.02117453 0.46649253 4278255360
0.047191761 -0.021275304 0.46688095 4278255360
0.047490042 -0.021376081 0.46726936 4278255360
0.047788322 -0.021476856 0.4676578 4278255360
0.048086606 -0.02157763 0.46804622 4278255360
0.048384886 -0.021678407 0.46843463 4278255360
0.048683167 -0.021779183 0.46882308 4278255360
0.04898145 -0.021879958 0.46921149 4278255360
0.049279727 -0.021980733 0.4695999 4278255360
0.049578011 -0.022081509 0.46998835 4278255360
0.049876291 -0.022182284 0.47037676 4278255360
0.050174575 -0.02228306 0.47076517 4278255360
0.050472856 -0.022383835 0.47115362 4278255360
0.050771136 -0.022484612 0.47154203 4278255360
0.051069416 -0.022585386 0.47193044 4278255360
0.0513677 -0.022686161 0.47231889 4278255360
0.05166598 -0.022786938 0.4727073 4278255360
0.051964261 -0.022887714 0.47309572 4278255360
0.052262545 -0.022988487 0.47348416 4278255360
0.052560825 -0.023089264 0.47387257 4278255360
0.052859105 -0.02319004 0.47426099 4278255360
0.053157389 -0.023290815 0.4746494 4278255360
0.053455666 -0.02339159 0.47503784 4278255360
0.05375395 -0.023492366 0.47542626 4278255360
0.054052234 -0.023593143 0.47581467 4278255360
0.054350514 -0.023693915 0.47620311 4278255360
0.054648794 -0.023794692 0.47659153 4278255360
0.024820657 -0.013717145 0.43774921 4278190335
0.025217311 -0.013850851 0.43747574 4278190335
0.025613965 -0.013984558 0.43720224 4278190335
0.026010618 -0.014118264 0.43692878 4278190335
0.026407272 -0.014251972 0.43665531 4278190335
0.026803926 -0.014385678 0.43638185 4278190335
0.02720058 -0.014519384 0.43610835 4278190335
0.027597234 -0.014653091 0.43583488 4278190335
0.027993888 -0.014786798 0.43556142 4278190335
0.028390542 -0.014920505 0.43528792 4278190335
0.028787196 -0.015054211 0.43501446 4278190335
0.029183848 -0.015187917 0.43474099 4278190335
0.029580502 -0.015321624 0.43446752 4278190335
0.029977156 -0.015455331 0.43419403 4278190335
0.03037381 -0.015589038 0.43392056 4278190335
0.030770464 -0.015722744 0.4336471 4278190335
0.031167116 -0.01585645 0.4333736 4278190335
0.03156377 -0.015990157 0.43310013 4278190335
0.031960424 -0.016123865 0.43282667 4278190335
0.032357078 -0.016257571 0.43255317 4278190335
0.032753732 -0.016391277 0.43227971 4278190335
0.033150386 -0.016524984 0.43200624 4278190335
0.03354704 -0.01665869 0.43173277 4278190335
0.033943694 -0.016792398 0.43145928 4278190335
0.034340344 -0.016926104 0.43118581 4278190335
0.034736998 -0.01705981 0.43091235 4278190335
0.035133652 -0.017193517 0.43063885 4278190335
0.035530306 -0.017327223 0.43036538 4278190335
0.03592696 -0.017460931 0.43009192 4278190335
0.036323614 -0.017594637 0.42981845 4278190335
0.036720268 -0.017728344 0.42954496 4278190335
0.037116922 -0.01786205 0.42927149 4278190335
0.037513576 -0.017995756 0.42899802 4278190335
0.03791023 -0.018129464 0.42872453 4278190335
0.038306884 -0.01826317 0.42845106 4278190335
0.038703538 -0.018396877 0.4281776 4278190335
0.039100192 -0.018530583 0.42790413 4278190335
0.039496846 -0.018664289 0.42763063 4278190335
0.039893501 -0.018797997 0.42735717 4278190335
0.040290151 -0.018931704 0.4270837 4278190335
0.040686809 -0.01906541 0.4268102 4278190335
0.041083459 -0.019199116 0.42653674 4278190335
0.041480113 -0.019332822 0.42626327 4278190335
0.041876767 -0.019466531 0.42598981 4278190335
0.042273421 -0.019600237 0.42571631 4278190335
0.042670075 -0.019733943 0.42544284 4278190335
0.043066729 -0.019867649 0.42516938 4278190335
0.043463379 -0.020001356 0.42489588 4278190335
0.043860033 -0.020135064 0.42462242 4278190335
0.044256687 -0.02026877 0.42434895 4278190335
0.044653341 -0.020402476 0.42407548 4278190335
0.045049995 -0.020536182 0.42380199 4278190335
0.045446649 -0.020669889 0.42352852 4278190335
0.045843303 -0.020803597 0.42325506 4278190335
0.046239957 -0.020937303 0.42298156 4278190335
0.046636611 -0.021071009 0.42270809 4278190335
0.047033265 -0.021204716 0.42243463 4278190335
0.047429919 -0.021338422 0.42216113 4278190335
0.047826573 -0.02147213 0.42188767 4278190335
0.048223227 -0.021605834 0.4216142 4278190335
0.048619881 -0.021739542 0.42134073 4278190335
0.049016535 -0.021873251 0.42106724 4278190335
0.049413189 -0.022006955 0.42079377 4278190335
0.049809843 -0.022140663 0.42052031 4278190335
0.050206494 -0.022274368 0.42024681 4278190335
0.050603148 -0.022408076 0.41997334 4278190335
0.050999805 -0.022541784 0.41969988 4278190335
0.051396459 -0.022675488 0.41942641 4278190335
0.05179311 -0.022809196 0.41915292 4278190335
0.052189764 -0.022942903 0.41887945 4278190335
0.052586418 -0.023076609 0.41860598 4278190335
0.052983068 -0.023210315 0.41833249 4278190335
0.053379726 -0.023344021 0.41805902 4278190335
0.05377638 -0.023477729 0.41778556 4278190335
0.05417303 -0.023611436 0.41751206 4278190335
0.054569684 -0.023745142 0.41723859 4278190335
0.054966338 -0.023878848 0.41696513 4278190335
0.055362992 -0.024012554 0.41669166 4278190335
0.055759646 -0.024146263 0.41641816 4278190335
0.0561563 -0.024279969 0.4161447 4278190335
0.056552954 -0.024413675 0.41587123 4278190335
0.056949608 -0.024547381 0.41559774 4278190335
0.057346262 -0.024681088 0.41532427 4278190335
0.057742916 -0.024814796 0.4150508 4278190335
0.05813957 -0.0249485 0.41477734 4278190335
0.058536224 -0.025082208 0.41450384 4278190335
0.058932878 -0.025215916 0.41423038 4278190335
0.059329532 -0.025349621 0.41395691 4278190335
0.059726186 -0.025483329 0.41368341 4278190335
0.06012284 -0.025617033 0.41340995 4278190335
0.060519494 -0.025750741 0.41313648 4278190335
0.060916148 -0.025884449 0.41286302 4278190335
0.061312802 -0.026018154 0.41258952 4278190335
0.061709456 -0.026151862 0.41231605 4278190335
0.062106103 -0.026285568 0.41204259 4278190335
0.062502757 -0.026419275 0.41176909 4278190335
0.062899411 -0.026552981 0.41149563 4278190335
0.063296072 -0.026686687 0.41122216 4278190335
0.063692719 -0.026820395 0.41094869 4278190335
0.064089373 -0.026954101 0.4106752 4278190335
0.064486027 -0.027087808 0.41040173 4278190335
0.024820657 -0.013717145 0.43774921 4294967295
0.022440735 -0.012914905 0.43939006 4294967295
0.020060813 -0.012112665 0.44103089 4294967295
0.017680891 -0.011310426 0.44267175 4294967295
0.01530097 -0.010508186 0.4443126 4294967295
0.012921047 -0.0097059458 0.44595346 4294967295
0.010541126 -0.0089037064 0.44759429 4294967295
0.0081612039 -0.008101467 0.44923514 4294967295
0.0057812817 -0.0072992272 0.450876 4294967295
0.0034013595 -0.0064969873 0.45251685 4294967295
0.0010214373 -0.0056947479 0.45415768 4294967295
-0.0013584848 -0.0048925085 0.45579854 4294967295
-0.0037384052 -0.0040902682 0.45743939 4294967295
-0.0061183274 -0.0032880288 0.45908025 4294967295
-0.0084982496 -0.0024857884 0.46072108 4294967295
-0.010878174 -0.001683549 0.46236193 4294967295
-0.013258094 -0.00088130962 0.46400279 4294967295
-0.015638018 -7.9069287e-05 0.46564364 4294967295
-0.018017938 0.00072317012 0.46728447 4294967295
-0.020397859 0.0015254095 0.46892533 4294967295
-0.022777783 0.0023276489 0.47056618 4294967295
-0.025157703 0.0031298883 0.47220701 4294967295
-0.027537627 0.0039321277 0.47384787 4294967295
-0.029917547 0.004734369 0.47548872 4294967295
-0.03229747 0.0055366084 0.47712958 4294967295
-0.034677394 0.0063388478 0.47877043 4294967295
-0.03705731 0.0071410872 0.48041126 4294967295
-0.039437242 0.0079433285 0.48205212 4294967295
-0.041817158 0.0087455679 0.48369297 4294967295
-0.044197083 0.0095478054 0.4853338 4294967295
-0.046577007 0.010350047 0.48697466 4294967295
-0.048956923 0.011152286 0.48861551 4294967295
-0.051336847 0.011954525 0.49025637 4294967295
-0.053716771 0.012756767 0.49189723 4294967295
-0.056096695 0.013559006 0.49353805 4294967295
-0.058476612 0.014361244 0.49517891 4294967295
-0.060856536 0.015163485 0.49681976 4294967295
-0.06323646 0.015965724 0.49846059 4294967295
-0.065616377 0.016767964 0.50010145 4294967295
-0.067996301 0.017570201 0.5017423 4294967295
-0.070376225 0.018372443 0.50338316 4294967295
-0.072756141 0.019174684 0.50502402 4294967295
-0.075136065 0.019976921 0.50666487 4294967295
-0.07751599 0.020779163 0.50830567 4294967295
-0.079895914 0.0215814 0.50994653 4294967295
-0.08227583 0.022383641 0.51158738 4294967295
-0.084655754 0.023185883 0.51322824 4294967295
-0.087035678 0.02398812 0.51486909 4294967295
-0.089415595 0.024790362 0.51650995 4294967295
-0.091795526 0.025592603 0.51815081 4294967295
-0.094175443 0.02639484 0.5197916 4294967295
-0.09655536 0.027197078 0.52143246 4294967295
-0.098935284 0.027999319 0.52307332 4294967295
-0.1013152 0.028801557 0.52471417 4294967295
-0.10369514 0.029603802 0.52635503 4294967295
-0.10607505 0.030406039 0.52799588 4294967295
-0.10845497 0.03120828 0.52963674 4294967295
-0.1108349 0.032010518 0.5312776 4294967295
-0.11321482 0.032812756 0.53291839 4294967295
-0.11559473 0.033614997 0.53455925 4294967295
-0.11797467 0.034417238 0.53620011 4294967295
-0.12035459 0.035219479 0.53784096 4294967295
-0.1227345 0.036021717 0.53948182 4294967295
-0.12511443 0.036823954 0.54112267 4294967295
-0.12749435 0.037626196 0.54276353 4294967295
-0.12987427 0.038428433 0.54440439 4294967295
-0.1322542 0.039230678 0.54604518 4294967295
-0.13463412 0.040032916 0.54768604 4294967295
-0.13701405 0.040835157 0.5493269 4294967295
-0.13939396 0.041637395 0.55096775 4294967295
-0.14177388 0.042439632 0.55260861 4294967295
-0.1441538 0.043241873 0.55424947 4294967295
-0.14653373 0.044044115 0.55589032 4294967295
-0.14891365 0.044846356 0.55753118 4294967295
-0.15129358 0.045648593 0.55917197 4294967295
-0.1536735 0.046450831 0.56081283 4294967295
-0.15605341 0.047253072 0.56245369 4294967295
-0.15843333 0.04805531 0.56409454 4294967295
-0.16081326 0.048857547 0.5657354 4294967295
-0.16319318 0.049659796 0.56737626 4294967295
-0.16557311 0.05046203 0.56901711 4294967295
-0.16795303 0.051264271 0.57065797 4294967295
-0.17033294 0.052066512 0.57229877 4294967295
-0.17271286 0.052868746 0.57393962 4294967295
-0.17509279 0.053670987 0.57558048 4294967295
-0.17747271 0.054473229 0.57722133 4294967295
-0.17985263 0.05527547 0.57886219 4294967295
-0.18223256 0.056077711 0.58050305 4294967295
-0.18461248 0.056879945 0.5821439 4294967295
-0.18699239 0.057682186 0.5837847 4294967295
-0.18937232 0.058484428 0.58542556 4294967295
-0.19175225 0.059286669 0.58706641 4294967295
-0.19413216 0.06008891 0.58870727 4294967295
-0.19651209 0.060891151 0.59034812 4294967295
-0.19889201 0.061693385 0.59198898 4294967295
-0.20127194 0.062495627 0.59362984 4294967295
-0.20365185 0.063297868 0.59527063 4294967295
-0.20603178 0.064100109 0.59691155 4294967295
-0.20841171 0.06490235 0.59855235 4294967295
-0.21079162 0.065704584 0.6001932 4294967295
-0.21317154 0.066506825 0.60183406 4294967295
