# .PCD v0.7 - Point Cloud Data file format
VERSION 0.7
FIELDS x y z rgb
SIZE 4 4 4 4
TYPE F F F U
COUNT 1 1 1 1
WIDTH 561
HEIGHT 1
VIEWPOINT 0 0 0 1 0 0 0
POINTS 561
DATA ascii
0.026423015 0.065033086 0.324 4280891694
0.027475368 0.066085801 0.324 4281154352
0.027475368 0.067138501 0.324 4281286452
0.042078033 0.066931292 0.32300001 4281944382
0.044313006 0.067138501 0.324 4282009915
0.028439673 0.067980751 0.32300001 4280826155
0.02939748 0.068816498 0.32200003 4281219886
0.042208303 0.069243923 0.324 4281878327
0.043260656 0.069243923 0.324 4282140984
0.044449776 0.069457643 0.32500002 4281416745
0.030443339 0.069862708 0.32200003 4281088561
0.042208303 0.07029663 0.324 4282009402
0.043260656 0.07029663 0.324 4281482284
0.053452186 0.069862708 0.32200003 4281219884
0.030443339 0.070908919 0.32200003 4281022515
0.031489193 0.070908919 0.32200003 4281154101
0.032535054 0.070908919 0.32200003 4280955940
0.042208303 0.071349345 0.324 4282008117
0.052569076 0.071129136 0.32300001 4281088809
0.031489193 0.07195513 0.32200003 4280628271
0.032535054 0.07195513 0.32200003 4281089075
0.033685196 0.072178587 0.32300001 4280891694
0.034734298 0.072178587 0.32300001 4280824358
0.041155949 0.072402053 0.324 4282468920
0.042208303 0.072402053 0.324 4281284392
0.053057332 0.072848976 0.32600001 4281219884
0.033685196 0.073228054 0.32300001 4281154615
0.034734298 0.073228054 0.32300001 4280825903
0.035783406 0.073228054 0.32300001 4280562731
0.036832508 0.073228054 0.32300001 4280562215
0.041155949 0.07345476 0.324 4280824356
0.051998485 0.073908187 0.32600001 4281154093
0.035894189 0.074507467 0.324 4281023282
0.036946539 0.074507467 0.324 4281023282
0.037998892 0.074507467 0.324 4280891696
0.039051246 0.074507467 0.324 4281614905
0.050939638 0.074967392 0.32600001 4280955690
0.051998485 0.074967392 0.32600001 4280758311
0.034841835 0.075560182 0.324 4281944122
0.035894189 0.075560182 0.324 4282009915
0.036946539 0.075560182 0.324 4281944636
0.037998892 0.075560182 0.324 4282010175
0.039051246 0.075560182 0.324 4282075454
0.039979823 0.075326972 0.32300001 4281943868
0.041028924 0.075326972 0.32300001 4281220145
0.042078033 0.075326972 0.32300001 4280957227
0.043260656 0.075560182 0.324 4280694055
0.044449776 0.075793393 0.32500002 4280759594
0.045645393 0.076026604 0.32600001 4280561702
0.050939638 0.076026604 0.32600001 4281088046
0.050243936 0.073461294 0.31500003 4280429346
0.051267058 0.073461294 0.31500003 4280494626
0.052290183 0.073461294 0.31500003 4281219116
0.037998892 0.076612882 0.324 4281088561
0.039051246 0.076612882 0.324 4281285940
0.039979823 0.076376431 0.32300001 4281614905
0.041028924 0.076376431 0.32300001 4281747003
0.042078033 0.076376431 0.32300001 4281549624
0.043260656 0.076612882 0.324 4281022768
0.044449776 0.076849349 0.32500002 4280824876
0.045645393 0.077085808 0.32600001 4280759083
0.046704244 0.077085808 0.32600001 4280693290
0.047763094 0.077085808 0.32600001 4280496424
0.048821937 0.077085808 0.32600001 4280956973
0.050243936 0.074484758 0.31500003 4280429600
0.051267058 0.074484758 0.31500003 4280560673
0.049220819 0.075508229 0.31500003 4280496676
0.050243936 0.075508229 0.31500003 4280429087
0.051267058 0.075508229 0.31500003 4280494880
0.052290183 0.075508229 0.31500003 4281615407
0.0533133 0.075508229 0.31500003 4280631590
0.054336421 0.075508229 0.31500003 4280042020
0.051267058 0.076531693 0.31500003 4280824356
0.052290183 0.076531693 0.31500003 4280304422
0.0533133 0.076531693 0.31500003 4279911715
0.052290183 0.077555157 0.31500003 4279583779
0.049220819 0.078578629 0.31500003 4281088813
0.050243936 0.078578629 0.31500003 4280565286
0.051267058 0.078578629 0.31500003 4279909918
0.052290183 0.078578629 0.31500003 4279255838
0.049220819 0.079602093 0.31500003 4280825639
0.050243936 0.079602093 0.31500003 4280173354
0.051267058 0.079602093 0.31500003 4279320094
0.052290183 0.079602093 0.31500003 4279058970
0.049064562 0.080369607 0.31400001 4280761130
0.050084431 0.080369607 0.31400001 4279648291
0.051104303 0.080369607 0.31400001 4279124252
0.052124176 0.080369607 0.31400001 4278993179
0.049064562 0.081389822 0.31400001 4280369450
0.050084431 0.081389822 0.31400001 4279453217
0.051104303 0.081389822 0.31400001 4278993177
0.052124176 0.081389822 0.31400001 4279190556
0.048908304 0.082147583 0.31300002 4280042533
0.049924929 0.082147583 0.31300002 4279124765
0.050941553 0.082147583 0.31300002 4279387935
0.051958181 0.082147583 0.31300002 4279190556
0.052974802 0.082147583 0.31300002 4279453728
0.048752047 0.082898855 0.31200001 4279386141
0.049765419 0.082898855 0.31200001 4279190556
0.050778799 0.082898855 0.31200001 4279387935
0.051958181 0.083164558 0.31300002 4278927384
0.048595794 0.08364363 0.31100002 4279320348
0.049605917 0.08364363 0.31100002 4279257117
0.050616048 0.08364363 0.31100002 4279322910
0.051792175 0.083912574 0.31200001 4279059740
0.047585662 0.0846541 0.31100002 4280305446
0.048595794 0.0846541 0.31100002 4279780897
0.049605917 0.0846541 0.31100002 4279322910
0.050616048 0.0846541 0.31100002 4279389217
0.046425767 0.085389122 0.31 4280567594
0.048439533 0.085389122 0.31 4279912483
0.049446411 0.085389122 0.31 4279323424
0.05045329 0.085389122 0.31 4279981869
0.049446411 0.086396337 0.31 4279913764
0.05045329 0.086396337 0.31 4279848486
0.049446411 0.087403558 0.31 4280307239
0.05045329 0.087403558 0.31 4279716385
0.051294174 0.087121613 0.30900002 4286229126
0.052297805 0.087121613 0.30900002 4280240426
0.053301439 0.087121613 0.30900002 4279649574
0.05045329 0.08841078 0.31 4280110373
0.051294174 0.088125587 0.30900002 4279979561
0.052297805 0.088125587 0.30900002 4283005017
0.053301439 0.088125587 0.30900002 4279715367
0.054305073 0.088125587 0.30900002 4279452447
0.055308707 0.088125587 0.30900002 4279649826
0.056312338 0.088125587 0.30900002 4280043301
0.051294174 0.08912956 0.30900002 4279716900
0.052297805 0.08912956 0.30900002 4280045865
0.053301439 0.08912956 0.30900002 4280111147
0.054305073 0.08912956 0.30900002 4279519523
0.055129718 0.088841125 0.30800003 4279125535
0.056130096 0.088841125 0.30800003 4279322912
0.057130482 0.088841125 0.30800003 4279912996
0.058130872 0.088841125 0.30800003 4279911461
0.052297805 0.090133525 0.30900002 4279782180
0.053301439 0.090133525 0.30900002 4279519519
0.054129332 0.089841835 0.30800003 4279586082
0.055129718 0.089841835 0.30800003 4279257633
0.056130096 0.089841835 0.30800003 4279191838
0.057130482 0.089841835 0.30800003 4279257117
0.058130872 0.089841835 0.30800003 4279256349
0.058939263 0.089550138 0.30700001 4279781158
0.053301439 0.091137506 0.30900002 4280241961
0.054129332 0.090842567 0.30800003 4279454498
0.055129718 0.090842567 0.30800003 4279192351
0.056130096 0.090842567 0.30800003 4279258144
0.057130482 0.090842567 0.30800003 4279126560
0.05794213 0.090547614 0.30700001 4278863388
0.058939263 0.090547614 0.30700001 4279125535
0.059936401 0.090547614 0.30700001 4279848488
0.060735062 0.090252675 0.30600002 4280042533
0.054129332 0.091843292 0.30800003 4280570928
0.055129718 0.091843292 0.30800003 4279717670
0.056130096 0.091843292 0.30800003 4279191840
0.056944992 0.09154509 0.30700001 4279323426
0.05794213 0.09154509 0.30700001 4279192353
0.058939263 0.09154509 0.30700001 4278797595
0.059741173 0.091246903 0.30600002 4279126049
0.060735062 0.091246903 0.30600002 4279781412
0.061728947 0.091246903 0.30600002 4279912485
0.056130096 0.092844017 0.30800003 4279519010
0.056944992 0.092542566 0.30700001 4279454498
0.05794213 0.092542566 0.30700001 4279125533
0.05874728 0.092241131 0.30600002 4279388705
0.059741173 0.092241131 0.30600002 4279454498
0.060735062 0.092241131 0.30600002 4279387935
0.061728947 0.092241131 0.30600002 4279453215
0.062517859 0.091939688 0.30500001 4279584033
0.063508496 0.091939688 0.30500001 4279715619
0.056130096 0.093844734 0.30800003 4280504881
0.056944992 0.093540035 0.30700001 4280242733
0.05794213 0.093540035 0.30700001 4279585316
0.05874728 0.093235351 0.30600002 4279322914
0.059741173 0.093235351 0.30600002 4279257121
0.060735062 0.093235351 0.30600002 4279454498
0.061527215 0.092930652 0.30500001 4279453728
0.062517859 0.092930652 0.30500001 4279387937
0.063508496 0.092930652 0.30500001 4279519523
0.06449914 0.092930652 0.30500001 4279847205
0.05794213 0.094537511 0.30700001 4280373295
0.059741173 0.094229579 0.30600002 4279650594
0.060735062 0.094229579 0.30600002 4279584801
0.061527215 0.093921632 0.30500001 4279519521
0.062517859 0.093921632 0.30500001 4279387935
0.063508496 0.093921632 0.30500001 4279256349
0.06449914 0.093921632 0.30500001 4279453215
0.065275058 0.093613699 0.30400002 4279649824
0.059741173 0.095223807 0.30600002 4280438827
0.060735062 0.095223807 0.30600002 4279519008
0.061527215 0.094912611 0.30500001 4279388705
0.062517859 0.094912611 0.30500001 4279520291
0.063508496 0.094912611 0.30500001 4279454498
0.06428767 0.094601423 0.30400002 4279388705
0.065275058 0.094601423 0.30400002 4279256351
0.066262454 0.094601423 0.30400002 4279519269
0.067249849 0.094601423 0.30400002 4279650344
0.060735062 0.096218035 0.30600002 4280438057
0.061527215 0.09590359 0.30500001 4280176938
0.062517859 0.09590359 0.30500001 4279454498
0.063508496 0.09590359 0.30500001 4279388705
0.06428767 0.095589153 0.30400002 4279257633
0.065275058 0.095589153 0.30400002 4279389221
0.066262454 0.095589153 0.30400002 4279520293
0.067028627 0.095274709 0.303 4279059742
0.068012767 0.095274709 0.303 4279912998
0.068996914 0.095274709 0.303 4279714852
0.062517859 0.09689457 0.30500001 4280045613
0.063300274 0.096576884 0.30400002 4279519269
0.06428767 0.096576884 0.30400002 4279322914
0.065275058 0.096576884 0.30400002 4279520293
0.06604448 0.096259192 0.303 4279454500
0.067028627 0.096259192 0.303 4279257121
0.068012767 0.096259192 0.303 4279387937
0.068769202 0.095941506 0.30200002 4279584803
0.0697501 0.095941506 0.30200002 4279780899
0.070730999 0.095941506 0.30200002 4280174119
0.06428767 0.0975646 0.30400002 4279716135
0.065275058 0.0975646 0.30400002 4279519010
0.06604448 0.097243659 0.303 4279651109
0.067028627 0.097243659 0.303 4279716902
0.06778831 0.096922733 0.30200002 4279519521
0.068769202 0.096922733 0.30200002 4279453728
0.0697501 0.096922733 0.30200002 4279585316
0.07049679 0.096601799 0.30100003 4279519523
0.07147444 0.096601799 0.30100003 4279781158
0.06604448 0.098228142 0.303 4279782182
0.067028627 0.098228142 0.303 4279584803
0.06778831 0.097903959 0.30200002 4279519523
0.068769202 0.097903959 0.30200002 4279651109
0.0697501 0.097903959 0.30200002 4279387937
0.07049679 0.097579777 0.30100003 4279453730
0.07147444 0.097579777 0.30100003 4279387937
0.072452091 0.097579777 0.30100003 4279650596
0.073429734 0.097579777 0.30100003 4280108840
0.074407384 0.097579777 0.30100003 4280500520
0.075385034 0.097579777 0.30100003 4284707678
0.06778831 0.098885193 0.30200002 4279584801
0.068769202 0.098885193 0.30200002 4279585314
0.0697501 0.098885193 0.30200002 4279257119
0.07049679 0.098557763 0.30100003 4278993947
0.07147444 0.098557763 0.30100003 4279257121
0.072452091 0.098557763 0.30100003 4279519523
0.073429734 0.098557763 0.30100003 4279452447
0.074407384 0.098557763 0.30100003 4279649826
0.075385034 0.098557763 0.30100003 4280370215
0.068769202 0.09986642 0.30200002 4279913766
0.0697501 0.09986642 0.30200002 4279322912
0.07049679 0.099535741 0.30100003 4279257119
0.07147444 0.099535741 0.30100003 4279388705
0.072452091 0.099535741 0.30100003 4279454498
0.073429734 0.099535741 0.30100003 4279387933
0.074407384 0.099535741 0.30100003 4279453213
0.075385034 0.099535741 0.30100003 4279780897
0.076616377 0.09986642 0.30200002 4280043299
0.077597275 0.09986642 0.30200002 4280500006
0.0697501 0.10084765 0.30200002 4280110375
0.070730999 0.10084765 0.30200002 4279453215
0.07147444 0.10051372 0.30100003 4279519006
0.072452091 0.10051372 0.30100003 4279782178
0.073429734 0.10051372 0.30100003 4279387933
0.074407384 0.10051372 0.30100003 4279387935
0.075635478 0.10084765 0.30200002 4279387935
0.076616377 0.10084765 0.30200002 4279649311
0.077597275 0.10084765 0.30200002 4280109864
0.078578167 0.10084765 0.30200002 4279977254
0.07171189 0.10182887 0.30200002 4279846942
0.072692789 0.10182887 0.30200002 4279846940
0.073673688 0.10182887 0.30200002 4279519260
0.074654587 0.10182887 0.30200002 4279519519
0.075635478 0.10182887 0.30200002 4279388703
0.076616377 0.10182887 0.30200002 4279584799
0.077597275 0.10182887 0.30200002 4279584799
0.078578167 0.10182887 0.30200002 4279584801
0.079295628 0.1014917 0.30100003 4280108840
0.080006585 0.10115451 0.30000001 4280436526
0.080711059 0.10081733 0.29900002 4283326287
0.072692789 0.10281011 0.30200002 4280307493
0.073673688 0.10281011 0.30200002 4279584799
0.074654587 0.10281011 0.30200002 4279387933
0.075635478 0.10281011 0.30200002 4279716900
0.076616377 0.10281011 0.30200002 4279519519
0.077597275 0.10281011 0.30200002 4279387933
0.078578167 0.10281011 0.30200002 4279387933
0.079295628 0.10246968 0.30100003 4279584803
0.080006585 0.10212924 0.30000001 4279781412
0.080711059 0.10178882 0.29900002 4280239912
0.070730999 0.10379133 0.30200002 4280498473
0.073673688 0.10379133 0.30200002 4280307502
0.074654587 0.10379133 0.30200002 4280044584
0.075635478 0.10379133 0.30200002 4279715617
0.076616377 0.10379133 0.30200002 4279584801
0.077597275 0.10379133 0.30200002 4279519008
0.078578167 0.10379133 0.30200002 4279519521
0.079295628 0.10344766 0.30100003 4279453730
0.080273278 0.10344766 0.30100003 4279519008
0.080980986 0.10310397 0.30000001 4279649313
0.081682198 0.1027603 0.29900002 4279978278
0.075635478 0.10477257 0.30200002 4280241450
0.076616377 0.10477257 0.30200002 4279716387
0.077597275 0.10477257 0.30200002 4279650594
0.078578167 0.10477257 0.30200002 4279650596
0.079295628 0.10442565 0.30100003 4279519523
0.080273278 0.10442565 0.30100003 4279651109
0.080980986 0.10407871 0.30000001 4279453215
0.081682198 0.10373178 0.29900002 4279519008
0.08237692 0.10338485 0.29800001 4279781412
0.083065145 0.10303792 0.29700002 4280240680
0.083746873 0.10269099 0.296 4280695850
0.073917635 0.10610396 0.303 4280302114
0.077597275 0.10575379 0.30200002 4279978278
0.078317977 0.10540362 0.30100003 4279452447
0.079295628 0.10540362 0.30100003 4279453730
0.080006585 0.10505343 0.30000001 4279519523
0.080980986 0.10505343 0.30000001 4279387937
0.081682198 0.10470325 0.29900002 4279190558
0.08237692 0.10435308 0.29800001 4279519523
0.083065145 0.1040029 0.29700002 4279716389
0.083746873 0.10365272 0.296 4280109862
0.085380271 0.10330255 0.29500002 4281683263
0.079295628 0.1063816 0.30100003 4279650596
0.080006585 0.10602816 0.30000001 4279650596
0.080980986 0.10602816 0.30000001 4279586084
0.081682198 0.10567474 0.29900002 4279454498
0.08237692 0.10532131 0.29800001 4279454500
0.083065145 0.10496788 0.29700002 4279322914
0.084029801 0.10496788 0.29700002 4279453730
0.084708281 0.10461445 0.296 4279650596
0.085380271 0.10426103 0.29500002 4280305192
0.080006585 0.1070029 0.30000001 4280109864
0.080711059 0.10664622 0.29900002 4279585316
0.081682198 0.10664622 0.29900002 4279520293
0.08237692 0.10628954 0.29800001 4279257121
0.083344825 0.10628954 0.29800001 4279520293
0.084029801 0.10593287 0.29700002 4279257121
0.084708281 0.10557619 0.296 4279453730
0.085669689 0.10557619 0.296 4279781412
0.086338423 0.10521952 0.29500002 4279846692
0.080711059 0.10761771 0.29900002 4280240426
0.081682198 0.10761771 0.29900002 4279715365
0.08237692 0.10725778 0.29800001 4279519010
0.083344825 0.10725778 0.29800001 4279453730
0.084029801 0.10689785 0.29700002 4279453730
0.084994465 0.10689785 0.29700002 4279453217
0.085669689 0.10653792 0.296 4279321631
0.086338423 0.10617801 0.29500002 4279255838
0.087296583 0.10617801 0.29500002 4279912485
0.087656409 0.10545816 0.29300001 4280043047
0.08237692 0.108226 0.29800001 4280372266
0.083344825 0.108226 0.29800001 4279452445
0.084029801 0.10786283 0.29700002 4279584803
0.084994465 0.10786283 0.29700002 4279584803
0.085669689 0.10749965 0.296 4279453730
0.086338423 0.10713648 0.29500002 4279387937
0.087296583 0.10713648 0.29500002 4279519010
0.087656409 0.10641013 0.29300001 4279519010
0.08830566 0.10604696 0.29200003 4279780899
0.089254081 0.10604696 0.29200003 4280305192
0.061912153 0.091276743 0.30789706 4294967295
0.061912153 0.091276743 0.30789706 4294901760
0.061912153 0.091276743 0.30839705 4294901760
0.061912153 0.091276743 0.30889705 4294901760
0.061912153 0.091276743 0.30939707 4294901760
0.061912153 0.091276743 0.30989707 4294901760
0.061912153 0.091276743 0.31039706 4294901760
0.061912153 0.091276743 0.31089705 4294901760
0.061912153 0.091276743 0.31139708 4294901760
0.061912153 0.091276743 0.31189707 4294901760
0.061912153 0.091276743 0.31239706 4294901760
0.061912153 0.091276743 0.31289706 4294901760
0.061912153 0.091276743 0.31339705 4294901760
0.061912153 0.091276743 0.31389707 4294901760
0.061912153 0.091276743 0.31439707 4294901760
0.061912153 0.091276743 0.31489706 4294901760
0.061912153 0.091276743 0.31539705 4294901760
0.061912153 0.091276743 0.31589705 4294901760
0.061912153 0.091276743 0.31639707 4294901760
0.061912153 0.091276743 0.31689706 4294901760
0.061912153 0.091276743 0.31739706 4294901760
0.061912153 0.091276743 0.31789705 4294901760
0.061912153 0.091276743 0.31839707 4294901760
0.061912153 0.091276743 0.31889707 4294901760
0.061912153 0.091276743 0.31939706 4294901760
0.061912153 0.091276743 0.31989706 4294901760
0.061912153 0.091276743 0.32039708 4294901760
0.061912153 0.091276743 0.32089707 4294901760
0.061912153 0.091276743 0.32139707 4294901760
0.061912153 0.091276743 0.32189706 4294901760
0.061912153 0.091276743 0.32239705 4294901760
0.061912153 0.091276743 0.32289708 4294901760
0.061912153 0.091276743 0.32339707 4294901760
0.061912153 0.091276743 0.32389706 4294901760
0.061912153 0.091276743 0.32439706 4294901760
0.061912153 0.091276743 0.32489705 4294901760
0.061912153 0.091276743 0.32539707 4294901760
0.061912153 0.091276743 0.32589707 4294901760
0.061912153 0.091276743 0.32639706 4294901760
0.061912153 0.091276743 0.32689705 4294901760
0.061912153 0.091276743 0.32739708 4294901760
0.061912153 0.091276743 0.32789707 4294901760
0.061912153 0.091276743 0.32839707 4294901760
0.061912153 0.091276743 0.32889706 4294901760
0.061912153 0.091276743 0.32939708 4294901760
0.061912153 0.091276743 0.32989708 4294901760
0.061912153 0.091276743 0.33039707 4294901760
0.061912153 0.091276743 0.33089706 4294901760
0.061912153 0.091276743 0.33139706 4294901760
0.061912153 0.091276743 0.33189708 4294901760
0.061912153 0.091276743 0.33239707 4294901760
0.061912153 0.091276743 0.33289707 4294901760
0.061912153 0.091276743 0.33339706 4294901760
0.061912153 0.091276743 0.33389705 4294901760
0.061912153 0.091276743 0.33439708 4294901760
0.061912153 0.091276743 0.33489707 4294901760
0.061912153 0.091276743 0.33539706 4294901760
0.061912153 0.091276743 0.33589706 4294901760
0.061912153 0.091276743 0.33639705 4294901760
0.061912153 0.091276743 0.33689708 4294901760
0.061912153 0.091276743 0.33739707 4294901760
0.061912153 0.091276743 0.33789706 4294901760
0.061912153 0.091276743 0.33839706 4294901760
0.061912153 0.091276743 0.33889708 4294901760
0.061912153 0.091276743 0.33939707 4294901760
0.061912153 0.091276743 0.33989707 4294901760
0.061912153 0.091276743 0.34039706 4294901760
0.061912153 0.091276743 0.34089708 4294901760
0.061912153 0.091276743 0.34139708 4294901760
0.061912153 0.091276743 0.34189707 4294901760
0.061912153 0.091276743 0.34239706 4294901760
0.061912153 0.091276743 0.34289706 4294901760
0.061912153 0.091276743 0.34339708 4294901760
0.061912153 0.091276743 0.34389707 4294901760
0.061912153 0.091276743 0.34439707 4294901760
0.061912153 0.091276743 0.34489706 4294901760
0.061912153 0.091276743 0.34539706 4294901760
0.061912153 0.091276743 0.34589708 4294901760
0.061912153 0.091276743 0.34639707 4294901760
0.061912153 0.091276743 0.34689707 4294901760
0.061912153 0.091276743 0.34739706 4294901760
0.061912153 0.091276743 0.34789708 4294901760
0.061912153 0.091276743 0.34839708 4294901760
0.061912153 0.091276743 0.34889707 4294901760
0.061912153 0.091276743 0.34939706 4294901760
0.061912153 0.091276743 0.34989706 4294901760
0.061912153 0.091276743 0.35039708 4294901760
0.061912153 0.091276743 0.35089707 4294901760
0.061912153 0.091276743 0.35139707 4294901760
0.061912153 0.091276743 0.35189706 4294901760
0.061912153 0.091276743 0.35239708 4294901760
0.061912153 0.091276743 0.35289708 4294901760
0.061912153 0.091276743 0.35339707 4294901760
0.061912153 0.091276743 0.35389706 4294901760
0.061912153 0.091276743 0.35439706 4294901760
0.061912153 0.091276743 0.35489708 4294901760
0.061912153 0.091276743 0.35539708 4294901760
0.061912153 0.091276743 0.35589707 4294901760
0.061912153 0.091276743 0.35639706 4294901760
0.061912153 0.091276743 0.35689709 4294901760
0.061912153 0.091276743 0.35739708 4294901760
0.061912153 0.091276743 0.35789707 4294901760
0.061912153 0.091276743 0.30789706 4278255360
0.062009457 0.091463469 0.30835056 4278255360
0.062106766 0.091650188 0.30880406 4278255360
0.06220407 0.091836914 0.30925757 4278255360
0.062301379 0.092023633 0.30971107 4278255360
0.062398683 0.09221036 0.31016457 4278255360
0.062495992 0.092397079 0.31061807 4278255360
0.062593296 0.092583805 0.31107157 4278255360
0.062690601 0.092770532 0.31152511 4278255360
0.062787905 0.092957251 0.31197861 4278255360
0.062885217 0.093143977 0.31243211 4278255360
0.062982522 0.093330696 0.31288561 4278255360
0.063079827 0.093517423 0.31333911 4278255360
0.063177131 0.093704149 0.31379262 4278255360
0.063274443 0.093890868 0.31424612 4278255360
0.063371748 0.094077595 0.31469962 4278255360
0.063469052 0.094264314 0.31515312 4278255360
0.063566357 0.09445104 0.31560662 4278255360
0.063663661 0.094637759 0.31606013 4278255360
0.063760974 0.094824485 0.31651363 4278255360
0.063858278 0.095011212 0.31696713 4278255360
0.063955583 0.095197931 0.31742063 4278255360
0.064052887 0.095384657 0.31787416 4278255360
0.064150192 0.095571376 0.31832767 4278255360
0.064247504 0.095758103 0.31878117 4278255360
0.064344808 0.095944822 0.31923467 4278255360
0.064442113 0.096131548 0.31968817 4278255360
0.064539418 0.096318275 0.32014167 4278255360
0.06463673 0.096504994 0.32059518 4278255360
0.064734034 0.09669172 0.32104868 4278255360
0.064831339 0.096878439 0.32150218 4278255360
0.064928643 0.097065166 0.32195568 4278255360
0.065025948 0.097251892 0.32240918 4278255360
0.06512326 0.097438611 0.32286268 4278255360
0.065220565 0.097625338 0.32331619 4278255360
0.065317869 0.097812057 0.32376969 4278255360
0.065415174 0.097998783 0.32422322 4278255360
0.065512478 0.098185509 0.32467672 4278255360
0.06560979 0.098372228 0.32513022 4278255360
0.065707095 0.098558955 0.32558373 4278255360
0.0658044 0.098745674 0.32603723 4278255360
0.065901704 0.0989324 0.32649073 4278255360
0.065999016 0.099119119 0.32694423 4278255360
0.066096321 0.099305846 0.32739773 4278255360
0.066193625 0.099492565 0.32785124 4278255360
0.06629093 0.099679291 0.32830474 4278255360
0.066388234 0.099866018 0.32875824 4278255360
0.066485547 0.10005274 0.32921174 4278255360
0.066582851 0.10023946 0.32966524 4278255360
0.066680156 0.10042618 0.33011875 4278255360
0.06677746 0.10061291 0.33057225 4278255360
0.066874765 0.10079964 0.33102578 4278255360
0.066972077 0.10098635 0.33147928 4278255360
0.067069381 0.10117308 0.33193278 4278255360
0.067166686 0.1013598 0.33238629 4278255360
0.067263991 0.10154653 0.33283979 4278255360
0.067361303 0.10173325 0.33329329 4278255360
0.067458607 0.10191997 0.33374679 4278255360
0.067555912 0.1021067 0.33420029 4278255360
0.067653216 0.10229342 0.33465379 4278255360
0.067750521 0.10248014 0.3351073 4278255360
0.067847833 0.10266686 0.3355608 4278255360
0.067945138 0.10285359 0.3360143 4278255360
0.068042442 0.10304031 0.3364678 4278255360
0.068139747 0.10322703 0.3369213 4278255360
0.068237051 0.10341376 0.33737481 4278255360
0.068334363 0.10360048 0.33782834 4278255360
0.068431668 0.10378721 0.33828184 4278255360
0.068528973 0.10397393 0.33873534 4278255360
0.068626277 0.10416065 0.33918884 4278255360
0.068723589 0.10434738 0.33964235 4278255360
0.068820894 0.1045341 0.34009585 4278255360
0.068918198 0.10472082 0.34054935 4278255360
0.069015503 0.10490754 0.34100285 4278255360
0.069112808 0.10509427 0.34145635 4278255360
0.06921012 0.105281 0.34190986 4278255360
0.069307424 0.10546771 0.34236336 4278255360
0.069404729 0.10565444 0.34281686 4278255360
0.069502033 0.10584116 0.34327036 4278255360
0.069599345 0.10602789 0.34372389 4278255360
0.06969665 0.10621461 0.3441774 4278255360
0.069793954 0.10640133 0.3446309 4278255360
0.069891259 0.10658805 0.3450844 4278255360
0.069988564 0.10677478 0.3455379 4278255360
0.070085868 0.1069615 0.3459914 4278255360
0.07018318 0.10714822 0.3464449 4278255360
0.070280485 0.10733495 0.34689841 4278255360
0.070377789 0.10752167 0.34735191 4278255360
0.070475094 0.10770839 0.34780541 4278255360
0.070572406 0.10789512 0.34825891 4278255360
0.070669711 0.10808184 0.34871241 4278255360
0.070767015 0.10826857 0.34916592 4278255360
0.07086432 0.10845529 0.34961945 4278255360
0.070961624 0.10864201 0.35007292 4278255360
0.071058936 0.10882874 0.35052645 4278255360
0.071156241 0.10901546 0.35097995 4278255360
0.071253546 0.10920218 0.35143346 4278255360
0.07135085 0.1093889 0.35188696 4278255360
0.071448162 0.10957563 0.35234046 4278255360
0.071545467 0.10976236 0.35279396 4278255360
0.071642771 0.10994907 0.35324746 4278255360
