# .PCD v0.7 - Point Cloud Data file format
VERSION 0.7
FIELDS x y z rgb
SIZE 4 4 4 4
TYPE F F F U
COUNT 1 1 1 1
WIDTH 1057
HEIGHT 1
VIEWPOINT 0 0 0 1 0 0 0
POINTS 1057
DATA ascii
0.10216506 0.026419582 0.35700002 4278663699
0.1033246 0.026419582 0.35700002 4278597906
0.10448413 0.026419582 0.35700002 4278597906
0.10564367 0.026419582 0.35700002 4278729492
0.1068032 0.026419582 0.35700002 4278729492
0.10796274 0.026419582 0.35700002 4278795285
0.10912228 0.026419582 0.35700002 4278730005
0.11028182 0.026419582 0.35700002 4278927384
0.11144136 0.026419582 0.35700002 4278730003
0.11260089 0.026419582 0.35700002 4278993429
0.11376042 0.026419582 0.35700002 4279388187
0.11459805 0.026345577 0.35600001 4279190554
0.11575434 0.026345577 0.35600001 4279058970
0.11691063 0.026345577 0.35600001 4279058970
0.11806692 0.026345577 0.35600001 4278993177
0.12686971 0.026493585 0.35800001 4279519010
0.12803249 0.026493585 0.35800001 4279846692
0.12919527 0.026493585 0.35800001 4279843360
0.049510211 0.027965778 0.36200002 4279318297
0.050685991 0.027965778 0.36200002 4278858773
0.05186177 0.027965778 0.36200002 4278464785
0.053037547 0.027965778 0.36200002 4278465298
0.054363079 0.028043032 0.36300001 4278926101
0.055542104 0.028043032 0.36300001 4278795285
0.056721132 0.028043032 0.36300001 4279124250
0.057740647 0.027965778 0.36200002 4279058457
0.058916427 0.027965778 0.36200002 4278992664
0.059926208 0.027888525 0.36100003 4278795285
0.060929481 0.027811272 0.36000001 4278795285
0.061926268 0.027734019 0.35900003 4278860310
0.062916555 0.027656764 0.35800001 4278926103
0.063900352 0.027579511 0.35700002 4278794517
0.064877644 0.027502256 0.35600001 4278794517
0.06603393 0.027502256 0.35600001 4278794517
0.067001484 0.027425004 0.35500002 4278923539
0.068154521 0.027425004 0.35500002 4278524681
0.069112331 0.027347749 0.354 4279119383
0.070262127 0.027347749 0.354 4279253017
0.071411915 0.027347749 0.354 4278198275
0.072356731 0.027270496 0.35300002 4278654470
0.073503278 0.027270496 0.35300002 4278719752
0.074649826 0.027270496 0.35300002 4278588166
0.075796366 0.027270496 0.35300002 4278587912
0.076942913 0.027270496 0.35300002 4278587912
0.078089461 0.027270496 0.35300002 4278719498
0.079236001 0.027270496 0.35300002 4278522632
0.080382548 0.027270496 0.35300002 4278523400
0.081529096 0.027270496 0.35300002 4278458375
0.082675636 0.027270496 0.35300002 4278195459
0.084059633 0.027347749 0.354 4278195972
0.085209429 0.027347749 0.354 4278195712
0.086359218 0.027347749 0.354 4278197254
0.087509014 0.027347749 0.354 4278660369
0.088658802 0.027347749 0.354 4279253017
0.089808591 0.027347749 0.354 4278792466
0.090958387 0.027347749 0.354 4279121431
0.092108183 0.027347749 0.354 4279121431
0.093521424 0.027425004 0.35500002 4279055892
0.094674461 0.027425004 0.35500002 4279121685
0.09609744 0.027502256 0.35600001 4278990613
0.097253717 0.027502256 0.35600001 4278925590
0.09841001 0.027502256 0.35600001 4278859797
0.099845983 0.027579511 0.35700002 4278991383
0.10100552 0.027579511 0.35700002 4278859797
0.10216506 0.027579511 0.35700002 4278925590
0.1033246 0.027579511 0.35700002 4278991381
0.10419145 0.027502256 0.35600001 4279057174
0.10534774 0.027502256 0.35600001 4278859795
0.10650403 0.027502256 0.35600001 4279188760
0.10766032 0.027502256 0.35600001 4278728722
0.10881661 0.027502256 0.35600001 4278860308
0.1099729 0.027502256 0.35600001 4278532113
0.11112919 0.027502256 0.35600001 4278532113
0.11228547 0.027502256 0.35600001 4278728720
0.11344176 0.027502256 0.35600001 4278794513
0.11459805 0.027502256 0.35600001 4278729490
0.11575434 0.027502256 0.35600001 4278992662
0.11691063 0.027502256 0.35600001 4279190041
0.11806692 0.027502256 0.35600001 4279058457
0.11888831 0.027425004 0.35500002 4279058970
0.12004135 0.027425004 0.35500002 4279058970
0.12119439 0.027425004 0.35500002 4279058970
0.12269207 0.027502256 0.35600001 4279124763
0.12384836 0.027502256 0.35600001 4279124763
0.1253558 0.027579511 0.35700002 4278993177
0.12686971 0.027656764 0.35800001 4278927384
0.12803249 0.027656764 0.35800001 4279058970
0.12919527 0.027656764 0.35800001 4279255066
0.13035806 0.027656764 0.35800001 4279451934
0.049646977 0.029222455 0.36300001 4279384090
0.050826006 0.029222455 0.36300001 4278727187
0.05200503 0.029222455 0.36300001 4278661394
0.053184059 0.029222455 0.36300001 4278662677
0.054363079 0.029222455 0.36300001 4278991896
0.055542104 0.029222455 0.36300001 4278926101
0.056721132 0.029222455 0.36300001 4279124250
0.057900153 0.029222455 0.36300001 4279124250
0.059079178 0.029222455 0.36300001 4278861078
0.060092207 0.029141953 0.36200002 4278992664
0.061098732 0.029061452 0.36100003 4278992664
0.062098764 0.028980948 0.36000001 4278795285
0.063092306 0.028900446 0.35900003 4278860310
0.064079344 0.028819943 0.35800001 4278728470
0.065059885 0.028739441 0.35700002 4278860310
0.06603393 0.028658936 0.35600001 4278925590
0.067190222 0.028658936 0.35600001 4278199816
0.068154521 0.028578434 0.35500002 4278394376
0.069307566 0.028578434 0.35500002 4279514908
0.07046061 0.028578434 0.35500002 4279186711
0.071411915 0.028497931 0.354 4278196484
0.072561711 0.028497931 0.354 4278851849
0.0737115 0.028497931 0.354 4278851849
0.074861296 0.028497931 0.354 4278851338
0.075796366 0.028417429 0.35300002 4278785545
0.076942913 0.028417429 0.35300002 4278456326
0.078089461 0.028417429 0.35300002 4278521351
0.079236001 0.028417429 0.35300002 4278456326
0.080610253 0.028497931 0.354 4278719752
0.081760049 0.028497931 0.354 4278719498
0.082909837 0.028497931 0.354 4278719498
0.084059633 0.028497931 0.354 4278587912
0.085209429 0.028497931 0.354 4278785291
0.086359218 0.028497931 0.354 4278588939
0.087509014 0.028497931 0.354 4279446555
0.088658802 0.028497931 0.354 4279975205
0.089808591 0.028497931 0.354 4279777826
0.091215335 0.028578434 0.35500002 4279250969
0.092368379 0.028578434 0.35500002 4278197767
0.093521424 0.028578434 0.35500002 4278196480
0.094674461 0.028578434 0.35500002 4278196224
0.09609744 0.028658936 0.35600001 4278194432
0.097253717 0.028658936 0.35600001 4278197765
0.09841001 0.028658936 0.35600001 4278197250
0.099566296 0.028658936 0.35600001 4278659084
0.10072259 0.028658936 0.35600001 4279055125
0.10187888 0.028658936 0.35600001 4279121431
0.10303517 0.028658936 0.35600001 4279582236
0.10419145 0.028658936 0.35600001 4279187478
0.10534774 0.028658936 0.35600001 4279121685
0.10650403 0.028658936 0.35600001 4278990099
0.10766032 0.028658936 0.35600001 4279122197
0.10881661 0.028658936 0.35600001 4279122197
0.1099729 0.028658936 0.35600001 4279188760
0.11112919 0.028658936 0.35600001 4279057172
0.11228547 0.028658936 0.35600001 4279057174
0.11344176 0.028658936 0.35600001 4278859795
0.11459805 0.028658936 0.35600001 4278925588
0.11575434 0.028658936 0.35600001 4278925588
0.11658224 0.028578434 0.35500002 4279517725
0.11773527 0.028578434 0.35500002 4278925590
0.11888831 0.028578434 0.35500002 4278728724
0.12004135 0.028578434 0.35500002 4278860310
0.12119439 0.028578434 0.35500002 4278662929
0.12269207 0.028658936 0.35600001 4278794515
0.12419625 0.028739441 0.35700002 4278795798
0.1253558 0.028739441 0.35700002 4278927384
0.12686971 0.028819943 0.35800001 4279190556
0.12803249 0.028819943 0.35800001 4279255836
0.12919527 0.028819943 0.35800001 4279190043
0.13035806 0.028819943 0.35800001 4279124250
0.13152085 0.028819943 0.35800001 4280172836
0.049783751 0.030485632 0.36400002 4279449115
0.050966024 0.030485632 0.36400002 4278727187
0.052148297 0.030485632 0.36400002 4278596371
0.053330574 0.030485632 0.36400002 4278795033
0.05451284 0.030485632 0.36400002 4278795033
0.055695117 0.030485632 0.36400002 4278926103
0.05687739 0.030485632 0.36400002 4279320859
0.058059659 0.030485632 0.36400002 4278991894
0.059079178 0.030401878 0.36300001 4278926101
0.060092207 0.030318128 0.36200002 4278795285
0.061098732 0.030234378 0.36100003 4278729492
0.062098764 0.030150624 0.36000001 4278861080
0.063092306 0.030066874 0.35900003 4278663447
0.064079344 0.02998312 0.35800001 4278926103
0.065059885 0.02989937 0.35700002 4278926103
0.066219419 0.02989937 0.35700002 4279056406
0.067190222 0.029815616 0.35600001 4278197507
0.068346508 0.029815616 0.35600001 4278987027
0.069502793 0.029815616 0.35600001 4279121433
0.07046061 0.029731866 0.35500002 4279251482
0.071613647 0.029731866 0.35500002 4278393095
0.072766684 0.029731866 0.35500002 4279641879
0.0737115 0.029648112 0.354 4279182098
0.074861296 0.029648112 0.354 4278984719
0.076011084 0.029648112 0.354 4278654984
0.07716088 0.029648112 0.354 4279840030
0.078310676 0.029648112 0.354 4278654986
0.079460464 0.029648112 0.354 4279511063
0.080610253 0.029648112 0.354 4279379990
0.081760049 0.029648112 0.354 4278721547
0.082909837 0.029648112 0.354 4279510293
0.084297091 0.029731866 0.35500002 4279576086
0.085450135 0.029731866 0.35500002 4279181328
0.086603172 0.029731866 0.35500002 4278260228
0.087756217 0.029731866 0.35500002 4279644957
0.088909253 0.029731866 0.35500002 4279252504
0.090062298 0.029731866 0.35500002 4279120918
0.091215335 0.029731866 0.35500002 4279186711
0.092368379 0.029731866 0.35500002 4279318297
0.093521424 0.029731866 0.35500002 4279252504
0.094674461 0.029731866 0.35500002 4279252504
0.095827505 0.029731866 0.35500002 4279186711
0.097253717 0.029815616 0.35600001 4279251734
0.09841001 0.029815616 0.35600001 4279514906
0.099566296 0.029815616 0.35600001 4279514906
0.10072259 0.029815616 0.35600001 4279448600
0.10187888 0.029815616 0.35600001 4279251221
0.10303517 0.029815616 0.35600001 4278659086
0.10419145 0.029815616 0.35600001 4278395914
0.10534774 0.029815616 0.35600001 4278196224
0.10650403 0.029815616 0.35600001 4278195456
0.10766032 0.029815616 0.35600001 4278196224
0.10881661 0.029815616 0.35600001 4278195968
0.1099729 0.029815616 0.35600001 4278198278
0.11112919 0.029815616 0.35600001 4278527500
0.11228547 0.029815616 0.35600001 4278922771
0.11344176 0.029815616 0.35600001 4279449115
0.11459805 0.029815616 0.35600001 4279712285
0.11542919 0.029731866 0.35500002 4279252758
0.11658224 0.029731866 0.35500002 4279187478
0.11773527 0.029731866 0.35500002 4279121685
0.11888831 0.029731866 0.35500002 4279122199
0.12004135 0.029731866 0.35500002 4279319578
0.12153578 0.029815616 0.35600001 4279057174
0.12269207 0.029815616 0.35600001 4278991381
0.12419625 0.02989937 0.35700002 4278794515
0.1253558 0.02989937 0.35700002 4278860308
0.12686971 0.02998312 0.35800001 4278794515
0.12803249 0.02998312 0.35800001 4278728722
0.12919527 0.02998312 0.35800001 4278860308
0.13035806 0.02998312 0.35800001 4278729492
0.13152085 0.02998312 0.35800001 4279188508
0.048735 0.031755306 0.36500001 4283590740
0.049920518 0.031755306 0.36500001 4279842590
0.051106039 0.031755306 0.36500001 4278661396
0.052291561 0.031755306 0.36500001 4278727187
0.053477082 0.031755306 0.36500001 4278991642
0.0546626 0.031755306 0.36500001 4278860826
0.055848122 0.031755306 0.36500001 4279123482
0.057033643 0.031755306 0.36500001 4279255068
0.058219161 0.031755306 0.36500001 4278991896
0.059241932 0.031668305 0.36400002 4278991896
0.060258206 0.031581301 0.36300001 4278860310
0.061267979 0.031494305 0.36200002 4278860310
0.062098764 0.0313203 0.36000001 4278860310
0.063092306 0.031233301 0.35900003 4278926103
0.064079344 0.031146299 0.35800001 4278794517
0.065242119 0.031146299 0.35800001 4278794517
0.066219419 0.031059299 0.35700002 4278527500
0.067378961 0.031059299 0.35700002 4278393095
0.068346508 0.030972296 0.35600001 4278789648
0.069502793 0.030972296 0.35600001 4278923287
0.070659086 0.030972296 0.35600001 4278593041
0.071613647 0.030885298 0.35500002 4278523146
0.072766684 0.030885298 0.35500002 4278983437
0.073919728 0.030885298 0.35500002 4278654986
0.075072773 0.030885298 0.35500002 4278984721
0.07622581 0.030885298 0.35500002 4278853135
0.07716088 0.030798296 0.354 4278918928
0.078310676 0.030798296 0.354 4278720265
0.079460464 0.030798296 0.354 4279971614
0.080837972 0.030885298 0.35500002 4278392582
0.081991017 0.030885298 0.35500002 4278458377
0.083144054 0.030885298 0.35500002 4279708955
0.084297091 0.030885298 0.35500002 4278195972
0.085450135 0.030885298 0.35500002 4278523400
0.086603172 0.030885298 0.35500002 4278656267
0.087756217 0.030885298 0.35500002 4279317275
0.088909253 0.030885298 0.35500002 4279516189
0.090062298 0.030885298 0.35500002 4278330121
0.091215335 0.030885298 0.35500002 4278459656
0.092368379 0.030885298 0.35500002 4278524679
0.093521424 0.030885298 0.35500002 4278460683
0.094674461 0.030885298 0.35500002 4279053844
0.095827505 0.030885298 0.35500002 4278198275
0.097253717 0.030972296 0.35600001 4278198018
0.09841001 0.030972296 0.35600001 4279383320
0.099566296 0.030972296 0.35600001 4279384090
0.10072259 0.030972296 0.35600001 4278857746
0.10187888 0.030972296 0.35600001 4278726160
0.10303517 0.030972296 0.35600001 4279383320
0.10389878 0.030885298 0.35500002 4279383320
0.10505182 0.030885298 0.35500002 4279515160
0.10620487 0.030885298 0.35500002 4279317781
0.1073579 0.030885298 0.35500002 4279317527
0.10851095 0.030885298 0.35500002 4279317527
0.10966399 0.030885298 0.35500002 4279251734
0.11081703 0.030885298 0.35500002 4279909664
0.11228547 0.030972296 0.35600001 4279843358
0.11344176 0.030972296 0.35600001 4279447830
0.11427615 0.030885298 0.35500002 4278723595
0.11542919 0.030885298 0.35500002 4278328837
0.11658224 0.030885298 0.35500002 4278195968
0.11773527 0.030885298 0.35500002 4278195712
0.11888831 0.030885298 0.35500002 4278195456
0.12004135 0.030885298 0.35500002 4278789902
0.12153578 0.030972296 0.35600001 4279121685
0.12269207 0.030972296 0.35600001 4279253269
0.12419625 0.031059299 0.35700002 4279122197
0.12570693 0.031146299 0.35800001 4279319576
0.12686971 0.031146299 0.35800001 4279188760
0.12803249 0.031146299 0.35800001 4279254553
0.12919527 0.031146299 0.35800001 4278991894
0.13035806 0.031146299 0.35800001 4278860308
0.13152085 0.031146299 0.35800001 4278991129
0.046745032 0.03321198 0.36800003 4283392852
0.047940299 0.03321198 0.36800003 4283327059
0.048868522 0.033031482 0.36600003 4283129678
0.050057288 0.033031482 0.36600003 4282340673
0.051106039 0.03294123 0.36500001 4278726160
0.052291561 0.03294123 0.36500001 4278858773
0.053477082 0.03294123 0.36500001 4278991896
0.0546626 0.03294123 0.36500001 4278926103
0.056001134 0.033031482 0.36600003 4279320861
0.057033643 0.03294123 0.36500001 4279189275
0.058219161 0.03294123 0.36500001 4278991896
0.059241932 0.032850981 0.36400002 4278991896
0.060258206 0.032760728 0.36300001 4278860310
0.061267979 0.032670479 0.36200002 4278860310
0.062271263 0.03258023 0.36100003 4278794517
0.063268043 0.032489982 0.36000001 4278926103
0.064258337 0.032399733 0.35900003 4278991896
0.065242119 0.03230948 0.35800001 4278859797
0.066219419 0.032219231 0.35700002 4278923541
0.067378961 0.032219231 0.35700002 4279250969
0.068538494 0.032219231 0.35700002 4279317275
0.069502793 0.032128979 0.35600001 4279186459
0.070659086 0.032128979 0.35600001 4278789136
0.071815372 0.032128979 0.35600001 4278719498
0.072971664 0.032128979 0.35600001 4278719498
0.073919728 0.03203873 0.35500002 4278850314
0.075072773 0.03203873 0.35500002 4278719498
0.07622581 0.03203873 0.35500002 4278785291
0.077378854 0.03203873 0.35500002 4278785293
0.078531891 0.03203873 0.35500002 4278719498
0.079684928 0.03203873 0.35500002 4278719498
0.080837972 0.03203873 0.35500002 4278719752
0.081991017 0.03203873 0.35500002 4278524170
0.083144054 0.03203873 0.35500002 4278327304
0.084297091 0.03203873 0.35500002 4278589963
0.085450135 0.03203873 0.35500002 4278654986
0.086603172 0.03203873 0.35500002 4279776031
0.088003412 0.032128979 0.35600001 4279252506
0.089159697 0.032128979 0.35600001 4278592523
0.09031599 0.032128979 0.35600001 4278458377
0.091215335 0.03203873 0.35500002 4278720779
0.092368379 0.03203873 0.35500002 4278852111
0.093521424 0.03203873 0.35500002 4278195717
0.094941147 0.032128979 0.35600001 4278195714
0.09609744 0.032128979 0.35600001 4279251734
0.097253717 0.032128979 0.35600001 4279646492
0.09841001 0.032128979 0.35600001 4278197763
0.099566296 0.032128979 0.35600001 4278197251
0.10072259 0.032128979 0.35600001 4279514393
0.10187888 0.032128979 0.35600001 4279580186
0.10274575 0.03203873 0.35500002 4278593291
0.10389878 0.03203873 0.35500002 4279119637
0.10505182 0.03203873 0.35500002 4279252758
0.10620487 0.03203873 0.35500002 4279121170
0.1073579 0.03203873 0.35500002 4279121170
0.10851095 0.03203873 0.35500002 4279186963
0.10966399 0.03203873 0.35500002 4279186963
0.11081703 0.03203873 0.35500002 4279515928
0.11197007 0.03203873 0.35500002 4279318551
0.1131231 0.03203873 0.35500002 4279318551
0.11427615 0.03203873 0.35500002 4279515160
0.11542919 0.03203873 0.35500002 4279515160
0.11658224 0.03203873 0.35500002 4279515160
0.11773527 0.03203873 0.35500002 4279646746
0.1192232 0.032128979 0.35600001 4279579418
0.12037949 0.032128979 0.35600001 4278196994
0.12153578 0.032128979 0.35600001 4279252758
0.12303672 0.032219231 0.35700002 4279318551
0.12419625 0.032219231 0.35700002 4279450650
0.12570693 0.03230948 0.35800001 4279450650
0.12686971 0.03230948 0.35800001 4279187990
0.12803249 0.03230948 0.35800001 4279122197
0.12955616 0.032399733 0.35900003 4279122197
0.13072219 0.032399733 0.35900003 4278924818
0.13152085 0.03230948 0.35800001 4279121433
0.045549769 0.034407649 0.36800003 4283261266
0.046745032 0.034407649 0.36800003 4283261266
0.047940299 0.034407649 0.36800003 4283327059
0.04900204 0.034314148 0.36700001 4283130193
0.050057288 0.034220651 0.36600003 4282998607
0.051246058 0.034220651 0.36600003 4283394133
0.053623598 0.034220651 0.36600003 4279188762
0.054812364 0.034220651 0.36600003 4278925336
0.056001134 0.034220651 0.36600003 4279452193
0.057189904 0.034220651 0.36600003 4279320607
0.058219161 0.03412715 0.36500001 4279123482
0.059404682 0.03412715 0.36500001 4279123482
0.060424209 0.034033652 0.36400002 4278860310
0.061267979 0.033846654 0.36200002 4278860310
0.062271263 0.033753157 0.36100003 4278926103
0.063268043 0.033659656 0.36000001 4278926103
0.064258337 0.033566158 0.35900003 4278860310
0.065242119 0.033472657 0.35800001 4278860310
0.066404909 0.033472657 0.35800001 4278725138
0.067378961 0.03337916 0.35700002 4278790418
0.068538494 0.03337916 0.35700002 4278923287
0.069698036 0.03337916 0.35700002 4279252765
0.070659086 0.033285659 0.35600001 4279121433
0.071815372 0.033285659 0.35600001 4279778080
0.072971664 0.033285659 0.35600001 4279907104
0.07412795 0.033285659 0.35600001 4278985232
0.075072773 0.033192161 0.35500002 4278984719
0.07622581 0.033192161 0.35500002 4278392584
0.077378854 0.033192161 0.35500002 4278391046
0.078531891 0.033192161 0.35500002 4278720265
0.079684928 0.033192161 0.35500002 4278654218
0.080837972 0.033192161 0.35500002 4278522632
0.081991017 0.033192161 0.35500002 4278719498
0.083144054 0.033192161 0.35500002 4278587912
0.084297091 0.033192161 0.35500002 4278785545
0.085690841 0.033285659 0.35600001 4278851851
0.086847119 0.033285659 0.35600001 4279119383
0.088003412 0.033285659 0.35600001 4279186713
0.089159697 0.033285659 0.35600001 4279777567
0.09031599 0.033285659 0.35600001 4278590474
0.091472276 0.033285659 0.35600001 4278456839
0.092628568 0.033285659 0.35600001 4278523146
0.093784861 0.033285659 0.35600001 4279381787
0.094941147 0.033285659 0.35600001 4278526476
0.09609744 0.033285659 0.35600001 4278527500
0.097253717 0.033285659 0.35600001 4278197507
0.09841001 0.033285659 0.35600001 4279579418
0.099566296 0.033285659 0.35600001 4278197765
0.10072259 0.033285659 0.35600001 4279514393
0.10187888 0.033285659 0.35600001 4279382807
0.10274575 0.033192161 0.35500002 4278658316
0.10389878 0.033192161 0.35500002 4279053844
0.10505182 0.033192161 0.35500002 4278789388
0.10620487 0.033192161 0.35500002 4278263044
0.1073579 0.033192161 0.35500002 4279315732
0.10851095 0.033192161 0.35500002 4279053074
0.10966399 0.033192161 0.35500002 4278330121
0.11081703 0.033192161 0.35500002 4279053842
0.11197007 0.033192161 0.35500002 4278922256
0.1131231 0.033192161 0.35500002 4279251988
0.11427615 0.033192161 0.35500002 4278197248
0.11575434 0.033285659 0.35600001 4278396166
0.11691063 0.033285659 0.35600001 4279121685
0.11806692 0.033285659 0.35600001 4279121685
0.1192232 0.033285659 0.35600001 4279118613
0.12037949 0.033285659 0.35600001 4279578137
0.12187718 0.03337916 0.35700002 4279449367
0.12303672 0.03337916 0.35700002 4279318549
0.12454414 0.033472657 0.35800001 4279516441
0.12570693 0.033472657 0.35800001 4279187474
0.1272241 0.033566158 0.35900003 4279121681
0.12839013 0.033566158 0.35900003 4279253267
0.12955616 0.033566158 0.35900003 4279056402
0.13072219 0.033566158 0.35900003 4279319576
0.13188823 0.033566158 0.35900003 4279187226
0.04447503 0.035700068 0.36900002 4283130193
0.045549769 0.035603318 0.36800003 4283459158
0.046745032 0.035603318 0.36800003 4283261525
0.047940299 0.035603318 0.36800003 4283327318
0.04900204 0.035506569 0.36700001 4283261779
0.050057288 0.035409823 0.36600003 4283195986
0.051246058 0.035409823 0.36600003 4283130193
0.052434828 0.035409823 0.36600003 4283130961
0.053623598 0.035409823 0.36600003 4282606412
0.054812364 0.035409823 0.36600003 4279777313
0.056001134 0.035409823 0.36600003 4279252252
0.057189904 0.035409823 0.36600003 4279450396
0.058219161 0.035313074 0.36500001 4279187992
0.059404682 0.035313074 0.36500001 4279122199
0.060424209 0.035216328 0.36400002 4279122199
0.061437227 0.035119578 0.36300001 4279187992
0.062271263 0.034926083 0.36100003 4279187992
0.063268043 0.034829333 0.36000001 4279187992
0.064258337 0.034732588 0.35900003 4278991383
0.065242119 0.034635838 0.35800001 4279188762
0.066404909 0.034635838 0.35800001 4279056152
0.067378961 0.034539089 0.35700002 4279055640
0.068538494 0.034539089 0.35700002 4279253019
0.069698036 0.034539089 0.35700002 4279121431
0.07085757 0.034539089 0.35700002 4279319064
0.071815372 0.034442339 0.35600001 4279055892
0.072971664 0.034442339 0.35600001 4279319064
0.07412795 0.034442339 0.35600001 4279253017
0.075072773 0.034345593 0.35500002 4279253017
0.07622581 0.034345593 0.35500002 4279318297
0.077378854 0.034345593 0.35500002 4279448600
0.078531891 0.034345593 0.35500002 4279448600
0.079684928 0.034345593 0.35500002 4279580188
0.080837972 0.034345593 0.35500002 4279777313
0.081991017 0.034345593 0.35500002 4279381785
0.083144054 0.034345593 0.35500002 4279381271
0.084297091 0.034345593 0.35500002 4279643930
0.085690841 0.034442339 0.35600001 4279117586
0.086847119 0.034442339 0.35600001 4279908899
0.088003412 0.034442339 0.35600001 4278195456
0.089159697 0.034442339 0.35600001 4278194944
0.09031599 0.034442339 0.35600001 4278657035
0.091472276 0.034442339 0.35600001 4278919439
0.092628568 0.034442339 0.35600001 4279117588
0.093784861 0.034442339 0.35600001 4279250199
0.094941147 0.034442339 0.35600001 4279777313
0.09609744 0.034442339 0.35600001 4279579934
0.097253717 0.034442339 0.35600001 4279448348
0.09841001 0.034442339 0.35600001 4279251223
0.099566296 0.034442339 0.35600001 4279382809
0.10072259 0.034442339 0.35600001 4278922258
0.10187888 0.034442339 0.35600001 4279777567
0.10274575 0.034345593 0.35500002 4279317529
0.10389878 0.034345593 0.35500002 4279251736
0.10505182 0.034345593 0.35500002 4279184660
0.10620487 0.034345593 0.35500002 4278921488
0.1073579 0.034345593 0.35500002 4279513625
0.10851095 0.034345593 0.35500002 4279513625
0.10966399 0.034345593 0.35500002 4279118867
0.11081703 0.034345593 0.35500002 4279118867
0.11228547 0.034442339 0.35600001 4279381271
0.11344176 0.034442339 0.35600001 4278789134
0.11459805 0.034442339 0.35600001 4279118865
0.11575434 0.034442339 0.35600001 4278592523
0.11691063 0.034442339 0.35600001 4279318297
0.11806692 0.034442339 0.35600001 4279186711
0.1192232 0.034442339 0.35600001 4278195968
0.12037949 0.034442339 0.35600001 4279842590
0.12187718 0.034539089 0.35700002 4279186965
0.12303672 0.034539089 0.35700002 4279253271
0.12454414 0.034635838 0.35800001 4279253269
0.12605807 0.034732588 0.35900003 4279187476
0.1272241 0.034732588 0.35900003 4279319062
0.12839013 0.034732588 0.35900003 4279319062
0.12955616 0.034732588 0.35900003 4279122197
0.13072219 0.034732588 0.35900003 4279187990
0.13188823 0.034732588 0.35900003 4279778078
0.04447503 0.036898986 0.36900002 4283129939
0.045549769 0.036798988 0.36800003 4283458904
0.046745032 0.036798988 0.36800003 4283195732
0.047940299 0.036798988 0.36800003 4283261525
0.04900204 0.03669899 0.36700001 4283261779
0.050194055 0.03669899 0.36700001 4283261779
0.051246058 0.036598995 0.36600003 4283195986
0.052434828 0.036598995 0.36600003 4283064400
0.053623598 0.036598995 0.36600003 4282868304
0.054812364 0.036598995 0.36600003 4282999888
0.056001134 0.036598995 0.36600003 4282670408
0.057189904 0.036598995 0.36600003 4283196752
0.058219161 0.036498994 0.36500001 4282802507
0.059404682 0.036498994 0.36500001 4282079298
0.060424209 0.036398999 0.36400002 4281552954
0.061437227 0.036299001 0.36300001 4280631852
0.062271263 0.036099009 0.36100003 4279514908
0.063268043 0.035999011 0.36000001 4278856978
0.064258337 0.035899013 0.35900003 4279054357
0.065242119 0.035799015 0.35800001 4279055127
0.066404909 0.035799015 0.35800001 4279252504
0.067378961 0.035699017 0.35700002 4279384090
0.068538494 0.035699017 0.35700002 4279253017
0.069698036 0.035699017 0.35700002 4279187224
0.07085757 0.035699017 0.35700002 4279121431
0.072017103 0.035699017 0.35700002 4279121431
0.072971664 0.035599019 0.35600001 4279319064
0.07412795 0.035599019 0.35600001 4279319064
0.075284243 0.035599019 0.35600001 4279056406
0.07622581 0.035499025 0.35500002 4278990613
0.077378854 0.035499025 0.35500002 4279319064
0.078531891 0.035499025 0.35500002 4279319064
0.079684928 0.035499025 0.35500002 4279319064
0.080837972 0.035499025 0.35500002 4279121431
0.081991017 0.035499025 0.35500002 4279121431
0.083144054 0.035499025 0.35500002 4279253017
0.084297091 0.035499025 0.35500002 4279253017
0.085690841 0.035599019 0.35600001 4279450396
0.086847119 0.035599019 0.35600001 4279253017
0.088003412 0.035599019 0.35600001 4279187224
0.089159697 0.035599019 0.35600001 4279187224
0.09031599 0.035599019 0.35600001 4279515676
0.091472276 0.035599019 0.35600001 4279317529
0.092628568 0.035599019 0.35600001 4279712287
0.093784861 0.035599019 0.35600001 4279580188
0.094941147 0.035599019 0.35600001 4279448602
0.09609744 0.035599019 0.35600001 4279184660
0.097253717 0.035599019 0.35600001 4278197508
0.09841001 0.035599019 0.35600001 4278195712
0.099566296 0.035599019 0.35600001 4278195456
0.10072259 0.035599019 0.35600001 4278195200
0.1015927 0.035499025 0.35500002 4278195712
0.10274575 0.035499025 0.35500002 4278460683
0.10389878 0.035499025 0.35500002 4279118613
0.10505182 0.035499025 0.35500002 4279317016
0.10620487 0.035499025 0.35500002 4279119637
0.1073579 0.035499025 0.35500002 4279383322
0.10851095 0.035499025 0.35500002 4279317529
0.10966399 0.035499025 0.35500002 4279317527
0.11081703 0.035499025 0.35500002 4279383320
0.11228547 0.035599019 0.35600001 4279185941
0.11344176 0.035599019 0.35600001 4280107043
0.11459805 0.035599019 0.35600001 4279054357
0.11575434 0.035599019 0.35600001 4279975459
0.11691063 0.035599019 0.35600001 4279318551
0.11806692 0.035599019 0.35600001 4279976481
0.1192232 0.035599019 0.35600001 4278196224
0.12071764 0.035699017 0.35700002 4279580186
0.12187718 0.035699017 0.35700002 4279384344
0.12338135 0.035799015 0.35800001 4279319064
0.12454414 0.035799015 0.35800001 4279187478
0.12605807 0.035899013 0.35900003 4279253269
0.1272241 0.035899013 0.35900003 4279253269
0.12874776 0.035999011 0.36000001 4279319062
0.12991704 0.035999011 0.36000001 4279319062
0.13072219 0.035899013 0.35900003 4279516441
0.045549769 0.037994657 0.36800003 4283327318
0.046745032 0.037994657 0.36800003 4283458904
0.047940299 0.037994657 0.36800003 4283458904
0.04900204 0.03789141 0.36700001 4283458904
0.050194055 0.03789141 0.36700001 4283327572
0.051246058 0.037788164 0.36600003 4283261779
0.052434828 0.037788164 0.36600003 4283327572
0.053623598 0.037788164 0.36600003 4283327572
0.054812364 0.037788164 0.36600003 4283130193
0.056001134 0.037788164 0.36600003 4283195986
0.057189904 0.037788164 0.36600003 4283064400
0.058219161 0.037684917 0.36500001 4282801228
0.059404682 0.037684917 0.36500001 4281748540
0.060424209 0.037581671 0.36400002 4282604619
0.061437227 0.037478425 0.36300001 4282933584
0.062271263 0.037271935 0.36100003 4283591514
0.063268043 0.037168685 0.36000001 4283657307
0.064258337 0.037065443 0.35900003 4283789402
0.065242119 0.036962193 0.35800001 4283986781
0.066404909 0.036962193 0.35800001 4284249953
0.067567699 0.036962193 0.35800001 4284513639
0.068538494 0.03685895 0.35700002 4284250467
0.069698036 0.03685895 0.35700002 4283263572
0.07085757 0.03685895 0.35700002 4281882691
0.072017103 0.03685895 0.35700002 4280237866
0.072971664 0.0367557 0.35600001 4279383068
0.07412795 0.0367557 0.35600001 4278922517
0.075284243 0.0367557 0.35600001 4279053842
0.07622581 0.036652453 0.35500002 4279251734
0.077378854 0.036652453 0.35500002 4279383320
0.078531891 0.036652453 0.35500002 4279251734
0.079684928 0.036652453 0.35500002 4279449113
0.080837972 0.036652453 0.35500002 4279186711
0.081991017 0.036652453 0.35500002 4279252504
0.083144054 0.036652453 0.35500002 4279252504
0.084297091 0.036652453 0.35500002 4279318810
0.085450135 0.036652453 0.35500002 4279253017
0.086847119 0.0367557 0.35600001 4279187224
0.088003412 0.0367557 0.35600001 4279187224
0.089159697 0.0367557 0.35600001 4279056152
0.09031599 0.0367557 0.35600001 4279056152
0.091472276 0.0367557 0.35600001 4279121945
0.092368379 0.036652453 0.35500002 4279121945
0.093521424 0.036652453 0.35500002 4279187224
0.094674461 0.036652453 0.35500002 4279318810
0.095827505 0.036652453 0.35500002 4279318297
0.096980534 0.036652453 0.35500002 4279318297
0.098133579 0.036652453 0.35500002 4279318297
0.099286623 0.036652453 0.35500002 4279318297
0.10043967 0.036652453 0.35500002 4279383320
0.1015927 0.036652453 0.35500002 4279448600
0.10274575 0.036652453 0.35500002 4279777567
0.10389878 0.036652453 0.35500002 4279448602
0.10505182 0.036652453 0.35500002 4279514395
0.10620487 0.036652453 0.35500002 4279251223
0.1073579 0.036652453 0.35500002 4278987281
0.10851095 0.036652453 0.35500002 4278921488
0.10966399 0.036652453 0.35500002 4278196994
0.11112919 0.0367557 0.35600001 4278195200
0.11228547 0.0367557 0.35600001 4278195969
0.11344176 0.0367557 0.35600001 4278196997
0.11459805 0.0367557 0.35600001 4278460683
0.11575434 0.0367557 0.35600001 4278790418
0.11691063 0.0367557 0.35600001 4278988049
0.11806692 0.0367557 0.35600001 4278263556
0.1192232 0.0367557 0.35600001 4279842588
0.12071764 0.03685895 0.35700002 4279646746
0.12187718 0.03685895 0.35700002 4279187476
0.12338135 0.036962193 0.35800001 4279319060
0.12489203 0.037065443 0.35900003 4279319060
0.12605807 0.037065443 0.35900003 4279319060
0.12757848 0.037168685 0.36000001 4279253269
0.12874776 0.037168685 0.36000001 4279450648
0.12991704 0.037168685 0.36000001 4279318810
0.045549769 0.03919033 0.36800003 4283524697
0.046745032 0.03919033 0.36800003 4283524697
0.047940299 0.03919033 0.36800003 4283458904
0.04900204 0.039083831 0.36700001 4283327318
0.050194055 0.039083831 0.36700001 4283327318
0.051246058 0.038977336 0.36600003 4283261779
0.054812364 0.038977336 0.36600003 4283064400
0.056001134 0.038977336 0.36600003 4282998607
0.057033643 0.038870838 0.36500001 4282998607
0.058219161 0.038870838 0.36500001 4283524951
0.059241932 0.038764346 0.36400002 4282406470
0.060424209 0.038764346 0.36400002 4282867021
0.061437227 0.038657848 0.36300001 4283195986
0.062616251 0.038657848 0.36300001 4283656537
0.063795276 0.038657848 0.36300001 4283919709
0.064974301 0.038657848 0.36300001 4283854686
0.066153325 0.038657848 0.36300001 4283986272
0.06733235 0.038657848 0.36300001 4284182881
0.068511374 0.038657848 0.36300001 4284248674
0.069690399 0.038657848 0.36300001 4283920479
0.075072773 0.037805885 0.35500002 4284184162
0.07622581 0.037805885 0.35500002 4284644713
0.077378854 0.037805885 0.35500002 4284776297
0.078531891 0.037805885 0.35500002 4284644965
0.079684928 0.037805885 0.35500002 4283658584
0.080837972 0.037805885 0.35500002 4281883202
0.081991017 0.037805885 0.35500002 4280436010
0.083144054 0.037805885 0.35500002 4279777565
0.084297091 0.037805885 0.35500002 4278922256
0.085450135 0.037805885 0.35500002 4279184658
0.086603172 0.037805885 0.35500002 4279055125
0.087756217 0.037805885 0.35500002 4279055125
0.088909253 0.037805885 0.35500002 4279120918
0.090062298 0.037805885 0.35500002 4279252504
0.091215335 0.037805885 0.35500002 4279252504
0.092368379 0.037805885 0.35500002 4279253017
0.093521424 0.037805885 0.35500002 4279450396
0.094674461 0.037805885 0.35500002 4279253017
0.095827505 0.037805885 0.35500002 4279318810
0.096980534 0.037805885 0.35500002 4279121431
0.098133579 0.037805885 0.35500002 4279121431
0.099286623 0.037805885 0.35500002 4279318810
0.10043967 0.037805885 0.35500002 4279187224
0.1015927 0.037805885 0.35500002 4279516189
0.10274575 0.037805885 0.35500002 4279253017
0.10389878 0.037805885 0.35500002 4279253017
0.10505182 0.037805885 0.35500002 4279253017
0.10620487 0.037805885 0.35500002 4279318297
0.1073579 0.037805885 0.35500002 4279384344
0.10851095 0.037805885 0.35500002 4279581723
0.10966399 0.037805885 0.35500002 4279384344
0.11081703 0.037805885 0.35500002 4279581469
0.11228547 0.03791238 0.35600001 4279515676
0.11344176 0.03791238 0.35600001 4279712285
0.11459805 0.03791238 0.35600001 4279711772
0.11575434 0.03791238 0.35600001 4279580188
0.11691063 0.03791238 0.35600001 4279317016
0.11806692 0.03791238 0.35600001 4279909151
0.1192232 0.03791238 0.35600001 4279384090
0.12071764 0.038018879 0.35700002 4279319064
0.12187718 0.038018879 0.35700002 4279253269
0.12338135 0.03812537 0.35800001 4279319062
0.12489203 0.038231868 0.35900003 4279450646
0.1264092 0.038338363 0.36000001 4279450648
0.12757848 0.038338363 0.36000001 4279516441
0.12874776 0.038338363 0.36000001 4279516443
0.12991704 0.038338363 0.36000001 4279514395
0.047940299 0.040385999 0.36800003 4283590490
0.084297091 0.038959317 0.35500002 4284184160
0.085450135 0.038959317 0.35500002 4284315748
0.086603172 0.038959317 0.35500002 4284907372
0.087756217 0.038959317 0.35500002 4284907370
0.088909253 0.038959317 0.35500002 4285038956
0.090062298 0.038959317 0.35500002 4284381539
0.091215335 0.038959317 0.35500002 4283131988
0.092368379 0.038959317 0.35500002 4282079300
0.093521424 0.038959317 0.35500002 4281157682
0.094674461 0.038959317 0.35500002 4280565545
0.095827505 0.038959317 0.35500002 4280236580
0.096980534 0.038959317 0.35500002 4279513111
0.098133579 0.038959317 0.35500002 4279250453
0.099286623 0.038959317 0.35500002 4279118867
0.10043967 0.038959317 0.35500002 4279447832
0.1015927 0.038959317 0.35500002 4279119383
0.10274575 0.038959317 0.35500002 4279250969
0.10389878 0.038959317 0.35500002 4279251223
0.10505182 0.038959317 0.35500002 4279317014
0.10620487 0.038959317 0.35500002 4279514393
0.1073579 0.038959317 0.35500002 4279712026
0.10851095 0.038959317 0.35500002 4279712026
0.10966399 0.038959317 0.35500002 4279843612
0.11081703 0.038959317 0.35500002 4279712539
0.11228547 0.03906906 0.35600001 4279712539
0.11344176 0.03906906 0.35600001 4279646746
0.11459805 0.03906906 0.35600001 4279646492
0.11575434 0.03906906 0.35600001 4279514906
0.11691063 0.03906906 0.35600001 4279646492
0.11806692 0.03906906 0.35600001 4279514906
0.1195581 0.039178807 0.35700002 4279384344
0.12071764 0.039178807 0.35700002 4279647516
0.12221856 0.039288551 0.35800001 4279647516
0.12338135 0.039288551 0.35800001 4279515930
0.12489203 0.039398298 0.35900003 4279647516
0.1264092 0.039508041 0.36000001 4279713309
0.12757848 0.039508041 0.36000001 4279580440
0.12874776 0.039508041 0.36000001 4280302627
0.087756217 0.040112749 0.35500002 4284511844
0.088909253 0.040112749 0.35500002 4284577635
0.090062298 0.040112749 0.35500002 4284511842
0.091215335 0.040112749 0.35500002 4284315235
0.092368379 0.040112749 0.35500002 4284446821
0.093521424 0.040112749 0.35500002 4284511844
0.094674461 0.040112749 0.35500002 4284511844
0.095827505 0.040112749 0.35500002 4284643430
0.096980534 0.040112749 0.35500002 4284577637
0.098133579 0.040112749 0.35500002 4284381028
0.099286623 0.040112749 0.35500002 4284578407
0.10043967 0.040112749 0.35500002 4284972395
0.1015927 0.040112749 0.35500002 4285038188
0.10274575 0.040112749 0.35500002 4285235054
0.10389878 0.040112749 0.35500002 4285498224
0.10505182 0.040112749 0.35500002 4285432944
0.10620487 0.040112749 0.35500002 4285564530
0.1073579 0.040112749 0.35500002 4285566067
0.10851095 0.040112749 0.35500002 4285237362
0.10966399 0.040112749 0.35500002 4284776813
0.11081703 0.040112749 0.35500002 4284842092
0.11197007 0.040112749 0.35500002 4284776301
0.11344176 0.040225741 0.35600001 4283394133
0.11459805 0.040225741 0.35600001 4282933580
0.11575434 0.040225741 0.35600001 4283459924
0.11691063 0.040225741 0.35600001 4282143548
0.11806692 0.040225741 0.35600001 4282077753
0.1195581 0.040338736 0.35700002 4281223727
0.12071764 0.040338736 0.35700002 4281223727
0.12221856 0.040451728 0.35800001 4281025835
0.12338135 0.040451728 0.35800001 4280763176
0.12489203 0.040564723 0.35900003 4281881144
0.1264092 0.040677715 0.36000001 4284116825
0.12757848 0.040677715 0.36000001 4286024052
0.098133579 0.041266181 0.35500002 4284708712
0.099286623 0.041266181 0.35500002 4284774505
0.10043967 0.041266181 0.35500002 4284774505
0.1015927 0.041266181 0.35500002 4284906091
0.10274575 0.041266181 0.35500002 4285103470
0.10389878 0.041266181 0.35500002 4285103470
0.10505182 0.041266181 0.35500002 4285169263
0.10620487 0.041266181 0.35500002 4285169263
0.1073579 0.041266181 0.35500002 4285366642
0.10851095 0.041266181 0.35500002 4285432435
0.10966399 0.041266181 0.35500002 4285235056
0.11081703 0.041266181 0.35500002 4285432435
0.11197007 0.041266181 0.35500002 4285366642
0.1131231 0.041266181 0.35500002 4285498228
0.11459805 0.041382421 0.35600001 4285432435
0.11575434 0.041382421 0.35600001 4285498228
0.11691063 0.041382421 0.35600001 4285432435
0.11806692 0.041382421 0.35600001 4285235056
0.1195581 0.041498665 0.35700002 4285169263
0.12071764 0.041498665 0.35700002 4285432433
0.12221856 0.041614905 0.35800001 4285498226
0.12338135 0.041614905 0.35800001 4285498226
0.12489203 0.041731153 0.35900003 4285629812
0.085862949 0.030724455 0.35700455 4294967295
0.085862949 0.030724455 0.35700455 4294901760
0.085909307 0.030228328 0.35704589 4294901760
0.085955665 0.029732199 0.35708722 4294901760
0.086002029 0.029236073 0.35712856 4294901760
0.086048387 0.028739944 0.35716987 4294901760
0.086094745 0.028243817 0.3572112 4294901760
0.086141102 0.027747689 0.35725254 4294901760
0.08618746 0.027251562 0.35729387 4294901760
0.086233817 0.026755434 0.35733521 4294901760
0.086280182 0.026259307 0.35737655 4294901760
0.08632654 0.025763178 0.35741788 4294901760
0.086372897 0.025267052 0.35745919 4294901760
0.086419255 0.024770923 0.35750052 4294901760
0.086465612 0.024274796 0.35754186 4294901760
0.08651197 0.02377867 0.35758319 4294901760
0.086558335 0.023282541 0.35762453 4294901760
0.086604692 0.022786412 0.35766587 4294901760
0.08665105 0.022290286 0.3577072 4294901760
0.086697407 0.021794159 0.35774851 4294901760
0.086743765 0.021298032 0.35778984 4294901760
0.086790122 0.020801902 0.35783118 4294901760
0.086836487 0.020305775 0.35787252 4294901760
0.086882845 0.019809648 0.35791385 4294901760
0.086929202 0.019313522 0.35795519 4294901760
0.08697556 0.018817393 0.35799652 4294901760
0.087021917 0.018321265 0.35803783 4294901760
0.087068275 0.017825138 0.35807917 4294901760
0.08711464 0.017329011 0.3581205 4294901760
0.087160997 0.016832883 0.35816184 4294901760
0.087207355 0.016336756 0.35820317 4294901760
0.087253712 0.015840627 0.35824451 4294901760
0.08730007 0.0153445 0.35828584 4294901760
0.087346427 0.014848372 0.35832718 4294901760
0.087392792 0.014352243 0.35836849 4294901760
0.08743915 0.013856117 0.35840982 4294901760
0.087485507 0.01335999 0.35845116 4294901760
0.087531865 0.012863861 0.35849249 4294901760
0.087578222 0.012367735 0.35853383 4294901760
0.08762458 0.011871608 0.35857517 4294901760
0.087670945 0.011375479 0.3586165 4294901760
0.087717302 0.010879351 0.35865781 4294901760
0.08776366 0.010383224 0.35869914 4294901760
0.087810017 0.0098870974 0.35874048 4294901760
0.087856375 0.0093909688 0.35878181 4294901760
0.087902732 0.0088948421 0.35882315 4294901760
0.087949097 0.0083987154 0.35886449 4294901760
0.087995455 0.0079025868 0.35890582 4294901760
0.088041812 0.0074064583 0.35894713 4294901760
0.08808817 0.0069103315 0.35898846 4294901760
0.088134527 0.006414203 0.3590298 4294901760
0.088180885 0.0059180763 0.35907114 4294901760
0.08822725 0.0054219496 0.35911247 4294901760
0.088273607 0.0049258228 0.35915381 4294901760
0.088319965 0.0044296943 0.35919514 4294901760
0.088366322 0.0039335657 0.35923645 4294901760
0.08841268 0.0034374371 0.35927778 4294901760
0.088459045 0.0029413104 0.35931912 4294901760
0.088505402 0.0024451837 0.35936046 4294901760
0.08855176 0.001949057 0.35940179 4294901760
0.088598117 0.0014529303 0.35944313 4294901760
0.088644475 0.00095679983 0.35948446 4294901760
0.088690832 0.00046067312 0.35952577 4294901760
0.088737197 -3.545545e-05 0.35956711 4294901760
0.088783555 -0.0005315803 0.35960844 4294901760
0.088829912 -0.0010277107 0.35964978 4294901760
0.08887627 -0.0015238374 0.35969111 4294901760
0.088922627 -0.0020199679 0.35973245 4294901760
0.088968985 -0.0025160946 0.35977378 4294901760
0.08901535 -0.0030122213 0.35981509 4294901760
0.089061707 -0.003508348 0.35985643 4294901760
0.089108065 -0.0040044747 0.35989776 4294901760
0.089154422 -0.0045006014 0.3599391 4294901760
0.08920078 -0.0049967319 0.35998043 4294901760
0.089247137 -0.0054928586 0.36002177 4294901760
0.089293502 -0.0059889853 0.36006311 4294901760
0.08933986 -0.006485112 0.36010444 4294901760
0.089386217 -0.0069812387 0.36014575 4294901760
0.089432575 -0.0074773654 0.36018708 4294901760
0.089478932 -0.0079734959 0.36022842 4294901760
0.08952529 -0.0084696226 0.36026976 4294901760
0.089571655 -0.008965753 0.36031109 4294901760
0.089618012 -0.0094618797 0.36035243 4294901760
0.08966437 -0.0099580064 0.36039376 4294901760
0.089710727 -0.010454133 0.36043507 4294901760
0.089757085 -0.01095026 0.3604764 4294901760
0.089803442 -0.01144639 0.36051774 4294901760
0.089849807 -0.011942517 0.36055908 4294901760
0.089896165 -0.012438644 0.36060041 4294901760
0.089942522 -0.01293477 0.36064175 4294901760
0.08998888 -0.013430897 0.36068308 4294901760
0.090035237 -0.013927024 0.36072439 4294901760
0.090081602 -0.014423154 0.36076573 4294901760
0.09012796 -0.014919281 0.36080706 4294901760
0.090174317 -0.015415408 0.3608484 4294901760
0.090220675 -0.015911538 0.36088973 4294901760
0.090267032 -0.016407665 0.36093107 4294901760
0.09031339 -0.016903792 0.3609724 4294901760
0.090359747 -0.017399922 0.36101371 4294901760
0.090406112 -0.017896049 0.36105505 4294901760
0.09045247 -0.018392175 0.36109638 4294901760
0.090498827 -0.018888302 0.36113772 4294901760
0.085862949 0.030724455 0.35700455 4278255360
0.086359978 0.030768199 0.35697216 4278255360
0.086857006 0.030811943 0.35693976 4278255360
0.087354034 0.030855687 0.35690737 4278255360
0.087851062 0.030899432 0.35687497 4278255360
0.088348091 0.030943176 0.35684258 4278255360
0.088845119 0.03098692 0.35681018 4278255360
0.089342147 0.031030664 0.35677782 4278255360
0.089839175 0.031074408 0.35674542 4278255360
0.090336204 0.031118155 0.35671303 4278255360
0.090833232 0.031161899 0.35668063 4278255360
0.09133026 0.031205643 0.35664824 4278255360
0.091827288 0.031249387 0.35661584 4278255360
0.092324317 0.031293131 0.35658345 4278255360
0.092821345 0.031336874 0.35655105 4278255360
0.093318373 0.03138062 0.35651866 4278255360
0.093815401 0.031424362 0.35648626 4278255360
0.094312429 0.031468108 0.35645387 4278255360
0.094809458 0.031511854 0.35642147 4278255360
0.095306486 0.031555597 0.35638911 4278255360
0.095803514 0.031599343 0.35635671 4278255360
0.096300542 0.031643085 0.35632432 4278255360
0.096797571 0.031686831 0.35629192 4278255360
0.097294599 0.031730574 0.35625952 4278255360
0.097791627 0.03177432 0.35622713 4278255360
0.098288655 0.031818062 0.35619473 4278255360
0.098785684 0.031861808 0.35616234 4278255360
0.099282719 0.031905551 0.35612994 4278255360
0.099779747 0.031949297 0.35609755 4278255360
0.10027677 0.031993039 0.35606515 4278255360
0.1007738 0.032036785 0.35603276 4278255360
0.10127083 0.032080527 0.35600036 4278255360
0.10176785 0.032124273 0.355968 4278255360
0.10226489 0.032168016 0.3559356 4278255360
0.10276192 0.032211762 0.35590321 4278255360
0.10325895 0.032255508 0.35587081 4278255360
0.10375597 0.03229925 0.35583842 4278255360
0.104253 0.032342996 0.35580602 4278255360
0.10475003 0.032386739 0.35577363 4278255360
0.10524706 0.032430485 0.35574123 4278255360
0.10574409 0.032474227 0.35570884 4278255360
0.10624111 0.032517973 0.35567644 4278255360
0.10673814 0.032561716 0.35564405 4278255360
0.10723517 0.032605462 0.35561165 4278255360
0.1077322 0.032649204 0.35557929 4278255360
0.10822923 0.03269295 0.35554689 4278255360
0.10872626 0.032736693 0.3555145 4278255360
0.10922328 0.032780439 0.3554821 4278255360
0.10972031 0.032824181 0.35544971 4278255360
0.11021734 0.032867927 0.35541731 4278255360
0.11071437 0.032911673 0.35538492 4278255360
0.1112114 0.032955416 0.35535252 4278255360
0.11170842 0.032999162 0.35532013 4278255360
0.11220545 0.033042904 0.35528773 4278255360
0.11270248 0.03308665 0.35525534 4278255360
0.11319951 0.033130392 0.35522294 4278255360
0.11369654 0.033174139 0.35519055 4278255360
0.11419357 0.033217881 0.35515818 4278255360
0.11469059 0.033261627 0.35512578 4278255360
0.11518762 0.033305369 0.35509339 4278255360
0.11568465 0.033349115 0.35506099 4278255360
0.11618168 0.033392858 0.3550286 4278255360
0.11667871 0.033436604 0.3549962 4278255360
0.11717574 0.033480346 0.35496381 4278255360
0.11767276 0.033524092 0.35493141 4278255360
0.11816979 0.033567835 0.35489902 4278255360
0.11866683 0.033611581 0.35486662 4278255360
0.11916386 0.033655323 0.35483423 4278255360
0.11966088 0.033699069 0.35480183 4278255360
0.12015791 0.033742815 0.35476947 4278255360
0.12065494 0.033786558 0.35473707 4278255360
0.12115197 0.033830304 0.35470468 4278255360
0.121649 0.033874046 0.35467228 4278255360
0.12214603 0.033917792 0.35463989 4278255360
0.12264305 0.033961535 0.35460749 4278255360
0.12314008 0.034005281 0.3545751 4278255360
0.12363711 0.034049023 0.3545427 4278255360
0.12413414 0.034092769 0.35451031 4278255360
0.12463117 0.034136511 0.35447791 4278255360
0.12512819 0.034180257 0.35444552 4278255360
0.12562522 0.034224 0.35441312 4278255360
0.12612225 0.034267746 0.35438073 4278255360
0.12661928 0.034311488 0.35434836 4278255360
0.12711631 0.034355234 0.35431597 4278255360
0.12761334 0.03439898 0.35428357 4278255360
0.12811036 0.034442723 0.35425118 4278255360
0.12860739 0.034486469 0.35421878 4278255360
0.12910442 0.034530211 0.35418639 4278255360
0.12960145 0.034573957 0.35415399 4278255360
0.13009848 0.0346177 0.3541216 4278255360
0.13059551 0.034661446 0.3540892 4278255360
0.13109253 0.034705188 0.35405681 4278255360
0.13158956 0.034748934 0.35402441 4278255360
0.13208659 0.034792677 0.35399202 4278255360
0.13258362 0.034836423 0.35395965 4278255360
0.13308065 0.034880165 0.35392725 4278255360
0.13357767 0.034923911 0.35389486 4278255360
0.1340747 0.034967653 0.35386246 4278255360
0.13457173 0.0350114 0.35383007 4278255360
0.13506876 0.035055146 0.35379767 4278255360
0.13556579 0.035098888 0.35376528 4278255360
0.085862949 0.030724455 0.35700455 4278190335
0.085857861 0.030765491 0.35750285 4278190335
0.085852772 0.030806527 0.35800111 4278190335
0.085847683 0.030847562 0.35849941 4278190335
0.085842595 0.030888598 0.3589977 4278190335
0.085837506 0.030929634 0.359496 4278190335
0.085832417 0.03097067 0.35999429 4278190335
0.085827328 0.031011706 0.36049256 4278190335
