# .PCD v0.7 - Point Cloud Data file format
VERSION 0.7
FIELDS x y z rgb
SIZE 4 4 4 4
TYPE F F F U
COUNT 1 1 1 1
WIDTH 1083
HEIGHT 1
VIEWPOINT 0 0 0 1 0 0 0
POINTS 1083
DATA ascii
0.11266991 0.1084296 0.30400002 4283635216
0.11403117 0.10878628 0.30500001 4284553490
0.11502181 0.10878628 0.30500001 4284881168
0.11601244 0.10878628 0.30500001 4285668119
0.11700308 0.10878628 0.30500001 4285930780
0.11799373 0.10878628 0.30500001 4286259745
0.11898436 0.10878628 0.30500001 4285997084
0.11997501 0.10878628 0.30500001 4284883228
0.12096565 0.10878628 0.30500001 4287656807
0.12195628 0.10878628 0.30500001 4286414708
0.12294693 0.10878628 0.30500001 4286152306
0.12475027 0.10949963 0.30700001 4286021492
0.12574741 0.10949963 0.30700001 4286087285
0.12674455 0.10949963 0.30700001 4286218871
0.12815779 0.10985631 0.30800003 4286152824
0.12915818 0.10985631 0.30800003 4286218617
0.13015856 0.10985631 0.30800003 4286415996
0.13115893 0.10985631 0.30800003 4286481789
0.13215932 0.10985631 0.30800003 4286547582
0.13315971 0.10985631 0.30800003 4286678398
0.13459568 0.11021298 0.30900002 4286679168
0.13603814 0.11056966 0.31 4286810754
0.13704503 0.11056966 0.31 4286810754
0.094639964 0.10581807 0.294 4282063121
0.095594876 0.10581807 0.294 4282786328
0.096549787 0.10581807 0.294 4282588949
0.097504705 0.10581807 0.294 4284367929
0.098459609 0.10581807 0.294 4285027654
0.09941452 0.10581807 0.294 4282788897
0.10071083 0.10617801 0.29500002 4282850586
0.10201363 0.10653792 0.296 4282982426
0.10297504 0.10653792 0.296 4282193426
0.10393645 0.10653792 0.296 4282127635
0.10773294 0.10941733 0.30400002 4281996562
0.10872033 0.10941733 0.30400002 4281996562
0.10970772 0.10941733 0.30400002 4281931281
0.11069512 0.10941733 0.30400002 4281931281
0.11168251 0.10941733 0.30400002 4283045137
0.11266991 0.10941733 0.30400002 4283766032
0.11403117 0.10977726 0.30500001 4284553488
0.11502181 0.10977726 0.30500001 4284685074
0.11601244 0.10977726 0.30500001 4285077779
0.11700308 0.10977726 0.30500001 4285405717
0.11799373 0.10977726 0.30500001 4285865498
0.11898436 0.10977726 0.30500001 4285669146
0.11997501 0.10977726 0.30500001 4283898388
0.12096565 0.10977726 0.30500001 4287724655
0.12195628 0.10977726 0.30500001 4286414708
0.12294693 0.10977726 0.30500001 4286414708
0.12475027 0.11049711 0.30700001 4285955699
0.12574741 0.11049711 0.30700001 4285955699
0.12674455 0.11049711 0.30700001 4286349687
0.12815779 0.11085704 0.30800003 4286481273
0.12915818 0.11085704 0.30800003 4286482043
0.13015856 0.11085704 0.30800003 4286482043
0.13115893 0.11085704 0.30800003 4286679422
0.13215932 0.11085704 0.30800003 4286811008
0.13315971 0.11085704 0.30800003 4286810754
0.13459568 0.11121696 0.30900002 4286810754
0.13603814 0.11157688 0.31 4287073926
0.13704503 0.11157688 0.31 4287073156
0.10639441 0.056880068 0.303 4284430642
0.10737855 0.056880068 0.303 4284625191
0.10836269 0.056880068 0.303 4285150763
0.10898596 0.056692347 0.30200002 4285021492
0.10408148 0.057673577 0.30200002 4282988334
0.10506238 0.057673577 0.30200002 4284951074
0.10604327 0.057673577 0.30200002 4285079837
0.10702417 0.057673577 0.30200002 4285079064
0.10800506 0.057673577 0.30200002 4285340951
0.10898596 0.057673577 0.30200002 4285934371
0.10960273 0.057482608 0.30100003 4285804582
0.10408148 0.058654804 0.30200002 4284490784
0.10506238 0.058654804 0.30200002 4284946965
0.10604327 0.058654804 0.30200002 4285077779
0.10702417 0.058654804 0.30200002 4285405972
0.10764743 0.058460586 0.30100003 4285405972
0.10862508 0.058460586 0.30100003 4285472019
0.1092386 0.05826636 0.30000001 4285537555
0.110213 0.05826636 0.30000001 4285671197
0.11081678 0.058072142 0.29900002 4285936168
0.11178794 0.058072142 0.29900002 4285223234
0.10275919 0.059438568 0.30100003 4284490788
0.10373684 0.059438568 0.30100003 4284684824
0.10471449 0.059438568 0.30100003 4285011984
0.10569214 0.059438568 0.30100003 4285077777
0.10666979 0.059438568 0.30100003 4285012238
0.10764743 0.059438568 0.30100003 4285208847
0.1082642 0.059241094 0.30000001 4285471760
0.1092386 0.059241094 0.30000001 4285471760
0.10984563 0.059043627 0.29900002 4285471760
0.11081678 0.059043627 0.29900002 4285669141
0.11178794 0.059043627 0.29900002 4285605406
0.11275909 0.059043627 0.29900002 4285938223
0.11373024 0.059043627 0.29900002 4286410851
0.1014434 0.060215823 0.30000001 4283444006
0.1024178 0.060215823 0.30000001 4284685851
0.1033922 0.060215823 0.30000001 4284618513
0.1043666 0.060215823 0.30000001 4284683791
0.105341 0.060215823 0.30000001 4284749584
0.1063154 0.060215823 0.30000001 4284946191
0.1072898 0.060215823 0.30000001 4285077777
0.1082642 0.060215823 0.30000001 4285340433
0.10887448 0.060015105 0.29900002 4285537555
0.10984563 0.060015105 0.29900002 4285866520
0.11081678 0.060015105 0.29900002 4286063899
0.11178794 0.060015105 0.29900002 4285603348
0.11275909 0.060015105 0.29900002 4285734680
0.1141106 0.060215823 0.30000001 4285872430
0.115085 0.060215823 0.30000001 4284427040
0.11644627 0.060416546 0.30100003 4286474848
0.1001341 0.06098659 0.29900002 4283445292
0.10110525 0.06098659 0.29900002 4284293407
0.1024178 0.061190557 0.30000001 4284684304
0.1033922 0.061190557 0.30000001 4284881168
0.1043666 0.061190557 0.30000001 4284814605
0.105341 0.061190557 0.30000001 4284748812
0.10596102 0.06098659 0.29900002 4284946191
0.10693217 0.06098659 0.29900002 4285011984
0.10790332 0.06098659 0.29900002 4285208847
0.10887448 0.06098659 0.29900002 4285734934
0.10984563 0.06098659 0.29900002 4286261535
0.11081678 0.06098659 0.29900002 4287909440
0.11178794 0.06098659 0.29900002 4285932059
0.11275909 0.06098659 0.29900002 4285799705
0.1141106 0.061190557 0.30000001 4285669916
0.11546862 0.061394528 0.30100003 4285934371
0.11683314 0.061598495 0.30200002 4285015066
0.11820414 0.061802458 0.303 4284949273
0.12235615 0.06241437 0.30600002 4285488207
0.12574741 0.062618338 0.30700001 4287135858
0.1001341 0.061958067 0.29900002 4284622372
0.10110525 0.061958067 0.29900002 4284488470
0.1020764 0.061958067 0.29900002 4284749582
0.10304756 0.061958067 0.29900002 4284946191
0.10401872 0.061958067 0.29900002 4284814605
0.10498987 0.061958067 0.29900002 4284683789
0.10596102 0.061958067 0.29900002 4284617996
0.10693217 0.061958067 0.29900002 4284683789
0.10754243 0.061750848 0.29800001 4284881422
0.10851034 0.061750848 0.29800001 4285341203
0.10947824 0.061750848 0.29800001 4285866520
0.11044616 0.061750848 0.29800001 4290475113
0.11178794 0.061958067 0.29900002 4286593328
0.11275909 0.061958067 0.29900002 4285866268
0.1141106 0.062165283 0.30000001 4285865498
0.11546862 0.062372506 0.30100003 4285669146
0.11683314 0.062579721 0.30200002 4285144855
0.11820414 0.062786937 0.303 4284948246
0.11997501 0.063201368 0.30500001 4285079062
0.12096565 0.063201368 0.30500001 4285276441
0.12235615 0.063408591 0.30600002 4285079832
0.12375314 0.063615806 0.30700001 4285474849
0.12475027 0.063615806 0.30700001 4285409574
0.12574741 0.063615806 0.30700001 4285344551
0.12674455 0.063615806 0.30700001 4285215023
0.1001341 0.062929556 0.29900002 4284685333
0.10110525 0.062929556 0.29900002 4284882453
0.1020764 0.062929556 0.29900002 4285210133
0.10304756 0.062929556 0.29900002 4284881168
0.10367082 0.062719084 0.29800001 4284552716
0.10463873 0.062719084 0.29800001 4284421900
0.10560663 0.062719084 0.29800001 4284224778
0.10657453 0.062719084 0.29800001 4284290314
0.10754243 0.062719084 0.29800001 4284749582
0.10851034 0.062719084 0.29800001 4284946191
0.10947824 0.062719084 0.29800001 4285734934
0.11044616 0.062719084 0.29800001 4284880652
0.11178794 0.062929556 0.29900002 4291664522
0.11275909 0.062929556 0.29900002 4284424984
0.1141106 0.06314002 0.30000001 4286062875
0.11546862 0.063350484 0.30100003 4285603094
0.11683314 0.063560948 0.30200002 4284422677
0.11820414 0.063771412 0.303 4288312679
0.12096565 0.064192347 0.30500001 4284424984
0.12235615 0.064402819 0.30600002 4284946963
0.12375314 0.064613283 0.30700001 4285209367
0.12475027 0.064613283 0.30700001 4285538330
0.12574741 0.064613283 0.30700001 4285603353
0.12674455 0.064613283 0.30700001 4285538330
0.12815779 0.064823754 0.30800003 4285802785
0.1001341 0.063901037 0.29900002 4285078549
0.10076711 0.063687317 0.29800001 4284946963
0.10173501 0.063687317 0.29800001 4285406742
0.10270292 0.063687317 0.29800001 4284617996
0.10367082 0.063687317 0.29800001 4284224778
0.10463873 0.063687317 0.29800001 4284093964
0.10560663 0.063687317 0.29800001 4283962378
0.1062169 0.063473605 0.29700002 4284093964
0.10718156 0.063473605 0.29700002 4284421132
0.10814621 0.063473605 0.29700002 4284683791
0.10947824 0.063687317 0.29800001 4284946445
0.11044616 0.063687317 0.29800001 4285406994
0.11141406 0.063687317 0.29800001 4285208847
0.11275909 0.063901037 0.29900002 4287974722
0.1141106 0.064114749 0.30000001 4285735709
0.11546862 0.064328469 0.30100003 4285471767
0.11683314 0.064542182 0.30200002 4284621339
0.11820414 0.064755894 0.303 4288249714
0.12375314 0.065610759 0.30700001 4284554517
0.12475027 0.065610759 0.30700001 4287315509
0.12574741 0.065610759 0.30700001 4285406226
0.12674455 0.065610759 0.30700001 4285668371
0.12815779 0.065824479 0.30800003 4285734164
0.12915818 0.065824479 0.30800003 4285734680
0.10076711 0.06465555 0.29800001 4285406742
0.10173501 0.06465555 0.29800001 4285011984
0.10270292 0.06465555 0.29800001 4284552718
0.10367082 0.06465555 0.29800001 4283568905
0.10428759 0.064438581 0.29700002 4283635468
0.10525225 0.064438581 0.29700002 4283503882
0.1062169 0.064438581 0.29700002 4283766284
0.10718156 0.064438581 0.29700002 4284224780
0.10814621 0.064438581 0.29700002 4284421902
0.10911088 0.064438581 0.29700002 4284618509
0.11044616 0.06465555 0.29800001 4284815627
0.11141406 0.06465555 0.29800001 4285208845
0.11275909 0.064872518 0.29900002 4284946445
0.1141106 0.065089479 0.30000001 4285539102
0.11546862 0.065306447 0.30100003 4285210135
0.11683314 0.065523408 0.30200002 4284162071
0.11820414 0.065740369 0.303 4287725169
0.12475027 0.066608228 0.30700001 4284882705
0.12574741 0.066608228 0.30700001 4285078029
0.12674455 0.066608228 0.30700001 4285405197
0.12774169 0.066608228 0.30700001 4285602576
0.12873882 0.066608228 0.30700001 4285865235
0.13015856 0.066825204 0.30800003 4285799442
0.13115893 0.066825204 0.30800003 4285736477
0.10428759 0.065403573 0.29700002 4282323211
0.10525225 0.065403573 0.29700002 4282913288
0.1062169 0.065403573 0.29700002 4283240969
0.10718156 0.065403573 0.29700002 4283634185
0.10814621 0.065403573 0.29700002 4284028171
0.10911088 0.065403573 0.29700002 4284225550
0.11044616 0.065623783 0.29800001 4284553486
0.11141406 0.065623783 0.29800001 4284486410
0.11275909 0.065843999 0.29900002 4284683789
0.1141106 0.066064209 0.30000001 4285078549
0.11546862 0.066284426 0.30100003 4285210135
0.11683314 0.066504642 0.30200002 4283768597
0.11820414 0.066724852 0.303 4287396202
0.12574741 0.067605712 0.30700001 4284162839
0.12674455 0.067605712 0.30700001 4285471765
0.12774169 0.067605712 0.30700001 4285471765
0.12873882 0.067605712 0.30700001 4285997336
0.12973596 0.067605712 0.30700001 4285799957
0.13073309 0.067605712 0.30700001 4285865235
0.13173023 0.067605712 0.30700001 4286063127
0.10428759 0.06636855 0.29700002 4286481271
0.10525225 0.06636855 0.29700002 4282327063
0.1062169 0.06636855 0.29700002 4282651147
0.10718156 0.06636855 0.29700002 4283175176
0.10814621 0.06636855 0.29700002 4283569421
0.10911088 0.06636855 0.29700002 4283832075
0.11044616 0.066592008 0.29800001 4284028171
0.11141406 0.066592008 0.29800001 4284224523
0.11313621 0.067038938 0.30000001 4284421902
0.11449097 0.067262404 0.30100003 4284421902
0.11585224 0.067485869 0.30200002 4284685074
0.11721999 0.067709327 0.303 4284488724
0.11859426 0.067932792 0.30400002 4284686873
0.12674455 0.06860318 0.30700001 4284948248
0.12774169 0.06860318 0.30700001 4285210133
0.12873882 0.06860318 0.30700001 4291199608
0.12973596 0.06860318 0.30700001 4284686101
0.13073309 0.06860318 0.30700001 4285865496
0.13173023 0.06860318 0.30700001 4285799190
0.13272737 0.06860318 0.30700001 4285605145
0.10393645 0.067106821 0.296 4286285175
0.10525225 0.067333534 0.29700002 4286613627
0.1062169 0.067333534 0.29700002 4285029200
0.10718156 0.067333534 0.29700002 4282782217
0.10814621 0.067333534 0.29700002 4283044104
0.10911088 0.067333534 0.29700002 4283569675
0.11044616 0.067560248 0.29800001 4283635468
0.11178794 0.067786962 0.29900002 4284095247
0.11351334 0.068240389 0.30100003 4283963148
0.11487134 0.068467095 0.30200002 4284225550
0.11623584 0.068693802 0.303 4284619538
0.11721999 0.068693802 0.303 4284487695
0.11859426 0.068920523 0.30400002 4285013269
0.11997501 0.069147229 0.30500001 4285406744
0.12096565 0.069147229 0.30500001 4285407516
0.12235615 0.06937395 0.30600002 4284160536
0.12533781 0.06937395 0.30600002 4287136891
0.1263317 0.06937395 0.30600002 4284686880
0.12774169 0.069600657 0.30700001 4285079064
0.12873882 0.069600657 0.30700001 4285472285
0.12973596 0.069600657 0.30700001 4288698204
0.13073309 0.069600657 0.30700001 4286130985
0.13173023 0.069600657 0.30700001 4285734682
0.13272737 0.069600657 0.30700001 4285799703
0.10393645 0.068068549 0.296 4286350968
0.10525225 0.068298519 0.29700002 4285951849
0.10657453 0.068528473 0.29800001 4283118639
0.10754243 0.068528473 0.29800001 4282913549
0.10814621 0.068298519 0.29700002 4283438350
0.10911088 0.068298519 0.29700002 4283569675
0.11044616 0.068528473 0.29800001 4283833360
0.11178794 0.068758443 0.29900002 4283307530
0.11389045 0.069448322 0.30200002 4283307276
0.11525171 0.069678284 0.303 4283768081
0.11623584 0.069678284 0.303 4283899151
0.11760686 0.069908246 0.30400002 4284226320
0.11898436 0.070138201 0.30500001 4283897355
0.11997501 0.070138201 0.30500001 4284093964
0.12136227 0.070368171 0.30600002 4284357136
0.12235615 0.070368171 0.30600002 4284553488
0.12335004 0.070368171 0.30600002 4284750867
0.12434392 0.070368171 0.30600002 4285014044
0.12533781 0.070368171 0.30600002 4285740338
0.1263317 0.070368171 0.30600002 4287450438
0.12732559 0.070368171 0.30600002 4285145627
0.12873882 0.070598125 0.30700001 4285471258
0.12973596 0.070598125 0.30700001 4285734432
0.13073309 0.070598125 0.30700001 4289288801
0.13173023 0.070598125 0.30700001 4285931811
0.13272737 0.070598125 0.30700001 4285866266
0.10393645 0.069030285 0.296 4284305225
0.10525225 0.069263503 0.29700002 4284230958
0.10657453 0.069496706 0.29800001 4284293921
0.10790332 0.069729924 0.29900002 4284684822
0.10814621 0.069263503 0.29700002 4287382587
0.10911088 0.069263503 0.29700002 4284686101
0.11266991 0.070895977 0.30400002 4284292115
0.1136573 0.070895977 0.30400002 4282915600
0.11563208 0.070895977 0.30400002 4286937447
0.11700308 0.07112918 0.30500001 4287267182
0.11937448 0.071362399 0.30600002 4282453252
0.12036838 0.071362399 0.30600002 4283109385
0.12136227 0.071362399 0.30600002 4283241485
0.12235615 0.071362399 0.30600002 4283504657
0.12335004 0.071362399 0.30600002 4283635727
0.12434392 0.071362399 0.30600002 4284160529
0.12533781 0.071362399 0.30600002 4284553745
0.1263317 0.071362399 0.30600002 4285472537
0.12732559 0.071362399 0.30600002 4287512890
0.12831949 0.071362399 0.30600002 4285077011
0.12973596 0.071595602 0.30700001 4285208338
0.13073309 0.071595602 0.30700001 4285668119
0.13173023 0.071595602 0.30700001 4285734684
0.13272737 0.071595602 0.30700001 4286063647
0.13372451 0.071595602 0.30700001 4285537560
0.1072898 0.070937857 0.30000001 4285145627
0.10862508 0.071174324 0.30100003 4285670684
0.11033098 0.071647234 0.303 4285538582
0.11131513 0.071647234 0.303 4284161042
0.11266991 0.071883701 0.30400002 4286735190
0.12036838 0.072356619 0.30600002 4282454285
0.12175887 0.072593078 0.30700001 4282585869
0.122756 0.072593078 0.30700001 4282717194
0.12335004 0.072356619 0.30600002 4283046672
0.12434392 0.072356619 0.30600002 4282914055
0.12533781 0.072356619 0.30600002 4283439114
0.1263317 0.072356619 0.30600002 4284488204
0.12732559 0.072356619 0.30600002 4285276180
0.12831949 0.072356619 0.30600002 4285011984
0.12973596 0.072593078 0.30700001 4284814605
0.13073309 0.072593078 0.30700001 4284946191
0.13173023 0.072593078 0.30700001 4285077777
0.13272737 0.072593078 0.30700001 4285669146
0.098499656 0.071193472 0.29700002 4280291073
0.099464305 0.071193472 0.29700002 4279963137
0.10042896 0.071193472 0.29700002 4280160516
0.10139362 0.071193472 0.29700002 4280487939
0.10201363 0.070953757 0.296 4283182883
0.10764743 0.072152302 0.30100003 4289753443
0.10898596 0.072392009 0.30200002 4285803560
0.11033098 0.072631717 0.303 4285016097
0.11168251 0.072871432 0.30400002 4287005809
0.1197646 0.073590554 0.30700001 4282126611
0.12076173 0.073590554 0.30700001 4282258703
0.12175887 0.073590554 0.30700001 4282258188
0.122756 0.073590554 0.30700001 4282257416
0.12375314 0.073590554 0.30700001 4282323209
0.12475027 0.073590554 0.30700001 4281995014
0.12574741 0.073590554 0.30700001 4282389256
0.12674455 0.073590554 0.30700001 4283635466
0.12774169 0.073590554 0.30700001 4284291341
0.12873882 0.073590554 0.30700001 4284420617
0.12973596 0.073590554 0.30700001 4284617998
0.13073309 0.073590554 0.30700001 4284617998
0.13173023 0.073590554 0.30700001 4284946193
0.13272737 0.073590554 0.30700001 4284946963
0.098499656 0.072158456 0.29700002 4280028417
0.099464305 0.072158456 0.29700002 4279963139
0.10042896 0.072158456 0.29700002 4280094725
0.10105222 0.071915492 0.296 4282852633
0.10201363 0.071915492 0.296 4283770909
0.10297504 0.071915492 0.296 4284753179
0.10800506 0.073373243 0.30200002 4285147431
0.10934684 0.073616199 0.303 4285880396
0.11069512 0.073859155 0.30400002 4286940016
0.11876746 0.074588031 0.30700001 4282323729
0.1197646 0.074588031 0.30700001 4282126604
0.12076173 0.074588031 0.30700001 4281995018
0.12175887 0.074588031 0.30700001 4282258190
0.122756 0.074588031 0.30700001 4282126604
0.12375314 0.074588031 0.30700001 4282192395
0.12475027 0.074588031 0.30700001 4282258188
0.12574741 0.074588031 0.30700001 4281994244
0.12674455 0.074588031 0.30700001 4282650116
0.12774169 0.074588031 0.30700001 4283635981
0.12873882 0.074588031 0.30700001 4284029454
0.12973596 0.074588031 0.30700001 4283765771
0.13073309 0.074588031 0.30700001 4284487954
0.13173023 0.074588031 0.30700001 4284487954
0.13272737 0.074588031 0.30700001 4284487700
0.098168001 0.072877221 0.296 4279897346
0.099129401 0.072877221 0.296 4279962626
0.10009081 0.072877221 0.296 4281999894
0.10105222 0.072877221 0.296 4283704087
0.10201363 0.072877221 0.296 4284424982
0.10297504 0.072877221 0.296 4285144342
0.11777031 0.075585499 0.30700001 4283110417
0.11876746 0.075585499 0.30700001 4283372303
0.12015472 0.075831711 0.30800003 4283109131
0.1211551 0.075831711 0.30800003 4282781450
0.12215549 0.075831711 0.30800003 4282716170
0.12315586 0.075831711 0.30800003 4282520590
0.12415624 0.075831711 0.30800003 4282258188
0.12515663 0.075831711 0.30800003 4281995016
0.12615702 0.075831711 0.30800003 4281995016
0.12715741 0.075831711 0.30800003 4281994244
0.12815779 0.075831711 0.30800003 4282585608
0.12915818 0.075831711 0.30800003 4283242766
0.13015856 0.075831711 0.30800003 4283439632
0.13115893 0.075831711 0.30800003 4283833106
0.13173023 0.075585499 0.30700001 4284359450
0.098168001 0.073838957 0.296 4280027136
0.099129401 0.073838957 0.296 4281275656
0.10009081 0.073838957 0.296 4283114262
0.10105222 0.073838957 0.296 4284031253
0.10201363 0.073838957 0.296 4284686871
0.10297504 0.073838957 0.296 4285275156
0.11440504 0.076333523 0.30600002 4282850073
0.11677318 0.076582976 0.30700001 4283242003
0.11777031 0.076582976 0.30700001 4283700755
0.11915433 0.076832436 0.30800003 4283896335
0.12015472 0.076832436 0.30800003 4283830540
0.1211551 0.076832436 0.30800003 4283831564
0.12215549 0.076832436 0.30800003 4283436806
0.12315586 0.076832436 0.30800003 4282979081
0.12415624 0.076832436 0.30800003 4282454281
0.12515663 0.076832436 0.30800003 4281863430
0.12615702 0.076832436 0.30800003 4281731844
0.12715741 0.076832436 0.30800003 4281797637
0.12815779 0.076832436 0.30800003 4282257418
0.12915818 0.076832436 0.30800003 4282849293
0.13058114 0.077081889 0.30900002 4283308559
0.13158478 0.077081889 0.30900002 4283703065
0.099129401 0.074800692 0.296 4282850323
0.10009081 0.074800692 0.296 4283572503
0.10201363 0.074800692 0.296 4284816917
0.10297504 0.074800692 0.296 4285275926
0.11577605 0.077580452 0.30700001 4281340427
0.11677318 0.077580452 0.30700001 4282586383
0.11777031 0.077580452 0.30700001 4283241231
0.11915433 0.077833161 0.30800003 4283896333
0.12015472 0.077833161 0.30800003 4283830794
0.1211551 0.077833161 0.30800003 4283962380
0.12215549 0.077833161 0.30800003 4283699978
0.12315586 0.077833161 0.30800003 4283635214
0.12455935 0.078085862 0.30900002 4283111180
0.12556298 0.078085862 0.30900002 4282323209
0.12656662 0.078085862 0.30900002 4281863430
0.12757024 0.078085862 0.30900002 4281731844
0.12857388 0.078085862 0.30900002 4282125830
0.12957752 0.078085862 0.30900002 4282585608
0.13058114 0.078085862 0.30900002 4283571220
0.13201061 0.078338563 0.31 4282720022
0.10235828 0.076018386 0.29700002 4284946963
0.10639441 0.077554107 0.303 4284096532
0.11777031 0.078577928 0.30700001 4281667849
0.11915433 0.078833885 0.30800003 4283503628
0.12015472 0.078833885 0.30800003 4283897357
0.1211551 0.078833885 0.30800003 4283897357
0.12215549 0.078833885 0.30800003 4283765771
0.12355571 0.079089835 0.30900002 4282782217
0.12455935 0.079089835 0.30900002 4283773735
0.12556298 0.079089835 0.30900002 4283642153
0.12656662 0.079089835 0.30900002 4281929738
0.12757024 0.079089835 0.30900002 4281863432
0.12898998 0.079345785 0.31 4281994248
0.12999685 0.079345785 0.31 4282650631
0.13100372 0.079345785 0.31 4283571220
0.13243645 0.079601742 0.31100002 4282587151
0.10139362 0.07698337 0.29700002 4285340433
0.11876746 0.079575405 0.30700001 4282520076
0.12015472 0.07983461 0.30800003 4283504143
0.1211551 0.07983461 0.30800003 4283766030
0.12215549 0.07983461 0.30800003 4282649348
0.12355571 0.080093808 0.30900002 4287400567
0.12455935 0.080093808 0.30900002 4286348908
0.12556298 0.080093808 0.30900002 4287400574
0.12656662 0.080093808 0.30900002 4280420356
0.12798309 0.080353007 0.31 4281798152
0.12898998 0.080353007 0.31 4281994248
0.12999685 0.080353007 0.31 4282322182
0.13100372 0.080353007 0.31 4283045135
0.13243645 0.08061222 0.31100002 4284033054
0.12015472 0.080835328 0.30800003 4282914321
0.1211551 0.080835328 0.30800003 4282258440
0.12215549 0.080835328 0.30800003 4287792756
0.12355571 0.081097774 0.30900002 4286152556
0.12455935 0.081097774 0.30900002 4286152558
0.12556298 0.081097774 0.30900002 4286151284
0.12656662 0.081097774 0.30900002 4280291341
0.12798309 0.081360221 0.31 4281863945
0.12898998 0.081360221 0.31 4282060039
0.12999685 0.081360221 0.31 4282454281
0.13100372 0.081360221 0.31 4283045389
0.13243645 0.081622683 0.31100002 4283965206
0.10173501 0.079179034 0.29800001 4285142800
0.1211551 0.081836052 0.30800003 4286742635
0.12215549 0.081836052 0.30800003 4286414701
0.12315586 0.081836052 0.30800003 4286153076
0.12455935 0.082101747 0.30900002 4286087283
0.12556298 0.082101747 0.30900002 4286152054
0.12656662 0.082101747 0.30900002 4280884761
0.12757024 0.082101747 0.30900002 4281863691
0.12898998 0.08236745 0.31 4281995016
0.12999685 0.08236745 0.31 4282389002
0.13100372 0.08236745 0.31 4282849291
0.13243645 0.082633153 0.31100002 4283898899
0.1197646 0.082567826 0.30700001 4282332980
0.12076173 0.082567826 0.30700001 4286284396
0.12175887 0.082567826 0.30700001 4286284144
0.12315586 0.082836777 0.30800003 4286086515
0.12415624 0.082836777 0.30800003 4285955699
0.12556298 0.083105728 0.30900002 4285889904
0.12656662 0.083105728 0.30900002 4281872679
0.12757024 0.083105728 0.30900002 4282257936
0.12857388 0.083105728 0.30900002 4282256904
0.12999685 0.083374672 0.31 4282322182
0.13100372 0.083374672 0.31 4282914573
0.13201061 0.083374672 0.31 4283833620
0.1330175 0.083374672 0.31 4286337865
0.12036838 0.083293103 0.30600002 4286218351
0.12175887 0.083565302 0.30700001 4286218099
0.122756 0.083565302 0.30700001 4286086515
0.12415624 0.083837502 0.30800003 4286218101
0.12515663 0.083837502 0.30800003 4285758316
0.12615702 0.083837502 0.30800003 4281543714
0.12757024 0.084109701 0.30900002 4282389006
0.12857388 0.084109701 0.30900002 4282849041
0.12957752 0.084109701 0.30900002 4282519561
0.13058114 0.084109701 0.30900002 4282716170
0.13201061 0.084381893 0.31 4283701782
0.12036838 0.084287331 0.30600002 4285889904
0.12136227 0.084287331 0.30600002 4285955699
0.12235615 0.084287331 0.30600002 4286087285
0.12375314 0.084562778 0.30700001 4286021492
0.12515663 0.084838226 0.30800003 4285692525
0.12615702 0.084838226 0.30800003 4281412128
0.12715741 0.084838226 0.30800003 4282389004
0.12857388 0.085113674 0.30900002 4282651149
0.12957752 0.085113674 0.30900002 4282649864
0.13058114 0.085113674 0.30900002 4282979083
0.13158478 0.085113674 0.30900002 4283570196
0.11997501 0.085002847 0.30500001 4285692527
0.12096565 0.085002847 0.30500001 4285955699
0.12235615 0.085281551 0.30600002 4285955699
0.12335004 0.085281551 0.30600002 4286021492
0.12475027 0.08556024 0.30700001 4285758318
0.12615702 0.085838944 0.30800003 4281016345
0.12715741 0.085838944 0.30800003 4282585871
0.12815779 0.085838944 0.30800003 4282716170
0.12915818 0.085838944 0.30800003 4282912520
0.13058114 0.08611764 0.30900002 4283438350
0.13158478 0.08611764 0.30900002 4283898901
0.11958165 0.085711882 0.30400002 4286021490
0.12096565 0.085993826 0.30500001 4286349687
0.12195628 0.085993826 0.30500001 4286283894
0.12335004 0.086275779 0.30600002 4286218101
0.12475027 0.086557716 0.30700001 4286283122
0.12574741 0.086557716 0.30700001 4280947988
0.12715741 0.086839668 0.30800003 4282978833
0.12815779 0.086839668 0.30800003 4282912266
0.12915818 0.086839668 0.30800003 4283240971
0.13015856 0.086839668 0.30800003 4283504141
0.13115893 0.086839668 0.30800003 4284095765
0.11958165 0.086699612 0.30400002 4286153074
0.12056905 0.086699612 0.30400002 4286218869
0.12155643 0.086699612 0.30400002 4286021490
0.12294693 0.086984806 0.30500001 4286218101
0.12475027 0.087555192 0.30700001 4287268738
0.12574741 0.087555192 0.30700001 4282130463
0.12674455 0.087555192 0.30700001 4283307026
0.12815779 0.087840393 0.30800003 4283372557
0.12915818 0.087840393 0.30800003 4283634444
0.13015856 0.087840393 0.30800003 4283700237
0.13115893 0.087840393 0.30800003 4284356884
0.13215932 0.087840393 0.30800003 4285014298
0.13315971 0.087840393 0.30800003 4285022005
0.11820414 0.087398887 0.303 4284769881
0.11918829 0.087398887 0.303 4286021490
0.12017243 0.087398887 0.303 4286087283
0.12155643 0.087687336 0.30400002 4286218871
0.12254383 0.087687336 0.30400002 4286416250
0.12475027 0.088552669 0.30700001 4287200889
0.12574741 0.088552669 0.30700001 4282981920
0.12674455 0.088552669 0.30700001 4283437837
0.12815779 0.088841125 0.30800003 4283634698
0.12915818 0.088841125 0.30800003 4283699976
0.13015856 0.088841125 0.30800003 4283831562
0.13115893 0.088841125 0.30800003 4284618511
0.13215932 0.088841125 0.30800003 4285405972
0.13315971 0.088841125 0.30800003 4285474590
0.13459568 0.08912956 0.30900002 4286401602
0.11820414 0.088383362 0.303 4286547062
0.11918829 0.088383362 0.303 4286087281
0.12017243 0.088383362 0.303 4286350455
0.12115657 0.088383362 0.303 4286350455
0.12214071 0.088383362 0.303 4286087285
0.12475027 0.089550138 0.30700001 4284368706
0.12574741 0.089550138 0.30700001 4283111448
0.12674455 0.089550138 0.30700001 4283634444
0.12815779 0.089841835 0.30800003 4283634185
0.12915818 0.089841835 0.30800003 4283896587
0.13015856 0.089841835 0.30800003 4284028173
0.13115893 0.089841835 0.30800003 4284880400
0.13215932 0.089841835 0.30800003 4285668117
0.13315971 0.089841835 0.30800003 4285865496
0.13459568 0.090133525 0.30900002 4285011984
0.11820414 0.089367837 0.303 4285956462
0.11918829 0.089367837 0.303 4286481523
0.12017243 0.089367837 0.303 4286152304
0.12115657 0.089367837 0.303 4286021488
0.12214071 0.089367837 0.303 4286679418
0.12475027 0.090547614 0.30700001 4282324244
0.12574741 0.090547614 0.30700001 4283634964
0.12674455 0.090547614 0.30700001 4283830794
0.12815779 0.090842567 0.30800003 4284028173
0.12915818 0.090842567 0.30800003 4283962380
0.13015856 0.090842567 0.30800003 4284224780
0.13115893 0.090842567 0.30800003 4285405974
0.13215932 0.090842567 0.30800003 4285866266
0.13315971 0.090842567 0.30800003 4285930776
0.13459568 0.091137506 0.30900002 4285930776
0.11721999 0.090352319 0.303 4286350705
0.11820414 0.090352319 0.303 4285956460
0.11918829 0.090352319 0.303 4285890415
0.12017243 0.090352319 0.303 4286153076
0.12115657 0.090352319 0.303 4286087283
0.12214071 0.090352319 0.303 4286217074
0.12475027 0.09154509 0.30700001 4283768349
0.12574741 0.09154509 0.30700001 4283700239
0.12674455 0.09154509 0.30700001 4284092937
0.12815779 0.091843292 0.30800003 4284224523
0.12915818 0.091843292 0.30800003 4284289546
0.13015856 0.091843292 0.30800003 4284750097
0.13115893 0.091843292 0.30800003 4285011986
0.13215932 0.091843292 0.30800003 4290738037
0.13315971 0.091843292 0.30800003 4286063647
0.13459568 0.092141479 0.30900002 4286128668
0.13603814 0.092439666 0.31 4283965206
0.11721999 0.091336802 0.303 4285890154
0.11820414 0.091336802 0.303 4286087533
0.11918829 0.091336802 0.303 4285955699
0.12017243 0.091336802 0.303 4286021492
0.12075672 0.091035359 0.30200002 4286348663
0.12214071 0.091336802 0.303 4282197801
0.12475027 0.092542566 0.30700001 4284225816
0.12574741 0.092542566 0.30700001 4284224782
0.12674455 0.092542566 0.30700001 4284552718
0.12815779 0.092844017 0.30800003 4284486410
0.12915818 0.092844017 0.30800003 4284486412
0.13015856 0.092844017 0.30800003 4284683793
0.13115893 0.092844017 0.30800003 4285537558
0.13215932 0.092844017 0.30800003 4285340181
0.13315971 0.092844017 0.30800003 4286262055
0.13459568 0.093145452 0.30900002 4285735709
0.11563208 0.092625968 0.30400002 4278584320
0.11661947 0.092625968 0.30400002 4286677878
0.11721999 0.092321269 0.303 4286349937
0.11820414 0.092321269 0.303 4286218351
0.11918829 0.092321269 0.303 4286218101
0.12017243 0.092321269 0.303 4286218101
0.12115657 0.092321269 0.303 4287596161
0.12214071 0.092321269 0.303 4283770155
0.12475027 0.093540035 0.30700001 4284487954
0.12574741 0.093540035 0.30700001 4284421902
0.12674455 0.093540035 0.30700001 4284420619
0.12815779 0.093844734 0.30800003 4284486412
0.12915818 0.093844734 0.30800003 4284617998
0.13015856 0.093844734 0.30800003 4284881170
0.13115893 0.093844734 0.30800003 4284881170
0.13215932 0.093844734 0.30800003 4285340951
0.13315971 0.093844734 0.30800003 4285603353
0.13459568 0.094149418 0.30900002 4285867295
0.11464469 0.093613699 0.30400002 4278649856
0.11563208 0.093613699 0.30400002 4286283120
0.11661947 0.093613699 0.30400002 4286086511
0.11760686 0.093613699 0.30400002 4286218099
0.11859426 0.093613699 0.30400002 4286152306
0.11958165 0.093613699 0.30400002 4286218101
0.12017243 0.093305752 0.303 4286152308
0.12115657 0.093305752 0.303 4283574827
0.12214071 0.093305752 0.303 4284357152
0.12475027 0.094537511 0.30700001 4284553490
0.12574741 0.094537511 0.30700001 4284618511
0.12674455 0.094537511 0.30700001 4284749582
0.12815779 0.094845459 0.30800003 4284814605
0.12915818 0.094845459 0.30800003 4284946193
0.13015856 0.094845459 0.30800003 4284815377
0.13115893 0.094845459 0.30800003 4284749584
0.13215932 0.094845459 0.30800003 4284814607
0.13315971 0.094845459 0.30800003 4285077779
0.13459568 0.095153391 0.30900002 4285077779
0.11464469 0.094601423 0.30400002 4285624163
0.11563208 0.094601423 0.30400002 4285889386
0.11661947 0.094601423 0.30400002 4286152304
0.11760686 0.094601423 0.30400002 4286218099
0.11859426 0.094601423 0.30400002 4286218101
0.11958165 0.094601423 0.30400002 4286152306
0.12056905 0.094601423 0.30400002 4285821031
0.12155643 0.094601423 0.30400002 4285014312
0.12254383 0.094601423 0.30400002 4284947742
0.12475027 0.095534988 0.30700001 4284881172
0.12574741 0.095534988 0.30700001 4284880400
0.12674455 0.095534988 0.30700001 4284880400
0.12815779 0.095846184 0.30800003 4284946193
0.12915818 0.095846184 0.30800003 4285077779
0.13015856 0.095846184 0.30800003 4284683791
0.13115893 0.095846184 0.30800003 4284290316
0.13215932 0.095846184 0.30800003 4284619540
0.13315971 0.095846184 0.30800003 4284816919
0.13459568 0.096157365 0.30900002 4284685079
0.13603814 0.096468553 0.31 4286409309
0.11069512 0.095589153 0.30400002 4278650880
0.11502181 0.09590359 0.30500001 4287200106
0.11601244 0.09590359 0.30500001 4286152558
0.11700308 0.09590359 0.30500001 4286086513
0.11799373 0.09590359 0.30500001 4286086513
0.11859426 0.095589153 0.30400002 4286020720
0.11958165 0.095589153 0.30400002 4287202684
0.12056905 0.095589153 0.30400002 4283378215
0.12155643 0.095589153 0.30400002 4285013535
0.12254383 0.095589153 0.30400002 4284881431
0.12475027 0.096532464 0.30700001 4284946193
0.12574741 0.096532464 0.30700001 4284880400
0.12674455 0.096532464 0.30700001 4285142802
0.12815779 0.096846908 0.30800003 4285142802
0.12915818 0.096846908 0.30800003 4284815890
0.13015856 0.096846908 0.30800003 4284291343
0.13115893 0.096846908 0.30800003 4283964433
0.13215932 0.096846908 0.30800003 4284096019
0.13315971 0.096846908 0.30800003 4284097310
0.11502181 0.09689457 0.30500001 4286733906
0.11601244 0.09689457 0.30500001 4285823341
0.11700308 0.09689457 0.30500001 4286020720
0.11799373 0.09689457 0.30500001 4286086513
0.11898436 0.09689457 0.30500001 4286283892
0.11997501 0.09689457 0.30500001 4283638053
0.12096565 0.09689457 0.30500001 4284883496
0.12195628 0.09689457 0.30500001 4285276189
0.12294693 0.09689457 0.30500001 4285144344
0.12475027 0.09752994 0.30700001 4285208593
0.12574741 0.09752994 0.30700001 4285340179
0.12674455 0.09752994 0.30700001 4285208593
0.12815779 0.097847633 0.30800003 4285340179
0.12915818 0.097847633 0.30800003 4284096532
0.13015856 0.097847633 0.30800003 4283505938
0.13115893 0.097847633 0.30800003 4283639323
0.13215932 0.097847633 0.30800003 4283707682
0.13315971 0.097847633 0.30800003 4285818714
0.11601244 0.097885534 0.30500001 4285888362
0.11700308 0.097885534 0.30500001 4286152306
0.11799373 0.097885534 0.30500001 4286085484
0.11898436 0.097885534 0.30500001 4283512116
0.11997501 0.097885534 0.30500001 4285145382
0.12096565 0.097885534 0.30500001 4285211168
0.12195628 0.097885534 0.30500001 4285275160
0.12294693 0.097885534 0.30500001 4285142804
0.12475027 0.098527409 0.30700001 4285471765
0.12574741 0.098527409 0.30700001 4285471508
0.12674455 0.098527409 0.30700001 4285210135
0.11502181 0.098876514 0.30500001 4285014296
0.11601244 0.098876514 0.30500001 4285952867
0.11700308 0.098876514 0.30500001 4286217581
0.11799373 0.098876514 0.30500001 4284558642
0.11898436 0.098876514 0.30500001 4285210664
0.11997501 0.098876514 0.30500001 4285341469
0.12096565 0.098876514 0.30500001 4285538332
0.12195628 0.098876514 0.30500001 4285406746
0.12294693 0.098876514 0.30500001 4285472537
0.12475027 0.099524885 0.30700001 4285538330
0.12574741 0.099524885 0.30700001 4285472537
0.12674455 0.099524885 0.30700001 4284164640
0.11898436 0.099867493 0.30500001 4285668896
0.11997501 0.099867493 0.30500001 4285603355
0.12574741 0.10052236 0.30700001 4284815892
0.11898436 0.10085847 0.30500001 4285603098
0.1128784 0.082921021 0.30197701 4294967295
0.1128784 0.082921021 0.30197701 4294901760
0.1128784 0.08242178 0.30194947 4294901760
0.1128784 0.081922539 0.30192193 4294901760
0.1128784 0.081423298 0.30189443 4294901760
0.1128784 0.080924056 0.30186689 4294901760
0.1128784 0.080424815 0.30183935 4294901760
0.1128784 0.079925574 0.30181181 4294901760
0.1128784 0.079426333 0.30178428 4294901760
0.1128784 0.078927092 0.30175677 4294901760
0.1128784 0.078427844 0.30172923 4294901760
0.1128784 0.077928603 0.30170169 4294901760
0.1128784 0.077429362 0.30167416 4294901760
0.1128784 0.076930121 0.30164665 4294901760
0.1128784 0.07643088 0.30161911 4294901760
0.1128784 0.075931638 0.30159158 4294901760
0.1128784 0.075432397 0.30156404 4294901760
0.1128784 0.074933156 0.3015365 4294901760
0.1128784 0.074433915 0.30150899 4294901760
0.1128784 0.073934674 0.30148146 4294901760
0.1128784 0.073435433 0.30145392 4294901760
0.1128784 0.072936192 0.30142638 4294901760
0.1128784 0.072436951 0.30139884 4294901760
0.1128784 0.07193771 0.30137134 4294901760
0.1128784 0.071438469 0.3013438 4294901760
0.1128784 0.070939228 0.30131626 4294901760
0.1128784 0.070439979 0.30128872 4294901760
0.1128784 0.069940746 0.30126119 4294901760
0.1128784 0.069441497 0.30123368 4294901760
0.1128784 0.068942256 0.30120614 4294901760
0.1128784 0.068443015 0.3011786 4294901760
0.1128784 0.067943774 0.30115107 4294901760
0.1128784 0.067444533 0.30112356 4294901760
0.1128784 0.066945292 0.30109602 4294901760
0.1128784 0.066446051 0.30106848 4294901760
0.1128784 0.06594681 0.30104095 4294901760
0.1128784 0.065447569 0.30101341 4294901760
0.1128784 0.064948328 0.3009859 4294901760
0.1128784 0.064449087 0.30095837 4294901760
0.1128784 0.063949846 0.30093083 4294901760
0.1128784 0.063450605 0.30090329 4294901760
0.1128784 0.062951356 0.30087575 4294901760
0.1128784 0.062452119 0.30084825 4294901760
0.1128784 0.061952878 0.30082071 4294901760
0.1128784 0.061453633 0.30079317 4294901760
0.1128784 0.060954396 0.30076563 4294901760
0.1128784 0.060455155 0.3007381 4294901760
0.1128784 0.05995591 0.30071059 4294901760
0.1128784 0.059456669 0.30068305 4294901760
0.1128784 0.058957428 0.30065551 4294901760
0.1128784 0.058458187 0.30062798 4294901760
0.1128784 0.057958946 0.30060047 4294901760
0.1128784 0.057459705 0.30057293 4294901760
0.1128784 0.056960464 0.30054539 4294901760
0.1128784 0.056461222 0.30051786 4294901760
0.1128784 0.055961978 0.30049032 4294901760
0.1128784 0.055462737 0.30046281 4294901760
0.1128784 0.054963496 0.30043527 4294901760
0.1128784 0.054464258 0.30040774 4294901760
0.1128784 0.053965017 0.3003802 4294901760
0.1128784 0.053465776 0.30035266 4294901760
0.1128784 0.052966528 0.30032516 4294901760
0.1128784 0.052467287 0.30029762 4294901760
0.1128784 0.051968046 0.30027008 4294901760
0.1128784 0.051468808 0.30024254 4294901760
0.1128784 0.050969567 0.30021501 4294901760
0.1128784 0.050470326 0.3001875 4294901760
0.1128784 0.049971081 0.30015996 4294901760
0.1128784 0.04947184 0.30013242 4294901760
0.1128784 0.048972599 0.30010489 4294901760
0.1128784 0.048473358 0.30007735 4294901760
0.1128784 0.047974117 0.30004984 4294901760
0.1128784 0.047474876 0.3000223 4294901760
0.1128784 0.046975631 0.29999477 4294901760
0.1128784 0.04647639 0.29996723 4294901760
0.1128784 0.045977149 0.29993972 4294901760
0.1128784 0.045477908 0.29991218 4294901760
0.1128784 0.044978667 0.29988465 4294901760
0.1128784 0.044479426 0.29985711 4294901760
0.1128784 0.043980185 0.29982957 4294901760
0.1128784 0.04348094 0.29980206 4294901760
0.1128784 0.042981699 0.29977453 4294901760
0.1128784 0.042482458 0.29974699 4294901760
0.1128784 0.041983217 0.29971945 4294901760
0.1128784 0.041483976 0.29969192 4294901760
0.1128784 0.040984735 0.29966441 4294901760
0.1128784 0.04048549 0.29963687 4294901760
0.1128784 0.039986249 0.29960933 4294901760
0.1128784 0.039487008 0.2995818 4294901760
0.1128784 0.038987771 0.29955426 4294901760
0.1128784 0.03848853 0.29952675 4294901760
0.1128784 0.037989289 0.29949921 4294901760
0.1128784 0.037490044 0.29947168 4294901760
0.1128784 0.036990803 0.29944414 4294901760
0.1128784 0.036491562 0.29941663 4294901760
0.1128784 0.035992321 0.29938909 4294901760
0.1128784 0.03549308 0.29936156 4294901760
0.1128784 0.034993839 0.29933402 4294901760
0.1128784 0.034494594 0.29930648 4294901760
0.1128784 0.033995353 0.29927897 4294901760
0.1128784 0.033496112 0.29925144 4294901760
0.1128784 0.032996871 0.2992239 4294901760
0.1128784 0.082921021 0.30197701 4278255360
0.11335655 0.082912967 0.30212298 4278255360
0.11383469 0.08290492 0.30226898 4278255360
0.11431284 0.082896873 0.30241495 4278255360
0.11479099 0.082888819 0.30256096 4278255360
0.11526914 0.082880765 0.30270693 4278255360
0.11574728 0.082872719 0.3028529 4278255360
0.11622543 0.082864672 0.3029989 4278255360
0.11670358 0.082856618 0.30314487 4278255360
0.11718173 0.082848564 0.30329087 4278255360
0.11765987 0.082840517 0.30343685 4278255360
0.11813802 0.082832471 0.30358282 4278255360
0.11861616 0.082824416 0.30372882 4278255360
0.1190943 0.08281637 0.30387479 4278255360
0.11957245 0.082808316 0.30402076 4278255360
0.1200506 0.082800262 0.30416676 4278255360
0.12052875 0.082792215 0.30431274 4278255360
0.12100689 0.082784161 0.30445874 4278255360
0.12148504 0.082776114 0.30460471 4278255360
0.12196319 0.082768068 0.30475068 4278255360
0.12244134 0.082760014 0.30489668 4278255360
0.12291948 0.08275196 0.30504265 4278255360
0.12339763 0.082743913 0.30518866 4278255360
0.12387577 0.082735866 0.30533463 4278255360
0.12435392 0.082727812 0.3054806 4278255360
0.12483206 0.082719758 0.3056266 4278255360
0.12531021 0.082711712 0.30577257 4278255360
0.12578836 0.082703657 0.30591857 4278255360
0.12626651 0.082695611 0.30606455 4278255360
0.12674466 0.082687557 0.30621052 4278255360
0.12722281 0.08267951 0.30635652 4278255360
0.12770094 0.082671463 0.30650249 4278255360
0.12817909 0.082663409 0.30664846 4278255360
0.12865724 0.082655355 0.30679446 4278255360
0.12913539 0.082647309 0.30694044 4278255360
0.12961353 0.082639262 0.30708644 4278255360
0.13009168 0.082631208 0.30723241 4278255360
0.13056982 0.082623154 0.30737838 4278255360
0.13104796 0.082615107 0.30752438 4278255360
0.13152611 0.082607061 0.30767035 4278255360
0.13200426 0.082599007 0.30781636 4278255360
0.13248241 0.082590953 0.30796233 4278255360
0.13296056 0.082582906 0.3081083 4278255360
0.13343871 0.082574859 0.3082543 4278255360
0.13391685 0.082566805 0.30840027 4278255360
0.13439499 0.082558751 0.30854627 4278255360
0.13487314 0.082550704 0.30869225 4278255360
0.13535129 0.082542658 0.30883822 4278255360
0.13582943 0.082534604 0.30898422 4278255360
0.13630758 0.08252655 0.30913019 4278255360
0.13678573 0.082518503 0.30927616 4278255360
0.13726388 0.082510456 0.30942217 4278255360
0.13774201 0.082502402 0.30956814 4278255360
0.13822016 0.082494356 0.30971414 4278255360
0.13869831 0.082486302 0.30986011 4278255360
0.13917646 0.082478255 0.31000608 4278255360
0.13965461 0.082470201 0.31015208 4278255360
0.14013276 0.082462147 0.31029806 4278255360
0.1406109 0.0824541 0.31044406 4278255360
0.14108905 0.082446054 0.31059003 4278255360
0.1415672 0.082438 0.310736 4278255360
0.14204533 0.082429945 0.310882 4278255360
0.14252348 0.082421899 0.31102797 4278255360
0.14300163 0.082413852 0.31117398 4278255360
0.14347978 0.082405798 0.31131995 4278255360
0.14395793 0.082397744 0.31146592 4278255360
0.14443608 0.082389697 0.31161192 4278255360
0.14491421 0.082381651 0.31175789 4278255360
0.14539236 0.082373597 0.31190389 4278255360
0.14587051 0.082365543 0.31204987 4278255360
0.14634866 0.082357496 0.31219584 4278255360
0.1468268 0.082349449 0.31234184 4278255360
0.14730495 0.082341395 0.31248781 4278255360
0.1477831 0.082333341 0.31263378 4278255360
0.14826125 0.082325295 0.31277978 4278255360
0.1487394 0.082317248 0.31292576 4278255360
0.14921753 0.082309194 0.31307176 4278255360
0.14969568 0.08230114 0.31321773 4278255360
0.15017383 0.082293093 0.3133637 4278255360
0.15065198 0.082285047 0.3135097 4278255360
0.15113012 0.082276992 0.31365567 4278255360
0.15160826 0.082268938 0.31380168 4278255360
0.15208641 0.082260892 0.31394765 4278255360
0.15256456 0.082252845 0.31409362 4278255360
0.1530427 0.082244791 0.31423962 4278255360
0.15352085 0.082236737 0.31438559 4278255360
0.153999 0.08222869 0.31453159 4278255360
0.15447715 0.082220644 0.31467757 4278255360
0.1549553 0.08221259 0.31482354 4278255360
0.15543345 0.082204536 0.31496954 4278255360
0.15591158 0.082196489 0.31511551 4278255360
0.15638973 0.082188442 0.31526148 4278255360
0.15686788 0.082180388 0.31540748 4278255360
0.15734603 0.082172334 0.31555346 4278255360
0.15782417 0.082164288 0.31569946 4278255360
0.15830232 0.082156241 0.31584543 4278255360
0.15878046 0.082148187 0.3159914 4278255360
0.1592586 0.082140133 0.3161374 4278255360
0.15973675 0.082132086 0.31628338 4278255360
0.1602149 0.08212404 0.31642938 4278255360
0.16069305 0.082115985 0.31657535 4278255360
0.1128784 0.082921021 0.30197701 4278190335
0.1127322 0.08289469 0.30245444 4278190335
0.11258599 0.082868367 0.30293185 4278190335
0.11243979 0.082842037 0.30340928 4278190335
0.11229359 0.082815707 0.30388668 4278190335
0.11214738 0.082789384 0.30436411 4278190335
0.11200117 0.082763053 0.30484155 4278190335
0.11185497 0.082736723 0.30531895 4278190335
0.11170876 0.0827104 0.30579638 4278190335
0.11156256 0.08268407 0.30627379 4278190335
0.11141635 0.08265774 0.30675122 4278190335
0.11127014 0.082631417 0.30722862 4278190335
0.11112394 0.082605086 0.30770606 4278190335
0.11097773 0.082578763 0.30818349 4278190335
0.11083153 0.082552433 0.30866089 4278190335
0.11068533 0.082526103 0.30913833 4278190335
0.11053912 0.08249978 0.30961573 4278190335
0.11039291 0.082473449 0.31009316 4278190335
0.11024671 0.082447119 0.3105706 4278190335
0.1101005 0.082420796 0.311048 4278190335
0.1099543 0.082394466 0.31152543 4278190335
0.10980809 0.082368135 0.31200284 4278190335
0.10966188 0.082341813 0.31248027 4278190335
0.10951568 0.082315482 0.3129577 4278190335
0.10936948 0.082289152 0.31343511 4278190335
0.10922327 0.082262829 0.31391254 4278190335
0.10907707 0.082236499 0.31438994 4278190335
0.10893086 0.082210168 0.31486738 4278190335
0.10878465 0.082183845 0.31534481 4278190335
0.10863845 0.082157515 0.31582221 4278190335
0.10849224 0.082131185 0.31629965 4278190335
0.10834604 0.082104862 0.31677705 4278190335
0.10819983 0.082078531 0.31725448 4278190335
0.10805362 0.082052208 0.31773192 4278190335
0.10790742 0.082025878 0.31820932 4278190335
0.10776122 0.081999548 0.31868675 4278190335
0.10761501 0.081973225 0.31916416 4278190335
0.10746881 0.081946895 0.31964159 4278190335
0.1073226 0.081920564 0.32011899 4278190335
0.10717639 0.081894241 0.32059643 4278190335
0.10703019 0.081867911 0.32107386 4278190335
0.10688399 0.081841581 0.32155126 4278190335
0.10673778 0.081815258 0.3220287 4278190335
0.10659157 0.081788927 0.3225061 4278190335
0.10644537 0.081762597 0.32298353 4278190335
0.10629916 0.081736274 0.32346094 4278190335
0.10615296 0.081709944 0.32393837 4278190335
0.10600676 0.081683613 0.3244158 4278190335
0.10586055 0.08165729 0.32489321 4278190335
0.10571434 0.08163096 0.32537064 4278190335
0.10556814 0.08160463 0.32584804 4278190335
0.10542193 0.081578307 0.32632548 4278190335
0.10527573 0.081551977 0.32680291 4278190335
0.10512953 0.081525654 0.32728031 4278190335
0.10498331 0.081499323 0.32775775 4278190335
0.10483711 0.081472993 0.32823515 4278190335
0.1046909 0.08144667 0.32871258 4278190335
0.1045447 0.08142034 0.32919002 4278190335
0.1043985 0.081394009 0.32966742 4278190335
0.10425229 0.081367686 0.33014485 4278190335
0.10410608 0.081341356 0.33062226 4278190335
0.10395988 0.081315026 0.33109969 4278190335
0.10381367 0.081288703 0.33157712 4278190335
0.10366747 0.081262372 0.33205453 4278190335
0.10352127 0.081236042 0.33253196 4278190335
0.10337505 0.081209719 0.33300936 4278190335
0.10322885 0.081183389 0.3334868 4278190335
0.10308264 0.081157058 0.33396423 4278190335
0.10293644 0.081130736 0.33444163 4278190335
0.10279024 0.081104405 0.33491907 4278190335
0.10264403 0.081078082 0.33539647 4278190335
0.10249782 0.081051752 0.3358739 4278190335
0.10235162 0.081025422 0.33635134 4278190335
0.10220541 0.080999099 0.33682874 4278190335
0.10205921 0.080972768 0.33730617 4278190335
0.10191301 0.080946438 0.33778358 4278190335
0.10176679 0.080920115 0.33826101 4278190335
0.10162059 0.080893785 0.33873841 4278190335
0.10147439 0.080867454 0.33921584 4278190335
0.10132818 0.080841132 0.33969328 4278190335
0.10118198 0.080814801 0.34017068 4278190335
0.10103577 0.080788471 0.34064811 4278190335
0.10088956 0.080762148 0.34112552 4278190335
0.10074336 0.080735818 0.34160295 4278190335
0.10059716 0.080709487 0.34208035 4278190335
