# .PCD v0.7 - Point Cloud Data file format
VERSION 0.7
FIELDS x y z rgb
SIZE 4 4 4 4
TYPE F F F U
COUNT 1 1 1 1
WIDTH 964
HEIGHT 1
VIEWPOINT 0 0 0 1 0 0 0
POINTS 964
DATA ascii
0.058432203 0.016900089 0.35200003 4285103729
0.058432203 0.018043773 0.35200003 4284709490
0.059575494 0.018043773 0.35200003 4284380525
0.060546294 0.017992511 0.35100001 4285366901
0.058598202 0.019241966 0.35300002 4284249454
0.059744742 0.019241966 0.35300002 4284183661
0.060891286 0.019241966 0.35300002 4284776049
0.061334852 0.019023925 0.34900001 4285367671
0.062289417 0.018969417 0.34800002 4279707158
0.057451654 0.020388898 0.35300002 4284512113
0.058598202 0.020388898 0.35300002 4284052075
0.059744742 0.020388898 0.35300002 4284841591
0.060891286 0.020388898 0.35300002 4284842103
0.062037833 0.020388898 0.35300002 4285039482
0.057451654 0.021535831 0.35300002 4284446320
0.058598202 0.021535831 0.35300002 4285104761
0.059744742 0.021535831 0.35300002 4284973175
0.060891286 0.021535831 0.35300002 4285170554
0.062037833 0.021535831 0.35300002 4284776563
0.055158567 0.022682765 0.35300002 4284446318
0.056305107 0.022682765 0.35300002 4284512626
0.057451654 0.022682765 0.35300002 4284775283
0.058598202 0.022682765 0.35300002 4285301880
0.059744742 0.022682765 0.35300002 4285170294
0.060891286 0.022682765 0.35300002 4285433979
0.062037833 0.022682765 0.35300002 4285236600
0.068277322 0.022104451 0.34400001 4279125281
0.052865475 0.023829699 0.35300002 4283655519
0.054012019 0.023829699 0.35300002 4283986280
0.055158567 0.023829699 0.35300002 4284249452
0.056305107 0.023829699 0.35300002 4284249452
0.057451654 0.023829699 0.35300002 4284907382
0.058598202 0.023829699 0.35300002 4285433464
0.059744742 0.023829699 0.35300002 4285499257
0.060891286 0.023829699 0.35300002 4285630843
0.062037833 0.023829699 0.35300002 4285565563
0.063184381 0.023829699 0.35300002 4284972143
0.069394633 0.023222141 0.34400001 4279191842
0.068277322 0.024339832 0.34400001 4279126560
0.069394633 0.024339832 0.34400001 4278731802
0.068078846 0.025383521 0.34300002 4278862875
0.069192901 0.025383521 0.34300002 4278929181
0.070306972 0.025383521 0.34300002 4279123746
0.062690757 0.026575215 0.34400001 4281878839
0.068078846 0.026497962 0.34300002 4278732572
0.069192901 0.026497962 0.34300002 4278798365
0.070306972 0.026497962 0.34300002 4279388453
0.071421035 0.026497962 0.34300002 4281884487
0.068078846 0.027612403 0.34300002 4278994459
0.069192901 0.027612403 0.34300002 4278995742
0.070306972 0.027612403 0.34300002 4279191840
0.068078846 0.028726846 0.34300002 4279323939
0.069192901 0.028726846 0.34300002 4279061537
0.070306972 0.028726846 0.34300002 4279126560
0.068078846 0.029841287 0.34300002 4279060765
0.070101991 0.029754285 0.34200001 4278733083
0.071212806 0.029754285 0.34200001 4278798365
0.072323628 0.029754285 0.34200001 4279454498
0.073219724 0.029667286 0.34100002 4279451934
0.07432729 0.029667286 0.34100002 4281223729
0.075213641 0.029580284 0.34 4284052574
0.076093495 0.029493283 0.33900002 4285499509
0.077194571 0.029493283 0.33900002 4286025083
0.078064688 0.029406283 0.33800003 4285630325
0.079162508 0.029406283 0.33800003 4285367153
0.068078846 0.030955732 0.34300002 4278994459
0.069192901 0.030955732 0.34300002 4279193121
0.070101991 0.030865481 0.34200001 4281102405
0.071212806 0.030865481 0.34200001 4281101122
0.072323628 0.030865481 0.34200001 4279060769
0.073219724 0.030775232 0.34100002 4278929183
0.07432729 0.030775232 0.34100002 4279387937
0.075213641 0.03068498 0.34 4279649826
0.076093495 0.030594731 0.33900002 4279779361
0.077194571 0.030594731 0.33900002 4279976227
0.078064688 0.030504482 0.33800003 4279712285
0.079162508 0.030504482 0.33800003 4279909151
0.080022871 0.030414231 0.33700001 4280171555
0.080876753 0.030323982 0.33600003 4282012991
0.081968077 0.030323982 0.33600003 4283592023
0.083059408 0.030323982 0.33600003 4284841577
0.06246841 0.032631166 0.34900001 4284840809
0.063237473 0.032444168 0.347 4281683513
0.066964775 0.032070175 0.34300002 4280439858
0.070101991 0.031976674 0.34200001 4278865443
0.071212806 0.031976674 0.34200001 4280510266
0.072323628 0.031976674 0.34200001 4280245043
0.073219724 0.031883176 0.34100002 4279061539
0.07432729 0.031883176 0.34100002 4279192353
0.075213641 0.031789675 0.34 4278928668
0.076317959 0.031789675 0.34 4278928668
0.077194571 0.031696178 0.33900002 4279059740
0.078064688 0.031602681 0.33800003 4279190556
0.079162508 0.031602681 0.33800003 4279519521
0.080022871 0.03150918 0.33700001 4279715617
0.080876753 0.031415682 0.33600003 4279649826
0.081968077 0.031415682 0.33600003 4279780129
0.083059408 0.031415682 0.33600003 4279779615
0.084150732 0.031415682 0.33600003 4280238883
0.088516049 0.031415682 0.33600003 4280565545
0.06246841 0.033765104 0.34900001 4284972395
0.063237473 0.033571605 0.347 4283985498
0.066042691 0.033281364 0.34400001 4280767801
0.066964775 0.033184614 0.34300002 4280768055
0.068078846 0.033184614 0.34300002 4280637750
0.069192901 0.033184614 0.34300002 4280375348
0.070101991 0.033087865 0.34200001 4279258918
0.071212806 0.033087865 0.34200001 4279193123
0.072323628 0.033087865 0.34200001 4279127843
0.073219724 0.032991119 0.34100002 4279391015
0.07432729 0.032991119 0.34100002 4279522086
0.075434864 0.032991119 0.34100002 4278929949
0.076317959 0.032894369 0.34 4278929949
0.077194571 0.032797623 0.33900002 4278732572
0.078295648 0.032797623 0.33900002 4278666777
0.079162508 0.032700874 0.33800003 4279192351
0.080022871 0.032604124 0.33700001 4278928666
0.081117451 0.032604124 0.33700001 4278862361
0.081968077 0.032507379 0.33600003 4278993947
0.083059408 0.032507379 0.33600003 4278928154
0.084150732 0.032507379 0.33600003 4279124763
0.085242063 0.032507379 0.33600003 4279124763
0.086333394 0.032507379 0.33600003 4279255836
0.087424718 0.032507379 0.33600003 4279320859
0.088516049 0.032507379 0.33600003 4279517725
0.089340687 0.032410629 0.33500001 4279648543
0.09042877 0.032410629 0.33500001 4279779361
0.091516845 0.032410629 0.33500001 4279844643
0.093413331 0.032313883 0.33400002 4279975205
0.094498165 0.032313883 0.33400002 4279843621
0.06246841 0.034899037 0.34900001 4284906602
0.063237473 0.034699045 0.347 4285498739
0.06492538 0.034399055 0.34400001 4280833335
0.066042691 0.034399055 0.34400001 4280768055
0.066964775 0.034299057 0.34300002 4280965434
0.068078846 0.034299057 0.34300002 4281097788
0.069192901 0.034299057 0.34300002 4280769336
0.070101991 0.034199059 0.34200001 4280638520
0.071212806 0.034199059 0.34200001 4280638520
0.072323628 0.034199059 0.34200001 4280640317
0.073434442 0.034199059 0.34200001 4279127843
0.07432729 0.034099061 0.34100002 4279062048
0.075434864 0.034099061 0.34100002 4279062048
0.076317959 0.033999063 0.34 4278996255
0.077422284 0.033999063 0.34 4278930462
0.078295648 0.033899069 0.33900002 4278667290
0.079396717 0.033899069 0.33900002 4278864669
0.080260336 0.033799071 0.33800003 4278929949
0.081358157 0.033799071 0.33800003 4278732570
0.082212023 0.033699073 0.33700001 4278798363
0.083306603 0.033699073 0.33700001 4278600984
0.084150732 0.033599075 0.33600003 4278929179
0.085242063 0.033599075 0.33600003 4278797593
0.086333394 0.033599075 0.33600003 4278797593
0.087424718 0.033599075 0.33600003 4278731800
0.088516049 0.033599075 0.33600003 4278862359
0.08960738 0.033599075 0.33600003 4278993175
0.09042877 0.033499077 0.33500001 4278795798
0.091516845 0.033499077 0.33500001 4278992664
0.092328496 0.033399083 0.33400002 4279189273
0.093413331 0.033399083 0.33400002 4279386654
0.094215229 0.033299085 0.333 4279386400
0.095296815 0.033299085 0.333 4279254301
0.096088983 0.033199087 0.33200002 4279451680
0.097167313 0.033199087 0.33200002 4279451682
0.099024817 0.033099093 0.33100003 4279516453
0.10009991 0.033099093 0.33100003 4279844393
0.101175 0.033099093 0.33100003 4279712037
0.10225009 0.033099093 0.33100003 4280830518
0.063237473 0.035826482 0.347 4285169772
0.063993558 0.035619993 0.34500003 4281421622
0.06492538 0.035516743 0.34400001 4281029944
0.066042691 0.035516743 0.34400001 4281097020
0.066964775 0.0354135 0.34300002 4281031227
0.068078846 0.0354135 0.34300002 4280835383
0.069192901 0.0354135 0.34300002 4280966969
0.070306972 0.0354135 0.34300002 4280901176
0.071421035 0.0354135 0.34300002 4280704313
0.072323628 0.03531025 0.34200001 4280112690
0.073434442 0.03531025 0.34200001 4280047410
0.074545257 0.03531025 0.34200001 4279981869
0.075656079 0.03531025 0.34200001 4279587109
0.07654243 0.035207007 0.34100002 4279521316
0.077649996 0.035207007 0.34100002 4279455010
0.078526601 0.035103757 0.34 4279323426
0.079630919 0.035103757 0.34 4279060765
0.080497786 0.035000514 0.33900002 4278797593
0.081598863 0.035000514 0.33900002 4279126558
0.082455985 0.034897268 0.33800003 4279061535
0.083553806 0.034897268 0.33800003 4279061535
0.084401175 0.034794021 0.33700001 4278798363
0.085495755 0.034794021 0.33700001 4278995742
0.086590335 0.034794021 0.33700001 4279126558
0.087424718 0.034690775 0.33600003 4278731800
0.088516049 0.034690775 0.33600003 4279060765
0.08960738 0.034690775 0.33600003 4278797080
0.09042877 0.034587529 0.33500001 4278797080
0.091243662 0.034484282 0.33400002 4278731287
0.092328496 0.034484282 0.33400002 4278993945
0.093133643 0.034381032 0.333 4278862359
0.094215229 0.034381032 0.333 4278796568
0.095010646 0.034277789 0.33200002 4278795798
0.096088983 0.034277789 0.33200002 4278664214
0.097167313 0.034277789 0.33200002 4278861080
0.097949728 0.034174543 0.33100003 4278992412
0.099024817 0.034174543 0.33100003 4278795033
0.10009991 0.034174543 0.33100003 4279254301
0.101175 0.034174543 0.33100003 4279450910
0.10225009 0.034174543 0.33100003 4279450910
0.10332518 0.034174543 0.33100003 4279450910
0.10440026 0.034174543 0.33100003 4279647777
0.10547535 0.034174543 0.33100003 4279581471
0.10622853 0.034071296 0.33000001 4280172071
0.10730037 0.034071296 0.33000001 4279711520
0.10837222 0.034071296 0.33000001 4280499752
0.10944406 0.034071296 0.33000001 4281880122
0.11051589 0.034071296 0.33000001 4284773217
0.11158773 0.034071296 0.33000001 4285826159
0.06492538 0.036634434 0.34400001 4281619771
0.066042691 0.036634434 0.34400001 4281162811
0.066964775 0.036527943 0.34300002 4280966202
0.068078846 0.036527943 0.34300002 4280900409
0.069192901 0.036527943 0.34300002 4280900663
0.070306972 0.036527943 0.34300002 4280835383
0.071421035 0.036527943 0.34300002 4280441141
0.072535105 0.036527943 0.34300002 4280506934
0.073649161 0.036527943 0.34300002 4280375348
0.074763231 0.036527943 0.34300002 4280309555
0.075656079 0.036421444 0.34200001 4280178223
0.076766886 0.036421444 0.34200001 4279980844
0.077877708 0.036421444 0.34200001 4279783465
0.078757569 0.036314949 0.34100002 4279849772
0.079865135 0.036314949 0.34100002 4279915565
0.080735244 0.036208451 0.34 4279783979
0.081839561 0.036208451 0.34 4280244530
0.082699932 0.03610196 0.33900002 4280244528
0.083801009 0.03610196 0.33900002 4279455010
0.084651627 0.035995465 0.33800003 4279718182
0.085749455 0.035995465 0.33800003 4279389217
0.086847283 0.035995465 0.33800003 4279126045
0.087684907 0.035888966 0.33700001 4278928666
0.088779487 0.035888966 0.33700001 4278863386
0.08960738 0.035782471 0.33600003 4278929179
0.09042877 0.035675976 0.33500001 4278797593
0.091243662 0.035569482 0.33400002 4278929179
0.092328496 0.035569482 0.33400002 4278929179
0.093133643 0.035462983 0.333 4278797593
0.094215229 0.035462983 0.333 4278731800
0.095010646 0.035356492 0.33200002 4278928668
0.096088983 0.035356492 0.33200002 4278665496
0.097167313 0.035356492 0.33200002 4278862875
0.098245651 0.035356492 0.33200002 4278797082
0.099323988 0.035356492 0.33200002 4278731289
0.10040233 0.035356492 0.33200002 4278796568
0.10148066 0.035356492 0.33200002 4278862363
0.102559 0.035356492 0.33200002 4278795800
0.10363734 0.035356492 0.33200002 4278861080
0.10471567 0.035356492 0.33200002 4278861080
0.10579401 0.035356492 0.33200002 4278991896
0.10655044 0.035249997 0.33100003 4279254553
0.10730037 0.035143498 0.33000001 4279188760
0.10837222 0.035143498 0.33000001 4279385117
0.10944406 0.035143498 0.33000001 4279516189
0.1108508 0.035249997 0.33100003 4280040737
0.11192589 0.035249997 0.33100003 4279843358
0.11334236 0.035356492 0.33200002 4279842074
0.11476534 0.035462983 0.333 4280171293
0.11584692 0.035462983 0.333 4280499745
0.11727965 0.035569482 0.33400002 4282077501
0.11836448 0.035569482 0.33400002 4284248157
0.066964775 0.037642382 0.34300002 4281293884
0.068078846 0.037642382 0.34300002 4281032249
0.069192901 0.037642382 0.34300002 4281098042
0.070306972 0.037642382 0.34300002 4280637750
0.071421035 0.037642382 0.34300002 4280637750
0.072535105 0.037642382 0.34300002 4280374578
0.073649161 0.037642382 0.34300002 4280506164
0.074763231 0.037642382 0.34300002 4280440371
0.075877294 0.037642382 0.34300002 4280308785
0.076991357 0.037642382 0.34300002 4280045867
0.07810542 0.037642382 0.34300002 4280045867
0.078988522 0.037532635 0.34200001 4280110893
0.080099337 0.037532635 0.34200001 4280242479
0.081210159 0.037532635 0.34200001 4280176940
0.082080275 0.037422892 0.34100002 4279321377
0.083187841 0.037422892 0.34100002 4279452447
0.084048204 0.037313148 0.34 4279254555
0.085152522 0.037313148 0.34 4279849258
0.086003147 0.037203405 0.33900002 4279980844
0.087104224 0.037203405 0.33900002 4279980844
0.087945111 0.037093662 0.33800003 4279783979
0.089042932 0.037093662 0.33800003 4280047151
0.089874066 0.036983915 0.33700001 4279652393
0.09042877 0.036764424 0.33500001 4279323428
0.091243662 0.036654681 0.33400002 4279191842
0.092052057 0.036544934 0.333 4279191840
0.093133643 0.036544934 0.333 4279126047
0.093932308 0.036435191 0.33200002 4279126045
0.095010646 0.036435191 0.33200002 4279126045
0.096088983 0.036435191 0.33200002 4279126558
0.097167313 0.036435191 0.33200002 4279192351
0.098245651 0.036435191 0.33200002 4279060765
0.099323988 0.036435191 0.33200002 4278929181
0.10070474 0.036544934 0.333 4278666011
0.10178632 0.036544934 0.333 4278797597
0.10286791 0.036544934 0.333 4278928154
0.10394949 0.036544934 0.333 4278664982
0.10503107 0.036544934 0.333 4278927384
0.10611266 0.036544934 0.333 4278795798
0.10655044 0.036325447 0.33100003 4278861078
0.10762553 0.036325447 0.33100003 4279058457
0.10870063 0.036325447 0.33100003 4279123480
0.10977571 0.036325447 0.33100003 4279123480
0.1108508 0.036325447 0.33100003 4279189275
0.11226402 0.036435191 0.33200002 4279057176
0.11368375 0.036544934 0.333 4279320348
0.11510998 0.036654681 0.33400002 4279516957
0.11619481 0.036654681 0.33400002 4279648029
0.11727965 0.036654681 0.33400002 4279713309
0.11871886 0.036764424 0.33500001 4279975198
0.12016457 0.036874171 0.33600003 4280303393
0.1212559 0.036874171 0.33600003 4280104987
0.12271136 0.036983915 0.33700001 4280038940
0.069192901 0.038756825 0.34300002 4280965432
0.070511945 0.038869817 0.34400001 4280835131
0.071629256 0.038869817 0.34400001 4280571959
0.072746575 0.038869817 0.34400001 4280506166
0.073863879 0.038869817 0.34400001 4280374578
0.074981198 0.038869817 0.34400001 4280440371
0.076098509 0.038869817 0.34400001 4280177199
0.076991357 0.038756825 0.34300002 4280111406
0.07810542 0.038756825 0.34300002 4280045613
0.07921949 0.038756825 0.34300002 4279979820
0.080333553 0.038756825 0.34300002 4279848234
0.081447616 0.038756825 0.34300002 4280373549
0.082320973 0.03864383 0.34200001 4278725908
0.083431788 0.03864383 0.34200001 4278660367
0.084542602 0.03864383 0.34200001 4280503338
0.085402973 0.038530838 0.34100002 4280636721
0.086510539 0.038530838 0.34100002 4280374319
0.087361164 0.038417842 0.34 4279913514
0.088465489 0.038417842 0.34 4280176686
0.089306369 0.03830485 0.33900002 4279979561
0.09014076 0.038191859 0.33800003 4280111147
0.09042877 0.037852872 0.33500001 4280045354
0.091243662 0.03773988 0.33400002 4280176940
0.092052057 0.037626885 0.333 4279980844
0.093133643 0.037626885 0.333 4279849258
0.093932308 0.037513893 0.33200002 4279454498
0.095010646 0.037513893 0.33200002 4279915049
0.096088983 0.037513893 0.33200002 4279586084
0.097459979 0.037626885 0.333 4279388705
0.098541565 0.037626885 0.333 4279389219
0.099623151 0.037626885 0.333 4278928670
0.10130957 0.037852872 0.33500001 4278994463
0.10239765 0.037852872 0.33500001 4278994463
0.10348573 0.037852872 0.33500001 4279453728
0.10457382 0.037852872 0.33500001 4279651107
0.10534649 0.03773988 0.33400002 4279256349
0.10643132 0.03773988 0.33400002 4278927384
0.10655044 0.037400901 0.33100003 4279848486
0.10762553 0.037400901 0.33100003 4279124763
0.10870063 0.037400901 0.33100003 4279058970
0.10977571 0.037400901 0.33100003 4279124250
0.11118568 0.037513893 0.33200002 4279189273
0.11260217 0.037626885 0.333 4278991894
0.11436654 0.037852872 0.33500001 4278860308
0.11545462 0.037852872 0.33500001 4278991894
0.1165427 0.037852872 0.33500001 4278926101
0.11798193 0.037965868 0.33600003 4278991894
0.11907326 0.037965868 0.33600003 4278991383
0.1205222 0.038078863 0.33700001 4279516957
0.12161678 0.038078863 0.33700001 4279779100
0.12271136 0.038078863 0.33700001 4279713307
0.12417332 0.038191859 0.33800003 4279779102
0.12564176 0.03830485 0.33900002 4279843871
0.12674284 0.03830485 0.33900002 4280172323
0.12822104 0.038417842 0.34 4280039967
0.12932535 0.038417842 0.34 4280303141
0.13042967 0.038417842 0.34 4280565032
0.13192086 0.038530838 0.34100002 4281945656
0.070511945 0.039987508 0.34400001 4281554237
0.071629256 0.039987508 0.34400001 4281095223
0.072746575 0.039987508 0.34400001 4281031227
0.073863879 0.039987508 0.34400001 4280703032
0.074981198 0.039987508 0.34400001 4280176686
0.076098509 0.039987508 0.34400001 4279979307
0.077215821 0.039987508 0.34400001 4279781928
0.078333132 0.039987508 0.34400001 4279979307
0.079450443 0.039987508 0.34400001 4279650855
0.080567755 0.039987508 0.34400001 4279519269
0.081685066 0.039987508 0.34400001 4279514395
0.082561679 0.039871268 0.34300002 4280171301
0.083675742 0.039871268 0.34300002 4280372266
0.084789813 0.039871268 0.34300002 4279978278
0.085653417 0.03975502 0.34200001 4279778848
0.086764239 0.03975502 0.34200001 4279315732
0.087875053 0.03975502 0.34200001 4279840541
0.088725686 0.03963878 0.34100002 4279708955
0.089833252 0.03963878 0.34100002 4279577369
0.090674132 0.039522536 0.34 4279116818
0.09042877 0.038941324 0.33500001 4279184146
0.091243662 0.03882508 0.33400002 4279842590
0.092052057 0.038708836 0.333 4279647264
0.092853971 0.038592596 0.33200002 4280568877
0.093932308 0.038592596 0.33200002 4280372266
0.095010646 0.038592596 0.33200002 4280373036
0.096378401 0.038708836 0.333 4280438827
0.097459979 0.038708836 0.333 4280570413
0.098541565 0.038708836 0.333 4280241961
0.099922322 0.03882508 0.33400002 4280176940
0.10191441 0.039173808 0.33700001 4280242733
0.10300899 0.039173808 0.33700001 4280440112
0.10410357 0.039173808 0.33700001 4279980074
0.10519814 0.039173808 0.33700001 4279651109
0.10629271 0.039173808 0.33700001 4279585316
0.10738729 0.039173808 0.33700001 4279453730
0.10912567 0.039406296 0.33900002 4279387935
0.11055189 0.039522536 0.34 4279387935
0.11165622 0.039522536 0.34 4279585314
0.11276054 0.039522536 0.34 4279519521
0.11152058 0.038708836 0.333 4279649824
0.11260217 0.038708836 0.333 4279715617
0.11504932 0.039173808 0.33700001 4279453217
0.1161439 0.039173808 0.33700001 4279190045
0.11723848 0.039173808 0.33700001 4279190043
0.11833306 0.039173808 0.33700001 4279124250
0.11942764 0.039173808 0.33700001 4278992664
0.12087984 0.039290052 0.33800003 4278861078
0.12197766 0.039290052 0.33800003 4279123478
0.12307549 0.039290052 0.33800003 4279057172
0.12454069 0.039406296 0.33900002 4279056402
0.12564176 0.039406296 0.33900002 4279319574
0.12711671 0.039522536 0.34 4279319574
0.12822104 0.039522536 0.34 4279516953
0.12970571 0.03963878 0.34100002 4279648029
0.13081329 0.03963878 0.34100002 4279779361
0.13192086 0.03963878 0.34100002 4279975457
0.13380866 0.039871268 0.34300002 4280040737
0.13492273 0.039871268 0.34300002 4280631077
0.13643339 0.039987508 0.34400001 4280827686
0.13795055 0.040103752 0.34500003 4280761634
0.13907112 0.040103752 0.34500003 4281353001
0.074981198 0.0411052 0.34400001 4282606927
0.076098509 0.0411052 0.34400001 4281027895
0.077215821 0.0411052 0.34400001 4279647264
0.078333132 0.0411052 0.34400001 4279450396
0.079450443 0.0411052 0.34400001 4279582496
0.080567755 0.0411052 0.34400001 4278924568
0.081685066 0.0411052 0.34400001 4280238118
0.082802385 0.0411052 0.34400001 4280764208
0.083919697 0.0411052 0.34400001 4279978024
0.084789813 0.040985707 0.34300002 4279649572
0.085903868 0.040985707 0.34300002 4279119637
0.087017938 0.040985707 0.34300002 4279708953
0.088132001 0.040985707 0.34300002 4280103200
0.088985875 0.040866215 0.34200001 4280301090
0.09009669 0.040866215 0.34200001 4280235297
0.091207512 0.040866215 0.34200001 4280366883
0.092858203 0.0411052 0.34400001 4280301092
0.094248697 0.041224692 0.34500003 4279972127
0.095645688 0.041344184 0.34600002 4281419571
0.092853971 0.039671298 0.33200002 4280037405
0.093932308 0.039671298 0.33200002 4279642647
0.095010646 0.039671298 0.33200002 4279576854
0.099272653 0.040985707 0.34300002 4279248656
0.10009404 0.040866215 0.34200001 4279381012
0.10120485 0.040866215 0.34200001 4279909153
0.1020165 0.040746726 0.34100002 4280568877
0.10251924 0.040507741 0.33900002 4280702001
0.10362031 0.040507741 0.33900002 4280636208
0.10472139 0.040507741 0.33900002 4280636719
0.10582246 0.040507741 0.33900002 4280505133
0.10692353 0.040507741 0.33900002 4280242731
0.1080246 0.040507741 0.33900002 4280242731
0.10944758 0.04062723 0.34 4280111145
0.11087705 0.040746726 0.34100002 4279913766
0.11198463 0.040746726 0.34100002 4279913766
0.1130922 0.040746726 0.34100002 4279519008
0.11453465 0.040866215 0.34200001 4279780897
0.11564547 0.040866215 0.34200001 4279451932
0.11573211 0.040507741 0.33900002 4279649824
0.11683318 0.040507741 0.33900002 4279453217
0.11793426 0.040507741 0.33900002 4279453730
0.11903533 0.040507741 0.33900002 4279651109
0.1201364 0.040507741 0.33900002 4279453728
0.12123747 0.040507741 0.33900002 4279387935
0.12233854 0.040507741 0.33900002 4278729492
0.12343962 0.040507741 0.33900002 4279058457
0.12490807 0.04062723 0.34 4279255064
0.12601238 0.04062723 0.34 4279189271
0.12749058 0.040746726 0.34100002 4278991892
0.12859815 0.040746726 0.34100002 4279123478
0.12970571 0.040746726 0.34100002 4278991894
0.1311969 0.040866215 0.34200001 4279188762
0.13230772 0.040866215 0.34200001 4279254555
0.13380866 0.040985707 0.34300002 4279057176
0.13531607 0.0411052 0.34400001 4279516957
0.13643339 0.0411052 0.34400001 4279451164
0.13795055 0.041224692 0.34500003 4279844893
0.13907112 0.041224692 0.34500003 4279975709
0.14019169 0.041224692 0.34500003 4279909403
0.14131224 0.041224692 0.34500003 4280171805
0.14243281 0.041224692 0.34500003 4280631331
0.079681411 0.042345632 0.34500003 4285171057
0.080567755 0.042222891 0.34400001 4284907885
0.081685066 0.042222891 0.34400001 4284052576
0.082802385 0.042222891 0.34400001 4282539339
0.083919697 0.042222891 0.34400001 4281092405
0.085037008 0.042222891 0.34400001 4279777567
0.086154319 0.042222891 0.34400001 4279909153
0.087271631 0.042222891 0.34400001 4280961841
0.088132001 0.04210015 0.34300002 4280632106
0.089246072 0.04210015 0.34300002 4280171041
0.090360135 0.04210015 0.34300002 4280038688
0.091474198 0.04210015 0.34300002 4278920207
0.092858203 0.042222891 0.34400001 4279313684
0.094248697 0.042345632 0.34500003 4279511063
0.095645688 0.042468373 0.34600002 4279312912
0.096769497 0.042468373 0.34600002 4279773463
0.097610384 0.042345632 0.34500003 4281024302
0.098730944 0.042345632 0.34500003 4281222194
0.099562079 0.042222891 0.34400001 4280170276
0.10038671 0.04210015 0.34300002 4280300581
0.10150078 0.04210015 0.34300002 4279183381
0.10231567 0.041977406 0.34200001 4281159479
0.10312407 0.041854668 0.34100002 4280766770
0.10423165 0.041854668 0.34100002 4280897842
0.10533921 0.041854668 0.34100002 4280107813
0.10644679 0.041854668 0.34100002 4279844641
0.10755435 0.041854668 0.34100002 4280042787
0.10866191 0.041854668 0.34100002 4279713822
0.11009139 0.041977406 0.34200001 4280898356
0.1112022 0.041977406 0.34200001 4281161528
0.11231302 0.041977406 0.34200001 4280832817
0.11342384 0.041977406 0.34200001 4280767022
0.11486955 0.04210015 0.34300002 4280767022
0.11598361 0.04210015 0.34300002 4280832815
0.1164149 0.041854668 0.34100002 4280438827
0.11752246 0.041854668 0.34100002 4280374317
0.11863004 0.041854668 0.34100002 4280045352
0.1197376 0.041854668 0.34100002 4279453215
0.12049079 0.041731924 0.34 4280374317
0.1215951 0.041731924 0.34 4279519008
0.12269942 0.041731924 0.34 4279453730
0.12380374 0.041731924 0.34 4279519523
0.12490807 0.041731924 0.34 4279650594
0.12638302 0.041854668 0.34100002 4279649824
0.12749058 0.041854668 0.34100002 4279650594
0.12897527 0.041977406 0.34200001 4279058970
0.13008608 0.041977406 0.34200001 4279124250
0.13158052 0.04210015 0.34300002 4279124252
0.13269459 0.04210015 0.34300002 4278992666
0.13419876 0.042222891 0.34400001 4279058459
0.13531607 0.042222891 0.34400001 4278795287
0.13683 0.042345632 0.34500003 4278926101
0.13795055 0.042345632 0.34500003 4278794515
0.13907112 0.042345632 0.34500003 4278991894
0.14019169 0.042345632 0.34500003 4279057174
0.14131224 0.042345632 0.34500003 4279122197
0.14243281 0.042345632 0.34500003 4279648027
0.14355338 0.042345632 0.34500003 4279713307
0.085037008 0.043340582 0.34400001 4284643432
0.086154319 0.043340582 0.34400001 4284315233
0.087271631 0.043340582 0.34400001 4284381280
0.088388942 0.043340582 0.34400001 4284117854
0.089506261 0.043340582 0.34400001 4282209857
0.090623572 0.043340582 0.34400001 4281157936
0.091740884 0.043340582 0.34400001 4280434213
0.093128145 0.043466575 0.34500003 4280433959
0.094521873 0.043592565 0.34600002 4280499752
0.095645688 0.043592565 0.34600002 4281026096
0.096769497 0.043592565 0.34600002 4280433959
0.097893305 0.043592565 0.34600002 4279183379
0.098730944 0.043466575 0.34500003 4279183379
0.099851504 0.043466575 0.34500003 4279117588
0.10067938 0.043340582 0.34400001 4279709725
0.10179669 0.043340582 0.34400001 4281028665
0.10261484 0.043214593 0.34300002 4280240176
0.10372891 0.043214593 0.34300002 4279581730
0.10453731 0.043088604 0.34200001 4278658832
0.10564812 0.043088604 0.34200001 4279710236
0.10675894 0.043088604 0.34200001 4279314965
0.10818516 0.043214593 0.34300002 4279447830
0.10929923 0.043214593 0.34300002 4281686845
0.1104133 0.043214593 0.34300002 4280699950
0.11152736 0.043214593 0.34300002 4280897329
0.11264143 0.043214593 0.34300002 4280633389
0.11375549 0.043214593 0.34300002 4280370215
0.11520445 0.043340582 0.34400001 4279384344
0.11598361 0.043214593 0.34300002 4279844895
0.11675628 0.043088604 0.34200001 4280832303
0.1178671 0.043088604 0.34200001 4280963889
0.11897792 0.043088604 0.34200001 4280569645
0.12008874 0.043088604 0.34200001 4280767024
0.12119956 0.043088604 0.34200001 4280636206
0.12195273 0.042962614 0.34100002 4280438827
0.12306031 0.042962614 0.34100002 4280505903
0.12416787 0.042962614 0.34100002 4280242731
0.12527545 0.042962614 0.34100002 4280241959
0.12675364 0.043088604 0.34200001 4280505131
0.12786445 0.043088604 0.34200001 4279519008
0.12935241 0.043214593 0.34300002 4279453215
0.13046646 0.043214593 0.34300002 4279453215
0.13196413 0.043340582 0.34400001 4279519521
0.13308145 0.043340582 0.34400001 4279387935
0.13458888 0.043466575 0.34500003 4279453728
0.13570945 0.043466575 0.34500003 4279453217
0.13683 0.043466575 0.34500003 4279321631
0.13835041 0.043592565 0.34600002 4279058457
0.13947421 0.043592565 0.34600002 4278795285
0.14019169 0.043466575 0.34500003 4279058457
0.14131224 0.043466575 0.34500003 4278991894
0.14243281 0.043466575 0.34500003 4279123482
0.14355338 0.043466575 0.34500003 4278991383
0.14425458 0.043340582 0.34400001 4278991383
0.14537188 0.043340582 0.34400001 4279516443
0.092007577 0.044587512 0.34500003 4283722330
0.093128145 0.044587512 0.34500003 4280366887
0.094521873 0.044716749 0.34600002 4280367657
0.095645688 0.044716749 0.34600002 4280172075
0.096769497 0.044716749 0.34600002 4279909416
0.097893305 0.044716749 0.34600002 4280238379
0.098730944 0.044587512 0.34500003 4279909412
0.099851504 0.044587512 0.34500003 4279975205
0.10067938 0.04445827 0.34400001 4279843619
0.10209262 0.044587512 0.34500003 4279779109
0.10291401 0.04445827 0.34400001 4279647523
0.10403132 0.04445827 0.34400001 4279515939
0.10514864 0.04445827 0.34400001 4279646242
0.10626595 0.04445827 0.34400001 4280302375
0.10738327 0.04445827 0.34400001 4280894510
0.10850057 0.04445827 0.34400001 4281684280
0.10961788 0.04445827 0.34400001 4280763692
0.11073519 0.04445827 0.34400001 4280699952
0.11185251 0.04445827 0.34400001 4280897331
0.11296982 0.04445827 0.34400001 4280567596
0.11408714 0.04445827 0.34400001 4280436010
0.11520445 0.04445827 0.34400001 4280830766
0.11632176 0.04445827 0.34400001 4280830766
0.11709768 0.044329032 0.34300002 4280501288
0.11821175 0.044329032 0.34300002 4281553976
0.11932582 0.044329032 0.34300002 4281555261
0.12043988 0.044329032 0.34300002 4280634159
0.12155395 0.044329032 0.34300002 4280370469
0.12231036 0.044199791 0.34200001 4280567848
0.12342118 0.044199791 0.34200001 4280174373
0.124532 0.044199791 0.34200001 4280832817
0.12564282 0.044199791 0.34200001 4281227573
0.12675364 0.044199791 0.34200001 4280701227
0.12823834 0.044329032 0.34300002 4280767020
0.12972951 0.04445827 0.34400001 4280569641
0.13084681 0.04445827 0.34400001 4280833583
0.13196413 0.04445827 0.34400001 4280175653
0.13346832 0.044587512 0.34500003 4280241448
0.13458888 0.044587512 0.34500003 4279912483
0.1361028 0.044716749 0.34600002 4279715617
0.13722661 0.044716749 0.34600002 4279650596
0.13835041 0.044716749 0.34600002 4279584803
0.13947421 0.044716749 0.34600002 4279453215
0.14059803 0.044716749 0.34600002 4279519008
0.14131224 0.044587512 0.34500003 4279518756
0.14243281 0.044587512 0.34500003 4279452965
0.14355338 0.044587512 0.34500003 4279321377
0.14425458 0.04445827 0.34400001 4279189275
0.14537188 0.04445827 0.34400001 4279123482
0.099851504 0.045708455 0.34500003 4280103980
0.10097206 0.045708455 0.34500003 4280433711
0.10209262 0.045708455 0.34500003 4280171821
0.10321318 0.045708455 0.34500003 4280237614
0.10403132 0.045575965 0.34400001 4280303920
0.10514864 0.045575965 0.34400001 4280172334
0.10626595 0.045575965 0.34400001 4280106541
0.10738327 0.045575965 0.34400001 4280369967
0.10850057 0.045575965 0.34400001 4280304170
0.10961788 0.045575965 0.34400001 4280370217
0.11073519 0.045575965 0.34400001 4280304424
0.11185251 0.045575965 0.34400001 4280370217
0.11296982 0.045575965 0.34400001 4279514908
0.11408714 0.045575965 0.34400001 4281159733
0.11520445 0.045575965 0.34400001 4280830253
0.11632176 0.045575965 0.34400001 4281093425
0.11743907 0.045575965 0.34400001 4280830255
0.11855639 0.045575965 0.34400001 4281553978
0.1196737 0.045575965 0.34400001 4279448602
0.12079101 0.045575965 0.34400001 4281093427
0.12190833 0.045575965 0.34400001 4280698667
0.12302563 0.045575965 0.34400001 4281224495
0.12414294 0.045575965 0.34400001 4280896813
0.12526026 0.045575965 0.34400001 4281291571
0.12637757 0.045575965 0.34400001 4281094192
0.12749489 0.045575965 0.34400001 4281094190
0.12861221 0.045575965 0.34400001 4280830505
0.12972951 0.045575965 0.34400001 4280040989
0.1312272 0.045708455 0.34500003 4279844123
0.13234776 0.045708455 0.34500003 4280831018
0.13346832 0.045708455 0.34500003 4280765997
0.13497899 0.045840941 0.34600002 4280897583
0.1361028 0.045840941 0.34600002 4281029678
0.13722661 0.045840941 0.34600002 4280701997
0.13835041 0.045840941 0.34600002 4280307754
0.13947421 0.045840941 0.34600002 4280307241
0.14059803 0.045840941 0.34600002 4279978278
0.14131224 0.045708455 0.34500003 4279912998
0.14243281 0.045708455 0.34500003 4279584803
0.14355338 0.045708455 0.34500003 4279453217
0.14425458 0.045575965 0.34400001 4279452193
0.14537188 0.045575965 0.34400001 4279320861
0.1464892 0.045575965 0.34400001 4279451934
0.12079101 0.046693653 0.34400001 4281092395
0.12190833 0.046693653 0.34400001 4281552692
0.12302563 0.046693653 0.34400001 4281750585
0.12414294 0.046693653 0.34400001 4281355827
0.12526026 0.046693653 0.34400001 4281026862
0.12637757 0.046693653 0.34400001 4280500518
0.12749489 0.046693653 0.34400001 4281487665
0.12898608 0.046829391 0.34500003 4280303391
0.13010664 0.046829391 0.34500003 4280961321
0.1312272 0.046829391 0.34500003 4281159981
0.13234776 0.046829391 0.34500003 4281488946
0.13385518 0.04696513 0.34600002 4281357110
0.13497899 0.04696513 0.34600002 4281093940
0.1361028 0.04696513 0.34600002 4279908381
0.13722661 0.04696513 0.34600002 4281160753
0.13835041 0.04696513 0.34600002 4281292852
0.13947421 0.04696513 0.34600002 4281095473
0.14059803 0.04696513 0.34600002 4281358647
0.14131224 0.046829391 0.34500003 4280898096
0.14243281 0.046829391 0.34500003 4281095475
0.14355338 0.046829391 0.34500003 4280898094
0.14467393 0.046829391 0.34500003 4280832301
0.14537188 0.046693653 0.34400001 4280503336
0.1464892 0.046693653 0.34400001 4280304161
0.13010664 0.047950335 0.34500003 4281552946
0.1312272 0.047950335 0.34500003 4281421872
0.13273136 0.048089322 0.34600002 4281356849
0.13385518 0.048089322 0.34600002 4280698667
0.13497899 0.048089322 0.34600002 4280763692
0.1361028 0.048089322 0.34600002 4281817402
0.13722661 0.048089322 0.34600002 4281620534
0.13835041 0.048089322 0.34600002 4281488946
0.13947421 0.048089322 0.34600002 4281686325
0.14059803 0.048089322 0.34600002 4281423925
0.14172184 0.048089322 0.34600002 4281489718
0.14243281 0.047950335 0.34500003 4281817398
0.14355338 0.047950335 0.34500003 4282080570
0.14467393 0.047950335 0.34500003 4282212156
0.14537188 0.047811348 0.34400001 4282212158
0.1464892 0.047811348 0.34400001 4282800447
0.13349861 0.05062867 0.34800002 4285365354
0.13462891 0.05062867 0.34800002 4285563501
0.13575922 0.05062867 0.34800002 4285695087
0.13875026 0.050483182 0.347 4285300581
0.13349861 0.051759358 0.34800002 4285890415
0.13462891 0.051759358 0.34800002 4285890417
0.13575922 0.051759358 0.34800002 4285759601
0.13688952 0.051759358 0.34800002 4285760114
0.13575922 0.052890044 0.34800002 4285956210
0.13688952 0.052890044 0.34800002 4285890417
0.13575922 0.054020733 0.34800002 4285956210
0.13688952 0.054020733 0.34800002 4285956210
0.099942304 0.038262192 0.34110668 4294967295
0.099942304 0.038262192 0.34110668 4294901760
0.099942304 0.038262192 0.34160668 4294901760
0.099942304 0.038262192 0.34210667 4294901760
0.099942304 0.038262192 0.34260669 4294901760
0.099942304 0.038262192 0.34310669 4294901760
0.099942304 0.038262192 0.34360668 4294901760
0.099942304 0.038262192 0.34410667 4294901760
0.099942304 0.038262192 0.3446067 4294901760
0.099942304 0.038262192 0.34510669 4294901760
0.099942304 0.038262192 0.34560668 4294901760
0.099942304 0.038262192 0.34610668 4294901760
0.099942304 0.038262192 0.34660667 4294901760
0.099942304 0.038262192 0.3471067 4294901760
0.099942304 0.038262192 0.34760669 4294901760
0.099942304 0.038262192 0.34810668 4294901760
0.099942304 0.038262192 0.34860668 4294901760
0.099942304 0.038262192 0.34910667 4294901760
0.099942304 0.038262192 0.34960669 4294901760
0.099942304 0.038262192 0.35010669 4294901760
0.099942304 0.038262192 0.35060668 4294901760
0.099942304 0.038262192 0.35110667 4294901760
0.099942304 0.038262192 0.3516067 4294901760
0.099942304 0.038262192 0.35210669 4294901760
0.099942304 0.038262192 0.35260668 4294901760
0.099942304 0.038262192 0.35310668 4294901760
0.099942304 0.038262192 0.3536067 4294901760
0.099942304 0.038262192 0.35410669 4294901760
0.099942304 0.038262192 0.35460669 4294901760
0.099942304 0.038262192 0.35510668 4294901760
0.099942304 0.038262192 0.35560668 4294901760
0.099942304 0.038262192 0.3561067 4294901760
0.099942304 0.038262192 0.35660669 4294901760
0.099942304 0.038262192 0.35710669 4294901760
0.099942304 0.038262192 0.35760668 4294901760
0.099942304 0.038262192 0.35810667 4294901760
0.099942304 0.038262192 0.3586067 4294901760
0.099942304 0.038262192 0.35910669 4294901760
0.099942304 0.038262192 0.35960668 4294901760
0.099942304 0.038262192 0.36010668 4294901760
0.099942304 0.038262192 0.3606067 4294901760
0.099942304 0.038262192 0.36110669 4294901760
0.099942304 0.038262192 0.36160669 4294901760
0.099942304 0.038262192 0.36210668 4294901760
0.099942304 0.038262192 0.3626067 4294901760
0.099942304 0.038262192 0.3631067 4294901760
0.099942304 0.038262192 0.36360669 4294901760
0.099942304 0.038262192 0.36410668 4294901760
0.099942304 0.038262192 0.36460668 4294901760
0.099942304 0.038262192 0.3651067 4294901760
0.099942304 0.038262192 0.3656067 4294901760
0.099942304 0.038262192 0.36610669 4294901760
0.099942304 0.038262192 0.36660668 4294901760
0.099942304 0.038262192 0.36710668 4294901760
0.099942304 0.038262192 0.3676067 4294901760
0.099942304 0.038262192 0.36810669 4294901760
0.099942304 0.038262192 0.36860669 4294901760
0.099942304 0.038262192 0.36910668 4294901760
0.099942304 0.038262192 0.36960667 4294901760
0.099942304 0.038262192 0.3701067 4294901760
0.099942304 0.038262192 0.37060669 4294901760
0.099942304 0.038262192 0.37110668 4294901760
0.099942304 0.038262192 0.37160668 4294901760
0.099942304 0.038262192 0.3721067 4294901760
0.099942304 0.038262192 0.37260669 4294901760
0.099942304 0.038262192 0.37310669 4294901760
0.099942304 0.038262192 0.37360668 4294901760
0.099942304 0.038262192 0.37410671 4294901760
0.099942304 0.038262192 0.3746067 4294901760
0.099942304 0.038262192 0.37510669 4294901760
0.099942304 0.038262192 0.37560669 4294901760
0.099942304 0.038262192 0.37610668 4294901760
0.099942304 0.038262192 0.3766067 4294901760
0.099942304 0.038262192 0.3771067 4294901760
0.099942304 0.038262192 0.37760669 4294901760
0.099942304 0.038262192 0.37810668 4294901760
0.099942304 0.038262192 0.37860668 4294901760
0.099942304 0.038262192 0.3791067 4294901760
0.099942304 0.038262192 0.37960669 4294901760
0.099942304 0.038262192 0.38010669 4294901760
0.099942304 0.038262192 0.38060668 4294901760
0.099942304 0.038262192 0.3811067 4294901760
0.099942304 0.038262192 0.3816067 4294901760
0.099942304 0.038262192 0.38210669 4294901760
0.099942304 0.038262192 0.38260669 4294901760
0.099942304 0.038262192 0.38310668 4294901760
0.099942304 0.038262192 0.3836067 4294901760
0.099942304 0.038262192 0.3841067 4294901760
0.099942304 0.038262192 0.38460669 4294901760
0.099942304 0.038262192 0.38510668 4294901760
0.099942304 0.038262192 0.38560671 4294901760
0.099942304 0.038262192 0.3861067 4294901760
0.099942304 0.038262192 0.38660669 4294901760
0.099942304 0.038262192 0.38710669 4294901760
0.099942304 0.038262192 0.38760668 4294901760
0.099942304 0.038262192 0.3881067 4294901760
0.099942304 0.038262192 0.3886067 4294901760
0.099942304 0.038262192 0.38910669 4294901760
0.099942304 0.038262192 0.38960668 4294901760
0.099942304 0.038262192 0.39010671 4294901760
0.099942304 0.038262192 0.3906067 4294901760
0.099942304 0.038262192 0.39110669 4294901760
0.099942304 0.038262192 0.34110668 4278255360
0.099964552 0.037934545 0.34148371 4278255360
0.099986807 0.037606895 0.34186074 4278255360
0.10000905 0.037279248 0.34223777 4278255360
0.1000313 0.036951598 0.3426148 4278255360
0.10005356 0.036623951 0.34299183 4278255360
0.1000758 0.036296304 0.34336886 4278255360
0.10009805 0.035968654 0.34374589 4278255360
0.10012031 0.035641007 0.34412292 4278255360
0.10014255 0.035313357 0.34449995 4278255360
0.1001648 0.03498571 0.34487697 4278255360
0.10018706 0.034658063 0.345254 4278255360
0.1002093 0.034330413 0.34563103 4278255360
0.10023155 0.034002766 0.34600806 4278255360
0.1002538 0.033675116 0.34638509 4278255360
0.10027605 0.033347469 0.34676212 4278255360
0.1002983 0.033019822 0.34713915 4278255360
0.10032055 0.032692172 0.34751621 4278255360
0.1003428 0.032364525 0.34789324 4278255360
0.10036505 0.032036874 0.34827027 4278255360
0.1003873 0.031709228 0.3486473 4278255360
0.10040955 0.031381581 0.34902433 4278255360
0.1004318 0.031053931 0.34940135 4278255360
0.10045405 0.030726284 0.34977838 4278255360
0.1004763 0.030398635 0.35015541 4278255360
0.10049855 0.030070987 0.35053244 4278255360
0.1005208 0.02974334 0.35090947 4278255360
0.10054305 0.029415689 0.3512865 4278255360
0.1005653 0.029088043 0.35166353 4278255360
0.10058755 0.028760394 0.35204056 4278255360
0.1006098 0.028432745 0.35241759 4278255360
0.10063205 0.028105097 0.35279462 4278255360
0.1006543 0.027777448 0.35317165 4278255360
0.10067655 0.027449802 0.35354868 4278255360
0.1006988 0.027122151 0.3539257 4278255360
0.10072105 0.026794504 0.35430273 4278255360
0.1007433 0.026466856 0.35467976 4278255360
0.10076555 0.026139207 0.35505679 4278255360
0.1007878 0.02581156 0.35543382 4278255360
0.10081004 0.025483912 0.35581085 4278255360
0.1008323 0.025156263 0.35618788 4278255360
0.10085455 0.024828617 0.35656491 4278255360
0.10087679 0.024500966 0.35694194 4278255360
0.10089905 0.024173319 0.35731897 4278255360
0.1009213 0.023845671 0.357696 4278255360
0.10094354 0.023518022 0.35807303 4278255360
0.1009658 0.023190374 0.35845006 4278255360
0.10098805 0.022862725 0.35882708 4278255360
0.10101029 0.022535078 0.35920411 4278255360
0.10103255 0.02220743 0.35958117 4278255360
0.1010548 0.021879781 0.35995817 4278255360
0.10107704 0.021552132 0.36033523 4278255360
0.1010993 0.021224486 0.36071226 4278255360
0.10112154 0.020896837 0.36108929 4278255360
0.10114379 0.020569187 0.36146632 4278255360
0.10116605 0.02024154 0.36184335 4278255360
0.10118829 0.019913891 0.36222038 4278255360
0.10121054 0.019586245 0.36259741 4278255360
0.1012328 0.019258596 0.36297444 4278255360
0.10125504 0.018930947 0.36335146 4278255360
0.10127729 0.018603299 0.36372849 4278255360
0.10129955 0.01827565 0.36410552 4278255360
0.10132179 0.017948002 0.36448255 4278255360
0.10134404 0.017620355 0.36485958 4278255360
0.10136629 0.017292706 0.36523661 4278255360
0.10138854 0.016965058 0.36561364 4278255360
0.10141079 0.016637409 0.36599067 4278255360
0.10143304 0.016309761 0.3663677 4278255360
0.10145529 0.015982112 0.36674473 4278255360
0.10147754 0.015654465 0.36712176 4278255360
0.10149979 0.015326817 0.36749879 4278255360
0.10152204 0.01499917 0.36787581 4278255360
0.10154429 0.014671519 0.36825284 4278255360
0.10156654 0.014343871 0.36862987 4278255360
0.10158879 0.014016224 0.3690069 4278255360
0.10161104 0.013688575 0.36938393 4278255360
0.10163329 0.013360927 0.36976096 4278255360
0.10165554 0.01303328 0.37013799 4278255360
0.10167779 0.012705632 0.37051502 4278255360
0.10170004 0.012377981 0.37089205 4278255360
0.10172229 0.012050334 0.37126908 4278255360
0.10174454 0.011722686 0.37164611 4278255360
0.10176679 0.011395039 0.37202314 4278255360
0.10178904 0.01106739 0.37240016 4278255360
0.10181129 0.010739742 0.37277722 4278255360
0.10183354 0.010412093 0.37315425 4278255360
0.10185579 0.010084445 0.37353128 4278255360
0.10187804 0.0097567961 0.37390831 4278255360
0.10190029 0.0094291493 0.37428534 4278255360
0.10192253 0.0091015007 0.37466237 4278255360
0.10194479 0.0087738521 0.3750394 4278255360
0.10196704 0.0084462035 0.37541643 4278255360
0.10198928 0.0081185549 0.37579346 4278255360
0.10201154 0.0077909064 0.37617049 4278255360
0.10203379 0.0074632596 0.37654752 4278255360
0.10205603 0.007135611 0.37692454 4278255360
0.10207829 0.0068079643 0.37730157 4278255360
0.10210054 0.0064803138 0.3776786 4278255360
0.10212278 0.0061526671 0.37805563 4278255360
0.10214504 0.0058250166 0.37843266 4278255360
0.10216729 0.0054973699 0.37880969 4278255360
