# .PCD v0.7 - Point Cloud Data file format
VERSION 0.7
FIELDS x y z rgb
SIZE 4 4 4 4
TYPE F F F U
COUNT 1 1 1 1
WIDTH 1039
HEIGHT 1
VIEWPOINT 0 0 0 1 0 0 0
POINTS 1039
DATA ascii
0.024681784 0.034829333 0.36000001 4278728211
0.025851065 0.034829333 0.36000001 4278531345
0.027095402 0.034926083 0.36100003 4278531345
0.028267931 0.034926083 0.36100003 4278662931
0.029440459 0.034926083 0.36100003 4278531345
0.035498686 0.035119578 0.36300001 4278729494
0.036677711 0.035119578 0.36300001 4278532628
0.03775245 0.035022829 0.36200002 4278532626
0.038928226 0.035022829 0.36200002 4278598419
0.040104002 0.035022829 0.36200002 4278598419
0.041165747 0.034926083 0.36100003 4278927384
0.042220995 0.034829333 0.36000001 4278730005
-0.01188719 0.03699898 0.37 4279706906
-0.010656551 0.036898986 0.36900002 4279639830
-0.0094324071 0.036798988 0.36800003 4279903256
-0.0082147587 0.03669899 0.36700001 4279640854
-0.0070036063 0.036598995 0.36600003 4279509268
-0.005783062 0.036398999 0.36400002 4279246609
-0.00458815 0.036299001 0.36300001 4279379477
-0.0033997342 0.036199003 0.36200002 4278988049
-0.0022116704 0.035999011 0.36000001 4279185941
-0.0010423897 0.035999011 0.36000001 4278794004
0.00012653845 0.035899013 0.35900003 4278925588
0.0012925711 0.035899013 0.35900003 4278532113
0.0024517551 0.035799015 0.35800001 4278795285
0.0036145397 0.035799015 0.35800001 4278663697
0.0047773244 0.035799015 0.35800001 4278532111
0.0059401086 0.035799015 0.35800001 4278532111
0.0071028937 0.035799015 0.35800001 4278335245
0.0082656788 0.035799015 0.35800001 4278664212
0.0094284629 0.035799015 0.35800001 4278664212
0.010591248 0.035799015 0.35800001 4278532626
0.011754032 0.035799015 0.35800001 4278729492
0.012916816 0.035799015 0.35800001 4278664212
0.014079601 0.035799015 0.35800001 4278532626
0.015242386 0.035799015 0.35800001 4278662677
0.016405171 0.035799015 0.35800001 4278197252
0.017567955 0.035799015 0.35800001 4279055638
0.018730739 0.035799015 0.35800001 4278858773
0.019893523 0.035799015 0.35800001 4278397962
0.021056309 0.035799015 0.35800001 4278196994
0.022219094 0.035799015 0.35800001 4278194944
0.023381878 0.035799015 0.35800001 4278195972
0.024681784 0.035999011 0.36000001 4278524170
0.025851065 0.035999011 0.36000001 4278262279
0.027095402 0.036099009 0.36100003 4278195457
0.028267931 0.036099009 0.36100003 4278196228
0.029440459 0.036099009 0.36100003 4278197510
0.030697789 0.036199003 0.36200002 4278197767
0.031961612 0.036299001 0.36300001 4278660367
0.033140637 0.036299001 0.36300001 4278726673
0.034319662 0.036299001 0.36300001 4278859797
0.035498686 0.036299001 0.36300001 4278465552
0.036677711 0.036299001 0.36300001 4278399759
0.037856735 0.036299001 0.36300001 4278400527
0.03903576 0.036299001 0.36300001 4278532113
0.040104002 0.036199003 0.36200002 4278400527
0.041279778 0.036199003 0.36200002 4278532113
0.042690117 0.036398999 0.36400002 4278597906
-0.011855063 0.038097903 0.36900002 4279969565
-0.010656551 0.038097903 0.36900002 4279574037
-0.0094324071 0.037994657 0.36800003 4279771416
-0.0082147587 0.03789141 0.36700001 4279772186
-0.0070036063 0.037788164 0.36600003 4279509014
-0.005783062 0.037581671 0.36400002 4279443988
-0.00458815 0.037478425 0.36300001 4279444500
-0.0033903427 0.037271935 0.36100003 4278922258
-0.0022116704 0.037168685 0.36000001 4279186713
-0.0010423897 0.037168685 0.36000001 4278727441
0.00012653845 0.037065443 0.35900003 4278925588
0.0012925711 0.037065443 0.35900003 4278729492
0.0024517551 0.036962193 0.35800001 4278729492
0.0036145397 0.036962193 0.35800001 4278532113
0.0047773244 0.036962193 0.35800001 4278597906
0.0059401086 0.036962193 0.35800001 4278597908
0.0071028937 0.036962193 0.35800001 4278663701
0.0082656788 0.036962193 0.35800001 4278532626
0.0094284629 0.036962193 0.35800001 4278466833
0.010591248 0.036962193 0.35800001 4278532626
0.011754032 0.036962193 0.35800001 4278729492
0.012916816 0.036962193 0.35800001 4278597906
0.014079601 0.036962193 0.35800001 4278663701
0.015242386 0.036962193 0.35800001 4279318558
0.016405171 0.036962193 0.35800001 4278195974
0.017567955 0.036962193 0.35800001 4278527759
0.018730739 0.036962193 0.35800001 4278727189
0.019893523 0.036962193 0.35800001 4278197511
0.021115126 0.037065443 0.35900003 4278392584
0.022281159 0.037065443 0.35900003 4278654218
0.023447191 0.037065443 0.35900003 4278785291
0.024681784 0.037168685 0.36000001 4278587912
0.025851065 0.037168685 0.36000001 4278587912
0.027095402 0.037271935 0.36100003 4278654220
0.028267931 0.037271935 0.36100003 4278522634
0.029522011 0.037375178 0.36200002 4278522632
0.030697789 0.037375178 0.36200002 4278522632
0.031961612 0.037478425 0.36300001 4278522886
0.033140637 0.037478425 0.36300001 4278523400
0.034319662 0.037478425 0.36300001 4278194944
0.035498686 0.037478425 0.36300001 4278397197
0.036677711 0.037478425 0.36300001 4278197252
0.037856735 0.037478425 0.36300001 4278196227
0.03903576 0.037478425 0.36300001 4278195712
0.040214784 0.037478425 0.36300001 4278194688
0.041393809 0.037478425 0.36300001 4278195971
0.042690117 0.037581671 0.36400002 4278196998
0.04387239 0.037581671 0.36400002 4278330380
0.045054659 0.037581671 0.36400002 4278331150
0.046363954 0.037684917 0.36500001 4278660880
0.047549479 0.037684917 0.36500001 4278726673
0.048735 0.037684917 0.36500001 4278727187
0.049920518 0.037684917 0.36500001 4278990359
0.051106039 0.037684917 0.36500001 4278727957
0.052291561 0.037684917 0.36500001 4278531345
0.053623598 0.037788164 0.36600003 4278532115
0.059176192 0.038304396 0.37100002 4278597906
0.060543951 0.038407642 0.37200001 4278663699
0.061752211 0.038407642 0.37200001 4278729492
0.063129716 0.038510889 0.37300003 4278664212
0.064341217 0.038510889 0.37300003 4278598419
0.065552726 0.038510889 0.37300003 4278927384
0.069743708 0.038820628 0.37600002 4278862875
0.071153685 0.038923874 0.377 4278928668
0.072378181 0.038923874 0.377 4278731289
0.073602676 0.038923874 0.377 4278928156
-0.020134924 0.039083831 0.36700001 4279838492
-0.011855063 0.039296821 0.36900002 4279377682
-0.010627672 0.03919033 0.36800003 4279771416
-0.0094324071 0.03919033 0.36800003 4279903002
-0.0081923753 0.038977336 0.36600003 4280034588
-0.0069844704 0.038870838 0.36500001 4279771416
-0.005783062 0.038764346 0.36400002 4279575574
-0.004575511 0.038551353 0.36200002 4279379479
-0.0033903427 0.038444858 0.36100003 4279119637
-0.0022116704 0.038338363 0.36000001 4279186713
-0.0010394942 0.038231868 0.35900003 4278858773
0.00012653845 0.038231868 0.35900003 4278727957
0.0012925711 0.038231868 0.35900003 4278729492
0.0024517551 0.03812537 0.35800001 4278664212
0.0036145397 0.03812537 0.35800001 4278532626
0.0047773244 0.03812537 0.35800001 4278598419
0.0059401086 0.03812537 0.35800001 4278532113
0.0071028937 0.03812537 0.35800001 4278532113
0.0082887672 0.038231868 0.35900003 4278532626
0.0094547998 0.038231868 0.35900003 4278532626
0.010620832 0.038231868 0.35900003 4278598419
0.011754032 0.03812537 0.35800001 4278597906
0.012916816 0.03812537 0.35800001 4278663699
0.014079601 0.03812537 0.35800001 4278729494
0.015242386 0.03812537 0.35800001 4278858007
0.016405171 0.03812537 0.35800001 4278262279
0.017567955 0.03812537 0.35800001 4278989847
0.018783061 0.038231868 0.35900003 4278727189
0.019949093 0.038231868 0.35900003 4278195202
0.021115126 0.038231868 0.35900003 4278654220
0.022281159 0.038231868 0.35900003 4278785804
0.023447191 0.038231868 0.35900003 4278522632
0.024681784 0.038338363 0.36000001 4278720011
0.025922874 0.038444858 0.36100003 4278522632
0.027095402 0.038444858 0.36100003 4278654472
0.028267931 0.038444858 0.36100003 4278457093
0.029522011 0.038551353 0.36200002 4278654218
0.030697789 0.038551353 0.36200002 4278720011
0.031961612 0.038657848 0.36300001 4278785291
0.033140637 0.038657848 0.36300001 4278785293
0.034319662 0.038657848 0.36300001 4278194176
0.035596479 0.038764346 0.36400002 4279055127
0.036778755 0.038764346 0.36400002 4278924568
0.037961025 0.038764346 0.36400002 4278661396
0.039143298 0.038764346 0.36400002 4278858775
0.040325571 0.038764346 0.36400002 4278858775
0.041507844 0.038764346 0.36400002 4278858261
0.042690117 0.038764346 0.36400002 4279581471
0.043992914 0.038870838 0.36500001 4278791701
0.045178436 0.038870838 0.36500001 4279515424
0.046363954 0.038870838 0.36500001 4279646240
0.047549479 0.038870838 0.36500001 4278856211
0.048735 0.038870838 0.36500001 4278527246
0.049920518 0.038870838 0.36500001 4278197253
0.051246058 0.038977336 0.36600003 4278195716
0.052434828 0.038977336 0.36600003 4278195457
0.053623598 0.038977336 0.36600003 4278194432
0.057971187 0.039509814 0.37100002 4278196225
0.059176192 0.039509814 0.37100002 4278197509
0.060543951 0.039616309 0.37200001 4278199561
0.061752211 0.039616309 0.37200001 4278266124
0.063129716 0.039722804 0.37300003 4278529810
0.064341217 0.039722804 0.37300003 4278794004
0.065552726 0.039722804 0.37300003 4278662931
0.066943221 0.039829299 0.37400001 4278532626
0.068340212 0.039935797 0.37500003 4278336017
0.069743708 0.040042289 0.37600002 4278533396
0.070964955 0.040042289 0.37600002 4278664982
0.072378181 0.040148783 0.377 4278599189
0.073602676 0.040148783 0.377 4278862363
0.075025663 0.040255282 0.37800002 4278726937
-0.022457598 0.040166508 0.36600003 4280036123
-0.021326941 0.040276252 0.36700001 4279838233
-0.02018979 0.040385999 0.36800003 4279969565
-0.011855063 0.040495742 0.36900002 4279837981
-0.010627672 0.040385999 0.36800003 4279903004
-0.0094067743 0.040276252 0.36700001 4280034590
-0.0081923753 0.040166508 0.36600003 4280100381
-0.006965335 0.039947018 0.36400002 4279903002
-0.0057671745 0.039837271 0.36300001 4279575574
-0.004575511 0.039727528 0.36200002 4279511576
-0.0033903427 0.039617784 0.36100003 4278988051
-0.0022116704 0.039508041 0.36000001 4279186713
-0.0010394942 0.039398298 0.35900003 4278661394
0.00012653845 0.039398298 0.35900003 4278727957
0.0012889706 0.039288551 0.35800001 4278861080
0.0024517551 0.039288551 0.35800001 4278466835
0.0036145397 0.039288551 0.35800001 4278532628
0.0047773244 0.039288551 0.35800001 4278466835
0.0059401086 0.039288551 0.35800001 4278466835
0.0071227346 0.039398298 0.35900003 4278532628
0.0082887672 0.039398298 0.35900003 4278466833
0.0094547998 0.039398298 0.35900003 4278466833
0.010620832 0.039398298 0.35900003 4278532626
0.011786866 0.039398298 0.35900003 4278795285
0.012952897 0.039398298 0.35900003 4278663699
0.01411893 0.039398298 0.35900003 4278663701
0.015284963 0.039398298 0.35900003 4279252252
0.016450996 0.039398298 0.35900003 4278195714
0.017617028 0.039398298 0.35900003 4278858775
0.018783061 0.039398298 0.35900003 4278727959
0.019949093 0.039398298 0.35900003 4278458375
0.021115126 0.039398298 0.35900003 4279443734
0.022281159 0.039398298 0.35900003 4279050514
0.023512503 0.039508041 0.36000001 4278458377
0.024681784 0.039508041 0.36000001 4278655756
0.025922874 0.039617784 0.36100003 4278918928
0.027095402 0.039617784 0.36100003 4278195202
0.028346235 0.039727528 0.36200002 4279249174
0.029522011 0.039727528 0.36200002 4278721547
0.03078259 0.039837271 0.36300001 4278984721
0.031961612 0.039837271 0.36300001 4279181330
0.033140637 0.039837271 0.36300001 4278786572
0.034414209 0.039947018 0.36400002 4278854929
0.035596479 0.039947018 0.36400002 4278923539
0.036778755 0.039947018 0.36400002 4278727187
0.037961025 0.039947018 0.36400002 4278199301
0.039143298 0.039947018 0.36400002 4278198019
0.040325571 0.039947018 0.36400002 4278726421
0.041507844 0.039947018 0.36400002 4278661396
0.042807397 0.040056761 0.36500001 4278661396
0.043992914 0.040056761 0.36500001 4278858775
0.045178436 0.040056761 0.36500001 4278990361
0.046363954 0.040056761 0.36500001 4278858775
0.047679752 0.040166508 0.36600003 4278727189
0.048868522 0.040166508 0.36600003 4278858773
0.050057288 0.040166508 0.36600003 4278924566
0.051246058 0.040166508 0.36600003 4278924566
0.052578092 0.040276252 0.36700001 4278727189
0.05377011 0.040276252 0.36700001 4278989847
0.055261642 0.040495742 0.36900002 4278989847
0.056460157 0.040495742 0.36900002 4279318558
0.057814926 0.040605485 0.37 4279252252
0.059176192 0.040715229 0.37100002 4279054103
0.060543951 0.040824972 0.37200001 4279317275
0.061752211 0.040824972 0.37200001 4279383068
0.063129716 0.040934719 0.37300003 4278856726
0.064341217 0.040934719 0.37300003 4278262790
0.065728471 0.041044462 0.37400001 4279120920
0.066943221 0.041044462 0.37400001 4278531345
0.068340212 0.04115421 0.37500003 4278597908
0.069743708 0.041263953 0.37600002 4278532115
0.070964955 0.041263953 0.37600002 4278597908
0.072378181 0.041373696 0.377 4278597908
0.073602676 0.041373696 0.377 4278597908
0.075025663 0.041483443 0.37800002 4278529044
-0.011822936 0.041581668 0.36800003 4280101666
-0.010598792 0.041468672 0.36700001 4280231969
-0.0093811434 0.041355681 0.36600003 4280429348
-0.008169991 0.041242685 0.36500001 4280231967
-0.006965335 0.04112969 0.36400002 4280495393
-0.0057512871 0.040903702 0.36200002 4279707158
-0.0045628715 0.040790711 0.36100003 4279249174
-0.003380951 0.040677715 0.36000001 4279120920
-0.0022116704 0.040677715 0.36000001 4279252506
-0.0010394942 0.040564723 0.35900003 4278793750
0.00012653845 0.040564723 0.35900003 4278925336
0.0012889706 0.040451728 0.35800001 4278795546
0.0024517551 0.040451728 0.35800001 4278664214
0.0036145397 0.040451728 0.35800001 4278664214
0.0047773244 0.040451728 0.35800001 4278532628
0.0059567015 0.040564723 0.35900003 4278532628
0.0071227346 0.040564723 0.35900003 4278598421
0.0082887672 0.040564723 0.35900003 4278664212
0.0094547998 0.040564723 0.35900003 4278466833
0.010620832 0.040564723 0.35900003 4278466833
0.011786866 0.040564723 0.35900003 4278598419
0.012952897 0.040564723 0.35900003 4278729492
0.01411893 0.040564723 0.35900003 4278532113
0.015284963 0.040564723 0.35900003 4279251482
0.016450996 0.040564723 0.35900003 4278195972
0.017617028 0.040564723 0.35900003 4278990361
0.018783061 0.040564723 0.35900003 4278793752
0.019949093 0.040564723 0.35900003 4278589193
0.021115126 0.040564723 0.35900003 4279641627
0.022343224 0.040677715 0.36000001 4278195461
0.023512503 0.040677715 0.36000001 4279577369
0.024681784 0.040677715 0.36000001 4279314199
0.025922874 0.040790711 0.36100003 4278260998
0.027095402 0.040790711 0.36100003 4278524681
0.028346235 0.040903702 0.36200002 4278196486
0.029522011 0.040903702 0.36200002 4278523146
0.03078259 0.041016694 0.36300001 4279248406
0.031961612 0.041016694 0.36300001 4278393867
0.033140637 0.041016694 0.36300001 4278458377
0.034414209 0.04112969 0.36400002 4278723343
0.035596479 0.04112969 0.36400002 4278923539
0.036778755 0.04112969 0.36400002 4278461966
0.037961025 0.04112969 0.36400002 4278196997
0.039250832 0.041242685 0.36500001 4278196488
0.040436354 0.041242685 0.36500001 4278262279
0.041621875 0.041242685 0.36500001 4278198536
0.042807397 0.041242685 0.36500001 4278857494
0.043992914 0.041242685 0.36500001 4278265357
0.045302216 0.041355681 0.36600003 4278726162
0.046490982 0.041355681 0.36600003 4278199820
0.047679752 0.041355681 0.36600003 4278200077
0.048868522 0.041355681 0.36600003 4278266124
0.050057288 0.041355681 0.36600003 4278596373
0.051386073 0.041468672 0.36700001 4278530578
0.052578092 0.041468672 0.36700001 4278530578
0.053916626 0.041581668 0.36800003 4278530578
0.055261642 0.04169466 0.36900002 4278793750
0.056613166 0.041807652 0.37 4278662677
0.057971187 0.041920647 0.37100002 4278531091
0.059176192 0.041920647 0.37100002 4278793750
0.060543951 0.042033639 0.37200001 4278793750
0.061918214 0.042146634 0.37300003 4278596371
0.063129716 0.042146634 0.37300003 4278727957
0.064513713 0.042259626 0.37400001 4278658832
0.065728471 0.042259626 0.37400001 4279317529
0.067122221 0.042372622 0.37500003 4278662677
0.068340212 0.042372622 0.37500003 4278728724
0.069743708 0.042485613 0.37600002 4278597908
0.070964955 0.042485613 0.37600002 4278729494
0.072378181 0.042598605 0.377 4278728724
0.073602676 0.042598605 0.377 4278728724
0.075025663 0.042711601 0.37800002 4278726675
-0.011822936 0.042777337 0.36800003 4280101927
-0.010598792 0.042661093 0.36700001 4279574039
-0.0093555115 0.042428605 0.36500001 4279968797
-0.0081476076 0.042312365 0.36400002 4280231967
-0.0069461991 0.042196121 0.36300001 4279903002
-0.0057512871 0.042079877 0.36200002 4279641879
-0.0045628715 0.041963637 0.36100003 4279446551
-0.003380951 0.041847393 0.36000001 4279252506
-0.0022055269 0.041731153 0.35900003 4279187226
-0.0010394942 0.041731153 0.35900003 4278793750
0.00012653845 0.041731153 0.35900003 4278728724
0.0012889706 0.041614905 0.35800001 4278729494
0.0024517551 0.041614905 0.35800001 4278532628
0.0036145397 0.041614905 0.35800001 4278598421
0.0047773244 0.041614905 0.35800001 4278927386
0.0059567015 0.041731153 0.35900003 4278598421
0.0071227346 0.041731153 0.35900003 4278598421
0.0082887672 0.041731153 0.35900003 4278598421
0.0094547998 0.041731153 0.35900003 4278466835
0.010620832 0.041731153 0.35900003 4278598421
0.011786866 0.041731153 0.35900003 4278532628
0.012952897 0.041731153 0.35900003 4278335249
0.01411893 0.041731153 0.35900003 4278532115
0.015284963 0.041731153 0.35900003 4278196484
0.016450996 0.041731153 0.35900003 4278393097
0.017617028 0.041731153 0.35900003 4278792468
0.018783061 0.041731153 0.35900003 4279121947
0.019949093 0.041731153 0.35900003 4278523146
0.021173943 0.041847393 0.36000001 4278785804
0.022343224 0.041847393 0.36000001 4278720011
0.023512503 0.041847393 0.36000001 4278785545
0.024750346 0.041963637 0.36100003 4278720265
0.025922874 0.041963637 0.36100003 4278720265
0.027095402 0.041963637 0.36100003 4278720011
0.028346235 0.042079877 0.36200002 4278720011
0.029522011 0.042079877 0.36200002 4278852881
0.03078259 0.042196121 0.36300001 4279709727
0.031961612 0.042196121 0.36300001 4279578652
0.033231933 0.042312365 0.36400002 4278393097
0.034414209 0.042312365 0.36400002 4279382555
0.035596479 0.042312365 0.36400002 4278858259
0.036778755 0.042312365 0.36400002 4278195457
0.038065314 0.042428605 0.36500001 4278392584
0.039250832 0.042428605 0.36500001 4278720525
0.040436354 0.042428605 0.36500001 4278392584
0.041621875 0.042428605 0.36500001 4278198280
0.04292468 0.042544849 0.36600003 4278989845
0.044113446 0.042544849 0.36600003 4278660367
0.045302216 0.042544849 0.36600003 4278528013
0.046490982 0.042544849 0.36600003 4278726421
0.047679752 0.042544849 0.36600003 4278858007
0.04900204 0.042661093 0.36700001 4278265357
0.050194055 0.042661093 0.36700001 4278198025
0.051386073 0.042661093 0.36700001 4278330382
0.052721359 0.042777337 0.36800003 4278331150
0.053916626 0.042777337 0.36800003 4278199047
0.055261642 0.042893577 0.36900002 4278198533
0.056613166 0.043009818 0.37 4278196737
0.057971187 0.043126062 0.37100002 4278594576
0.059335694 0.043242306 0.37200001 4278200331
0.060543951 0.043242306 0.37200001 4278199817
0.061918214 0.043358549 0.37300003 4279056924
0.063129716 0.043358549 0.37300003 4278530580
0.064513713 0.04347479 0.37400001 4278195712
0.065728471 0.04347479 0.37400001 4279251736
0.067122221 0.043591034 0.37500003 4278793750
0.068340212 0.043591034 0.37500003 4278859797
0.069743708 0.043707278 0.37600002 4278728724
0.071153685 0.043823518 0.377 4278728724
0.072378181 0.043823518 0.377 4278662931
0.073602676 0.043823518 0.377 4278794004
0.075025663 0.043939762 0.37800002 4279186459
-0.018186199 0.044928938 0.37600002 4281023020
-0.01696495 0.044928938 0.37600002 4285301362
-0.015743703 0.044928938 0.37600002 4284972915
-0.011822936 0.043973006 0.36800003 4284775536
-0.0081252242 0.043375544 0.36300001 4279442453
-0.0069270642 0.043256052 0.36200002 4280034588
-0.0057353997 0.043136563 0.36100003 4279642647
-0.0045502316 0.043017067 0.36000001 4279512857
-0.003380951 0.043017067 0.36000001 4279186713
-0.0022055269 0.042897578 0.35900003 4279121431
-0.0010394942 0.042897578 0.35900003 4278794517
0.00012653845 0.042897578 0.35900003 4278860310
0.0012889706 0.042778086 0.35800001 4278861080
0.0024517551 0.042778086 0.35800001 4278532628
0.0036145397 0.042778086 0.35800001 4278598421
0.0047906693 0.042897578 0.35900003 4278532628
0.0059567015 0.042897578 0.35900003 4278335249
0.0071227346 0.042897578 0.35900003 4278664214
0.0082887672 0.042897578 0.35900003 4278466835
0.0094547998 0.042897578 0.35900003 4278598421
0.010620832 0.042897578 0.35900003 4278532628
0.011786866 0.042897578 0.35900003 4278335249
0.012952897 0.042897578 0.35900003 4278730007
0.01411893 0.042897578 0.35900003 4278663701
0.015284963 0.042897578 0.35900003 4279381785
0.016450996 0.042897578 0.35900003 4279578652
0.017617028 0.042897578 0.35900003 4278991131
0.018783061 0.042897578 0.35900003 4279056924
0.020004662 0.043017067 0.36000001 4278720779
0.021173943 0.043017067 0.36000001 4278523146
0.022343224 0.043017067 0.36000001 4278785291
0.023512503 0.043017067 0.36000001 4278785291
0.024750346 0.043136563 0.36100003 4278719498
0.025922874 0.043136563 0.36100003 4278785291
0.027170457 0.043256052 0.36200002 4278587912
0.028346235 0.043256052 0.36200002 4278785291
0.029522011 0.043256052 0.36200002 4278587912
0.03078259 0.043375544 0.36300001 4278522632
0.031961612 0.043375544 0.36300001 4278391560
0.033231933 0.043495037 0.36400002 4278523146
0.034414209 0.043495037 0.36400002 4279449113
0.035596479 0.043495037 0.36400002 4278859027
0.036879793 0.043614529 0.36500001 4278657550
0.038065314 0.043614529 0.36500001 4278523400
0.039250832 0.043614529 0.36500001 4278523146
0.040436354 0.043614529 0.36500001 4279709725
0.041621875 0.043614529 0.36500001 4278461966
0.04292468 0.043734021 0.36600003 4278264841
0.044113446 0.043734021 0.36600003 4278199559
0.045302216 0.043734021 0.36600003 4278726160
0.046490982 0.043734021 0.36600003 4278461966
0.047810022 0.04385351 0.36700001 4278594322
0.04900204 0.04385351 0.36700001 4278396943
0.050194055 0.04385351 0.36700001 4278790931
0.051526092 0.043973006 0.36800003 4278592271
0.052721359 0.043973006 0.36800003 4278328585
0.054063134 0.044092495 0.36900002 4279514141
0.055261642 0.044092495 0.36900002 4278856211
0.056613166 0.044211987 0.37 4279054103
0.057971187 0.04433148 0.37100002 4278527759
0.059335694 0.044450969 0.37200001 4278593039
0.060706709 0.044570465 0.37300003 4278658832
0.061918214 0.044570465 0.37300003 4278727957
0.063298963 0.044689953 0.37400001 4278530578
0.064513713 0.044689953 0.37400001 4278198277
0.065904215 0.044809449 0.37500003 4279251736
0.067122221 0.044809449 0.37500003 4278728211
0.068522453 0.044928938 0.37600002 4278925590
0.069743708 0.044928938 0.37600002 4278662931
0.071153685 0.045048431 0.377 4278662931
0.072378181 0.045048431 0.377 4278728724
0.073797919 0.045167923 0.37800002 4278860310
0.075025663 0.045167923 0.37800002 4280173354
0.076253399 0.045167923 0.37800002 4285500538
-0.018428037 0.046764307 0.38100001 4282997070
-0.017190548 0.046764307 0.38100001 4284907120
-0.01595306 0.046764307 0.38100001 4285038708
-0.014715571 0.046764307 0.38100001 4284907122
-0.013478083 0.046764307 0.38100001 4284841329
-0.012240593 0.046764307 0.38100001 4284775536
-0.010541032 0.044800449 0.36500001 4284512364
-0.0093298806 0.044677708 0.36400002 4284446571
-0.0081028407 0.044432227 0.36200002 4284511594
-0.0069079287 0.044309489 0.36100003 4279971364
-0.0057353997 0.044309489 0.36100003 4279577369
-0.0045502316 0.044186745 0.36000001 4279513111
-0.003380951 0.044186745 0.36000001 4279450398
-0.0022055269 0.044064008 0.35900003 4279056152
-0.0010394942 0.044064008 0.35900003 4278794517
0.00012653845 0.044064008 0.35900003 4278794517
0.0012889706 0.043941263 0.35800001 4278729494
0.0024517551 0.043941263 0.35800001 4278664214
0.0036145397 0.043941263 0.35800001 4278664214
0.0047906693 0.044064008 0.35900003 4278664214
0.0059567015 0.044064008 0.35900003 4278532628
0.0071227346 0.044064008 0.35900003 4278466835
0.0082887672 0.044064008 0.35900003 4278663701
0.0094547998 0.044064008 0.35900003 4278532115
0.010620832 0.044064008 0.35900003 4278663701
0.011786866 0.044064008 0.35900003 4278532628
0.012952897 0.044064008 0.35900003 4278532628
0.01411893 0.044064008 0.35900003 4278201095
0.015284963 0.044064008 0.35900003 4278725392
0.016450996 0.044064008 0.35900003 4278330634
0.017617028 0.044064008 0.35900003 4278991644
0.018835381 0.044186745 0.36000001 4278794263
0.020004662 0.044186745 0.36000001 4279185943
0.021173943 0.044186745 0.36000001 4278723343
0.022343224 0.044186745 0.36000001 4278919441
0.023512503 0.044186745 0.36000001 4278589963
0.024750346 0.044309489 0.36100003 4278458377
0.025922874 0.044309489 0.36100003 4278523146
0.027170457 0.044432227 0.36200002 4278654218
0.028346235 0.044432227 0.36200002 4278522632
0.029603563 0.044554967 0.36300001 4278851084
0.03078259 0.044554967 0.36300001 4278785291
0.031961612 0.044554967 0.36300001 4278719498
0.033231933 0.044677708 0.36400002 4278325767
0.034414209 0.044677708 0.36400002 4279251482
0.035596479 0.044677708 0.36400002 4278857748
0.036879793 0.044800449 0.36500001 4279316762
0.038065314 0.044800449 0.36500001 4279381785
0.039250832 0.044800449 0.36500001 4279644443
0.040436354 0.044800449 0.36500001 4279579418
0.04173591 0.044923194 0.36600003 4278791955
0.04292468 0.044923194 0.36600003 4278857748
0.044113446 0.044923194 0.36600003 4278989847
0.045302216 0.044923194 0.36600003 4278989847
0.046618003 0.045045931 0.36700001 4278989847
0.047810022 0.045045931 0.36700001 4279055640
0.04900204 0.045045931 0.36700001 4279055640
0.050330825 0.045168675 0.36800003 4278858261
0.051526092 0.045168675 0.36800003 4279187226
0.052721359 0.045168675 0.36800003 4279055127
0.054063134 0.045291413 0.36900002 4278923541
0.055411402 0.045414153 0.37 4278199818
0.056766175 0.045536898 0.37100002 4278330380
0.057971187 0.045536898 0.37100002 4278988310
0.059335694 0.045659635 0.37200001 4278198280
0.060706709 0.04578238 0.37300003 4278196996
0.062084213 0.045905117 0.37400001 4278859543
0.063298963 0.045905117 0.37400001 4278596371
0.064686216 0.046027862 0.37500003 4278195968
0.065904215 0.046027862 0.37500003 4279120918
0.067301206 0.046150602 0.37600002 4278728211
0.068522453 0.046150602 0.37600002 4278794517
0.06992919 0.04627334 0.377 4278728724
0.071153685 0.04627334 0.377 4278662931
0.072570167 0.046396084 0.37800002 4278531345
0.073797919 0.046396084 0.37800002 4278860310
0.075025663 0.046396084 0.37800002 4278790931
0.076253399 0.046396084 0.37800002 4285302643
-0.018428037 0.048002217 0.38100001 4285036653
-0.017190548 0.048002217 0.38100001 4284972143
-0.01595306 0.048002217 0.38100001 4285170292
-0.014715571 0.048002217 0.38100001 4285038706
-0.013478083 0.048002217 0.38100001 4284907122
-0.012240593 0.048002217 0.38100001 4284841329
-0.011003105 0.048002217 0.38100001 4284709743
-0.0097656166 0.048002217 0.38100001 4284380778
-0.0080804573 0.045482416 0.36100003 4283920227
-0.0069079287 0.045482416 0.36100003 4284708971
-0.0057195118 0.045356423 0.36000001 4279314969
-0.0045502316 0.045356423 0.36000001 4279512861
-0.0033715598 0.045230437 0.35900003 4279186974
-0.0022055269 0.045230437 0.35900003 4279121947
-0.0010394942 0.045230437 0.35900003 4279189023
0.00012653845 0.045230437 0.35900003 4279123228
0.0012925711 0.045230437 0.35900003 4278992666
0.0024517551 0.045104444 0.35800001 4278795287
0.0036246362 0.045230437 0.35900003 4278597908
0.0047906693 0.045230437 0.35900003 4278663701
0.0059567015 0.045230437 0.35900003 4278597908
0.0071227346 0.045230437 0.35900003 4278795287
0.0082887672 0.045230437 0.35900003 4278597908
0.0094547998 0.045230437 0.35900003 4278597908
0.010620832 0.045230437 0.35900003 4278597908
0.011786866 0.045230437 0.35900003 4278663701
0.012952897 0.045230437 0.35900003 4278663701
0.01411893 0.045230437 0.35900003 4278202893
0.015284963 0.045230437 0.35900003 4278725908
0.016450996 0.045230437 0.35900003 4278857494
0.017666101 0.045356423 0.36000001 4278662677
0.018835381 0.045356423 0.36000001 4278860056
0.020004662 0.045356423 0.36000001 4278728470
0.021173943 0.045356423 0.36000001 4278859543
0.022343224 0.045356423 0.36000001 4278990359
0.023577817 0.045482416 0.36100003 4279121945
0.024750346 0.045482416 0.36100003 4279056152
0.025922874 0.045482416 0.36100003 4279055638
0.027170457 0.045608405 0.36200002 4278725908
0.028346235 0.045608405 0.36200002 4279186459
0.029603563 0.045734394 0.36300001 4279317275
0.03078259 0.045734394 0.36300001 4279185689
0.032049663 0.045860387 0.36400002 4279185689
0.033231933 0.045860387 0.36400002 4279054103
0.034414209 0.045860387 0.36400002 4278923287
0.035694271 0.045986373 0.36500001 4278856724
0.036879793 0.045986373 0.36500001 4278593039
0.038065314 0.045986373 0.36500001 4278198024
0.039250832 0.045986373 0.36500001 4278195713
0.04054714 0.046112366 0.36600003 4278195456
0.04173591 0.046112366 0.36600003 4278194176
0.04292468 0.046112366 0.36600003 4278195200
0.044113446 0.046112366 0.36600003 4278196228
0.045302216 0.046112366 0.36600003 4278195200
0.046618003 0.046238355 0.36700001 4278196226
0.047810022 0.046238355 0.36700001 4278195712
0.04900204 0.046238355 0.36700001 4278396173
0.050330825 0.046364348 0.36800003 4278593806
0.051526092 0.046364348 0.36800003 4278923541
0.052864619 0.046490334 0.36900002 4279186713
0.054063134 0.046490334 0.36900002 4278989845
0.055411402 0.046616323 0.37 4278989845
0.056766175 0.046742316 0.37100002 4279055638
0.058127441 0.046868306 0.37200001 4278792466
0.059495199 0.046994295 0.37300003 4279055638
0.060706709 0.046994295 0.37300003 4279121431
0.062084213 0.047120284 0.37400001 4278924566
0.06346821 0.047246277 0.37500003 4279121945
0.064686216 0.047246277 0.37500003 4278195712
0.066079959 0.047372267 0.37600002 4279516189
0.067301206 0.047372267 0.37600002 4278860310
0.068704695 0.047498256 0.377 4278794517
0.06992919 0.047498256 0.377 4278532115
0.071342431 0.047624245 0.37800002 4278597908
0.072570167 0.047624245 0.37800002 4278794517
0.073797919 0.047624245 0.37800002 4278860310
0.075025663 0.047624245 0.37800002 4280895796
0.076253399 0.047624245 0.37800002 4284907120
-0.018428037 0.04924012 0.38100001 4285760376
-0.017235668 0.049369361 0.38200003 4285037423
-0.015994933 0.049369361 0.38200003 4285038706
-0.014754196 0.049369361 0.38200003 4284907122
-0.013513459 0.049369361 0.38200003 4284841329
-0.012272721 0.049369361 0.38200003 4284841329
-0.011031985 0.049369361 0.38200003 4284578157
-0.0097912485 0.049369361 0.38200003 4284249192
-0.0080804573 0.046655338 0.36100003 4284117606
-0.0069079287 0.046655338 0.36100003 4283920227
-0.0057195118 0.046526097 0.36000001 4283394394
-0.0045502316 0.046526097 0.36000001 4283789668
-0.0033715598 0.046396859 0.35900003 4278988062
-0.0022055269 0.046396859 0.35900003 4278790681
-0.0010394942 0.046396859 0.35900003 4279186972
0.00012653845 0.046396859 0.35900003 4279320096
0.0012925711 0.046396859 0.35900003 4279386402
0.0024586036 0.046396859 0.35900003 4279123230
0.0036246362 0.046396859 0.35900003 4278992414
0.0047906693 0.046396859 0.35900003 4278860828
0.0059567015 0.046396859 0.35900003 4278729240
0.0071227346 0.046396859 0.35900003 4278597654
0.0082887672 0.046396859 0.35900003 4278663447
0.0094547998 0.046396859 0.35900003 4278597654
0.010620832 0.046396859 0.35900003 4278663447
0.011786866 0.046396859 0.35900003 4278597654
0.012952897 0.046396859 0.35900003 4278597654
0.01411893 0.046396859 0.35900003 4278597654
0.015327539 0.046526097 0.36000001 4278860056
0.01649682 0.046526097 0.36000001 4278859543
0.017666101 0.046526097 0.36000001 4278728470
0.018835381 0.046526097 0.36000001 4278794263
0.020004662 0.046526097 0.36000001 4278794263
0.021173943 0.046526097 0.36000001 4278860056
0.022405289 0.046655338 0.36100003 4278794263
0.023577817 0.046655338 0.36100003 4278860056
0.024750346 0.046655338 0.36100003 4278860056
0.025994683 0.046784576 0.36200002 4278728470
0.027170457 0.046784576 0.36200002 4278860056
0.028346235 0.046784576 0.36200002 4278860056
0.029603563 0.046913814 0.36300001 4278860056
0.03078259 0.046913814 0.36300001 4278925849
0.032049663 0.047043055 0.36400002 4278794263
0.033231933 0.047043055 0.36400002 4278728470
0.034414209 0.047043055 0.36400002 4278859543
0.035694271 0.047172293 0.36500001 4278925590
0.036879793 0.047172293 0.36500001 4279056152
0.038065314 0.047172293 0.36500001 4278990359
0.039250832 0.047172293 0.36500001 4278989845
0.04054714 0.047301535 0.36600003 4279055638
0.04173591 0.047301535 0.36600003 4278989845
0.04292468 0.047301535 0.36600003 4278989847
0.044113446 0.047301535 0.36600003 4279318299
0.045425989 0.047430772 0.36700001 4278857748
0.046618003 0.047430772 0.36700001 4279317529
0.047810022 0.047430772 0.36700001 4279449115
0.049135566 0.047560014 0.36800003 4279712287
0.050330825 0.047560014 0.36800003 4279383068
0.051526092 0.047560014 0.36800003 4278856211
0.052864619 0.047689252 0.36900002 4278856211
0.054209646 0.047818489 0.37 4278329097
0.055411402 0.047818489 0.37 4278196740
0.056766175 0.047947731 0.37100002 4278197001
0.058127441 0.048076969 0.37200001 4278194944
0.059495199 0.04820621 0.37300003 4278194944
0.060869459 0.048335448 0.37400001 4278195200
0.062250216 0.048464689 0.37500003 4278195457
0.06346821 0.048464689 0.37500003 4278196226
0.064858705 0.048593923 0.37600002 4278857748
0.066079959 0.048593923 0.37600002 4278991129
0.067480199 0.048723161 0.377 4278794517
0.068886936 0.048852403 0.37800002 4278728724
0.07011468 0.048852403 0.37800002 4278728724
0.071342431 0.048852403 0.37800002 4278860310
0.072762154 0.04898164 0.37900001 4278860310
0.073993146 0.04898164 0.37900001 4278859797
0.075025663 0.048852403 0.37800002 4285236600
-0.018476404 0.05061052 0.38200003 4279772188
-0.017235668 0.05061052 0.38200003 4285497976
-0.015994933 0.05061052 0.38200003 4285037938
-0.014754196 0.05061052 0.38200003 4284841329
-0.013513459 0.05061052 0.38200003 4284841329
-0.012272721 0.05061052 0.38200003 4284709743
-0.011031985 0.05061052 0.38200003 4284512364
-0.0097912485 0.05061052 0.38200003 4284249192
-0.0085505117 0.05061052 0.38200003 4283986020
-0.0057195118 0.047695778 0.36000001 4283723361
-0.0045502316 0.047695778 0.36000001 4283789154
-0.0033715598 0.047563292 0.35900003 4284052840
-0.0022055269 0.047563292 0.35900003 4284776310
-0.0010394942 0.047563292 0.35900003 4282869336
0.00012653845 0.047563292 0.35900003 4279645992
0.0012925711 0.047563292 0.35900003 4278857496
0.0024586036 0.047563292 0.35900003 4279581732
0.0036246362 0.047563292 0.35900003 4279254053
0.0047906693 0.047563292 0.35900003 4279319844
0.0059567015 0.047563292 0.35900003 4279254049
0.0071227346 0.047563292 0.35900003 4279254049
0.0082887672 0.047563292 0.35900003 4279254303
0.0094547998 0.047563292 0.35900003 4279056924
0.010620832 0.047563292 0.35900003 4279188510
0.011786866 0.047563292 0.35900003 4279123230
0.012952897 0.047563292 0.35900003 4279124000
0.01411893 0.047563292 0.35900003 4278992414
0.015327539 0.047695778 0.36000001 4278992414
0.01649682 0.047695778 0.36000001 4278992412
0.017666101 0.047695778 0.36000001 4278794263
0.018835381 0.047695778 0.36000001 4278925851
0.020004662 0.047695778 0.36000001 4278794263
0.021173943 0.047695778 0.36000001 4278860056
0.022405289 0.047828268 0.36100003 4278925849
0.023577817 0.047828268 0.36100003 4278728470
0.024750346 0.047828268 0.36100003 4278728470
0.025994683 0.047960754 0.36200002 4278662677
0.027170457 0.047960754 0.36200002 4278794263
0.028424539 0.048093241 0.36300001 4278662677
0.029603563 0.048093241 0.36300001 4278728470
0.03086739 0.048225731 0.36400002 4278662677
0.032049663 0.048225731 0.36400002 4278662677
0.033231933 0.048225731 0.36400002 4278728470
0.034414209 0.048225731 0.36400002 4278662677
0.035694271 0.048358217 0.36500001 4278662931
0.036879793 0.048358217 0.36500001 4278662931
0.038065314 0.048358217 0.36500001 4278728724
0.039250832 0.048358217 0.36500001 4278860310
0.04054714 0.048490711 0.36600003 4278728724
0.04173591 0.048490711 0.36600003 4278860310
0.04292468 0.048490711 0.36600003 4278794517
0.044113446 0.048490711 0.36600003 4278860310
0.045425989 0.048623197 0.36700001 4278794517
0.046618003 0.048623197 0.36700001 4278662677
0.047810022 0.048623197 0.36700001 4278860056
0.049135566 0.048755687 0.36800003 4278793750
0.050330825 0.048755687 0.36800003 4278925336
0.051666107 0.048888173 0.36900002 4279056922
0.052864619 0.048888173 0.36900002 4278924566
0.054209646 0.049020659 0.37 4278924566
0.055561166 0.049153149 0.37100002 4278924566
0.056919184 0.049285635 0.37200001 4278990359
0.058283698 0.049418125 0.37300003 4278924566
0.059654702 0.049550612 0.37400001 4279055640
0.060869459 0.049550612 0.37400001 4279252506
0.062250216 0.049683105 0.37500003 4279317529
0.063637458 0.049815591 0.37600002 4279252506
0.064858705 0.049815591 0.37600002 4279582496
0.066255704 0.049948078 0.377 4278794004
0.067659192 0.050080568 0.37800002 4278794004
0.068886936 0.050080568 0.37800002 4278860310
0.070300169 0.050213054 0.37900001 4279123482
0.071531162 0.050213054 0.37900001 4278926103
0.072762154 0.050213054 0.37900001 4279188508
0.073993146 0.050213054 0.37900001 4279712033
-0.017235668 0.051851675 0.38200003 4285695355
-0.015994933 0.051851675 0.38200003 4285037685
-0.014754196 0.051851675 0.38200003 4285103731
-0.013513459 0.051851675 0.38200003 4284841329
-0.012272721 0.051851675 0.38200003 4284775536
-0.011031985 0.051851675 0.38200003 4284446571
-0.0097912485 0.051851675 0.38200003 4284249192
-0.0085505117 0.051851675 0.38200003 4283986020
-0.0033715598 0.048729714 0.35900003 4284315498
-0.0022055269 0.048729714 0.35900003 4284644210
-0.0010394942 0.048729714 0.35900003 4284644977
0.00012653845 0.048729714 0.35900003 4284644977
0.0012925711 0.048729714 0.35900003 4285105526
0.0024586036 0.048729714 0.35900003 4285303675
0.0036246362 0.048729714 0.35900003 4285041018
0.0047906693 0.048729714 0.35900003 4284383086
0.0059567015 0.048729714 0.35900003 4283461471
0.0071227346 0.048729714 0.35900003 4281948232
0.0082887672 0.048729714 0.35900003 4280698165
0.0094547998 0.048729714 0.35900003 4280040489
0.010620832 0.048729714 0.35900003 4279448352
0.011786866 0.048729714 0.35900003 4279185693
0.012952897 0.048729714 0.35900003 4278529560
0.014158258 0.048865452 0.36000001 4278793248
0.015327539 0.048865452 0.36000001 4278596123
0.01649682 0.048865452 0.36000001 4279056674
0.017666101 0.048865452 0.36000001 4279055388
0.018835381 0.048865452 0.36000001 4279450146
0.020004662 0.048865452 0.36000001 4279515937
0.021173943 0.048865452 0.36000001 4279450144
0.022405289 0.049001191 0.36100003 4279384865
0.023577817 0.049001191 0.36100003 4279319072
0.024750346 0.049001191 0.36100003 4279384865
0.025994683 0.049136925 0.36200002 4279385119
0.027245512 0.049272664 0.36300001 4279188510
0.028502844 0.049408402 0.36400002 4279189023
0.029685117 0.049408402 0.36400002 4278860058
0.03086739 0.049408402 0.36400002 4279123230
0.032049663 0.049408402 0.36400002 4278794263
0.033231933 0.049408402 0.36400002 4278728470
0.034414209 0.049408402 0.36400002 4278860056
0.035694271 0.049544137 0.36500001 4278794263
0.036879793 0.049544137 0.36500001 4278794263
0.038065314 0.049544137 0.36500001 4278991642
0.039250832 0.049544137 0.36500001 4278662677
0.04054714 0.049679875 0.36600003 4278925849
0.04173591 0.049679875 0.36600003 4278794517
0.04292468 0.049679875 0.36600003 4278860310
0.044113446 0.049679875 0.36600003 4278794517
0.045425989 0.049815614 0.36700001 4278728724
0.046618003 0.049815614 0.36700001 4278925849
0.047810022 0.049815614 0.36700001 4278794263
0.049135566 0.049951352 0.36800003 4278794263
0.050330825 0.049951352 0.36800003 4278925849
0.051666107 0.050087087 0.36900002 4278991642
0.053007882 0.050222825 0.37 4278991896
0.054209646 0.050222825 0.37 4278991896
0.055561166 0.050358564 0.37100002 4278991896
0.056919184 0.050494298 0.37200001 4278925590
0.058283698 0.050630037 0.37300003 4278925590
0.059654702 0.050765775 0.37400001 4278991383
0.061032213 0.050901514 0.37500003 4278991383
0.062416214 0.051037248 0.37600002 4279187992
0.063637458 0.051037248 0.37600002 4279056406
0.065031201 0.051172987 0.377 4278859543
0.066255704 0.051172987 0.377 4278991129
0.067659192 0.051308725 0.37800002 4278925590
0.068886936 0.051308725 0.37800002 4278926103
0.070300169 0.05144446 0.37900001 4278860310
0.071531162 0.05144446 0.37900001 4278991642
0.072762154 0.05144446 0.37900001 4278988314
0.073993146 0.05144446 0.37900001 4285237112
-0.017235668 0.053092834 0.38200003 4285826941
-0.015994933 0.053092834 0.38200003 4285038708
-0.014754196 0.053092834 0.38200003 4284907122
-0.013513459 0.053092834 0.38200003 4284907122
-0.012272721 0.053092834 0.38200003 4284578157
0.027245512 0.050452087 0.36300001 4278923037
0.028502844 0.050591078 0.36400002 4278594585
0.029685117 0.050591078 0.36400002 4278595353
0.03086739 0.050591078 0.36400002 4278726937
0.032049663 0.050591078 0.36400002 4279581730
0.033231933 0.050591078 0.36400002 4279450144
0.034414209 0.050591078 0.36400002 4279318812
0.035694271 0.050730061 0.36500001 4279516191
0.036879793 0.050730061 0.36500001 4279385119
0.038065314 0.050730061 0.36500001 4279319326
0.039250832 0.050730061 0.36500001 4279188510
0.040436354 0.050730061 0.36500001 4279056924
0.04173591 0.050869051 0.36600003 4278991131
0.04292468 0.050869051 0.36600003 4279188510
0.044113446 0.050869051 0.36600003 4279254303
0.045425989 0.051008034 0.36700001 4279056924
0.046618003 0.051008034 0.36700001 4279056152
0.047810022 0.051008034 0.36700001 4279187738
0.049135566 0.051147025 0.36800003 4279188508
0.050467592 0.051286008 0.36900002 4279254301
0.051666107 0.051286008 0.36900002 4279188508
0.053007882 0.051424995 0.37 4279188508
0.054356162 0.051563982 0.37100002 4279188508
0.055710923 0.051702969 0.37200001 4278925336
0.057072192 0.051841956 0.37300003 4279188508
0.058439955 0.051980942 0.37400001 4279319324
0.059654702 0.051980942 0.37400001 4279121945
0.061032213 0.052119929 0.37500003 4279319326
0.062416214 0.052258916 0.37600002 4279319324
0.063637458 0.052258916 0.37600002 4279319324
0.065031201 0.052397899 0.377 4279385119
0.066431448 0.052536886 0.37800002 4279121947
0.067659192 0.052536886 0.37800002 4279320096
0.069069177 0.052675873 0.37900001 4279254303
0.070300169 0.052675873 0.37900001 4279253017
0.071531162 0.052675873 0.37900001 4280567342
0.072762154 0.052675873 0.37900001 4285171319
-0.017235668 0.054333996 0.38200003 4285826941
0.028502844 0.051773753 0.36400002 4285040503
0.029685117 0.051773753 0.36400002 4284974964
0.03086739 0.051773753 0.36400002 4284909171
0.032049663 0.051773753 0.36400002 4285369722
0.033231933 0.051773753 0.36400002 4284909171
0.034414209 0.051773753 0.36400002 4285105780
0.035596479 0.051773753 0.36400002 4284316264
0.036879793 0.051915988 0.36500001 4283659104
0.038065314 0.051915988 0.36500001 4283066967
0.039250832 0.051915988 0.36500001 4282277964
0.040436354 0.051915988 0.36500001 4281883206
0.04173591 0.052058224 0.36600003 4281882952
0.04292468 0.052058224 0.36600003 4282014538
0.044113446 0.052058224 0.36600003 4281619780
0.045302216 0.052058224 0.36600003 4281553987
0.046618003 0.052200459 0.36700001 4281685827
0.047810022 0.052200459 0.36700001 4281883204
0.049135566 0.052342698 0.36800003 4282080583
0.050467592 0.05248493 0.36900002 4281620032
0.051666107 0.05248493 0.36900002 4282014792
0.053007882 0.052627165 0.37 4282080331
0.054356162 0.052769404 0.37100002 4281948486
0.055710923 0.052911635 0.37200001 4282277451
0.057072192 0.053053875 0.37300003 4282409035
0.058439955 0.053196106 0.37400001 4282539851
0.059814211 0.053338345 0.37500003 4282539849
0.061032213 0.053338345 0.37500003 4282868814
0.062416214 0.05348058 0.37600002 4283131988
0.063806705 0.053622812 0.377 4283197781
0.065031201 0.053622812 0.377 4283460953
0.066431448 0.053765051 0.37800002 4283789918
0.067659192 0.053765051 0.37800002 4284316262
0.069069177 0.053907286 0.37900001 4285039985
0.070300169 0.053907286 0.37900001 4285500536
0.071531162 0.053907286 0.37900001 4285039987
0.050467592 0.053683847 0.36900002 4284711538
0.051666107 0.053683847 0.36900002 4284711538
0.053007882 0.053829327 0.37 4284843124
0.054356162 0.053974815 0.37100002 4285236598
0.055710923 0.054120298 0.37200001 4285170546
0.057072192 0.054265786 0.37300003 4285367925
0.058439955 0.05441127 0.37400001 4285367925
0.059814211 0.054556757 0.37500003 4285171059
0.061032213 0.054556757 0.37500003 4285105266
0.062416214 0.054702237 0.37600002 4285171059
0.063806705 0.054847721 0.377 4284973680
0.065031201 0.054847721 0.377 4285171059
0.066431448 0.054993208 0.37800002 4285171059
0.067659192 0.054993208 0.37800002 4285302645
0.025368769 0.041831881 0.36503467 4294967295
0.025368769 0.041831881 0.36503467 4294901760
0.025427131 0.041335307 0.3650372 4294901760
0.025485493 0.04083873 0.36503977 4294901760
0.025543856 0.040342152 0.3650423 4294901760
0.025602218 0.039845578 0.36504483 4294901760
0.025660582 0.039349001 0.36504737 4294901760
0.025718944 0.038852427 0.3650499 4294901760
0.025777306 0.03835585 0.36505246 4294901760
0.025835669 0.037859276 0.36505499 4294901760
0.025894031 0.037362698 0.36505753 4294901760
0.025952393 0.036866125 0.36506009 4294901760
0.026010755 0.036369547 0.36506262 4294901760
0.026069118 0.035872974 0.36506516 4294901760
0.02612748 0.035376396 0.36506769 4294901760
0.026185842 0.034879822 0.36507022 4294901760
0.026244206 0.034383245 0.36507279 4294901760
0.026302569 0.033886671 0.36507532 4294901760
0.026360931 0.033390094 0.36507785 4294901760
0.026419293 0.03289352 0.36508042 4294901760
0.026477655 0.032396942 0.36508295 4294901760
0.026536018 0.031900369 0.36508548 4294901760
0.02659438 0.031403795 0.36508802 4294901760
0.026652742 0.030907217 0.36509055 4294901760
0.026711104 0.03041064 0.36509311 4294901760
0.026769467 0.029914066 0.36509565 4294901760
0.026827831 0.029417489 0.36509818 4294901760
0.026886193 0.028920915 0.36510074 4294901760
0.026944555 0.028424338 0.36510327 4294901760
0.027002918 0.027927764 0.36510581 4294901760
0.02706128 0.027431186 0.36510834 4294901760
0.027119642 0.026934611 0.36511087 4294901760
0.027178004 0.026438035 0.36511344 4294901760
0.027236367 0.025941461 0.36511597 4294901760
0.027294729 0.025444884 0.3651185 4294901760
0.027353091 0.024948308 0.36512107 4294901760
0.027411453 0.024451733 0.3651236 4294901760
0.027469818 0.023955157 0.36512613 4294901760
0.02752818 0.023458581 0.36512867 4294901760
0.027586542 0.022962006 0.3651312 4294901760
0.027644904 0.022465432 0.36513376 4294901760
0.027703267 0.021968855 0.3651363 4294901760
0.027761629 0.021472279 0.36513883 4294901760
0.027819991 0.020975705 0.36514139 4294901760
0.027878353 0.020479128 0.36514392 4294901760
0.027936716 0.019982552 0.36514646 4294901760
0.02799508 0.019485977 0.36514899 4294901760
0.028053442 0.018989401 0.36515152 4294901760
0.028111804 0.018492825 0.36515409 4294901760
0.028170167 0.01799625 0.36515662 4294901760
0.028228529 0.017499674 0.36515915 4294901760
0.028286891 0.017003099 0.36516172 4294901760
0.028345253 0.016506523 0.36516425 4294901760
0.028403616 0.016009947 0.36516678 4294901760
0.028461978 0.015513374 0.36516932 4294901760
0.028520342 0.015016794 0.36517185 4294901760
0.028578702 0.01452022 0.36517441 4294901760
0.028637066 0.014023645 0.36517695 4294901760
0.028695429 0.013527069 0.36517948 4294901760
0.028753791 0.013030494 0.36518204 4294901760
0.028812153 0.01253392 0.36518458 4294901760
0.028870516 0.012037341 0.36518711 4294901760
0.028928878 0.011540765 0.36518964 4294901760
0.02898724 0.011044191 0.36519217 4294901760
0.029045602 0.010547616 0.36519474 4294901760
0.029103965 0.010051042 0.36519727 4294901760
0.029162327 0.0095544644 0.3651998 4294901760
0.029220691 0.0090578869 0.36520237 4294901760
0.029279053 0.0085613132 0.3652049 4294901760
0.029337415 0.0080647357 0.36520743 4294901760
0.029395778 0.0075681619 0.36520997 4294901760
0.02945414 0.0070715845 0.3652125 4294901760
0.029512502 0.0065750107 0.36521506 4294901760
0.029570865 0.0060784332 0.3652176 4294901760
0.029629227 0.0055818595 0.36522013 4294901760
0.029687591 0.005085282 0.36522269 4294901760
0.029745951 0.0045887083 0.36522523 4294901760
0.029804315 0.0040921308 0.36522776 4294901760
