# .PCD v0.7 - Point Cloud Data file format
VERSION 0.7
FIELDS x y z rgb
SIZE 4 4 4 4
TYPE F F F U
COUNT 1 1 1 1
WIDTH 1072
HEIGHT 1
VIEWPOINT 0 0 0 1 0 0 0
POINTS 1072
DATA ascii
0.058499221 0.040442813 0.32100001 4278467603
0.059356347 0.040316824 0.32000002 4278599189
0.060395706 0.040316824 0.32000002 4278533396
0.061627045 0.040442813 0.32100001 4278401810
0.062669657 0.040442813 0.32100001 4278401810
0.064109229 0.040694792 0.32300001 4278664212
0.06515833 0.040694792 0.32300001 4278532626
0.066207439 0.040694792 0.32300001 4278401810
0.06725654 0.040694792 0.32300001 4278467603
0.068517119 0.040820781 0.324 4278401810
0.069569468 0.040820781 0.324 4278532626
0.070621818 0.040820781 0.324 4279251736
0.071674176 0.040820781 0.324 4278393865
0.072726525 0.040820781 0.324 4278859543
0.073778875 0.040820781 0.324 4278991383
0.0750622 0.040946774 0.32500002 4278589193
0.076117791 0.040946774 0.32500002 4279246869
0.077173397 0.040946774 0.32500002 4278393097
0.078469701 0.04107276 0.32600001 4279578141
0.079528548 0.04107276 0.32600001 4278920722
0.080834597 0.041198753 0.32700002 4278458890
0.081896693 0.041198753 0.32700002 4278193664
0.083212487 0.041324742 0.32800001 4278458888
0.084277831 0.041324742 0.32800001 4278654986
0.085603371 0.041450735 0.32900003 4279774748
0.086671971 0.041450735 0.32900003 4278591755
0.088007249 0.041576721 0.33000001 4278195202
0.089079089 0.041576721 0.33000001 4278194944
0.090424113 0.041702714 0.33100003 4279120918
0.091499202 0.041702714 0.33100003 4278660367
0.092574291 0.041702714 0.33100003 4278196486
0.093932308 0.041828703 0.33200002 4278654218
0.095010646 0.041828703 0.33200002 4278786058
0.096088983 0.041828703 0.33200002 4278789648
0.097459979 0.041954692 0.333 4279120918
0.098541565 0.041954692 0.333 4279186711
0.099922322 0.042080685 0.33400002 4278196480
0.10100716 0.042080685 0.33400002 4278199561
0.10239765 0.042206671 0.33500001 4279253017
0.10348573 0.042206671 0.33500001 4278725390
0.10488598 0.042332664 0.33600003 4278923023
0.1059773 0.042332664 0.33600003 4278530062
0.10738729 0.042458653 0.33700001 4278266636
0.10880377 0.042584646 0.33800003 4278990613
0.1099016 0.042584646 0.33800003 4278727441
0.11132782 0.042710632 0.33900002 4278398476
0.1124289 0.042710632 0.33900002 4278859025
0.11386485 0.042836621 0.34 4278465037
0.11496918 0.042836621 0.34 4278399244
0.1164149 0.042962614 0.34100002 4278728207
0.11752246 0.042962614 0.34100002 4278991379
0.11863004 0.042962614 0.34100002 4279187476
0.1197376 0.042962614 0.34100002 4278197251
0.12084518 0.042962614 0.34100002 4278793750
0.12195273 0.042962614 0.34100002 4278991896
0.03472808 0.04303664 0.333 4285039733
0.035809662 0.04303664 0.333 4285040503
0.036891248 0.04303664 0.333 4285434745
0.037972834 0.04303664 0.333 4285434745
0.03893714 0.042907402 0.33200002 4285303159
0.040015474 0.042907402 0.33200002 4285237112
0.041465141 0.043295119 0.33500001 4285566077
0.041537024 0.042261206 0.32700002 4285631610
0.04246885 0.042131964 0.32600001 4282340677
0.043527696 0.042131964 0.32600001 4279771416
0.044586543 0.042131964 0.32600001 4280165915
0.045505378 0.04200273 0.32500002 4280428317
0.04656098 0.04200273 0.32500002 4280363292
0.047616582 0.04200273 0.32500002 4281483054
0.048522417 0.041873489 0.324 4279576854
0.04957477 0.041873489 0.324 4279119637
0.05047087 0.041744251 0.32300001 4279185943
0.051519971 0.041744251 0.32300001 4279121431
0.052569076 0.041744251 0.32300001 4278858773
0.053618181 0.041744251 0.32300001 4278728211
0.054498039 0.041615013 0.32200003 4278794004
0.055543896 0.041615013 0.32200003 4278860308
0.056589752 0.041615013 0.32200003 4278729492
0.057456616 0.041485772 0.32100001 4278467603
0.058499221 0.041485772 0.32100001 4278467603
0.059541833 0.041485772 0.32100001 4278533396
0.060395706 0.041356534 0.32000002 4278599189
0.061435066 0.041356534 0.32000002 4278599189
0.062669657 0.041485772 0.32100001 4278533396
0.064109229 0.041744251 0.32300001 4278401810
0.06515833 0.041744251 0.32300001 4278533396
0.066207439 0.041744251 0.32300001 4278533396
0.06725654 0.041744251 0.32300001 4278467603
0.068517119 0.041873489 0.324 4278467603
0.069569468 0.041873489 0.324 4278730005
0.070621818 0.041873489 0.324 4278262277
0.071674176 0.041873489 0.324 4278392580
0.072726525 0.041873489 0.324 4278989845
0.073778875 0.041873489 0.324 4278858259
0.0750622 0.04200273 0.32500002 4278391560
0.076117791 0.04200273 0.32500002 4278522632
0.077173397 0.04200273 0.32500002 4278456841
0.078469701 0.042131964 0.32600001 4278456841
0.079772502 0.042261206 0.32700002 4278325767
0.080834597 0.042261206 0.32700002 4278456839
0.082147136 0.042390443 0.32800001 4278456839
0.083212487 0.042390443 0.32800001 4278522886
0.084534779 0.042519685 0.32900003 4278522886
0.085603371 0.042519685 0.32900003 4278524168
0.086935401 0.042648923 0.33000001 4278789134
0.088007249 0.042648923 0.33000001 4278327302
0.089079089 0.042648923 0.33000001 4278789388
0.090424113 0.042778164 0.33100003 4279187476
0.091499202 0.042778164 0.33100003 4278198281
0.092574291 0.042778164 0.33100003 4278523400
0.093932308 0.042907402 0.33200002 4278982670
0.095010646 0.042907402 0.33200002 4278917390
0.096378401 0.04303664 0.333 4278789134
0.097459979 0.04303664 0.333 4279251734
0.098541565 0.04303664 0.333 4279186965
0.099922322 0.043165881 0.33400002 4278528011
0.10100716 0.043165881 0.33400002 4278198275
0.10239765 0.043295119 0.33500001 4278924820
0.10348573 0.043295119 0.33500001 4278594828
0.10488598 0.04342436 0.33600003 4278922769
0.1059773 0.04342436 0.33600003 4278461453
0.10738729 0.043553598 0.33700001 4278198283
0.10880377 0.04368284 0.33800003 4278658316
0.1099016 0.04368284 0.33800003 4278658314
0.11132782 0.043812077 0.33900002 4279186195
0.11276054 0.043941315 0.34 4278198786
0.11386485 0.043941315 0.34 4279054096
0.11530732 0.044070557 0.34100002 4279054096
0.1164149 0.044070557 0.34100002 4278198785
0.11752246 0.044070557 0.34100002 4279056404
0.11863004 0.044070557 0.34100002 4279253269
0.12008874 0.044199791 0.34200001 4278923023
0.12119956 0.044199791 0.34200001 4278991383
0.12231036 0.044199791 0.34200001 4278926103
0.033444416 0.043853618 0.33100003 4285762429
0.03472808 0.044118594 0.333 4285302905
0.035809662 0.044118594 0.333 4285369468
0.036780465 0.043986108 0.33200002 4285040503
0.037858803 0.043986108 0.33200002 4285434491
0.038702577 0.043721128 0.33000001 4285500284
0.039774418 0.043721128 0.33000001 4285237112
0.040474929 0.043323666 0.32700002 4285302905
0.041409999 0.043191176 0.32600001 4285171573
0.04246885 0.043191176 0.32600001 4285237366
0.043394178 0.04305869 0.32500002 4286157441
0.044449776 0.04305869 0.32500002 4284577385
0.045505378 0.04305869 0.32500002 4280430368
0.04656098 0.04305869 0.32500002 4280363805
0.047470067 0.0429262 0.324 4280628258
0.048522417 0.0429262 0.324 4279511828
0.04957477 0.0429262 0.324 4279119637
0.05047087 0.04279371 0.32300001 4279251734
0.051519971 0.04279371 0.32300001 4278990099
0.052569076 0.04279371 0.32300001 4278858513
0.053618181 0.04279371 0.32300001 4278727441
0.054498039 0.042661224 0.32200003 4278794004
0.055543896 0.042661224 0.32200003 4278861078
0.056589752 0.042661224 0.32200003 4278729492
0.057635613 0.042661224 0.32200003 4278598419
0.058499221 0.042528734 0.32100001 4278664212
0.059541833 0.042528734 0.32100001 4278466833
0.060584441 0.042528734 0.32100001 4278532626
0.061627045 0.042528734 0.32100001 4278598419
0.06306012 0.04279371 0.32300001 4278598419
0.064109229 0.04279371 0.32300001 4278532626
0.06515833 0.04279371 0.32300001 4278204431
0.066207439 0.04279371 0.32300001 4278467603
0.06725654 0.04279371 0.32300001 4278533396
0.068517119 0.0429262 0.324 4278533396
0.069569468 0.0429262 0.324 4278598419
0.070621818 0.0429262 0.324 4278791185
0.071674176 0.0429262 0.324 4279119383
0.072726525 0.0429262 0.324 4278793750
0.073778875 0.0429262 0.324 4279121431
0.0750622 0.04305869 0.32500002 4278720011
0.076117791 0.04305869 0.32500002 4278719500
0.077410847 0.043191176 0.32600001 4278522121
0.078469701 0.043191176 0.32600001 4278719500
0.079772502 0.043323666 0.32700002 4278587914
0.080834597 0.043323666 0.32700002 4278718730
0.082147136 0.043456152 0.32800001 4278587144
0.083212487 0.043456152 0.32800001 4278652937
0.084534779 0.043588642 0.32900003 4278718730
0.085603371 0.043588642 0.32900003 4278587144
0.086935401 0.043721128 0.33000001 4278457093
0.088007249 0.043721128 0.33000001 4278457093
0.089079089 0.043721128 0.33000001 4278790672
0.090424113 0.043853618 0.33100003 4278728211
0.091499202 0.043853618 0.33100003 4279317527
0.092853971 0.043986108 0.33200002 4278523398
0.093932308 0.043986108 0.33200002 4278719752
0.095010646 0.043986108 0.33200002 4279510293
0.096378401 0.044118594 0.333 4279383320
0.097459979 0.044118594 0.333 4278198018
0.098541565 0.044118594 0.333 4278330886
0.099922322 0.044251084 0.33400002 4279383574
0.10100716 0.044251084 0.33400002 4278856463
0.10239765 0.044383571 0.33500001 4278198791
0.10348573 0.044383571 0.33500001 4278331656
0.10488598 0.044516061 0.33600003 4279055379
0.10629271 0.044648547 0.33700001 4278195712
0.10738729 0.044648547 0.33700001 4279053592
0.10880377 0.044781037 0.33800003 4278394630
0.11022675 0.044913523 0.33900002 4278526728
0.11132782 0.044913523 0.33900002 4279119889
0.11276054 0.045046009 0.34 4278196736
0.11386485 0.045046009 0.34 4278659086
0.11530732 0.045178503 0.34100002 4279251223
0.1164149 0.045178503 0.34100002 4278196480
0.11752246 0.045178503 0.34100002 4278990609
0.11897792 0.045310989 0.34200001 4278528265
0.12008874 0.045310989 0.34200001 4278922256
0.12119956 0.045310989 0.34200001 4278926099
0.12266801 0.045443479 0.34300002 4278860306
0.033249456 0.046150703 0.34 4284641120
0.034353778 0.046150703 0.34 4285236598
0.035458099 0.046150703 0.34 4285302907
0.035809662 0.045200542 0.333 4285171319
0.036780465 0.045064807 0.33200002 4285434491
0.037744772 0.044929069 0.33100003 4285434491
0.038468018 0.044521853 0.32800001 4285434491
0.039412834 0.044386119 0.32700002 4285500284
0.040351149 0.04425038 0.32600001 4285302905
0.041282974 0.044114646 0.32500002 4285302905
0.042338576 0.044114646 0.32500002 4285302905
0.043260656 0.043978903 0.324 4285237366
0.044313006 0.043978903 0.324 4285237366
0.04536536 0.043978903 0.324 4285631610
0.046417713 0.043978903 0.324 4280301092
0.047470067 0.043978903 0.324 4279577367
0.048522417 0.043978903 0.324 4279314965
0.04957477 0.043978903 0.324 4278988310
0.050627124 0.043978903 0.324 4279120920
0.051519971 0.043843169 0.32300001 4279055638
0.052569076 0.043843169 0.32300001 4278990099
0.053618181 0.043843169 0.32300001 4278924820
0.054667283 0.043843169 0.32300001 4278859027
0.055543896 0.043707434 0.32200003 4278728722
0.056589752 0.043707434 0.32200003 4278795285
0.057635613 0.043707434 0.32200003 4278795285
0.058681466 0.043707434 0.32200003 4278664212
0.059727322 0.043707434 0.32200003 4278730005
0.060773183 0.043707434 0.32200003 4278664212
0.061819036 0.043707434 0.32200003 4278795798
0.06306012 0.043843169 0.32300001 4278598419
0.064109229 0.043843169 0.32300001 4278598419
0.06515833 0.043843169 0.32300001 4278795798
0.066207439 0.043843169 0.32300001 4278533396
0.067464761 0.043978903 0.324 4278401810
0.068517119 0.043978903 0.324 4278467603
0.069569468 0.043978903 0.324 4278202122
0.070621818 0.043978903 0.324 4278331404
0.071674176 0.043978903 0.324 4278198276
0.072726525 0.043978903 0.324 4278860310
0.073778875 0.043978903 0.324 4278794517
0.0750622 0.044114646 0.32500002 4279317275
0.076117791 0.044114646 0.32500002 4279183894
0.077410847 0.04425038 0.32600001 4278656269
0.078469701 0.04425038 0.32600001 4278524170
0.079772502 0.044386119 0.32700002 4278391300
0.080834597 0.044386119 0.32700002 4278457093
0.082147136 0.044521853 0.32800001 4278390533
0.083212487 0.044521853 0.32800001 4278456326
0.084534779 0.044657595 0.32900003 4278719500
0.085603371 0.044657595 0.32900003 4278718730
0.086935401 0.04479333 0.33000001 4278587912
0.088007249 0.04479333 0.33000001 4278719498
0.089079089 0.04479333 0.33000001 4279579418
0.090424113 0.044929069 0.33100003 4278462988
0.091499202 0.044929069 0.33100003 4278988049
0.092853971 0.045064807 0.33200002 4279447832
0.093932308 0.045064807 0.33200002 4280236834
0.095010646 0.045064807 0.33200002 4279513623
0.096378401 0.045200542 0.333 4279252758
0.097459979 0.045200542 0.333 4279055379
0.098541565 0.045200542 0.333 4279319064
0.099922322 0.04533628 0.33400002 4279187478
0.10100716 0.04533628 0.33400002 4279121685
0.10239765 0.045472018 0.33500001 4279121685
0.10348573 0.045472018 0.33500001 4279121945
0.10488598 0.045607757 0.33600003 4278924820
0.1059773 0.045607757 0.33600003 4279187990
0.10738729 0.045743492 0.33700001 4278859025
0.10880377 0.04587923 0.33800003 4279056404
0.1099016 0.04587923 0.33800003 4279121683
0.11132782 0.046014968 0.33900002 4279252758
0.11276054 0.046150703 0.34 4278923539
0.11386485 0.046150703 0.34 4279252504
0.11530732 0.046286441 0.34100002 4278857746
0.1164149 0.046286441 0.34100002 4279318810
0.1178671 0.04642218 0.34200001 4278990359
0.11897792 0.04642218 0.34200001 4278198021
0.12008874 0.04642218 0.34200001 4279645211
0.12155395 0.046557918 0.34300002 4278925586
0.12266801 0.046557918 0.34300002 4278728720
0.1248647 0.04696513 0.34600002 4278795283
0.12635264 0.047100864 0.347 4278663697
0.033249456 0.047255401 0.34 4285432694
0.034353778 0.047255401 0.34 4285237112
0.035458099 0.047255401 0.34 4285302905
0.03656242 0.047255401 0.34 4285237114
0.037666742 0.047255401 0.34 4285237114
0.036946539 0.045031615 0.324 4285434491
0.038233455 0.045309588 0.32600001 4285237112
0.039171774 0.045170605 0.32500002 4285302905
0.040103596 0.045031615 0.324 4285237112
0.041155949 0.045031615 0.324 4285434491
0.042208303 0.045031615 0.324 4285237112
0.043260656 0.045031615 0.324 4285237112
0.044313006 0.045031615 0.324 4285105526
0.04536536 0.045031615 0.324 4285171573
0.04627445 0.044892631 0.32300001 4285039987
0.047323558 0.044892631 0.32300001 4284249444
0.048522417 0.045031615 0.324 4279249689
0.04957477 0.045031615 0.324 4278921236
0.050627124 0.045031615 0.324 4279250969
0.051519971 0.044892631 0.32300001 4279186713
0.052569076 0.044892631 0.32300001 4279055640
0.053618181 0.044892631 0.32300001 4279057176
0.054667283 0.044892631 0.32300001 4278925588
0.055716392 0.044892631 0.32300001 4278926101
0.056589752 0.044753648 0.32200003 4278795285
0.057635613 0.044753648 0.32200003 4278664210
0.058681466 0.044753648 0.32200003 4278664210
0.059727322 0.044753648 0.32200003 4278598417
0.060773183 0.044753648 0.32200003 4278730003
0.061819036 0.044753648 0.32200003 4278730003
0.06306012 0.044892631 0.32300001 4278730003
0.064109229 0.044892631 0.32300001 4278598417
0.06515833 0.044892631 0.32300001 4278730003
0.066412412 0.045031615 0.324 4278795796
0.067464761 0.045031615 0.324 4278598417
0.068517119 0.045031615 0.324 4278598417
0.069569468 0.045031615 0.324 4278200069
0.070621818 0.045031615 0.324 4278725390
0.071674176 0.045031615 0.324 4278660369
0.072726525 0.045031615 0.324 4278794517
0.074006595 0.045170605 0.32500002 4278795287
0.0750622 0.045170605 0.32500002 4278794517
0.076117791 0.045170605 0.32500002 4278926103
0.077410847 0.045309588 0.32600001 4278859797
0.078469701 0.045309588 0.32600001 4278925590
0.079772502 0.045448579 0.32700002 4278991129
0.080834597 0.045448579 0.32700002 4278925336
0.082147136 0.045587562 0.32800001 4279319324
0.083212487 0.045587562 0.32800001 4279647775
0.084534779 0.045726553 0.32900003 4278923539
0.085603371 0.045726553 0.32900003 4279317527
0.086935401 0.045865536 0.33000001 4279185943
0.088007249 0.045865536 0.33000001 4279317529
0.089079089 0.045865536 0.33000001 4279252504
0.090424113 0.046004526 0.33100003 4279054355
0.091499202 0.046004526 0.33100003 4279251223
0.092574291 0.046004526 0.33100003 4278527246
0.093932308 0.046143509 0.33200002 4278329097
0.095010646 0.046143509 0.33200002 4278196994
0.096378401 0.046282496 0.333 4278195968
0.097459979 0.046282496 0.333 4278194176
0.098541565 0.046282496 0.333 4278195971
0.099922322 0.046421483 0.33400002 4278196228
0.10100716 0.046421483 0.33400002 4278195456
0.10239765 0.046560466 0.33500001 4278196228
0.10348573 0.046560466 0.33500001 4278194944
0.10488598 0.046699457 0.33600003 4278195968
0.1059773 0.046699457 0.33600003 4278197504
0.10738729 0.04683844 0.33700001 4278528265
0.10880377 0.046977431 0.33800003 4278792207
0.1099016 0.046977431 0.33800003 4278397449
0.11132782 0.047116414 0.33900002 4278923539
0.11276054 0.047255401 0.34 4279055379
0.11386485 0.047255401 0.34 4279384344
0.11530732 0.047394387 0.34100002 4279252758
0.1164149 0.047394387 0.34100002 4278990097
0.1178671 0.047533374 0.34200001 4278990097
0.11897792 0.047533374 0.34200001 4278195712
0.12043988 0.047672361 0.34300002 4279449367
0.12155395 0.047672361 0.34300002 4278860308
0.12302563 0.047811348 0.34400001 4278926101
0.1248647 0.048089322 0.34600002 4278861076
0.12635264 0.048228305 0.347 4278532111
0.033347253 0.048502333 0.34100002 4285367671
0.034454823 0.048502333 0.34100002 4285302905
0.035562389 0.048502333 0.34100002 4285302905
0.036669958 0.048502333 0.34100002 4285237112
0.037777528 0.048502333 0.34100002 4285434491
0.036946539 0.046084326 0.324 4285434491
0.037998892 0.046084326 0.324 4285433977
0.039051246 0.046084326 0.324 4285565563
0.039979823 0.045942094 0.32300001 4285433977
0.041028924 0.045942094 0.32300001 4285433977
0.042078033 0.045942094 0.32300001 4285302905
0.043127138 0.045942094 0.32300001 4285237112
0.04417624 0.045942094 0.32300001 4285105528
0.045225345 0.045942094 0.32300001 4285171319
0.04627445 0.045942094 0.32300001 4285433977
0.047323558 0.045942094 0.32300001 4285433977
0.048372656 0.045942094 0.32300001 4285433977
0.04957477 0.046084326 0.324 4284710768
0.050627124 0.046084326 0.324 4280302377
0.051679473 0.046084326 0.324 4278987027
0.052569076 0.045942094 0.32300001 4279382809
0.053618181 0.045942094 0.32300001 4279056154
0.054667283 0.045942094 0.32300001 4279056922
0.055716392 0.045942094 0.32300001 4278991896
0.056765497 0.045942094 0.32300001 4278926103
0.057814602 0.045942094 0.32300001 4278861080
0.058863703 0.045942094 0.32300001 4278597908
0.059912808 0.045942094 0.32300001 4278730007
0.060961917 0.045942094 0.32300001 4278730007
0.062011018 0.045942094 0.32300001 4278664214
0.06306012 0.045942094 0.32300001 4278730005
0.064109229 0.045942094 0.32300001 4278664212
0.065360054 0.046084326 0.324 4278795798
0.066412412 0.046084326 0.324 4278730005
0.067464761 0.046084326 0.324 4278532626
0.068517119 0.046084326 0.324 4278795798
0.069569468 0.046084326 0.324 4278729492
0.070621818 0.046084326 0.324 4278860308
0.071674176 0.046084326 0.324 4278794515
0.072726525 0.046084326 0.324 4278663701
0.074006595 0.046226565 0.32500002 4278795285
0.0750622 0.046226565 0.32500002 4278532113
0.076117791 0.046226565 0.32500002 4278729492
0.077410847 0.0463688 0.32600001 4278663699
0.078469701 0.0463688 0.32600001 4278663699
0.079772502 0.046511035 0.32700002 4278861080
0.080834597 0.046511035 0.32700002 4278597906
0.082147136 0.046653271 0.32800001 4278729492
0.083212487 0.046653271 0.32800001 4278795285
0.084534779 0.04679551 0.32900003 4278729492
0.085603371 0.04679551 0.32900003 4278794515
0.086671971 0.04679551 0.32900003 4278794515
0.088007249 0.046937741 0.33000001 4278860308
0.089079089 0.046937741 0.33000001 4278859795
0.090424113 0.04707998 0.33100003 4278925588
0.091499202 0.04707998 0.33100003 4278925588
0.092574291 0.04707998 0.33100003 4279188760
0.093932308 0.047222216 0.33200002 4278859797
0.095010646 0.047222216 0.33200002 4278991383
0.096088983 0.047222216 0.33200002 4279056406
0.097459979 0.047364447 0.333 4279187478
0.098541565 0.047364447 0.333 4279121172
0.099623151 0.047364447 0.333 4279186711
0.10100716 0.047506686 0.33400002 4279252506
0.10209199 0.047506686 0.33400002 4279384092
0.10348573 0.047648918 0.33500001 4279318299
0.10457382 0.047648918 0.33500001 4279252506
0.1059773 0.047791157 0.33600003 4279251736
0.10738729 0.047933392 0.33700001 4279514908
0.10848186 0.047933392 0.33700001 4279646494
0.1099016 0.048075628 0.33800003 4278790672
0.11132782 0.048217863 0.33900002 4278658062
0.1124289 0.048217863 0.33900002 4278789134
0.11386485 0.048360098 0.34 4278328070
0.11530732 0.048502333 0.34100002 4278193664
0.1164149 0.048502333 0.34100002 4278195200
0.1178671 0.048644569 0.34200001 4278194176
0.11897792 0.048644569 0.34200001 4279251734
0.12043988 0.048786808 0.34300002 4278794004
0.12155395 0.048786808 0.34300002 4279123480
0.12302563 0.048929039 0.34400001 4278926101
0.12450383 0.049071278 0.34500003 4278926099
0.12598851 0.049213514 0.34600002 4278991892
0.032239683 0.049610276 0.34100002 4280694315
0.033347253 0.049610276 0.34100002 4285105012
0.034454823 0.049610276 0.34100002 4285302905
0.035562389 0.049610276 0.34100002 4285171319
0.036669958 0.049610276 0.34100002 4285237112
0.037777528 0.049610276 0.34100002 4285566077
0.038885094 0.049610276 0.34100002 4285434491
0.037881613 0.046991549 0.32300001 4285500284
0.038930718 0.046991549 0.32300001 4285500284
0.039856046 0.046846069 0.32200003 4285434491
0.040901903 0.046846069 0.32200003 4285302905
0.04194776 0.046846069 0.32200003 4284973940
0.04299362 0.046846069 0.32200003 4285434491
0.044039473 0.046846069 0.32200003 4285434491
0.04508533 0.046846069 0.32200003 4285368184
0.046131186 0.046846069 0.32200003 4285565563
0.047177047 0.046846069 0.32200003 4285368184
0.048372656 0.046991549 0.32300001 4285302391
0.049421765 0.046991549 0.32300001 4285434231
0.050627124 0.047137033 0.324 4285236852
0.051679473 0.047137033 0.324 4285566077
0.052731827 0.047137033 0.324 4284118631
0.053618181 0.046991549 0.32300001 4280172071
0.054667283 0.046991549 0.32300001 4278593293
0.055716392 0.046991549 0.32300001 4279055892
0.056765497 0.046991549 0.32300001 4279385371
0.057814602 0.046991549 0.32300001 4279255068
0.058863703 0.046991549 0.32300001 4279123482
0.059912808 0.046991549 0.32300001 4279123482
0.060961917 0.046991549 0.32300001 4279058459
0.062011018 0.046991549 0.32300001 4278992666
0.06306012 0.046991549 0.32300001 4278992666
0.064307705 0.047137033 0.324 4278729494
0.065360054 0.047137033 0.324 4278729494
0.066412412 0.047137033 0.324 4279058457
0.067464761 0.047137033 0.324 4278729492
0.068517119 0.047137033 0.324 4278729492
0.069569468 0.047137033 0.324 4278729492
0.070621818 0.047137033 0.324 4278795285
0.071674176 0.047137033 0.324 4278992664
0.072726525 0.047137033 0.324 4278861078
0.074006595 0.047282521 0.32500002 4278663699
0.0750622 0.047282521 0.32500002 4278729492
0.076117791 0.047282521 0.32500002 4278795285
0.077410847 0.047428004 0.32600001 4278729492
0.078469701 0.047428004 0.32600001 4278729492
0.079772502 0.047573492 0.32700002 4278532113
0.080834597 0.047573492 0.32700002 4278663699
0.082147136 0.047718972 0.32800001 4278597904
0.083212487 0.047718972 0.32800001 4278663697
0.084534779 0.047864459 0.32900003 4278729490
0.085603371 0.047864459 0.32900003 4278729490
0.086671971 0.047864459 0.32900003 4278597904
0.088007249 0.048009943 0.33000001 4278663697
0.089079089 0.048009943 0.33000001 4278795283
0.090424113 0.048155431 0.33100003 4278728720
0.091499202 0.048155431 0.33100003 4278860306
0.092574291 0.048155431 0.33100003 4278991892
0.093932308 0.048300914 0.33200002 4278662929
0.095010646 0.048300914 0.33200002 4278926101
0.096088983 0.048300914 0.33200002 4278991892
0.097459979 0.048446395 0.333 4278794767
0.098541565 0.048446395 0.333 4278860306
0.099623151 0.048446395 0.333 4278860306
0.10100716 0.048591882 0.33400002 4278859795
0.10209199 0.048591882 0.33400002 4278860308
0.10348573 0.048737366 0.33500001 4278860308
0.10457382 0.048737366 0.33500001 4278794515
0.1059773 0.048882853 0.33600003 4278728724
0.10706864 0.048882853 0.33600003 4278860310
0.10848186 0.049028337 0.33700001 4278860310
0.1099016 0.049173824 0.33800003 4278859797
0.11099943 0.049173824 0.33800003 4279057176
0.1124289 0.049319305 0.33900002 4278925590
0.11386485 0.049464788 0.34 4278991383
0.11496918 0.049464788 0.34 4278991383
0.1164149 0.049610276 0.34100002 4279056406
0.1178671 0.04975576 0.34200001 4279319064
0.11897792 0.04975576 0.34200001 4279319578
0.12043988 0.049901247 0.34300002 4278990613
0.12155395 0.049901247 0.34300002 4278728722
0.12302563 0.050046727 0.34400001 4279123478
0.12450383 0.050192215 0.34500003 4279189271
0.12598851 0.050337698 0.34600002 4279123478
0.032239683 0.050718222 0.34100002 4282734922
0.033347253 0.050718222 0.34100002 4285565563
0.034454823 0.050718222 0.34100002 4285237112
0.035562389 0.050718222 0.34100002 4285237112
0.036669958 0.050718222 0.34100002 4285237112
0.037777528 0.050718222 0.34100002 4285302905
0.038885094 0.050718222 0.34100002 4285302905
0.037764337 0.04789228 0.32200003 4285434491
0.03881019 0.04789228 0.32200003 4285434491
0.039856046 0.04789228 0.32200003 4285302905
0.040901903 0.04789228 0.32200003 4285237112
0.041817486 0.047743544 0.32100001 4285368184
0.042860094 0.047743544 0.32100001 4285433977
0.044039473 0.04789228 0.32200003 4285433977
0.04508533 0.04789228 0.32200003 4285433977
0.046131186 0.04789228 0.32200003 4285368184
0.047177047 0.04789228 0.32200003 4285302391
0.048372656 0.048041012 0.32300001 4285368184
0.049421765 0.048041012 0.32300001 4285434229
0.050627124 0.048189744 0.324 4285565815
0.051679473 0.048189744 0.324 4285565815
0.052731827 0.048189744 0.324 4285565817
0.05378418 0.048189744 0.324 4285236852
0.054667283 0.048041012 0.32300001 4285697917
0.055716392 0.048041012 0.32300001 4285501308
0.056765497 0.048041012 0.32300001 4283528031
0.057814602 0.048041012 0.32300001 4281028665
0.058863703 0.048041012 0.32300001 4280106793
0.059912808 0.048041012 0.32300001 4279252252
0.060961917 0.048041012 0.32300001 4278857748
0.062011018 0.048041012 0.32300001 4279252252
0.063255355 0.048189744 0.324 4279253019
0.064307705 0.048189744 0.324 4279253019
0.065360054 0.048189744 0.324 4279187226
0.066412412 0.048189744 0.324 4279318810
0.067464761 0.048189744 0.324 4279779361
0.068517119 0.048189744 0.324 4279451164
0.069569468 0.048189744 0.324 4279319578
0.070621818 0.048189744 0.324 4279188762
0.071674176 0.048189744 0.324 4279188762
0.072950989 0.04833848 0.32500002 4279057176
0.074006595 0.04833848 0.32500002 4279188762
0.0750622 0.04833848 0.32500002 4279188762
0.076117791 0.04833848 0.32500002 4279188762
0.077410847 0.048487213 0.32600001 4278991381
0.078469701 0.048487213 0.32600001 4278991381
0.079772502 0.048635948 0.32700002 4279057174
0.080834597 0.048635948 0.32700002 4278728209
0.082147136 0.048784681 0.32800001 4278925588
0.083212487 0.048784681 0.32800001 4278991381
0.084277831 0.048784681 0.32800001 4278925586
0.085603371 0.048933417 0.32900003 4278859793
0.086671971 0.048933417 0.32900003 4279057172
0.088007249 0.049082149 0.33000001 4278925586
0.089079089 0.049082149 0.33000001 4279057172
0.090150923 0.049082149 0.33000001 4278925586
0.091499202 0.049230885 0.33100003 4278794513
0.092574291 0.049230885 0.33100003 4278794513
0.093932308 0.049379617 0.33200002 4278926099
0.095010646 0.049379617 0.33200002 4278794513
0.096088983 0.049379617 0.33200002 4278794513
0.097167313 0.049379617 0.33200002 4278926353
0.098541565 0.049528349 0.333 4278794513
0.099623151 0.049528349 0.333 4278860306
0.10070474 0.049528349 0.333 4278926101
0.10209199 0.049677085 0.33400002 4279123480
0.10317682 0.049677085 0.33400002 4278729492
0.10457382 0.049825817 0.33500001 4278795285
0.10566189 0.049825817 0.33500001 4278663699
0.10706864 0.049974553 0.33600003 4278663699
0.10848186 0.050123286 0.33700001 4278861078
0.10957644 0.050123286 0.33700001 4278729492
0.11099943 0.050272021 0.33800003 4278926101
0.1124289 0.050420754 0.33900002 4278860308
0.11386485 0.050569486 0.34 4279057174
0.11496918 0.050569486 0.34 4279188760
0.1164149 0.050718222 0.34100002 4279057172
0.11752246 0.050718222 0.34100002 4279057172
0.11897792 0.050866954 0.34200001 4278991379
0.12008874 0.050866954 0.34200001 4278925586
0.12155395 0.05101569 0.34300002 4278925586
0.12266801 0.05101569 0.34300002 4278859793
0.12450383 0.051313158 0.34500003 4279254551
0.12598851 0.05146189 0.34600002 4279386137
0.032239683 0.051826164 0.34100002 4284576872
0.033347253 0.051826164 0.34100002 4285301878
0.034454823 0.051826164 0.34100002 4285302391
0.035562389 0.051826164 0.34100002 4285565563
0.036669958 0.051826164 0.34100002 4285368184
0.037777528 0.051826164 0.34100002 4285433977
0.038885094 0.051826164 0.34100002 4285565563
0.037764337 0.04893849 0.32200003 4285631356
0.03881019 0.04893849 0.32200003 4285500284
0.03973227 0.048786502 0.32100001 4285302905
0.040774874 0.048786502 0.32100001 4285237112
0.041817486 0.048786502 0.32100001 4285105526
0.042860094 0.048786502 0.32100001 4285368438
0.043902703 0.048786502 0.32100001 4285434231
0.044945311 0.048786502 0.32100001 4285368438
0.046131186 0.04893849 0.32200003 4285368438
0.047177047 0.04893849 0.32200003 4285631610
0.048372656 0.049090471 0.32300001 4285565817
0.049421765 0.049090471 0.32300001 4285434231
0.050627124 0.049242452 0.324 4285565817
0.051679473 0.049242452 0.324 4285434231
0.052731827 0.049242452 0.324 4285565817
0.05378418 0.049242452 0.324 4285499511
0.054667283 0.049090471 0.32300001 4285499511
0.055716392 0.049090471 0.32300001 4285368438
0.056765497 0.049090471 0.32300001 4285302645
0.057814602 0.049090471 0.32300001 4285105780
0.058863703 0.049090471 0.32300001 4285039733
0.059912808 0.049090471 0.32300001 4285566331
0.060961917 0.049090471 0.32300001 4285039987
0.062202998 0.049242452 0.324 4285697399
0.063255355 0.049242452 0.324 4285894778
0.064307705 0.049242452 0.324 4285697913
0.065360054 0.049242452 0.324 4285106550
0.066412412 0.049242452 0.324 4284778098
0.067464761 0.049242452 0.324 4283988580
0.068517119 0.049242452 0.324 4283527516
0.069569468 0.049242452 0.324 4281882691
0.070621818 0.049242452 0.324 4281684540
0.071674176 0.049242452 0.324 4281093173
0.072950989 0.049394436 0.32500002 4280040485
0.074006595 0.049394436 0.32500002 4279514654
0.0750622 0.049394436 0.32500002 4279120666
0.076117791 0.049394436 0.32500002 4279186459
0.077410847 0.049546417 0.32600001 4279186711
0.078469701 0.049546417 0.32600001 4279186711
0.079772502 0.049698401 0.32700002 4278857746
0.080834597 0.049698401 0.32700002 4279318297
0.082147136 0.049850386 0.32800001 4279516189
0.083212487 0.049850386 0.32800001 4279385117
0.084277831 0.049850386 0.32800001 4279187992
0.085603371 0.05000237 0.32900003 4279319578
0.086671971 0.05000237 0.32900003 4279385371
0.087740563 0.05000237 0.32900003 4279516957
0.089079089 0.050154351 0.33000001 4279056404
0.090150923 0.050154351 0.33000001 4279319576
0.091499202 0.050306335 0.33100003 4279187990
0.092574291 0.050306335 0.33100003 4278991381
0.09364938 0.050306335 0.33100003 4278991894
0.095010646 0.050458316 0.33200002 4278926101
0.096088983 0.050458316 0.33200002 4278925588
0.097167313 0.050458316 0.33200002 4279057174
0.098541565 0.050610296 0.333 4278991379
0.099623151 0.050610296 0.333 4279057174
0.10070474 0.050610296 0.333 4278859795
0.10209199 0.050762285 0.33400002 4278925588
0.10317682 0.050762285 0.33400002 4278860308
0.10457382 0.050914265 0.33500001 4278991894
0.10566189 0.050914265 0.33500001 4278991894
0.10706864 0.05106625 0.33600003 4279123480
0.10848186 0.05121823 0.33700001 4279188760
0.10957644 0.05121823 0.33700001 4279188760
0.11099943 0.051370215 0.33800003 4279122197
0.1124289 0.051522195 0.33900002 4279450648
0.11352996 0.051522195 0.33900002 4279581719
0.11496918 0.051674176 0.34 4279581719
0.1164149 0.051826164 0.34100002 4279647512
0.11752246 0.051826164 0.34100002 4279450646
0.11897792 0.051978145 0.34200001 4279844891
0.12008874 0.051978145 0.34200001 4279713305
0.12155395 0.052130129 0.34300002 4279647512
0.12266801 0.052130129 0.34300002 4280042270
0.12450383 0.052434094 0.34500003 4279842588
0.12598851 0.052586075 0.34600002 4283855188
0.032239683 0.05293411 0.34100002 4285630075
0.033445042 0.053089339 0.34200001 4285367673
0.03455586 0.053089339 0.34200001 4285236598
0.035666678 0.053089339 0.34200001 4285565563
0.036777493 0.053089339 0.34200001 4285433977
0.037888311 0.053089339 0.34200001 4285433977
0.038999125 0.053089339 0.34200001 4285565563
0.040109944 0.053089339 0.34200001 4285433977
0.038689662 0.049829468 0.32100001 4285433977
0.03973227 0.049829468 0.32100001 4285368184
0.040774874 0.049829468 0.32100001 4285302391
0.041817486 0.049829468 0.32100001 4285631356
0.042860094 0.049829468 0.32100001 4285565817
0.043902703 0.049829468 0.32100001 4285565817
0.044945311 0.049829468 0.32100001 4285631097
0.045987923 0.049829468 0.32100001 4285631097
0.047030531 0.049829468 0.32100001 4285368438
0.048372656 0.050139934 0.32300001 4285302645
0.049421765 0.050139934 0.32300001 4285631610
0.050627124 0.050295163 0.324 4285565817
0.051679473 0.050295163 0.324 4285499511
0.052731827 0.050295163 0.324 4285499511
0.05378418 0.050295163 0.324 4285631097
0.054667283 0.050139934 0.32300001 4285499511
0.055716392 0.050139934 0.32300001 4285565817
0.056765497 0.050139934 0.32300001 4285565817
0.057814602 0.050139934 0.32300001 4285236852
0.058863703 0.050139934 0.32300001 4285302645
0.059912808 0.050139934 0.32300001 4285236852
0.060961917 0.050139934 0.32300001 4285434231
0.062202998 0.050295163 0.324 4285368436
0.063255355 0.050295163 0.324 4285302643
0.090150923 0.051226556 0.33000001 4280302887
0.091499202 0.051381789 0.33100003 4280434725
0.092574291 0.051381789 0.33100003 4280040737
0.09364938 0.051381789 0.33100003 4279909151
0.095010646 0.051537022 0.33200002 4279777819
0.096088983 0.051537022 0.33200002 4279645463
0.097167313 0.051537022 0.33200002 4280303139
0.098541565 0.051692251 0.333 4279908383
0.099623151 0.051692251 0.333 4280039969
0.10070474 0.051692251 0.333 4280171553
0.10209199 0.051847484 0.33400002 4279974174
0.10317682 0.051847484 0.33400002 4280171553
0.10457382 0.052002717 0.33500001 4280434725
0.10566189 0.052002717 0.33500001 4280368934
0.10706864 0.05215795 0.33600003 4280763692
0.10848186 0.052313179 0.33700001 4280829485
0.10957644 0.052313179 0.33700001 4280632106
0.11099943 0.052468415 0.33800003 4281092657
0.1124289 0.052623644 0.33900002 4281684792
0.11352996 0.052623644 0.33900002 4282275902
0.11496918 0.052778874 0.34 4282999879
0.1164149 0.05293411 0.34100002 4283263310
0.11752246 0.05293411 0.34100002 4283460689
0.11897792 0.053089339 0.34200001 4284841313
0.12008874 0.053089339 0.34200001 4284972899
0.12155395 0.053244572 0.34300002 4285959027
0.12266801 0.053244572 0.34300002 4286353785
0.12450383 0.053555038 0.34500003 4286616189
0.032334227 0.05420053 0.34200001 4286091394
0.033445042 0.05420053 0.34200001 4285302393
0.03455586 0.05420053 0.34200001 4285434493
0.035666678 0.05420053 0.34200001 4285237114
0.036777493 0.05420053 0.34200001 4285302907
0.037888311 0.05420053 0.34200001 4285631356
0.038999125 0.05420053 0.34200001 4285433977
0.040109944 0.05420053 0.34200001 4285302391
0.041220758 0.05420053 0.34200001 4285631356
0.03973227 0.050872426 0.32100001 4285368184
0.040774874 0.050872426 0.32100001 4285302391
0.041817486 0.050872426 0.32100001 4285697149
0.042860094 0.050872426 0.32100001 4285433718
0.043902703 0.050872426 0.32100001 4285433718
0.044945311 0.050872426 0.32100001 4285631097
0.045987923 0.050872426 0.32100001 4285631097
0.047030531 0.050872426 0.32100001 4285368184
0.048372656 0.051189389 0.32300001 4285565563
0.049421765 0.051189389 0.32300001 4285565817
0.050627124 0.05134787 0.324 4285565817
0.051679473 0.05134787 0.324 4285631097
0.052731827 0.05134787 0.324 4285499511
0.05378418 0.05134787 0.324 4285696890
0.05483653 0.05134787 0.324 4285631097
0.055888884 0.05134787 0.324 4285631097
0.056941237 0.05134787 0.324 4285434231
0.057993591 0.05134787 0.324 4285434231
0.059045941 0.05134787 0.324 4285499511
0.060098294 0.05134787 0.324 4285499511
0.061150651 0.05134787 0.324 4285367925
0.062202998 0.05134787 0.324 4285565817
0.032334227 0.055311725 0.34200001 4285433718
0.033445042 0.055311725 0.34200001 4285433977
0.03455586 0.055311725 0.34200001 4285368184
0.035666678 0.055311725 0.34200001 4285565563
0.036777493 0.055311725 0.34200001 4285565563
0.037888311 0.055311725 0.34200001 4285433979
0.038999125 0.055311725 0.34200001 4285433977
0.040109944 0.055311725 0.34200001 4285565563
0.040647853 0.051753663 0.32000002 4285631356
0.041817486 0.051915392 0.32100001 4285696636
0.042860094 0.051915392 0.32100001 4285499257
0.043902703 0.051915392 0.32100001 4285696636
0.044945311 0.051915392 0.32100001 4285433464
0.045987923 0.051915392 0.32100001 4285499257
0.047030531 0.051915392 0.32100001 4285499257
0.048372656 0.052238852 0.32300001 4285433464
0.049421765 0.052238852 0.32300001 4285630843
0.050627124 0.052400582 0.324 4285630843
0.051679473 0.052400582 0.324 4285630843
0.052731827 0.052400582 0.324 4285499257
0.05378418 0.052400582 0.324 4285499257
0.05483653 0.052400582 0.324 4285630843
0.055888884 0.052400582 0.324 4285433464
0.056941237 0.052400582 0.324 4285433464
0.057993591 0.052400582 0.324 4285367671
0.032334227 0.056422915 0.34200001 4286157189
0.032334227 0.05753411 0.34200001 4285959808
0.032334227 0.058645301 0.34200001 4285367925
0.032428775 0.059931226 0.34300002 4285630843
0.032428775 0.061045669 0.34300002 4285761659
0.031314708 0.062160108 0.34300002 4286089341
0.032428775 0.062160108 0.34300002 4285630843
0.031314708 0.063274555 0.34300002 4285892732
0.032428775 0.063274555 0.34300002 4285499257
0.031314708 0.06438899 0.34300002 4285433464
0.032428775 0.06438899 0.34300002 4285565563
0.030288691 0.065694407 0.34400001 4285762431
0.0314973 0.06588538 0.34500003 4285367673
0.032617863 0.06588538 0.34500003 4285565565
0.029256182 0.06700632 0.34500003 4285236600
0.030376742 0.06700632 0.34500003 4285236600
0.032227673 0.068560086 0.35300002 4285368186
0.033374216 0.068560086 0.35300002 4285630845
0.029849784 0.069509551 0.35200003 4282472781
0.031081129 0.069707021 0.35300002 4285105014
0.032227673 0.069707021 0.35300002 4285368186
0.033374216 0.069707021 0.35300002 4285565565
0.032318968 0.071054667 0.354 4285893247
0.033468761 0.071054667 0.354 4285499259
0.033468761 0.072204851 0.354 4285959557
0.03452076 0.073147818 0.35300002 4285499259
0.03452076 0.074294753 0.35300002 4286090113
0.03452076 0.075441688 0.35300002 4286353285
0.034325175 0.076154687 0.35100001 4285367420
0.029680183 0.081623659 0.35000002 4282865233
0.030816983 0.081623659 0.35000002 4285499006
0.071560316 0.042559262 0.3298144 4294967295
0.071560316 0.042559262 0.3298144 4294901760
0.071571805 0.042059448 0.32982159 4294901760
0.071583301 0.041559629 0.3298288 4294901760
0.07159479 0.041059814 0.32983598 4294901760
0.071606286 0.04056 0.32984319 4294901760
0.071617775 0.040060181 0.32985038 4294901760
0.071629271 0.039560366 0.32985759 4294901760
0.07164076 0.039060548 0.32986477 4294901760
0.071652256 0.038560733 0.32987198 4294901760
0.071663745 0.038060918 0.32987916 4294901760
0.071675241 0.0375611 0.32988638 4294901760
0.07168673 0.037061285 0.32989356 4294901760
0.071698219 0.03656147 0.32990077 4294901760
0.071709715 0.036061652 0.32990795 4294901760
0.071721204 0.035561837 0.32991517 4294901760
0.0717327 0.035062023 0.32992235 4294901760
0.071744189 0.034562204 0.32992956 4294901760
0.071755685 0.034062389 0.32993674 4294901760
0.071767174 0.033562571 0.32994395 4294901760
0.07177867 0.033062756 0.32995114 4294901760
0.071790159 0.032562941 0.32995835 4294901760
0.071801648 0.032063127 0.32996553 4294901760
0.071813144 0.031563308 0.32997274 4294901760
0.071824633 0.031063493 0.32997993 4294901760
0.071836129 0.030563677 0.32998714 4294901760
0.071847618 0.03006386 0.32999432 4294901760
0.071859114 0.029564045 0.33000153 4294901760
0.071870603 0.029064227 0.33000872 4294901760
0.071882099 0.028564412 0.33001593 4294901760
0.071893588 0.028064597 0.33002311 4294901760
0.071905077 0.027564779 0.33003032 4294901760
0.071916573 0.027064964 0.3300375 4294901760
0.071928062 0.026565148 0.33004472 4294901760
0.071939558 0.026065331 0.3300519 4294901760
0.071951047 0.025565514 0.33005911 4294901760
0.071962543 0.0250657 0.33006629 4294901760
0.071974032 0.024565883 0.33007351 4294901760
0.071985528 0.024066066 0.33008069 4294901760
0.071997017 0.023566252 0.3300879 4294901760
0.072008513 0.023066435 0.33009508 4294901760
0.072020002 0.022566618 0.33010229 4294901760
0.072031491 0.022066804 0.33010948 4294901760
0.072042987 0.021566987 0.33011669 4294901760
0.072054476 0.02106717 0.33012387 4294901760
0.072065972 0.020567354 0.33013108 4294901760
0.072077461 0.020067539 0.33013827 4294901760
0.072088957 0.019567722 0.33014548 4294901760
0.072100446 0.019067906 0.33015266 4294901760
0.072111942 0.018568091 0.33015987 4294901760
0.072123431 0.018068273 0.33016706 4294901760
0.072134927 0.017568458 0.33017427 4294901760
0.072146416 0.017068643 0.33018145 4294901760
0.072157905 0.016568827 0.33018863 4294901760
0.072169401 0.016069012 0.33019584 4294901760
0.07218089 0.015569193 0.33020303 4294901760
0.072192386 0.015069377 0.33021024 4294901760
0.072203875 0.014569562 0.33021742 4294901760
0.072215371 0.014069745 0.33022463 4294901760
0.07222686 0.013569931 0.33023182 4294901760
0.072238356 0.013070114 0.33023903 4294901760
0.072249845 0.012570295 0.33024621 4294901760
0.072261333 0.012070481 0.33025342 4294901760
0.07227283 0.011570664 0.3302606 4294901760
0.072284319 0.011070848 0.33026782 4294901760
0.072295815 0.010571033 0.330275 4294901760
0.072307304 0.010071218 0.33028221 4294901760
0.0723188 0.0095713995 0.33028939 4294901760
0.072330289 0.0090715848 0.33029661 4294901760
0.072341785 0.0085717663 0.33030379 4294901760
0.072353274 0.0080719516 0.330311 4294901760
0.072364762 0.0075721368 0.33031818 4294901760
0.072376259 0.0070723221 0.33032539 4294901760
0.072387747 0.0065725036 0.33033258 4294901760
0.072399244 0.0060726851 0.33033979 4294901760
0.072410733 0.0055728704 0.33034697 4294901760
0.072422229 0.0050730556 0.33035418 4294901760
0.072433718 0.0045732409 0.33036137 4294901760
0.072445214 0.0040734261 0.33036858 4294901760
0.072456703 0.0035736077 0.33037576 4294901760
0.072468199 0.0030737892 0.33038297 4294901760
0.072479688 0.0025739744 0.33039016 4294901760
0.072491176 0.0020741597 0.33039737 4294901760
0.072502673 0.0015743449 0.33040455 4294901760
0.072514161 0.0010745265 0.33041176 4294901760
0.072525658 0.00057471171 0.33041894 4294901760
0.072537147 7.4893236e-05 0.33042616 4294901760
0.072548643 -0.00042492151 0.33043334 4294901760
0.072560132 -0.00092473626 0.33044055 4294901760
0.072571628 -0.0014245547 0.33044773 4294901760
0.072583117 -0.0019243695 0.33045495 4294901760
0.072594613 -0.0024241842 0.33046213 4294901760
0.072606102 -0.0029240027 0.33046934 4294901760
0.07261759 -0.0034238175 0.33047652 4294901760
0.072629087 -0.0039236359 0.33048373 4294901760
0.072640575 -0.0044234507 0.33049092 4294901760
0.072652072 -0.0049232654 0.33049813 4294901760
0.072663561 -0.0054230802 0.33050531 4294901760
0.072675057 -0.0059228987 0.33051252 4294901760
0.072686546 -0.0064227171 0.33051971 4294901760
0.072698042 -0.0069225319 0.33052692 4294901760
0.072709531 -0.0074223466 0.3305341 4294901760
0.071560316 0.042559262 0.3298144 4278255360
0.072057232 0.042571466 0.32986853 4278255360
0.072554141 0.04258367 0.32992265 4278255360
0.073051058 0.042595875 0.32997674 4278255360
0.073547967 0.042608082 0.33003086 4278255360
0.074044883 0.042620286 0.33008498 4278255360
0.074541792 0.04263249 0.3301391 4278255360
0.075038709 0.042644694 0.33019319 4278255360
0.075535625 0.042656898 0.33024731 4278255360
0.076032534 0.042669103 0.33030143 4278255360
0.076529451 0.042681307 0.33035555 4278255360
0.07702636 0.042693514 0.33040965 4278255360
0.077523276 0.042705718 0.33046377 4278255360
0.078020185 0.042717922 0.33051789 4278255360
0.078517102 0.042730127 0.33057201 4278255360
0.079014018 0.042742331 0.33062613 4278255360
0.079510927 0.042754535 0.33068022 4278255360
0.080007844 0.042766742 0.33073434 4278255360
0.080504753 0.042778946 0.33078846 4278255360
0.081001669 0.042791151 0.33084258 4278255360
0.081498578 0.042803355 0.33089668 4278255360
0.081995495 0.042815559 0.3309508 4278255360
0.082492411 0.042827763 0.33100492 4278255360
0.08298932 0.042839967 0.33105904 4278255360
0.083486237 0.042852174 0.33111313 4278255360
0.083983146 0.042864379 0.33116725 4278255360
0.084480062 0.042876583 0.33122137 4278255360
0.084976971 0.042888787 0.33127549 4278255360
0.085473888 0.042900991 0.33132961 4278255360
0.085970804 0.042913195 0.33138371 4278255360
0.086467713 0.042925403 0.33143783 4278255360
0.08696463 0.042937607 0.33149195 4278255360
0.087461539 0.042949811 0.33154607 4278255360
0.087958455 0.042962015 0.33160016 4278255360
0.088455364 0.042974219 0.33165428 4278255360
0.088952281 0.042986423 0.3317084 4278255360
0.089449197 0.042998627 0.33176252 4278255360
0.089946106 0.043010835 0.33181661 4278255360
0.090443023 0.043023039 0.33187073 4278255360
0.090939932 0.043035243 0.33192486 4278255360
0.091436848 0.043047447 0.33197898 4278255360
0.091933757 0.043059651 0.3320331 4278255360
0.092430674 0.043071855 0.33208719 4278255360
0.09292759 0.043084059 0.33214131 4278255360
0.093424499 0.043096267 0.33219543 4278255360
0.093921408 0.043108471 0.33224955 4278255360
0.094418325 0.043120675 0.33230364 4278255360
0.094915241 0.043132879 0.33235776 4278255360
0.09541215 0.043145083 0.33241189 4278255360
0.095909066 0.043157287 0.33246601 4278255360
0.096405983 0.043169491 0.33252013 4278255360
0.096902892 0.043181699 0.33257422 4278255360
0.097399801 0.043193903 0.33262834 4278255360
0.097896717 0.043206107 0.33268246 4278255360
0.098393634 0.043218311 0.33273658 4278255360
0.098890543 0.043230515 0.33279067 4278255360
0.099387459 0.043242719 0.33284479 4278255360
0.099884376 0.043254927 0.33289891 4278255360
0.10038128 0.043267131 0.33295304 4278255360
0.10087819 0.043279335 0.33300713 4278255360
0.10137511 0.043291539 0.33306125 4278255360
0.10187203 0.043303743 0.33311537 4278255360
0.10236894 0.043315947 0.33316949 4278255360
0.10286585 0.043328151 0.33322361 4278255360
0.10336277 0.043340359 0.3332777 4278255360
0.10385968 0.043352563 0.33333182 4278255360
0.10435659 0.043364767 0.33338594 4278255360
0.10485351 0.043376971 0.33344007 4278255360
0.10535042 0.043389175 0.33349416 4278255360
0.10584733 0.043401379 0.33354828 4278255360
0.10634425 0.043413587 0.3336024 4278255360
0.10684116 0.043425791 0.33365652 4278255360
0.10733807 0.043437995 0.33371061 4278255360
0.10783498 0.043450199 0.33376473 4278255360
0.1083319 0.043462403 0.33381885 4278255360
0.10882881 0.043474607 0.33387297 4278255360
0.10932572 0.043486811 0.33392709 4278255360
0.10982264 0.043499019 0.33398119 4278255360
0.11031955 0.043511223 0.33403531 4278255360
0.11081646 0.043523427 0.33408943 4278255360
0.11131337 0.043535631 0.33414355 4278255360
0.11181029 0.043547835 0.33419764 4278255360
0.11230721 0.043560039 0.33425176 4278255360
0.11280411 0.043572243 0.33430588 4278255360
0.11330102 0.043584451 0.33436 4278255360
0.11379795 0.043596655 0.33441409 4278255360
0.11429486 0.043608859 0.33446822 4278255360
0.11479177 0.043621063 0.33452234 4278255360
0.11528868 0.043633267 0.33457646 4278255360
0.1157856 0.043645471 0.33463058 4278255360
0.11628251 0.043657675 0.33468467 4278255360
0.11677942 0.043669883 0.33473879 4278255360
0.11727634 0.043682087 0.33479291 4278255360
0.11777325 0.043694291 0.33484703 4278255360
0.11827016 0.043706495 0.33490112 4278255360
0.11876708 0.043718699 0.33495525 4278255360
0.11926399 0.043730903 0.33500937 4278255360
0.1197609 0.043743111 0.33506349 4278255360
0.12025782 0.043755315 0.33511758 4278255360
0.12075473 0.043767519 0.3351717 4278255360
0.12125164 0.043779723 0.33522582 4278255360
0.071560316 0.042559262 0.3298144 4278190335
0.071386427 0.042562015 0.33028319 4278190335
0.07121253 0.042564765 0.33075196 4278190335
0.071038641 0.042567518 0.33122075 4278190335
0.070864752 0.042570271 0.33168951 4278190335
0.070690855 0.04257302 0.3321583 4278190335
0.070516966 0.042575773 0.33262709 4278190335
