# .PCD v0.7 - Point Cloud Data file format
VERSION 0.7
FIELDS x y z rgb
SIZE 4 4 4 4
TYPE F F F U
COUNT 1 1 1 1
WIDTH 930
HEIGHT 1
VIEWPOINT 0 0 0 1 0 0 0
POINTS 930
DATA ascii
-0.039833225 0.0061616744 0.39700001 4287280027
-0.051697474 0.0074891075 0.39900002 4284249444
-0.050401516 0.0074891075 0.39900002 4282735435
-0.048982497 0.0074703381 0.39800003 4282603334
-0.047569964 0.0074515683 0.39700001 4282405185
-0.046163935 0.0074327989 0.39600003 4282405185
-0.044877723 0.0074327989 0.39600003 4282208578
-0.043701593 0.0074515683 0.39700001 4282143298
-0.042412139 0.0074515683 0.39700001 4281816130
-0.041122679 0.0074515683 0.39700001 4281487165
-0.039833225 0.0074515683 0.39700001 4279714602
-0.038640857 0.0074703381 0.39800003 4280704577
-0.037441991 0.0074891075 0.39900002 4280970567
-0.036146037 0.0074891075 0.39900002 4280445250
-0.034937426 0.007507877 0.40000001 4282876257
-0.033638228 0.007507877 0.40000001 4285638536
-0.053126235 0.0088075176 0.40000001 4281815616
-0.05182704 0.0088075176 0.40000001 4283130961
-0.050527837 0.0088075176 0.40000001 4281157169
-0.049228635 0.0088075176 0.40000001 4281880124
-0.047569964 0.0087414617 0.39700001 4281748025
-0.046163935 0.0087194433 0.39600003 4281748027
-0.044877723 0.0087194433 0.39600003 4281222196
-0.043701593 0.0087414617 0.39700001 4281814329
-0.042412139 0.0087414617 0.39700001 4281551157
-0.041226264 0.0087634809 0.39800003 4281880122
-0.039933562 0.0087634809 0.39800003 4281946685
-0.038737942 0.0087854993 0.39900002 4280700465
-0.037441991 0.0087854993 0.39900002 4278998826
-0.036236629 0.0088075176 0.40000001 4279724596
-0.034937426 0.0088075176 0.40000001 4279133488
-0.033638228 0.0088075176 0.40000001 4280316481
-0.053391866 0.010157694 0.40200001 4281749310
-0.052086174 0.010157694 0.40200001 4283065683
-0.050780475 0.010157694 0.40200001 4280894514
-0.049351711 0.010132426 0.40100002 4281288759
-0.048528556 0.010233498 0.40500003 4281616952
-0.047213115 0.010233498 0.40500003 4281682747
-0.044877723 0.010006087 0.39600003 4281551157
-0.043811675 0.010056623 0.39800003 4281879863
-0.042518973 0.010056623 0.39800003 4281287472
-0.04132985 0.010081891 0.39900002 4281616437
-0.040033896 0.010081891 0.39900002 4281354032
-0.03883503 0.010107159 0.40000001 4280368934
-0.037535828 0.010107159 0.40000001 4279456295
-0.036236629 0.010107159 0.40000001 4279194918
-0.035024773 0.010132426 0.40100002 4278737187
-0.033722326 0.010132426 0.40100002 4279000873
-0.032500722 0.010157694 0.40200001 4278606376
-0.031272627 0.010182963 0.40300003 4280184381
-0.029963681 0.010182963 0.40300003 4282946152
-0.028654736 0.010182963 0.40300003 4280514121
-0.027413648 0.01020823 0.40400001 4280054594
-0.026101455 0.01020823 0.40400001 4280185410
-0.024789261 0.01020823 0.40400001 4279987516
-0.023535181 0.010233498 0.40500003 4281038920
-0.022219742 0.010233498 0.40500003 4280512576
-0.020904299 0.010233498 0.40500003 4280447553
-0.019588858 0.010233498 0.40500003 4280447551
-0.018273417 0.010233498 0.40500003 4279985717
-0.053524684 0.011492351 0.40300003 4285235304
-0.052215744 0.011492351 0.40300003 4282275650
-0.050906796 0.011492351 0.40300003 4281551929
-0.049597852 0.011492351 0.40300003 4281156401
-0.048528556 0.011549385 0.40500003 4280959024
-0.047213115 0.011549385 0.40500003 4281156149
-0.045784343 0.011520868 0.40400001 4281287472
-0.044141915 0.011435317 0.40100002 4282208056
-0.042732634 0.0114068 0.40000001 4282733886
-0.041433431 0.0114068 0.40000001 4281615921
-0.040134232 0.0114068 0.40000001 4280827434
-0.03883503 0.0114068 0.40000001 4280302887
-0.037629671 0.011435317 0.40100002 4279717672
-0.036327224 0.011435317 0.40100002 4278798365
-0.035024773 0.011435317 0.40100002 4278998052
-0.033806417 0.011463834 0.40200001 4278999335
-0.032500722 0.011463834 0.40200001 4279000359
-0.031272627 0.011492351 0.40300003 4278934566
-0.029963681 0.011492351 0.40300003 4279527476
-0.028654736 0.011492351 0.40300003 4279200566
-0.027413648 0.011520868 0.40400001 4279858498
-0.026101455 0.011520868 0.40400001 4278476845
-0.024850622 0.011549385 0.40500003 4279528759
-0.023535181 0.011549385 0.40500003 4279397425
-0.022274604 0.011577902 0.40600002 4279266093
-0.020904299 0.011549385 0.40500003 4279397425
-0.019588858 0.011549385 0.40500003 4278936874
-0.018273417 0.011549385 0.40500003 4279462705
-0.016957978 0.011549385 0.40500003 4279462705
-0.053657498 0.012833506 0.40400001 4282863408
-0.052345309 0.012833506 0.40400001 4281616173
-0.051033117 0.012833506 0.40400001 4281025583
-0.049720924 0.012833506 0.40400001 4280696620
-0.048528556 0.012865272 0.40500003 4280959792
-0.047213115 0.012865272 0.40500003 4280301864
-0.045784343 0.012833506 0.40400001 4281615669
-0.044251993 0.012769973 0.40200001 4282470714
-0.042839468 0.012738207 0.40100002 4281614374
-0.041537017 0.012738207 0.40100002 4281154595
-0.040234569 0.012738207 0.40100002 4280892966
-0.038932119 0.012738207 0.40100002 4280236832
-0.037629671 0.012738207 0.40100002 4279322914
-0.036417812 0.012769973 0.40200001 4279258146
-0.035112113 0.012769973 0.40200001 4279062050
-0.033806417 0.012769973 0.40200001 4278931748
-0.032581568 0.012801739 0.40300003 4278998822
-0.031272627 0.012801739 0.40300003 4279459886
-0.029963681 0.012801739 0.40300003 4279197998
-0.028725838 0.012833506 0.40400001 4278870316
-0.027413648 0.012833506 0.40400001 4279462966
-0.026166065 0.012865272 0.40500003 4279068208
-0.024850622 0.012865272 0.40500003 4278608681
-0.023593292 0.012897038 0.40600002 4279463218
-0.022274604 0.012897038 0.40600002 4279068460
-0.020904299 0.012865272 0.40500003 4279068460
-0.019588858 0.012865272 0.40500003 4279199017
-0.018273417 0.012865272 0.40500003 4279462189
-0.016957978 0.012865272 0.40500003 4278804259
-0.053790316 0.014181159 0.40500003 4282533416
-0.052474879 0.014181159 0.40500003 4282206511
-0.051159438 0.014181159 0.40500003 4280827434
-0.049720924 0.014146143 0.40400001 4280498471
-0.048528556 0.014181159 0.40500003 4280761643
-0.047096539 0.014146143 0.40400001 4280959022
-0.045671016 0.014111128 0.40300003 4280497188
-0.044251993 0.014076112 0.40200001 4281352747
-0.042839468 0.014041097 0.40100002 4282009902
-0.041537017 0.014041097 0.40100002 4281220386
-0.040234569 0.014041097 0.40100002 4280827173
-0.038932119 0.014041097 0.40100002 4280434211
-0.037629671 0.014041097 0.40100002 4279125533
-0.036417812 0.014076112 0.40200001 4279126560
-0.035112113 0.014076112 0.40200001 4279193636
-0.033806417 0.014076112 0.40200001 4279063334
-0.032581568 0.014111128 0.40300003 4279459886
-0.031272627 0.014111128 0.40300003 4279065128
-0.029963681 0.014111128 0.40300003 4279132205
-0.028725838 0.014146143 0.40400001 4278803753
-0.027413648 0.014146143 0.40400001 4280054074
-0.026166065 0.014181159 0.40500003 4279001386
-0.024911981 0.014216173 0.40600002 4278935591
-0.023651402 0.014251187 0.40700001 4279461935
-0.022384331 0.014286203 0.40800002 4278671140
-0.021317223 0.01446128 0.41300002 4278999589
-0.020072535 0.01453131 0.41500002 4279329322
-0.018859971 0.014636355 0.41800001 4279263783
-0.017586051 0.014706386 0.42000002 4279658541
-0.01633776 0.014811431 0.42300001 4279527469
-0.053790316 0.015497045 0.40500003 4282731049
-0.052345309 0.015458779 0.40400001 4282205996
-0.051033117 0.015458779 0.40400001 4280498471
-0.049720924 0.015458779 0.40400001 4280761643
-0.048408728 0.015458779 0.40400001 4281155888
-0.047096539 0.015458779 0.40400001 4280761130
-0.045671016 0.015420516 0.40300003 4280563749
-0.044251993 0.015382251 0.40200001 4281287472
-0.042839468 0.015343987 0.40100002 4281154854
-0.041433431 0.015305722 0.40000001 4281022755
-0.040234569 0.015343987 0.40100002 4281485105
-0.038932119 0.015343987 0.40100002 4279646492
-0.037629671 0.015343987 0.40100002 4279323426
-0.036417812 0.015382251 0.40200001 4279192353
-0.035112113 0.015382251 0.40200001 4279258916
-0.033806417 0.015382251 0.40200001 4279193636
-0.032581568 0.015420516 0.40300003 4279524396
-0.031272627 0.015420516 0.40300003 4279393580
-0.029963681 0.015420516 0.40300003 4279592242
-0.028725838 0.015458779 0.40400001 4279394863
-0.027481504 0.015497045 0.40500003 4279198511
-0.026230671 0.015535308 0.40600002 4279198511
-0.024973338 0.015573572 0.40700001 4279461170
-0.023709515 0.015611837 0.40800002 4279132205
-0.022439193 0.015650101 0.40900001 4278206481
-0.021317223 0.015803158 0.41300002 4279523883
-0.020072535 0.015879687 0.41500002 4279131175
-0.018859971 0.01599448 0.41800001 4279394599
-0.017586051 0.016071009 0.42000002 4279263013
-0.01633776 0.016185801 0.42300001 4278671392
-0.015034606 0.01626233 0.42500001 4278539808
-0.013718461 0.016338859 0.42700002 4278999589
-0.012389324 0.016415387 0.42900002 4278934566
-0.011021561 0.016453652 0.43000001 4278868771
-0.053790316 0.01681293 0.40500003 4282994221
-0.052345309 0.016771417 0.40400001 4282994224
-0.051033117 0.016771417 0.40400001 4281221933
-0.049720924 0.016771417 0.40400001 4281353265
-0.048288908 0.016729904 0.40300003 4280893229
-0.046979964 0.016729904 0.40300003 4281090610
-0.045557689 0.01668839 0.40200001 4281287472
-0.044141915 0.016646877 0.40100002 4281680946
-0.042732634 0.016605362 0.40000001 4281549101
-0.041433431 0.016605362 0.40000001 4281351722
-0.040134232 0.016605362 0.40000001 4280498723
-0.038932119 0.016646877 0.40100002 4280172836
-0.037629671 0.016646877 0.40100002 4279191840
-0.036327224 0.016646877 0.40100002 4279192353
-0.035112113 0.01668839 0.40200001 4279323937
-0.033806417 0.01668839 0.40200001 4279522086
-0.032581568 0.016729904 0.40300003 4279458603
-0.031272627 0.016729904 0.40300003 4279131175
-0.030038033 0.016771417 0.40400001 4279000873
-0.028725838 0.016771417 0.40400001 4279724596
-0.027481504 0.01681293 0.40500003 4279198765
-0.026230671 0.016854443 0.40600002 4279001132
-0.024973338 0.016895955 0.40700001 4278935339
-0.023767626 0.016978983 0.40900001 4278935339
-0.022494059 0.017020497 0.41000003 4279721262
-0.021317223 0.017145038 0.41300002 4280509494
-0.0201209 0.017269578 0.41600001 4278201863
-0.018859971 0.017352603 0.41800001 4278200841
-0.017627923 0.017477145 0.42100003 4278198021
-0.01633776 0.017560171 0.42300001 4278200334
-0.015069982 0.017684711 0.42600003 4278199810
-0.0096920719 0.017975306 0.43300003 4279061285
-0.0083239581 0.018058334 0.43500003 4279391017
-0.0069269645 0.018099846 0.43600002 4279588396
-0.053790316 0.018128816 0.40500003 4281942054
-0.052215744 0.018039292 0.40300003 4284181073
-0.050906796 0.018039292 0.40300003 4281418290
-0.049597852 0.018039292 0.40300003 4281286706
-0.04816908 0.017994529 0.40200001 4281353269
-0.046863385 0.017994529 0.40200001 4281945406
-0.045444362 0.017949766 0.40100002 4281748025
-0.044031832 0.017905002 0.40000001 4281549874
-0.042732634 0.017905002 0.40000001 4281286442
-0.041433431 0.017905002 0.40000001 4281154856
-0.040134232 0.017905002 0.40000001 4280367905
-0.03883503 0.017905002 0.40000001 4280239653
-0.037629671 0.017949766 0.40100002 4279191840
-0.036327224 0.017949766 0.40100002 4279258146
-0.035112113 0.017994529 0.40200001 4278996255
-0.033806417 0.017994529 0.40200001 4279523369
-0.032581568 0.018039292 0.40300003 4279392297
-0.031272627 0.018039292 0.40300003 4279459627
-0.030038033 0.018084053 0.40400001 4279132457
-0.028725838 0.018084053 0.40400001 4279461422
-0.027481504 0.018128816 0.40500003 4279396142
-0.026230671 0.018173579 0.40600002 4278738212
-0.0250347 0.018263103 0.40800002 4279001132
-0.023825739 0.01835263 0.41000003 4278803755
-0.022548921 0.018397391 0.41100001 4278201861
-0.021368841 0.01853168 0.41400003 4280310834
-0.0201209 0.018621203 0.41600001 4278857494
-0.018905092 0.018755492 0.41900003 4279052310
-0.017627923 0.018845016 0.42100003 4279183129
-0.016376384 0.018979304 0.42400002 4279117336
-0.015069982 0.01906883 0.42600003 4278199051
-0.051956609 0.019252658 0.40100002 4282406466
-0.050654158 0.019252658 0.40100002 4281945404
-0.049351711 0.019252658 0.40100002 4281879609
-0.04804926 0.019252658 0.40100002 4282209087
-0.046746813 0.019252658 0.40100002 4282143294
-0.045444362 0.019252658 0.40100002 4282274880
-0.044031832 0.019204644 0.40000001 4280958507
-0.042732634 0.019204644 0.40000001 4281220649
-0.041433431 0.019204644 0.40000001 4281155370
-0.040134232 0.019204644 0.40000001 4280171553
-0.03883503 0.019204644 0.40000001 4279715365
-0.037629671 0.019252658 0.40100002 4279191840
-0.036327224 0.019252658 0.40100002 4279389732
-0.035112113 0.019300669 0.40200001 4279193634
-0.033806417 0.019300669 0.40200001 4279326504
-0.032581568 0.019348681 0.40300003 4279459627
-0.031272627 0.019348681 0.40300003 4279328554
-0.030038033 0.019396693 0.40400001 4279198252
-0.028796943 0.019444704 0.40500003 4279461422
-0.027549358 0.019492716 0.40600002 4279066664
-0.026295278 0.019540727 0.40700001 4279066664
-0.0250347 0.019588739 0.40800002 4279264558
-0.023825739 0.019684762 0.41000003 4279066925
-0.022603786 0.019780785 0.41200003 4278207256
-0.021420455 0.019924819 0.41500002 4278206230
-0.020169269 0.020020844 0.41700003 4278791185
-0.018950211 0.020164877 0.42000002 4279975207
-0.017669793 0.020260902 0.42200002 4281226046
-0.016415007 0.020404935 0.42500001 4280633909
-0.015105357 0.02050096 0.42700002 4278201101
-0.013782715 0.020596983 0.42900002 4279784492
-0.012447082 0.020693006 0.43100002 4278202376
-0.0097368397 0.020885052 0.43500003 4279325224
-0.008362229 0.020981075 0.43700001 4279391015
-0.0069905147 0.02112511 0.44000003 4279326504
-0.051697474 0.020453027 0.39900002 4281617720
-0.050401516 0.020453027 0.39900002 4281879609
-0.049228635 0.020504287 0.40000001 4282405437
-0.047929432 0.020504287 0.40000001 4282274621
-0.046630234 0.020504287 0.40000001 4282275134
-0.045331031 0.020504287 0.40000001 4281682743
-0.044031832 0.020504287 0.40000001 4281089323
-0.042732634 0.020504287 0.40000001 4281549614
-0.041433431 0.020504287 0.40000001 4281418028
-0.040134232 0.020504287 0.40000001 4280238116
-0.038932119 0.020555547 0.40100002 4279846951
-0.037629671 0.020555547 0.40100002 4279323426
-0.036327224 0.020555547 0.40100002 4279389732
-0.035112113 0.020606807 0.40200001 4279391013
-0.033806417 0.020606807 0.40200001 4279457576
-0.032581568 0.020658068 0.40300003 4279130921
-0.031272627 0.020658068 0.40300003 4279131691
-0.030038033 0.020709328 0.40400001 4279197998
-0.028796943 0.02076059 0.40500003 4279461937
-0.027549358 0.02081185 0.40600002 4278935593
-0.026295278 0.02086311 0.40700001 4279001386
-0.025096059 0.020965632 0.40900001 4279132972
-0.023883849 0.021068154 0.41100001 4280118840
-0.022658648 0.021170676 0.41300002 4280443703
-0.021420455 0.021273198 0.41500002 4278202123
-0.020217637 0.021426979 0.41800001 4281029944
-0.018950211 0.021529501 0.42000002 4279516191
-0.017711665 0.021683281 0.42300001 4278923287
-0.016415007 0.021785803 0.42500001 4280042283
-0.015105357 0.021888325 0.42700002 4279650857
-0.013782715 0.021990847 0.42900002 4278202894
-0.012447082 0.022093369 0.43100002 4278201101
-0.0097592231 0.022349672 0.43600002 4278929701
-0.0083813649 0.022452194 0.43800002 4278996007
-0.0070064021 0.022605976 0.44100001 4278601249
-0.051438335 0.021640398 0.39700001 4282274880
-0.050275199 0.021694908 0.39800003 4281615153
-0.049105566 0.021749416 0.39900002 4282207804
-0.047929432 0.021803927 0.40000001 4282471746
-0.046630234 0.021803927 0.40000001 4282405953
-0.045331031 0.021803927 0.40000001 4282405183
-0.044031832 0.021803927 0.40000001 4280826151
-0.042732634 0.021803927 0.40000001 4281746739
-0.041433431 0.021803927 0.40000001 4281023784
-0.040234569 0.021858437 0.40100002 4279582496
-0.038932119 0.021858437 0.40100002 4279519523
-0.037629671 0.021858437 0.40100002 4279258144
-0.036327224 0.021858437 0.40100002 4279193121
-0.035112113 0.021912945 0.40200001 4279325220
-0.033806417 0.021912945 0.40200001 4279260197
-0.032581568 0.021967458 0.40300003 4278933542
-0.031272627 0.021967458 0.40300003 4279329070
-0.030038033 0.022021966 0.40400001 4279264043
-0.028796943 0.022076476 0.40500003 4279461935
-0.027549358 0.022130987 0.40600002 4279001384
-0.026359886 0.022240005 0.40800002 4279001384
-0.025096059 0.022294514 0.40900001 4278869287
-0.023883849 0.022403535 0.41100001 4279525166
-0.022658648 0.022512555 0.41300002 4280902458
-0.02147207 0.022676084 0.41600001 4278202120
-0.020217637 0.022785103 0.41800001 4278462990
-0.01899533 0.022948634 0.42100003 4279054873
-0.017711665 0.023057653 0.42300001 4278264587
-0.016415007 0.023166671 0.42500001 4280897077
-0.013814842 0.023439221 0.43000001 4278199817
-0.011124087 0.02365726 0.43400002 4278797345
-0.0097592231 0.023766281 0.43600002 4279588144
-0.0083813649 0.0238753 0.43800002 4279390765
-0.0070064021 0.024038829 0.44100001 4278995240
-0.053200867 0.022583738 0.39100003 4282933330
-0.05130877 0.022872532 0.39600003 4282010427
-0.050148878 0.022930291 0.39700001 4282536257
-0.046630234 0.023103567 0.40000001 4282208576
-0.045331031 0.023103567 0.40000001 4281944120
-0.044031832 0.023103567 0.40000001 4281746741
-0.042732634 0.023103567 0.40000001 4281878325
-0.041537017 0.023161327 0.40100002 4280761895
-0.040234569 0.023161327 0.40100002 4280175657
-0.038932119 0.023161327 0.40100002 4279585316
-0.037629671 0.023161327 0.40100002 4278995742
-0.036417812 0.023219084 0.40200001 4279325220
-0.035112113 0.023219084 0.40200001 4279589930
-0.033806417 0.023219084 0.40200001 4279655723
-0.032581568 0.023276845 0.40300003 4279064869
-0.031350225 0.023334604 0.40400001 4279263531
-0.030038033 0.023334604 0.40400001 4279658801
-0.028796943 0.023392363 0.40500003 4279066664
-0.027549358 0.023450121 0.40600002 4279132970
-0.026359886 0.023565639 0.40800002 4278935591
-0.025096059 0.023623398 0.40900001 4279724082
-0.023883849 0.023738915 0.41100001 4278204170
-0.022658648 0.023854433 0.41300002 4281099585
-0.02147207 0.024027709 0.41600001 4278399507
-0.020217637 0.024143228 0.41800001 4279183896
-0.01899533 0.024316506 0.42100003 4279117590
-0.017711665 0.024432022 0.42300001 4279379738
-0.016453631 0.0246053 0.42600003 4278854931
-0.011124087 0.02506737 0.43400002 4279982387
-0.0097592231 0.025182888 0.43600002 4278997029
-0.0083813649 0.025298407 0.43800002 4279589680
-0.0070064021 0.025471684 0.44100001 4279392047
-0.05130877 0.024159176 0.39600003 4283129428
-0.050148878 0.024220183 0.39700001 4283852119
-0.048982497 0.024281193 0.39800003 4283721047
-0.047809612 0.0243422 0.39900002 4283129680
-0.045331031 0.024403207 0.40000001 4282076992
-0.044031832 0.024403207 0.40000001 4281813048
-0.042839468 0.024464216 0.40100002 4281484853
-0.041537017 0.024464216 0.40100002 4280828206
-0.040234569 0.024464216 0.40100002 4280109610
-0.038932119 0.024464216 0.40100002 4279781928
-0.037629671 0.024464216 0.40100002 4279652904
-0.036417812 0.024525223 0.40200001 4279851051
-0.035112113 0.024525223 0.40200001 4279062818
-0.033890516 0.024586232 0.40300003 4279392297
-0.032581568 0.024586232 0.40300003 4279130921
-0.031350225 0.02464724 0.40400001 4278868773
-0.030112386 0.024708249 0.40500003 4280447805
-0.028868046 0.024769256 0.40600002 4279066666
-0.027617212 0.024830263 0.40700001 4278606628
-0.026359886 0.024891272 0.40800002 4279001384
-0.025096059 0.024952279 0.40900001 4279263783
-0.023883849 0.025074296 0.41100001 4278866466
-0.022658648 0.025196312 0.41300002 4280443705
-0.02147207 0.025379336 0.41600001 4278203665
-0.020217637 0.025501352 0.41800001 4278594835
-0.01899533 0.025684377 0.42100003 4278331152
-0.017711665 0.025806392 0.42300001 4278396947
-0.016415007 0.025928408 0.42500001 4278529046
-0.015105357 0.026050424 0.42700002 4278201104
-0.013782715 0.02617244 0.42900002 4278199814
-0.012447082 0.026294457 0.43100002 4278200327
-0.011098457 0.026416473 0.43300003 4278199815
-0.0097368397 0.026538489 0.43500003 4278200074
-0.008362229 0.026660504 0.43700001 4278201358
-0.0069905147 0.026843529 0.44000003 4278200587
-0.0055866735 0.026965545 0.44200003 4278200587
-0.05130877 0.025445823 0.39600003 4288922290
-0.047689788 0.025574338 0.39800003 4282998607
-0.046513662 0.025638593 0.39900002 4283524949
-0.045331031 0.025702849 0.40000001 4283130191
-0.044031832 0.025702849 0.40000001 4283195471
-0.042732634 0.025702849 0.40000001 4281946687
-0.041537017 0.025767108 0.40100002 4280896307
-0.040234569 0.025767108 0.40100002 4280110895
-0.038932119 0.025767108 0.40100002 4280045613
-0.037629671 0.025767108 0.40100002 4279257894
-0.036417812 0.025831364 0.40200001 4279653676
-0.035112113 0.025831364 0.40200001 4279786543
-0.033890516 0.025895622 0.40300003 4279787055
-0.032581568 0.025895622 0.40300003 4279854644
-0.031350225 0.025959879 0.40400001 4279263791
-0.030112386 0.026024137 0.40500003 4279527217
-0.028868046 0.026088392 0.40600002 4278803494
-0.027617212 0.02615265 0.40700001 4279066412
-0.026359886 0.026216907 0.40800002 4278672421
-0.025096059 0.026281163 0.40900001 4279263531
-0.023883849 0.026409678 0.41100001 4278405404
-0.022658648 0.026538193 0.41300002 4279655984
-0.021420455 0.026666706 0.41500002 4279655984
-0.020217637 0.026859477 0.41800001 4279129640
-0.018950211 0.026987992 0.42000002 4279919156
-0.017711665 0.027180763 0.42300001 4279523887
-0.016415007 0.027309278 0.42500001 4279589680
-0.015105357 0.027437793 0.42700002 4279392301
-0.012447082 0.027694821 0.43100002 4279523373
-0.011098457 0.027823336 0.43300003 4279786545
-0.0097144553 0.027887592 0.43400002 4279589426
-0.0083430931 0.028016107 0.43600002 4279721525
-0.0069905147 0.028273135 0.44000003 4279458353
-0.047689788 0.026867479 0.39800003 4288856499
-0.042732634 0.027002489 0.40000001 4280436528
-0.041537017 0.027069997 0.40100002 4280568627
-0.040234569 0.027069997 0.40100002 4280044848
-0.038932119 0.027069997 0.40100002 4280045102
-0.037723508 0.027137503 0.40200001 4279783211
-0.036417812 0.027137503 0.40200001 4279783979
-0.035112113 0.027137503 0.40200001 4279523373
-0.033890516 0.027205011 0.40300003 4279194920
-0.032581568 0.027205011 0.40300003 4279263277
-0.031350225 0.027272515 0.40400001 4279000619
-0.030112386 0.027340023 0.40500003 4279329838
-0.028868046 0.027407529 0.40600002 4279198252
-0.027617212 0.027475033 0.40700001 4279197998
-0.026359886 0.027542541 0.40800002 4278803240
-0.025096059 0.027610047 0.40900001 4279197998
-0.023883849 0.027745059 0.41100001 4279592242
-0.022658648 0.027880071 0.41300002 4279262507
-0.021420455 0.028015085 0.41500002 4278539554
-0.020217637 0.028217603 0.41800001 4279000105
-0.018950211 0.028352614 0.42000002 4279131691
-0.017669793 0.028487628 0.42200002 4279262509
-0.016376384 0.02862264 0.42400002 4279394095
-0.015069982 0.028757654 0.42600003 4279262509
-0.013750589 0.028892666 0.42800003 4279262509
-0.012418202 0.029027676 0.43000001 4279393582
-0.011072825 0.02916269 0.43200001 4278998824
-0.0096920719 0.029230196 0.43300003 4279394097
-0.0083239581 0.02936521 0.43500003 4279262511
-0.041537017 0.028372888 0.40100002 4283924072
-0.040234569 0.028372888 0.40100002 4280569659
-0.038932119 0.028372888 0.40100002 4280044598
-0.037723508 0.028443642 0.40200001 4279584299
-0.036417812 0.028443642 0.40200001 4280176947
-0.035112113 0.028443642 0.40200001 4279981617
-0.033890516 0.028514398 0.40300003 4280114740
-0.032662418 0.028585153 0.40400001 4280116024
-0.031350225 0.028585153 0.40400001 4279919156
-0.030112386 0.028655909 0.40500003 4279656752
-0.028868046 0.028726663 0.40600002 4279920437
-0.027617212 0.028797418 0.40700001 4279590959
-0.026359886 0.028868174 0.40800002 4279262509
-0.025096059 0.028938929 0.40900001 4279328302
-0.023883849 0.029080439 0.41100001 4279262509
-0.022658648 0.02922195 0.41300002 4279525683
-0.021420455 0.029363461 0.41500002 4279525683
-0.020169269 0.029504972 0.41700003 4279788342
-0.018950211 0.029717239 0.42000002 4279327791
-0.017669793 0.029858749 0.42200002 4279788088
-0.016376384 0.03000026 0.42400002 4279327537
-0.015069982 0.030141771 0.42600003 4279393330
-0.013750589 0.030283282 0.42800003 4279326767
-0.012389324 0.030354036 0.42900002 4279655221
-0.011047194 0.030495547 0.43100002 4279786805
-0.0096920719 0.030637057 0.43300003 4279720246
-0.0083048223 0.030707812 0.43400002 4279587377
-0.035112113 0.029749781 0.40200001 4283531107
-0.033890516 0.029823786 0.40300003 4281885769
-0.032662418 0.029897789 0.40400001 4280900161
-0.031350225 0.029897789 0.40400001 4281032258
-0.030112386 0.029971795 0.40500003 4281098049
-0.028868046 0.030045798 0.40600002 4279717166
-0.027617212 0.030119803 0.40700001 4279389228
-0.026359886 0.030193808 0.40800002 4279389228
-0.025096059 0.03026781 0.40900001 4279652141
-0.023883849 0.03041582 0.41100001 4279717420
-0.022658648 0.030563829 0.41300002 4279388969
-0.021420455 0.030711839 0.41500002 4279454762
-0.020169269 0.030859848 0.41700003 4279586607
-0.018905092 0.031007856 0.41900003 4279389230
-0.017669793 0.03122987 0.42200002 4279454512
-0.016376384 0.031377878 0.42400002 4279782963
-0.012360444 0.031673897 0.42800003 4285175684
-0.031674806 0.019396577 0.40815392 4294967295
-0.031674806 0.019396577 0.40815392 4294901760
-0.031531252 0.01891816 0.40813136 4294901760
-0.031387694 0.018439744 0.40810877 4294901760
-0.031244138 0.017961327 0.40808621 4294901760
-0.031100584 0.017482912 0.40806362 4294901760
-0.030957028 0.017004495 0.40804106 4294901760
-0.030813472 0.016526079 0.40801847 4294901760
-0.030669916 0.016047662 0.40799591 4294901760
-0.03052636 0.015569246 0.40797332 4294901760
-0.030382805 0.015090829 0.40795076 4294901760
-0.030239251 0.014612413 0.4079282 4294901760
-0.030095695 0.014133997 0.40790561 4294901760
-0.029952139 0.013655581 0.40788305 4294901760
-0.029808583 0.013177164 0.40786046 4294901760
-0.029665027 0.012698747 0.4078379 4294901760
-0.029521471 0.012220331 0.40781531 4294901760
-0.029377917 0.011741916 0.40779275 4294901760
-0.029234361 0.011263498 0.40777019 4294901760
-0.029090805 0.010785081 0.4077476 4294901760
-0.028947249 0.010306666 0.40772504 4294901760
-0.028803693 0.009828249 0.40770245 4294901760
-0.028660137 0.0093498332 0.40767989 4294901760
-0.028516583 0.0088714166 0.4076573 4294901760
-0.028373027 0.0083929999 0.40763474 4294901760
-0.028229471 0.0079145841 0.40761214 4294901760
-0.028085915 0.0074361674 0.40758958 4294901760
-0.027942359 0.0069577517 0.40756702 4294901760
-0.027798804 0.0064793341 0.40754443 4294901760
-0.027655248 0.0060009183 0.40752187 4294901760
-0.027511694 0.0055225026 0.40749928 4294901760
-0.027368138 0.005044085 0.40747672 4294901760
-0.027224582 0.0045656692 0.40745413 4294901760
-0.027081026 0.0040872535 0.40743157 4294901760
-0.02693747 0.0036088359 0.40740898 4294901760
-0.026793916 0.0031304192 0.40738642 4294901760
-0.02665036 0.0026520044 0.40736386 4294901760
-0.026506804 0.0021735858 0.40734127 4294901760
-0.026363248 0.001695171 0.40731871 4294901760
-0.026219692 0.0012167543 0.40729612 4294901760
-0.026076136 0.0007383395 0.40727356 4294901760
-0.02593258 0.00025992095 0.40725097 4294901760
-0.025789026 -0.00021849386 0.40722841 4294901760
-0.02564547 -0.00069691055 0.40720585 4294901760
-0.025501914 -0.0011753272 0.40718326 4294901760
-0.025358358 -0.0016537439 0.4071607 4294901760
-0.025214802 -0.0021321587 0.40713811 4294901760
-0.025071247 -0.0026105773 0.40711555 4294901760
-0.024927691 -0.0030889921 0.40709296 4294901760
-0.024784137 -0.0035674088 0.4070704 4294901760
-0.024640581 -0.0040458255 0.40704781 4294901760
-0.024497025 -0.0045242421 0.40702525 4294901760
-0.024353469 -0.0050026588 0.40700269 4294901760
-0.024209913 -0.0054810736 0.4069801 4294901760
-0.024066359 -0.0059594903 0.40695754 4294901760
-0.023922801 -0.0064379089 0.40693495 4294901760
-0.023779247 -0.0069163255 0.40691239 4294901760
-0.023635691 -0.0073947404 0.4068898 4294901760
-0.023492135 -0.007873157 0.40686724 4294901760
-0.023348581 -0.0083515719 0.40684465 4294901760
-0.023205023 -0.0088299885 0.40682209 4294901760
-0.023061469 -0.0093084071 0.40679953 4294901760
-0.022917911 -0.0097868238 0.40677693 4294901760
-0.022774357 -0.010265239 0.40675437 4294901760
-0.022630801 -0.010743655 0.40673178 4294901760
-0.022487246 -0.01122207 0.40670922 4294901760
-0.022343691 -0.011700487 0.40668663 4294901760
-0.022200134 -0.012178905 0.40666407 4294901760
-0.02205658 -0.012657322 0.40664151 4294901760
-0.021913024 -0.013135739 0.40661892 4294901760
-0.021769468 -0.013614152 0.40659636 4294901760
-0.021625914 -0.014092568 0.40657377 4294901760
-0.021482356 -0.014570985 0.40655121 4294901760
-0.021338802 -0.015049405 0.40652862 4294901760
-0.021195244 -0.015527818 0.40650606 4294901760
-0.02105169 -0.016006235 0.40648347 4294901760
-0.020908134 -0.016484652 0.40646091 4294901760
-0.020764578 -0.016963068 0.40643835 4294901760
-0.020621024 -0.017441485 0.40641576 4294901760
-0.020477466 -0.017919898 0.4063932 4294901760
-0.020333912 -0.018398318 0.40637061 4294901760
-0.020190354 -0.018876735 0.40634805 4294901760
-0.0200468 -0.019355152 0.40632546 4294901760
-0.019903244 -0.019833565 0.4063029 4294901760
-0.019759689 -0.020311981 0.40628031 4294901760
-0.019616134 -0.020790398 0.40625775 4294901760
-0.019472577 -0.021268819 0.40623519 4294901760
-0.019329023 -0.021747231 0.4062126 4294901760
-0.019185467 -0.022225648 0.40619004 4294901760
-0.019041911 -0.022704065 0.40616745 4294901760
-0.018898357 -0.023182482 0.40614489 4294901760
-0.018754799 -0.023660894 0.4061223 4294901760
-0.018611245 -0.024139315 0.40609974 4294901760
-0.018467687 -0.024617732 0.40607718 4294901760
-0.018324133 -0.025096148 0.40605459 4294901760
-0.018180577 -0.025574561 0.40603203 4294901760
-0.018037021 -0.026052978 0.40600944 4294901760
-0.017893467 -0.026531395 0.40598688 4294901760
-0.017749909 -0.027009815 0.40596429 4294901760
-0.017606355 -0.027488228 0.40594172 4294901760
-0.017462799 -0.027966645 0.40591913 4294901760
-0.017319243 -0.028445061 0.40589657 4294901760
-0.031674806 0.019396577 0.40815392 4278255360
-0.031301841 0.019493457 0.40847254 4278255360
-0.030928874 0.019590339 0.40879112 4278255360
-0.030555909 0.019687219 0.40910974 4278255360
-0.030182943 0.0197841 0.40942836 4278255360
-0.029809978 0.01988098 0.40974694 4278255360
-0.029437011 0.01997786 0.41006556 4278255360
-0.029064046 0.020074742 0.41038418 4278255360
-0.028691079 0.020171622 0.41070279 4278255360
-0.028318115 0.020268502 0.41102138 4278255360
-0.027945148 0.020365383 0.41134 4278255360
-0.027572183 0.020462263 0.41165861 4278255360
-0.027199216 0.020559145 0.4119772 4278255360
-0.026826251 0.020656025 0.41229582 4278255360
-0.026453286 0.020752905 0.41261443 4278255360
-0.02608032 0.020849787 0.41293302 4278255360
-0.025707355 0.020946667 0.41325164 4278255360
-0.025334388 0.021043546 0.41357026 4278255360
-0.024961423 0.021140428 0.41388884 4278255360
-0.024588456 0.021237308 0.41420746 4278255360
-0.024215491 0.02133419 0.41452608 4278255360
-0.023842525 0.02143107 0.41484466 4278255360
-0.02346956 0.02152795 0.41516328 4278255360
-0.023096595 0.021624831 0.4154819 4278255360
-0.022723628 0.021721711 0.41580051 4278255360
-0.022350661 0.021818593 0.4161191 4278255360
-0.021977697 0.021915473 0.41643772 4278255360
-0.021604732 0.022012353 0.41675633 4278255360
-0.021231765 0.022109235 0.41707492 4278255360
-0.0208588 0.022206115 0.41739354 4278255360
-0.020485833 0.022302996 0.41771215 4278255360
-0.020112868 0.022399876 0.41803074 4278255360
-0.019739904 0.022496756 0.41834936 4278255360
-0.019366935 0.022593638 0.41866797 4278255360
-0.01899397 0.022690518 0.41898656 4278255360
-0.018621005 0.022787398 0.41930518 4278255360
-0.018248038 0.022884279 0.41962379 4278255360
-0.017875073 0.022981159 0.41994241 4278255360
-0.017502107 0.023078039 0.420261 4278255360
-0.017129142 0.023174921 0.42057961 4278255360
-0.016756177 0.023271801 0.42089823 4278255360
-0.01638321 0.023368683 0.42121682 4278255360
-0.016010245 0.023465563 0.42153543 4278255360
-0.015637279 0.023562443 0.42185405 4278255360
-0.015264314 0.023659324 0.42217264 4278255360
-0.014891349 0.023756204 0.42249125 4278255360
-0.014518382 0.023853086 0.42280987 4278255360
-0.014145415 0.023949966 0.42312846 4278255360
-0.01377245 0.024046846 0.42344707 4278255360
-0.013399484 0.024143727 0.42376569 4278255360
-0.013026519 0.024240607 0.42408431 4278255360
-0.012653554 0.024337487 0.42440289 4278255360
-0.012280587 0.024434369 0.42472151 4278255360
-0.011907622 0.024531249 0.42504013 4278255360
-0.011534655 0.024628131 0.42535871 4278255360
-0.011161689 0.024725011 0.42567733 4278255360
-0.010788724 0.024821891 0.42599595 4278255360
-0.010415759 0.024918772 0.42631453 4278255360
-0.010042794 0.025015652 0.42663315 4278255360
-0.0096698273 0.025112532 0.42695177 4278255360
-0.0092968605 0.025209414 0.42727035 4278255360
-0.0089238957 0.025306294 0.42758897 4278255360
-0.0085509289 0.025403176 0.42790759 4278255360
-0.008177964 0.025500055 0.42822617 4278255360
-0.0078049991 0.025596935 0.42854479 4278255360
-0.0074320342 0.025693815 0.42886341 4278255360
-0.0070590656 0.025790697 0.42918202 4278255360
-0.0066861007 0.025887579 0.42950061 4278255360
-0.0063131358 0.025984459 0.42981923 4278255360
-0.0059401691 0.026081339 0.43013784 4278255360
-0.0055672042 0.026178218 0.43045643 4278255360
-0.0051942393 0.0262751 0.43077505 4278255360
-0.0048212707 0.026371982 0.43109366 4278255360
-0.0044483058 0.026468862 0.43141225 4278255360
-0.0040753409 0.026565742 0.43173087 4278255360
-0.003702376 0.026662622 0.43204948 4278255360
-0.0033294093 0.026759503 0.43236807 4278255360
-0.0029564444 0.026856383 0.43268669 4278255360
-0.0025834795 0.026953265 0.4330053 4278255360
-0.0022105109 0.027050145 0.43332392 4278255360
-0.001837546 0.027147025 0.43364251 4278255360
-0.0014645811 0.027243907 0.43396112 4278255360
-0.0010916144 0.027340787 0.43427974 4278255360
-0.00071864948 0.027437668 0.43459833 4278255360
-0.00034568459 0.027534548 0.43491694 4278255360
2.7284026e-05 0.027631428 0.43523556 4278255360
0.00040024891 0.02772831 0.43555415 4278255360
0.0007732138 0.02782519 0.43587276 4278255360
0.0011461787 0.027922072 0.43619138 4278255360
0.0015191436 0.028018951 0.43650997 4278255360
0.0018921085 0.028115831 0.43682858 4278255360
0.0022650771 0.028212711 0.4371472 4278255360
0.002638042 0.028309593 0.43746579 4278255360
0.0030110069 0.028406475 0.4377844 4278255360
0.0033839755 0.028503355 0.43810302 4278255360
0.0037569404 0.028600235 0.43842164 4278255360
0.0041299053 0.028697114 0.43874022 4278255360
0.0045028739 0.028793996 0.43905884 4278255360
0.0048758388 0.028890878 0.43937746 4278255360
0.0052488036 0.028987758 0.43969604 4278255360
0.0056217685 0.029084638 0.44001466 4278255360
-0.031674806 0.019396577 0.40815392 4278190335
-0.031855859 0.019320553 0.40861374 4278190335
-0.032036908 0.019244531 0.40907356 4278190335
-0.032217961 0.019168507 0.40953341 4278190335
-0.03239901 0.019092483 0.40999323 4278190335
-0.032580063 0.01901646 0.41045305 4278190335
-0.032761116 0.018940438 0.41091287 4278190335
-0.032942165 0.018864414 0.41137272 4278190335
-0.033123218 0.01878839 0.41183254 4278190335
-0.03330427 0.018712366 0.41229236 4278190335
-0.033485319 0.018636344 0.41275218 4278190335
-0.033666372 0.01856032 0.41321203 4278190335
-0.033847421 0.018484296 0.41367185 4278190335
-0.034028474 0.018408272 0.41413167 4278190335
-0.034209527 0.01833225 0.41459149 4278190335
-0.034390576 0.018256227 0.41505131 4278190335
-0.034571629 0.018180203 0.41551116 4278190335
-0.034752682 0.018104181 0.41597098 4278190335
-0.034933731 0.018028157 0.4164308 4278190335
-0.035114784 0.017952133 0.41689062 4278190335
-0.035295833 0.017876109 0.41735047 4278190335
-0.035476886 0.017800087 0.41781029 4278190335
-0.035657939 0.017724063 0.41827011 4278190335
-0.035838988 0.017648039 0.41872993 4278190335
-0.036020041 0.017572016 0.41918975 4278190335
-0.03620109 0.017495994 0.4196496 4278190335
-0.036382142 0.01741997 0.42010942 4278190335
-0.036563195 0.017343946 0.42056924 4278190335
-0.036744244 0.017267924 0.42102906 4278190335
-0.036925297 0.0171919 0.42148891 4278190335
-0.03710635 0.017115876 0.42194873 4278190335
-0.037287399 0.017039852 0.42240855 4278190335
-0.037468452 0.01696383 0.42286837 4278190335
-0.037649505 0.016887806 0.42332822 4278190335
-0.037830554 0.016811782 0.42378804 4278190335
-0.038011607 0.016735759 0.42424786 4278190335
-0.038192656 0.016659737 0.42470768 4278190335
-0.038373709 0.016583713 0.4251675 4278190335
-0.038554758 0.016507689 0.42562735 4278190335
-0.038735811 0.016431667 0.42608717 4278190335
-0.038916864 0.016355643 0.42654699 4278190335
-0.039097913 0.016279619 0.42700681 4278190335
-0.039278965 0.016203595 0.42746666 4278190335
-0.039460018 0.016127573 0.42792648 4278190335
-0.039641067 0.016051549 0.4283863 4278190335
-0.03982212 0.015975526 0.42884612 4278190335
-0.040003173 0.015899502 0.42930597 4278190335
-0.040184222 0.01582348 0.42976579 4278190335
-0.040365275 0.015747456 0.43022561 4278190335
-0.040546328 0.015671432 0.43068543 4278190335
-0.040727377 0.015595409 0.43114525 4278190335
-0.040908426 0.015519386 0.4316051 4278190335
-0.041089479 0.015443362 0.43206492 4278190335
-0.041270532 0.015367339 0.43252474 4278190335
-0.041451581 0.015291316 0.43298456 4278190335
-0.041632634 0.015215293 0.43344441 4278190335
-0.041813686 0.015139269 0.43390423 4278190335
-0.041994736 0.015063246 0.43436405 4278190335
-0.042175788 0.014987223 0.43482387 4278190335
-0.042356841 0.014911199 0.43528372 4278190335
-0.04253789 0.014835175 0.43574354 4278190335
-0.042718943 0.014759152 0.43620336 4278190335
-0.042899996 0.014683129 0.43666318 4278190335
-0.043081045 0.014607105 0.437123 4278190335
-0.043262094 0.014531082 0.43758285 4278190335
-0.043443147 0.01445506 0.43804267 4278190335
-0.0436242 0.014379036 0.43850249 4278190335
-0.043805249 0.014303012 0.43896231 4278190335
-0.043986302 0.014226988 0.43942216 4278190335
-0.044167355 0.014150966 0.43988198 4278190335
-0.044348404 0.014074942 0.4403418 4278190335
-0.044529457 0.013998918 0.44080162 4278190335
-0.044710509 0.013922894 0.44126147 4278190335
-0.044891559 0.013846872 0.44172129 4278190335
-0.045072611 0.013770849 0.44218111 4278190335
-0.045253664 0.013694825 0.44264093 4278190335
-0.045434713 0.013618802 0.44310075 4278190335
-0.045615766 0.013542779 0.4435606 4278190335
-0.045796815 0.013466755 0.44402042 4278190335
-0.045977868 0.013390731 0.44448024 4278190335
-0.046158921 0.013314708 0.44494006 4278190335
-0.04633997 0.013238685 0.44539991 4278190335
-0.046521023 0.013162661 0.44585973 4278190335
-0.046702072 0.013086638 0.44631955 4278190335
-0.046883125 0.013010615 0.44677937 4278190335
-0.047064178 0.012934592 0.44723922 4278190335
-0.047245227 0.012858568 0.44769904 4278190335
-0.04742628 0.012782545 0.44815886 4278190335
-0.047607332 0.012706522 0.44861868 4278190335
-0.047788382 0.012630498 0.4490785 4278190335
-0.047969431 0.012554475 0.44953835 4278190335
-0.048150487 0.012478451 0.44999817 4278190335
-0.048331536 0.012402428 0.45045799 4278190335
-0.048512585 0.012326404 0.45091781 4278190335
-0.048693642 0.012250382 0.45137766 4278190335
-0.048874691 0.012174359 0.45183748 4278190335
-0.04905574 0.012098335 0.4522973 4278190335
-0.049236797 0.012022311 0.45275712 4278190335
-0.049417846 0.011946288 0.45321697 4278190335
-0.049598895 0.011870265 0.45367679 4278190335
-0.049779948 0.011794241 0.45413661 4278190335
-0.031674806 0.019396577 0.40815392 4294967295
-0.030588498 0.019852716 0.40539497 4294967295
-0.029502189 0.020308858 0.40263599 4294967295
-0.028415881 0.020764997 0.39987704 4294967295
-0.027329572 0.021221139 0.39711806 4294967295
-0.026243264 0.021677278 0.39435911 4294967295
-0.025156956 0.022133417 0.39160016 4294967295
-0.024070647 0.022589559 0.38884118 4294967295
-0.022984337 0.023045698 0.38608223 4294967295
-0.021898029 0.023501839 0.38332325 4294967295
-0.020811722 0.023957979 0.3805643 4294967295
-0.019725412 0.024414118 0.37780535 4294967295
-0.018639104 0.024870258 0.37504637 4294967295
-0.017552797 0.025326399 0.37228742 4294967295
-0.016466487 0.025782539 0.36952844 4294967295
-0.015380178 0.02623868 0.36676949 4294967295
-0.01429387 0.026694819 0.36401054 4294967295
-0.01320756 0.027150959 0.36125156 4294967295
-0.012121253 0.0276071 0.35849261 4294967295
-0.011034945 0.02806324 0.35573363 4294967295
-0.0099486355 0.028519381 0.35297468 4294967295
-0.0088623278 0.02897552 0.35021573 4294967295
-0.0077760182 0.02943166 0.34745675 4294967295
-0.0066897105 0.029887801 0.3446978 4294967295
-0.0056034029 0.03034394 0.34193885 4294967295
-0.0045170933 0.030800082 0.33917987 4294967295
-0.0034307856 0.031256221 0.33642092 4294967295
-0.0023444742 0.031712361 0.33366194 4294967295
-0.0012581684 0.0321685 0.33090299 4294967295
-0.00017185882 0.03262464 0.32814401 4294967295
0.00091445073 0.033080783 0.32538506 4294967295
0.0020007566 0.033536922 0.32262611 4294967295
0.0030870661 0.033993062 0.31986713 4294967295
0.0041733757 0.034449205 0.31710818 4294967295
0.0052596852 0.034905344 0.3143492 4294967295
0.006345991 0.035361484 0.31159025 4294967295
0.0074323006 0.035817623 0.30883127 4294967295
0.0085186101 0.036273763 0.30607232 4294967295
0.009604916 0.036729902 0.30331337 4294967295
0.010691226 0.037186041 0.30055439 4294967295
0.011777535 0.037642181 0.29779544 4294967295
0.012863841 0.03809832 0.29503649 4294967295
0.01395015 0.038554464 0.29227751 4294967295
0.01503646 0.039010607 0.28951856 4294967295
0.01612277 0.039466746 0.28675961 4294967295
0.017209075 0.039922886 0.28400064 4294967295
0.018295385 0.040379025 0.28124166 4294967295
0.019381694 0.040835164 0.27848271 4294967295
0.020468 0.041291304 0.27572376 4294967295
0.021554314 0.041747443 0.27296478 4294967295
0.022640619 0.042203583 0.27020583 4294967295
0.023726925 0.042659722 0.26744688 4294967295
0.024813235 0.043115862 0.2646879 4294967295
0.025899541 0.043572001 0.26192895 4294967295
0.026985858 0.044028148 0.25916997 4294967295
0.028072163 0.044484288 0.25641102 4294967295
0.029158469 0.044940427 0.25365204 4294967295
0.030244779 0.045396566 0.25089312 4294967295
0.031331088 0.045852706 0.24813414 4294967295
0.03241739 0.046308845 0.24537517 4294967295
0.033503707 0.046764985 0.24261621 4294967295
0.034590017 0.047221128 0.23985724 4294967295
0.035676319 0.047677267 0.23709828 4294967295
0.036762629 0.048133407 0.23433933 4294967295
0.037848938 0.048589546 0.23158036 4294967295
0.038935248 0.049045686 0.2288214 4294967295
0.040021557 0.049501829 0.22606243 4294967295
0.041107867 0.049957968 0.22330347 4294967295
0.042194176 0.050414108 0.2205445 4294967295
0.043280479 0.050870247 0.21778555 4294967295
0.044366788 0.051326387 0.21502659 4294967295
0.045453098 0.051782526 0.21226764 4294967295
0.046539407 0.052238669 0.20950866 4294967295
0.047625717 0.052694809 0.20674969 4294967295
0.048712026 0.053150948 0.20399074 4294967295
0.049798336 0.053607088 0.20123178 4294967295
0.050884638 0.054063227 0.19847281 4294967295
0.051970948 0.054519366 0.19571386 4294967295
0.053057257 0.054975506 0.1929549 4294967295
0.054143567 0.055431649 0.19019592 4294967295
0.055229876 0.055887789 0.18743697 4294967295
0.056316186 0.056343928 0.184678 4294967295
0.057402488 0.056800067 0.18191905 4294967295
0.058488797 0.057256211 0.17916009 4294967295
0.059575107 0.05771235 0.17640112 4294967295
0.060661417 0.058168489 0.17364216 4294967295
0.061747726 0.058624633 0.17088319 4294967295
0.062834039 0.059080772 0.16812423 4294967295
0.063920349 0.059536912 0.16536528 4294967295
0.065006644 0.059993051 0.16260631 4294967295
0.066092953 0.06044919 0.15984735 4294967295
0.067179278 0.060905334 0.15708837 4294967295
0.068265572 0.061361473 0.15432942 4294967295
0.069351882 0.061817612 0.15157047 4294967295
0.070438191 0.062273752 0.14881149 4294967295
0.071524501 0.062729895 0.14605254 4294967295
0.07261081 0.063186035 0.14329359 4294967295
0.07369712 0.063642174 0.14053461 4294967295
0.07478343 0.064098313 0.13777566 4294967295
0.075869739 0.064554453 0.13501668 4294967295
0.076956049 0.065010592 0.13225773 4294967295
