# .PCD v0.7 - Point Cloud Data file format
VERSION 0.7
FIELDS x y z rgb
SIZE 4 4 4 4
TYPE F F F U
COUNT 1 1 1 1
WIDTH 939
HEIGHT 1
VIEWPOINT 0 0 0 1 0 0 0
POINTS 939
DATA ascii
-0.035331827 0.021289244 0.60800004 4281088300
-0.036815733 0.026857505 0.60000002 4280626466
-0.046094142 0.0285189 0.59400004 4281023534
-0.044239182 0.02856691 0.59500003 4281088811
-0.044016127 0.030346343 0.59200001 4280824874
-0.042164415 0.030397605 0.59300005 4280759081
-0.040238351 0.030397605 0.59300005 4281022768
-0.034169592 0.0301413 0.588 4280628008
-0.032204907 0.03009004 0.58700001 4280104231
-0.043867424 0.032160792 0.59000003 4280628262
-0.040034782 0.032160792 0.59000003 4280956973
-0.034111481 0.031997263 0.58700001 4280101918
-0.032150045 0.031942751 0.58600003 4279708957
-0.030143484 0.031833734 0.58400005 4280304170
-0.028198281 0.031779222 0.583 4278928156
-0.026259577 0.031724714 0.58200002 4279192353
-0.024369242 0.031724714 0.58200002 4279323941
-0.022440281 0.031670205 0.58100003 4283665514
-0.020517817 0.031615693 0.58000004 4281428038
-0.018633975 0.031615693 0.58000004 4279718447
-0.012892918 0.031397656 0.57600003 4279191590
-0.045706145 0.034020003 0.58900005 4281286440
-0.043793075 0.034020003 0.58900005 4280562469
-0.036079418 0.033962242 0.588 4281023018
-0.03405337 0.033846725 0.58600003 4280034842
-0.032095183 0.033788968 0.58500004 4279774235
-0.030143484 0.033731211 0.58400005 4279711004
-0.028198281 0.033673447 0.583 4279058970
-0.026259577 0.03361569 0.58200002 4278797082
-0.024327371 0.033557933 0.58100003 4278863386
-0.022401659 0.033500172 0.58000004 4278666779
-0.020517817 0.033500172 0.58000004 4278666779
-0.018601848 0.033442415 0.57900006 4278600988
-0.016692374 0.033384655 0.57800001 4278600988
-0.014789398 0.033326894 0.57700002 4278995746
-0.012892918 0.033269137 0.57600003 4278995746
-0.011022069 0.033269137 0.57600003 4278929953
-0.043718718 0.035872713 0.588 4279904537
-0.036018059 0.035811707 0.58700001 4280496676
-0.03399526 0.035689693 0.58500004 4279772186
-0.032040317 0.035628684 0.58400005 4279774235
-0.030091867 0.035567675 0.583 4279644697
-0.028149914 0.035506666 0.58200002 4279255066
-0.026214458 0.03544566 0.58100003 4279124761
-0.024327371 0.03544566 0.58100003 4278862359
-0.022401659 0.035384651 0.58000004 4278731287
-0.020482441 0.035323646 0.57900006 4278533908
-0.018569719 0.035262633 0.57800001 4278666009
-0.016663495 0.035201628 0.57700002 4278666009
-0.014789398 0.035201628 0.57700002 4278600216
-0.012892918 0.035140619 0.57600003 4278600216
-0.011022069 0.035140619 0.57600003 4278929181
-0.009135332 0.035079613 0.57500005 4278402837
-0.0072677312 0.035079613 0.57500005 4278600216
-0.043718718 0.037783187 0.588 4280036125
-0.035956699 0.037654676 0.58600003 4280431143
-0.03399526 0.037590418 0.58500004 4280035871
-0.032040317 0.037526164 0.58400005 4279840541
-0.030091867 0.037461903 0.583 4279842590
-0.028149914 0.037397645 0.58200002 4279255066
-0.026214458 0.037333392 0.58100003 4279058970
-0.024285499 0.037269134 0.58000004 4278928152
-0.022363035 0.037204877 0.57900006 4278993945
-0.020447064 0.037140619 0.57800001 4278797080
-0.018569719 0.037140619 0.57800001 4278797080
-0.016663495 0.037076361 0.57700002 4278600216
-0.014763767 0.037012104 0.57600003 4278600216
-0.012892918 0.037012104 0.57600003 4279058972
-0.011022069 0.037012104 0.57600003 4278728470
-0.009135332 0.03694785 0.57500005 4278993179
-0.0072677312 0.03694785 0.57500005 4278796568
-0.0054001305 0.03694785 0.57500005 4278468117
-0.0035325291 0.03694785 0.57500005 4278533910
-0.001664928 0.03694785 0.57500005 4278468117
0.00020232052 0.036883589 0.574 4278468115
0.0020666735 0.036883589 0.574 4278533910
0.0039310264 0.036883589 0.574 4278666009
0.0057953792 0.036883589 0.574 4278600216
0.018648855 0.036498047 0.56800002 4278929951
0.02045764 0.03643379 0.56700003 4278995744
0.022220599 0.036305275 0.565 4279258148
0.023970569 0.03617676 0.56300002 4279257894
-0.043718718 0.039693661 0.588 4280496936
-0.035956699 0.039558649 0.58600003 4280431143
-0.033937149 0.039423637 0.58400005 4279838746
-0.031985451 0.039356127 0.583 4279774746
-0.030040251 0.039288625 0.58200002 4279908381
-0.028101547 0.039221119 0.58100003 4278992664
-0.026169339 0.039153613 0.58000004 4278993945
-0.024243629 0.039086107 0.57900006 4279125531
-0.022324409 0.039018597 0.57800001 4278796566
-0.020447064 0.039018597 0.57800001 4278928406
-0.018537592 0.038951091 0.57700002 4278665748
-0.016634615 0.038883585 0.57600003 4278468628
-0.014763767 0.038883585 0.57600003 4278666007
-0.012892918 0.038883585 0.57600003 4278664982
-0.011002934 0.038816083 0.57500005 4278199557
-0.009135332 0.038816083 0.57500005 4278993179
-0.0072677312 0.038816083 0.57500005 4278200837
-0.0054001305 0.038816083 0.57500005 4278198533
-0.0035325291 0.038816083 0.57500005 4278198019
-0.001664928 0.038816083 0.57500005 4278398222
0.00020267301 0.038816083 0.57500005 4279057176
0.0020666735 0.038748574 0.574 4279058457
0.0039310264 0.038748574 0.574 4279321629
0.0057953792 0.038748574 0.574 4279190556
0.0076597324 0.038748574 0.574 4278862361
0.0095240846 0.038748574 0.574 4278533396
0.011388438 0.038748574 0.574 4278533910
0.013229704 0.038681068 0.57300001 4278533910
0.015090807 0.038681068 0.57300001 4278665496
0.016922329 0.038613562 0.57200003 4278731287
0.018681688 0.038411044 0.56900001 4278665494
0.02049372 0.038343538 0.56800002 4278468628
0.022259928 0.038208526 0.56600004 4278731800
0.024055719 0.038141016 0.565 4278863386
0.025845017 0.03807351 0.56400001 4278863386
0.027627818 0.038006004 0.56300002 4278797593
0.029456442 0.038006004 0.56300002 4279192351
0.031285066 0.038006004 0.56300002 4279521316
0.033172511 0.03807351 0.56400001 4279258146
0.035066444 0.038141016 0.565 4279456043
0.037032191 0.038276032 0.56700003 4279192871
0.038942371 0.038343538 0.56800002 4279323689
0.040859044 0.038411044 0.56900001 4279781676
-0.045706145 0.04167489 0.58900005 4279445272
-0.043793075 0.04167489 0.58900005 4280299045
-0.041808892 0.041604131 0.588 4280759081
-0.035956699 0.041462623 0.58600003 4279575834
-0.033937149 0.041321114 0.58400005 4280167711
-0.031985451 0.041250356 0.583 4279709723
-0.030040251 0.041179601 0.58200002 4279843871
-0.028101547 0.041108847 0.58100003 4279058459
-0.026169339 0.041038092 0.58000004 4278993947
-0.024243629 0.040967338 0.57900006 4278862359
-0.022324409 0.04089658 0.57800001 4278862613
-0.020411689 0.040825825 0.57700002 4278796820
-0.018537592 0.040825825 0.57700002 4278862613
-0.016634615 0.040755071 0.57600003 4278796566
-0.014763767 0.040755071 0.57600003 4278862359
-0.012892918 0.040755071 0.57600003 4278860056
-0.011002934 0.040684316 0.57500005 4278593552
-0.009135332 0.040684316 0.57500005 4279320346
-0.0072677312 0.040684316 0.57500005 4278198274
-0.0054001305 0.040684316 0.57500005 4278721549
-0.0035325291 0.040684316 0.57500005 4278589963
-0.001664928 0.040684316 0.57500005 4278589709
0.00020267301 0.040684316 0.57500005 4278655756
0.002070274 0.040684316 0.57500005 4278589963
0.0039378749 0.040684316 0.57500005 4278524683
0.0058054761 0.040684316 0.57500005 4278328585
0.0076730778 0.040684316 0.57500005 4278461707
0.009540678 0.040684316 0.57500005 4278198274
0.011388438 0.040613558 0.574 4278196992
0.013252791 0.040613558 0.574 4278198018
0.015090807 0.040542804 0.57300001 4278200587
0.016922329 0.040472049 0.57200003 4278333712
0.018747354 0.040401295 0.57100004 4278925849
0.020529799 0.040259782 0.56900001 4279123998
0.022338584 0.040189028 0.56800002 4278730007
0.024140874 0.040118273 0.56700003 4278993177
0.025936669 0.040047519 0.56600004 4278795798
0.027775038 0.040047519 0.56600004 4278796568
0.029561082 0.039976757 0.565 4279059740
0.031451773 0.040047519 0.56600004 4278336529
0.033348959 0.040118273 0.56700003 4278665494
0.035252642 0.040189028 0.56800002 4278797593
0.037162814 0.040259782 0.56900001 4278731802
0.039079495 0.04033054 0.57000005 4279060769
0.041002661 0.040401295 0.57100004 4279193125
0.043157496 0.040684316 0.57500005 4279061285
0.045103405 0.040755071 0.57600003 4279126310
0.047055803 0.040825825 0.57700002 4279519019
-0.047700062 0.043662615 0.59000003 4279115032
-0.045783743 0.043662615 0.59000003 4279904548
-0.043867424 0.043662615 0.59000003 4280232486
-0.04188 0.043588612 0.58900005 4280693290
-0.035956699 0.043366596 0.58600003 4279773213
-0.033937149 0.04321859 0.58400005 4280035871
-0.031985451 0.04314458 0.583 4280170276
-0.030040251 0.043070577 0.58200002 4279713057
-0.028101547 0.042996574 0.58100003 4278993695
-0.026169339 0.042922571 0.58000004 4278928670
-0.024243629 0.042848568 0.57900006 4278862875
-0.022324409 0.042774558 0.57800001 4278665496
-0.020411689 0.042700555 0.57700002 4278731287
-0.018537592 0.042700555 0.57700002 4278533908
-0.016634615 0.042626552 0.57600003 4278731287
-0.014763767 0.042626552 0.57600003 4278862359
-0.012892918 0.042626552 0.57600003 4279780645
-0.011002934 0.042552549 0.57500005 4278660369
-0.009135332 0.042552549 0.57500005 4279319578
-0.0072677312 0.042552549 0.57500005 4278198281
-0.0054001305 0.042552549 0.57500005 4279117590
-0.0035325291 0.042552549 0.57500005 4279578141
-0.001664928 0.042552549 0.57500005 4279577371
0.00020267301 0.042552549 0.57500005 4279774750
0.002070274 0.042552549 0.57500005 4279314199
0.0039378749 0.042552549 0.57500005 4278985234
0.0058054761 0.042552549 0.57500005 4278853133
0.0076730778 0.042552549 0.57500005 4279578137
0.009540678 0.042552549 0.57500005 4279254301
0.01140828 0.042552549 0.57500005 4279320094
0.013252791 0.042478543 0.574 4279978026
0.015117144 0.042478543 0.574 4279320094
0.016951913 0.042404536 0.57300001 4279385887
0.018780187 0.042330533 0.57200003 4279056922
0.020601962 0.04225653 0.57100004 4279846438
0.022417244 0.042182527 0.57000005 4278793750
0.024226027 0.042108521 0.56900001 4278201356
0.026028316 0.042034514 0.56800002 4278197248
0.027873181 0.042034514 0.56800002 4278197504
0.029718045 0.042034514 0.56800002 4278196992
0.031618476 0.042108521 0.56900001 4278198018
0.033466592 0.042108521 0.56900001 4278398992
0.035376772 0.042182527 0.57000005 4278662929
0.037293442 0.04225653 0.57100004 4279124250
0.039216615 0.042330533 0.57200003 4278533910
0.041146278 0.042404536 0.57300001 4278600216
0.043232553 0.042626552 0.57600003 4278731802
0.045181707 0.042700555 0.57700002 4278929183
0.047055803 0.042700555 0.57700002 4279258148
0.049014702 0.042774558 0.57800001 4278335513
-0.043941777 0.045656838 0.59100002 4280562469
-0.042022206 0.045656838 0.59100002 4280232991
-0.040034782 0.045579582 0.59000003 4280167711
-0.036018059 0.045347821 0.58700001 4279838492
-0.03399526 0.045193318 0.58500004 4280233250
-0.031985451 0.045038808 0.583 4279644959
-0.030040251 0.044961553 0.58200002 4279516705
-0.028101547 0.044884302 0.58100003 4279059488
-0.026169339 0.04480705 0.58000004 4278928670
-0.024243629 0.044729795 0.57900006 4278862877
-0.022324409 0.04465254 0.57800001 4278797082
-0.020411689 0.044575289 0.57700002 4278665496
-0.018537592 0.044575289 0.57700002 4278665494
-0.016634615 0.044498034 0.57600003 4278533908
-0.014763767 0.044498034 0.57600003 4278797080
-0.012892918 0.044498034 0.57600003 4278727189
-0.011002934 0.044420782 0.57500005 4278857494
-0.009135332 0.044420782 0.57500005 4279648291
-0.0072677312 0.044420782 0.57500005 4278198283
-0.0054001305 0.044420782 0.57500005 4278393867
-0.0035325291 0.044420782 0.57500005 4279709727
-0.001664928 0.044420782 0.57500005 4279183383
0.00020267301 0.044420782 0.57500005 4279906336
0.002070274 0.044420782 0.57500005 4278787855
0.0039378749 0.044420782 0.57500005 4279907106
0.0058054761 0.044420782 0.57500005 4278262279
0.0076730778 0.044420782 0.57500005 4279841822
0.009540678 0.044420782 0.57500005 4279450910
0.01140828 0.044420782 0.57500005 4278198281
0.013275881 0.044420782 0.57500005 4278197256
0.015117144 0.044343524 0.574 4278660882
0.016981497 0.044343524 0.574 4278529808
0.018813018 0.044266272 0.57300001 4278991129
0.020638041 0.044189021 0.57200003 4278198529
0.022495899 0.044189021 0.57200003 4278728470
0.024311181 0.044111766 0.57100004 4278860826
0.026165791 0.044111766 0.57100004 4278992666
0.027971327 0.044034515 0.57000005 4278861080
0.029875007 0.044111766 0.57100004 4278992666
0.031729616 0.044111766 0.57100004 4279123482
0.033643041 0.044189021 0.57200003 4279320348
0.035500899 0.044189021 0.57200003 4279451934
0.037424065 0.044266272 0.57300001 4278991129
0.039353732 0.044343524 0.574 4278201357
0.041289896 0.044420782 0.57500005 4278664982
0.043232553 0.044498034 0.57600003 4278664982
0.045181707 0.044575289 0.57700002 4278796568
0.047137354 0.04465254 0.57800001 4279059740
0.049014702 0.04465254 0.57800001 4278928156
0.050980095 0.044729795 0.57900006 4284713334
-0.046016544 0.047738064 0.59300005 4280363544
-0.040102638 0.047577057 0.59100002 4280365086
-0.036079418 0.047335546 0.588 4280365088
-0.03405337 0.047174543 0.58600003 4280036639
-0.032040317 0.04701354 0.58400005 4279974694
-0.030091867 0.046933033 0.583 4279910949
-0.028101547 0.046772029 0.58100003 4278993695
-0.026169339 0.046691529 0.58000004 4278862623
-0.024243629 0.046611026 0.57900006 4278797343
-0.022324409 0.046530519 0.57800001 4278797597
-0.020447064 0.046530519 0.57800001 4278665498
-0.018537592 0.046450019 0.57700002 4278731289
-0.016663495 0.046450019 0.57700002 4278731289
-0.014763767 0.046369519 0.57600003 4278731289
-0.012892918 0.046369519 0.57600003 4279582496
-0.011022069 0.046369519 0.57600003 4279910949
-0.009135332 0.046289016 0.57500005 4279648291
-0.0072677312 0.046289016 0.57500005 4278263306
-0.0054001305 0.046289016 0.57500005 4278852365
-0.0035325291 0.046289016 0.57500005 4278786318
-0.001664928 0.046289016 0.57500005 4278786318
0.00020267301 0.046289016 0.57500005 4278917390
0.002070274 0.046289016 0.57500005 4278786318
0.0039378749 0.046289016 0.57500005 4278260998
0.0058054761 0.046289016 0.57500005 4278459660
0.0076730778 0.046289016 0.57500005 4280105508
0.009540678 0.046289016 0.57500005 4279514908
0.01140828 0.046289016 0.57500005 4278787855
0.013275881 0.046289016 0.57500005 4278327820
0.015143481 0.046289016 0.57500005 4278461966
0.016981497 0.046208508 0.574 4279450910
0.018845851 0.046208508 0.574 4278661394
0.020674122 0.046128009 0.57300001 4279516703
0.022535227 0.046128009 0.57300001 4278200072
0.024396332 0.046128009 0.57300001 4278529808
0.026211614 0.046047505 0.57200003 4278200329
0.028069472 0.046047505 0.57200003 4278398222
0.029979646 0.046128009 0.57300001 4278199298
0.031840753 0.046128009 0.57300001 4278990361
0.033760674 0.046208508 0.574 4278201356
0.035625026 0.046208508 0.574 4279123482
0.037554692 0.046289016 0.57500005 4279320861
0.039422296 0.046289016 0.57500005 4278595603
0.041361704 0.046369519 0.57600003 4278795800
0.043307606 0.046450019 0.57700002 4278796570
0.045260008 0.046530519 0.57800001 4278928154
0.047137354 0.046530519 0.57800001 4278862361
0.049099505 0.046611026 0.57900006 4278862109
0.050980095 0.046611026 0.57900006 4283133019
-0.038183071 0.049497273 0.59100002 4280165913
-0.036140781 0.049329773 0.58900005 4285958777
-0.034111481 0.049162269 0.58700001 4285894269
-0.032095183 0.048994765 0.58500004 4278922267
-0.030091867 0.048827261 0.583 4279845418
-0.028149914 0.048743509 0.58200002 4279256867
-0.026214458 0.048659757 0.58100003 4279059488
-0.024285499 0.048576009 0.58000004 4278796830
-0.022363035 0.048492257 0.57900006 4278796830
-0.020447064 0.048408501 0.57800001 4278862623
-0.018537592 0.048324749 0.57700002 4278862877
-0.016663495 0.048324749 0.57700002 4278731291
-0.014763767 0.048241001 0.57600003 4278797084
-0.012892918 0.048241001 0.57600003 4278200841
-0.011022069 0.048241001 0.57600003 4278858773
-0.0091512194 0.048241001 0.57600003 4279320607
-0.0072803707 0.048241001 0.57600003 4279583779
-0.005409522 0.048241001 0.57600003 4279910949
-0.0035386726 0.048241001 0.57600003 4279713057
-0.0016678235 0.048241001 0.57600003 4279382555
0.00020302548 0.048241001 0.57600003 4279053590
0.0020738745 0.048241001 0.57600003 4278920722
0.0039447234 0.048241001 0.57600003 4278460173
0.0058054761 0.048157249 0.57500005 4278327820
0.0076730778 0.048157249 0.57500005 4279448861
0.009540678 0.048157249 0.57500005 4278331404
0.01140828 0.048157249 0.57500005 4279843106
0.013275881 0.048157249 0.57500005 4279843108
0.015143481 0.048157249 0.57500005 4279778596
0.017011084 0.048157249 0.57500005 4279779875
0.018845851 0.048073493 0.574 4279582496
0.020710202 0.048073493 0.574 4278661394
0.022574555 0.048073493 0.574 4279385117
0.024438908 0.048073493 0.574 4279385371
0.026257439 0.047989741 0.57300001 4279648543
0.028167615 0.048073493 0.574 4279713822
0.030031966 0.048073493 0.574 4278331402
0.031896319 0.048073493 0.574 4278857746
0.033819493 0.048157249 0.57500005 4279384092
0.035749156 0.048241001 0.57600003 4278925849
0.037620004 0.048241001 0.57600003 4278860056
0.039490856 0.048241001 0.57600003 4278793750
0.041433513 0.048324749 0.57700002 4278927132
0.043382663 0.048408501 0.57800001 4278664984
0.045260008 0.048408501 0.57800001 4278796570
0.047137354 0.048408501 0.57800001 4278862363
0.049099505 0.048492257 0.57900006 4278796316
0.050980095 0.048492257 0.57900006 4281160512
-0.036263499 0.051417492 0.59100002 4285827706
-0.034227706 0.051243495 0.58900005 4284907374
-0.032150045 0.05098249 0.58600003 4285894267
-0.030143484 0.050808489 0.58400005 4280763440
-0.028198281 0.050721485 0.583 4278991394
-0.026214458 0.050547484 0.58100003 4279518506
-0.024285499 0.050460488 0.58000004 4279519017
-0.022363035 0.050373487 0.57900006 4279322408
-0.020447064 0.050286483 0.57800001 4279256615
-0.018569719 0.050286483 0.57800001 4279125283
-0.016663495 0.050199483 0.57700002 4279059488
-0.014789398 0.050199483 0.57700002 4279059488
-0.012892918 0.050112482 0.57600003 4278993695
-0.011022069 0.050112482 0.57600003 4279190304
-0.0091512194 0.050112482 0.57600003 4279058718
-0.0072803707 0.050112482 0.57600003 4279058718
-0.005409522 0.050112482 0.57600003 4279124511
-0.0035386726 0.050112482 0.57600003 4279058718
-0.0016678235 0.050112482 0.57600003 4279123998
0.00020302548 0.050112482 0.57600003 4279123998
0.0020738745 0.050112482 0.57600003 4279189791
0.0039447234 0.050112482 0.57600003 4279058205
0.0058155726 0.050112482 0.57600003 4279058205
0.0076730778 0.050025482 0.57500005 4279255584
0.009540678 0.050025482 0.57500005 4279320094
0.01140828 0.050025482 0.57500005 4279517473
0.013275881 0.050025482 0.57500005 4279516705
0.015143481 0.050025482 0.57500005 4279582498
0.017011084 0.050025482 0.57500005 4278924568
0.018878685 0.050025482 0.57500005 4278198789
0.020710202 0.049938478 0.574 4278198018
0.022574555 0.049938478 0.574 4278196992
0.024438908 0.049938478 0.574 4278196480
0.026303262 0.049938478 0.574 4278397710
0.02821669 0.050025482 0.57500005 4278858261
0.03008429 0.050025482 0.57500005 4279450398
0.031951889 0.050025482 0.57500005 4279647775
0.033878308 0.050112482 0.57600003 4279582496
0.035749156 0.050112482 0.57600003 4279385887
0.037685316 0.050199483 0.57700002 4279385887
0.039559416 0.050199483 0.57700002 4279254814
0.041433513 0.050199483 0.57700002 4278992925
0.043382663 0.050286483 0.57800001 4279124511
0.045260008 0.050286483 0.57800001 4279124765
0.047137354 0.050286483 0.57800001 4279058972
0.049099505 0.050373487 0.57900006 4278992925
0.050980095 0.050373487 0.57900006 4283989611
-0.036386218 0.053518221 0.59300005 4285432948
-0.034285817 0.053247467 0.59000003 4284775788
-0.03225977 0.053066965 0.588 4284907372
-0.030246714 0.052886467 0.58600003 4285170544
-0.028198281 0.052615717 0.583 4285434229
-0.026259577 0.052525468 0.58200002 4285961089
-0.024327371 0.052435219 0.58100003 4285369722
-0.022401659 0.05234497 0.58000004 4283988069
-0.020482441 0.052254722 0.57900006 4282343757
-0.018569719 0.052164465 0.57800001 4280041518
-0.016663495 0.052074216 0.57700002 4278925347
-0.014789398 0.052074216 0.57700002 4278860578
-0.012892918 0.051983967 0.57600003 4278925086
-0.011022069 0.051983967 0.57600003 4279319842
-0.0091512194 0.051983967 0.57600003 4279189539
-0.0072803707 0.051983967 0.57600003 4279255332
-0.005409522 0.051983967 0.57600003 4279255586
-0.0035386726 0.051983967 0.57600003 4279189791
-0.0016678235 0.051983967 0.57600003 4279058718
0.00020302548 0.051983967 0.57600003 4279058720
0.0020738745 0.051983967 0.57600003 4279124511
0.0039447234 0.051983967 0.57600003 4278927132
0.0058155726 0.051983967 0.57600003 4278927902
0.0076730778 0.051893719 0.57500005 4278862109
0.009540678 0.051893719 0.57500005 4278927902
0.01140828 0.051893719 0.57500005 4278729753
0.013275881 0.051893719 0.57500005 4279058718
0.015143481 0.051893719 0.57500005 4279124511
0.017011084 0.051893719 0.57500005 4278992925
0.018878685 0.051893719 0.57500005 4279189791
0.020746283 0.051893719 0.57500005 4278992412
0.022613885 0.051893719 0.57500005 4279058205
0.024481487 0.051893719 0.57500005 4279189021
0.026349088 0.051893719 0.57500005 4279320607
0.02821669 0.051893719 0.57500005 4279451680
0.030136609 0.051983967 0.57600003 4279978026
0.03200746 0.051983967 0.57600003 4279451682
0.033937123 0.052074216 0.57700002 4279450912
0.035811223 0.052074216 0.57700002 4278792468
0.037685316 0.052074216 0.57700002 4278661396
0.039627977 0.052164465 0.57800001 4279123998
0.041505318 0.052164465 0.57800001 4278927386
0.043382663 0.052164465 0.57800001 4278993179
0.045260008 0.052164465 0.57800001 4279124765
0.047137354 0.052164465 0.57800001 4278992925
0.049099505 0.052254722 0.57900006 4278202644
0.050980095 0.052254722 0.57900006 4285764228
-0.036508936 0.055631932 0.59500003 4284906604
-0.034402039 0.055351432 0.59200001 4284841581
-0.032314636 0.05507094 0.58900005 4284841581
-0.03029833 0.054883938 0.58700001 4285170546
-0.02824665 0.054603446 0.58400005 4285170805
-0.026259577 0.054416444 0.58200002 4285302391
-0.024327371 0.054322947 0.58100003 4285631610
-0.022401659 0.054229449 0.58000004 4285566331
-0.020482441 0.054135952 0.57900006 4285435515
-0.018569719 0.054042447 0.57800001 4285369722
-0.016663495 0.05394895 0.57700002 4285764480
-0.014789398 0.05394895 0.57700002 4285567101
-0.012892918 0.053855453 0.57600003 4285501308
-0.011022069 0.053855453 0.57600003 4284777844
-0.0091512194 0.053855453 0.57600003 4284318065
-0.0072803707 0.053855453 0.57600003 4284054893
-0.005409522 0.053855453 0.57600003 4282673492
-0.0035386726 0.053855453 0.57600003 4280502323
-0.0016678235 0.053855453 0.57600003 4279450660
0.00020302548 0.053855453 0.57600003 4278858523
0.0020738745 0.053855453 0.57600003 4278596121
0.0039447234 0.053855453 0.57600003 4279254051
0.0058155726 0.053855453 0.57600003 4279057955
0.0076864217 0.053855453 0.57600003 4279189541
0.009540678 0.053761955 0.57500005 4279255586
0.01140828 0.053761955 0.57500005 4279321379
0.013275881 0.053761955 0.57500005 4279189791
0.015143481 0.053761955 0.57500005 4279189791
0.017011084 0.053761955 0.57500005 4279123998
0.018878685 0.053761955 0.57500005 4279124000
0.020746283 0.053761955 0.57500005 4279189791
0.022613885 0.053761955 0.57500005 4279189791
0.024481487 0.053761955 0.57500005 4279255584
0.026349088 0.053761955 0.57500005 4279255584
0.028265761 0.053855453 0.57600003 4279123998
0.030136609 0.053855453 0.57600003 4279189791
0.032063026 0.05394895 0.57700002 4279189791
0.033937123 0.05394895 0.57700002 4279189791
0.035811223 0.05394895 0.57700002 4279255584
0.037750628 0.054042447 0.57800001 4279189791
0.039627977 0.054042447 0.57800001 4279189791
0.041505318 0.054042447 0.57800001 4279190045
0.043382663 0.054042447 0.57800001 4279058972
0.045260008 0.054042447 0.57800001 4279058718
0.047137354 0.054042447 0.57800001 4279123746
0.049099505 0.054135952 0.57900006 4282936923
0.050980095 0.054135952 0.57900006 4285302905
-0.034518264 0.057468399 0.59400004 4284642919
-0.032369498 0.057081409 0.59000003 4284709225
-0.030349944 0.05688791 0.588 4284972397
-0.028295018 0.056597669 0.58500004 4285169522
0.020746283 0.055630188 0.57500005 4280304944
0.022613885 0.055630188 0.57500005 4279975977
0.024481487 0.055630188 0.57500005 4279647012
0.026349088 0.055630188 0.57500005 4279318047
0.028265761 0.055726934 0.57600003 4279252254
0.030136609 0.055726934 0.57600003 4279120668
0.032063026 0.05582368 0.57700002 4279252767
0.033937123 0.05582368 0.57700002 4278924318
0.035873286 0.05592043 0.57800001 4279055388
0.037750628 0.05592043 0.57800001 4278924316
0.039627977 0.05592043 0.57800001 4278661144
0.041505318 0.05592043 0.57800001 4279121697
0.043382663 0.05592043 0.57800001 4278727709
0.045260008 0.05592043 0.57800001 4279450662
0.047137354 0.05592043 0.57800001 4283594342
-0.034634486 0.05959836 0.59600002 4284774505
-0.032424361 0.059098374 0.59100002 4284642919
0.045260008 0.057798408 0.57800001 4285106550
-0.034692597 0.061638068 0.597 4284511331
0.0014013407 0.045030512 0.57755268 4294967295
0.0014013407 0.045030512 0.57755268 4294901760
0.0014346101 0.044532567 0.57752198 4294901760
0.0014678794 0.044034619 0.57749122 4294901760
0.0015011488 0.043536674 0.57746053 4294901760
0.0015344181 0.04303873 0.57742983 4294901760
0.0015676875 0.042540785 0.57739913 4294901760
0.0016009568 0.042042837 0.57736838 4294901760
0.0016342262 0.041544892 0.57733768 4294901760
0.0016674956 0.041046947 0.57730699 4294901760
0.0017007649 0.040549003 0.57727623 4294901760
0.0017340343 0.040051054 0.57724553 4294901760
0.0017673036 0.03955311 0.57721484 4294901760
0.001800573 0.039055165 0.57718414 4294901760
0.0018338423 0.038557217 0.57715338 4294901760
0.0018671117 0.038059272 0.57712269 4294901760
0.0019003809 0.037561327 0.57709199 4294901760
0.0019336503 0.037063383 0.5770613 4294901760
0.0019669197 0.036565438 0.57703054 4294901760
0.0020001892 0.03606749 0.57699984 4294901760
0.0020334583 0.035569545 0.57696915 4294901760
0.0020667277 0.035071597 0.57693839 4294901760
0.0020999971 0.034573652 0.57690769 4294901760
0.0021332665 0.034075707 0.576877 4294901760
0.0021665357 0.033577763 0.5768463 4294901760
0.0021998051 0.033079818 0.57681555 4294901760
0.0022330745 0.03258187 0.57678485 4294901760
0.0022663439 0.032083925 0.57675415 4294901760
0.0022996133 0.031585976 0.5767234 4294901760
0.0023328825 0.031088034 0.5766927 4294901760
0.0023661519 0.030590087 0.576662 4294901760
0.0023994213 0.030092143 0.57663131 4294901760
0.0024326905 0.029594196 0.57660055 4294901760
0.0024659601 0.029096251 0.57656986 4294901760
0.0024992293 0.028598305 0.57653916 4294901760
0.0025324987 0.02810036 0.5765084 4294901760
0.0025657681 0.027602414 0.57647771 4294901760
0.0025990375 0.027104467 0.57644701 4294901760
0.0026323069 0.026606523 0.57641631 4294901760
0.0026655761 0.026108578 0.57638556 4294901760
0.0026988452 0.025610631 0.57635486 4294901760
0.0027321149 0.025112685 0.57632416 4294901760
0.002765384 0.02461474 0.57629347 4294901760
0.0027986534 0.024116796 0.57626271 4294901760
0.0028319228 0.023618849 0.57623202 4294901760
0.0028651922 0.023120902 0.57620132 4294901760
0.0028984617 0.022622958 0.57617056 4294901760
0.0029317308 0.022125011 0.57613987 4294901760
0.0029650002 0.021627067 0.57610917 4294901760
0.0029982696 0.02112912 0.57607847 4294901760
0.003031539 0.020631174 0.57604772 4294901760
0.0030648084 0.020133229 0.57601702 4294901760
0.0030980776 0.019635284 0.57598633 4294901760
0.003131347 0.019137338 0.57595557 4294901760
0.0031646164 0.018639393 0.57592487 4294901760
0.0031978858 0.018141445 0.57589418 4294901760
0.0032311552 0.0176435 0.57586348 4294901760
0.0032644244 0.017145555 0.57583272 4294901760
0.0032976938 0.016647609 0.57580203 4294901760
0.0033309632 0.016149664 0.57577133 4294901760
0.0033642324 0.01565172 0.57574058 4294901760
0.003397502 0.015153771 0.57570988 4294901760
0.0034307712 0.014655827 0.57567918 4294901760
0.0034640403 0.01415788 0.57564849 4294901760
0.00349731 0.013659935 0.57561773 4294901760
0.0035305792 0.013161991 0.57558703 4294901760
0.0035638483 0.012664046 0.57555634 4294901760
0.003597118 0.012166098 0.57552564 4294901760
0.0036303871 0.011668153 0.57549489 4294901760
0.0036636568 0.011170208 0.57546419 4294901760
0.0036969259 0.01067226 0.57543349 4294901760
0.0037301951 0.010174315 0.57540274 4294901760
0.0037634647 0.0096763708 0.57537204 4294901760
0.0037967344 0.0091784224 0.57534134 4294901760
0.0038300036 0.0086804777 0.57531065 4294901760
0.0038632727 0.0081825331 0.57527989 4294901760
0.0038965419 0.0076845884 0.5752492 4294901760
0.0039298115 0.0071866438 0.5752185 4294901760
0.0039630807 0.0066886954 0.57518774 4294901760
0.0039963499 0.0061907507 0.57515705 4294901760
0.0040296195 0.0056928024 0.57512635 4294901760
0.0040628891 0.0051948577 0.57509565 4294901760
0.0040961583 0.0046969131 0.5750649 4294901760
0.0041294275 0.0041989684 0.5750342 4294901760
0.0041626971 0.0037010238 0.5750035 4294901760
0.0041959663 0.0032030791 0.57497275 4294901760
0.0042292359 0.0027051307 0.57494205 4294901760
0.0042625051 0.0022071861 0.57491136 4294901760
0.0042957743 0.0017092377 0.57488066 4294901760
0.0043290439 0.001211293 0.5748499 4294901760
0.0043623131 0.00071334839 0.57481921 4294901760
0.0043955822 0.00021540374 0.57478851 4294901760
0.0044288519 -0.00028254464 0.57475781 4294901760
0.0044621211 -0.0007804893 0.57472706 4294901760
0.0044953907 -0.0012784339 0.57469636 4294901760
0.0045286599 -0.0017763786 0.57466567 4294901760
0.004561929 -0.0022743233 0.57463491 4294901760
0.0045951987 -0.0027722716 0.57460421 4294901760
0.0046284678 -0.00327022 0.57457352 4294901760
0.0046617375 -0.0037681647 0.57454282 4294901760
0.0046950066 -0.0042661093 0.57451206 4294901760
0.0047282758 -0.004764054 0.57448137 4294901760
0.0014013407 0.045030512 0.57755268 4278255360
0.0018945788 0.045067962 0.57747978 4278255360
0.002387817 0.045105413 0.57740688 4278255360
0.0028810552 0.045142863 0.57733399 4278255360
0.0033742934 0.045180317 0.57726109 4278255360
0.0038675317 0.045217767 0.57718819 4278255360
0.0043607699 0.045255218 0.5771153 4278255360
0.0048540081 0.045292668 0.5770424 4278255360
0.0053472458 0.045330118 0.5769695 4278255360
0.0058404845 0.045367569 0.57689661 4278255360
0.0063337227 0.045405019 0.57682371 4278255360
0.0068269605 0.045442473 0.57675081 4278255360
0.0073201987 0.045479923 0.57667792 4278255360
0.0078134369 0.045517374 0.57660508 4278255360
0.0083066756 0.045554824 0.57653219 4278255360
0.0087999143 0.045592275 0.57645929 4278255360
0.0092931511 0.045629725 0.57638639 4278255360
0.0097863898 0.045667175 0.5763135 4278255360
0.010279628 0.045704629 0.5762406 4278255360
0.010772866 0.04574208 0.5761677 4278255360
0.011266105 0.04577953 0.57609481 4278255360
0.011759343 0.04581698 0.57602191 4278255360
0.01225258 0.045854431 0.57594901 4278255360
0.012745819 0.045891881 0.57587612 4278255360
0.013239057 0.045929331 0.57580322 4278255360
0.013732295 0.045966782 0.57573032 4278255360
0.014225533 0.046004236 0.57565743 4278255360
0.014718773 0.046041686 0.57558453 4278255360
0.015212011 0.046079136 0.57551163 4278255360
0.015705248 0.046116587 0.57543874 4278255360
0.016198488 0.046154037 0.57536584 4278255360
0.016691726 0.046191487 0.57529294 4278255360
0.017184962 0.046228938 0.57522005 4278255360
0.017678201 0.046266392 0.57514715 4278255360
0.018171439 0.046303842 0.57507426 4278255360
0.018664677 0.046341293 0.57500136 4278255360
0.019157916 0.046378743 0.57492846 4278255360
0.019651154 0.046416193 0.57485557 4278255360
0.020144392 0.046453644 0.57478273 4278255360
0.02063763 0.046491094 0.57470983 4278255360
0.021130869 0.046528548 0.57463694 4278255360
0.021624107 0.046565998 0.57456404 4278255360
0.022117345 0.046603449 0.57449114 4278255360
0.022610584 0.046640899 0.57441825 4278255360
0.02310382 0.046678349 0.57434535 4278255360
0.023597058 0.0467158 0.57427245 4278255360
0.024090298 0.04675325 0.57419956 4278255360
0.024583535 0.046790704 0.57412666 4278255360
0.025076773 0.046828154 0.57405376 4278255360
0.025570013 0.046865605 0.57398087 4278255360
0.02606325 0.046903055 0.57390797 4278255360
0.026556488 0.046940506 0.57383507 4278255360
0.027049726 0.046977956 0.57376218 4278255360
0.027542964 0.047015406 0.57368928 4278255360
0.028036205 0.04705286 0.57361639 4278255360
0.028529443 0.047090311 0.57354349 4278255360
0.029022681 0.047127761 0.57347059 4278255360
0.029515916 0.047165211 0.5733977 4278255360
0.030009154 0.047202662 0.5733248 4278255360
0.030502392 0.047240112 0.5732519 4278255360
0.030995633 0.047277562 0.57317901 4278255360
0.031488873 0.047315016 0.57310611 4278255360
0.031982109 0.047352467 0.57303321 4278255360
0.032475349 0.047389917 0.57296038 4278255360
0.032968584 0.047427367 0.57288748 4278255360
0.033461824 0.047464818 0.57281458 4278255360
0.033955064 0.047502268 0.57274169 4278255360
0.034448303 0.047539718 0.57266879 4278255360
0.034941539 0.047577173 0.57259589 4278255360
0.035434779 0.047614623 0.572523 4278255360
0.035928015 0.047652073 0.5724501 4278255360
0.036421254 0.047689524 0.5723772 4278255360
0.036914494 0.047726974 0.57230431 4278255360
0.037407734 0.047764424 0.57223141 4278255360
0.037900969 0.047801875 0.57215852 4278255360
0.038394205 0.047839329 0.57208562 4278255360
0.038887445 0.047876779 0.57201272 4278255360
0.039380681 0.047914229 0.57193983 4278255360
0.03987392 0.04795168 0.57186693 4278255360
0.04036716 0.04798913 0.57179403 4278255360
0.0408604 0.04802658 0.57172114 4278255360
0.041353635 0.048064031 0.57164824 4278255360
0.041846875 0.048101485 0.57157534 4278255360
0.042340111 0.048138935 0.57150245 4278255360
0.042833351 0.048176385 0.57142955 4278255360
0.04332659 0.048213836 0.57135665 4278255360
0.04381983 0.048251286 0.57128376 4278255360
0.044313066 0.048288736 0.57121086 4278255360
0.044806302 0.048326187 0.57113802 4278255360
0.045299541 0.048363637 0.57106513 4278255360
0.045792777 0.048401091 0.57099223 4278255360
0.04628602 0.048438542 0.57091933 4278255360
0.046779256 0.048475992 0.57084644 4278255360
0.047272496 0.048513442 0.57077354 4278255360
0.047765732 0.048550893 0.57070065 4278255360
0.048258971 0.048588343 0.57062775 4278255360
0.048752207 0.048625793 0.57055485 4278255360
0.049245451 0.048663247 0.57048196 4278255360
0.049738687 0.048700698 0.57040906 4278255360
0.050231926 0.048738148 0.57033616 4278255360
0.050725162 0.048775598 0.57026327 4278255360
0.0014013407 0.045030512 0.57755268 4278190335
0.0014389601 0.045002323 0.57805043 4278190335
0.0014765796 0.044974133 0.57854825 4278190335
0.001514199 0.044945944 0.57904601 4278190335
0.0015518183 0.044917755 0.57954383 4278190335
0.0015894377 0.044889566 0.58004159 4278190335
0.0016270572 0.044861376 0.58053941 4278190335
0.0016646766 0.044833187 0.58103716 4278190335
0.001702296 0.044804994 0.58153498 4278190335
0.0017399155 0.044776805 0.58203274 4278190335
0.0017775348 0.044748615 0.5825305 4278190335
0.0018151542 0.044720426 0.58302832 4278190335
0.0018527736 0.044692237 0.58352607 4278190335
0.001890393 0.044664048 0.58402389 4278190335
0.0019280125 0.044635858 0.58452165 4278190335
0.001965632 0.044607669 0.58501947 4278190335
0.0020032513 0.04457948 0.58551723 4278190335
0.0020408707 0.044551291 0.58601505 4278190335
0.0020784901 0.044523101 0.5865128 4278190335
0.0021161095 0.044494912 0.58701062 4278190335
0.0021537289 0.044466723 0.58750838 4278190335
0.0021913482 0.044438533 0.58800614 4278190335
0.0022289678 0.04441034 0.58850396 4278190335
0.0022665872 0.044382151 0.58900172 4278190335
0.0023042066 0.044353962 0.58949953 4278190335
0.002341826 0.044325773 0.58999729 4278190335
0.0023794454 0.044297583 0.59049511 4278190335
0.0024170647 0.044269394 0.59099287 4278190335
0.0024546841 0.044241205 0.59149069 4278190335
0.0024923035 0.044213016 0.59198844 4278190335
0.0025299231 0.044184826 0.59248626 4278190335
0.0025675425 0.044156637 0.59298402 4278190335
0.0026051619 0.044128448 0.59348178 4278190335
0.0026427815 0.044100258 0.5939796 4278190335
0.0026804009 0.044072069 0.59447736 4278190335
0.0027180202 0.04404388 0.59497517 4278190335
0.0027556396 0.044015687 0.59547293 4278190335
0.002793259 0.043987498 0.59597075 4278190335
0.0028308784 0.043959308 0.59646851 4278190335
0.0028684977 0.043931119 0.59696633 4278190335
0.0029061171 0.04390293 0.59746408 4278190335
0.0029437365 0.043874741 0.59796184 4278190335
0.0029813559 0.043846551 0.59845966 4278190335
0.0030189753 0.043818362 0.59895742 4278190335
0.0030565946 0.043790173 0.59945524 4278190335
0.003094214 0.043761984 0.599953 4278190335
0.0031318336 0.043733794 0.60045081 4278190335
0.003169453 0.043705605 0.60094857 4278190335
0.0032070724 0.043677416 0.60144639 4278190335
0.003244692 0.043649226 0.60194415 4278190335
0.0032823114 0.043621033 0.60244191 4278190335
0.0033199308 0.043592844 0.60293972 4278190335
0.0033575501 0.043564655 0.60343748 4278190335
0.0033951695 0.043536466 0.6039353 4278190335
0.0034327889 0.043508276 0.60443306 4278190335
0.0034704083 0.043480087 0.60493088 4278190335
0.0035080276 0.043451898 0.60542864 4278190335
0.003545647 0.043423709 0.60592645 4278190335
0.0035832664 0.043395519 0.60642421 4278190335
0.0036208858 0.04336733 0.60692203 4278190335
0.0036585056 0.043339141 0.60741979 4278190335
0.003696125 0.043310951 0.60791755 4278190335
0.0037337444 0.043282762 0.60841537 4278190335
0.0037713638 0.043254573 0.60891312 4278190335
0.0038089831 0.043226384 0.60941094 4278190335
0.0038466025 0.043198191 0.6099087 4278190335
0.0038842219 0.043170001 0.61040652 4278190335
0.0039218413 0.043141812 0.61090428 4278190335
0.0039594606 0.043113623 0.61140209 4278190335
0.00399708 0.043085434 0.61189985 4278190335
0.0040346994 0.043057244 0.61239767 4278190335
0.0040723188 0.043029055 0.61289543 4278190335
0.0041099386 0.043000866 0.61339319 4278190335
0.004147558 0.042972676 0.61389101 4278190335
0.0041851774 0.042944487 0.61438876 4278190335
0.0042227963 0.042916298 0.61488658 4278190335
0.0042604157 0.042888109 0.61538434 4278190335
0.0042980351 0.042859919 0.61588216 4278190335
0.0043356544 0.04283173 0.61637992 4278190335
0.0043732743 0.042803537 0.61687773 4278190335
0.0044108937 0.042775348 0.61737549 4278190335
0.004448513 0.042747159 0.61787325 4278190335
0.0044861324 0.042718969 0.61837107 4278190335
0.0045237518 0.04269078 0.61886883 4278190335
0.0045613712 0.042662591 0.61936665 4278190335
0.0045989905 0.042634401 0.6198644 4278190335
0.0046366099 0.042606212 0.62036222 4278190335
0.0046742293 0.042578023 0.62085998 4278190335
0.0047118487 0.042549834 0.6213578 4278190335
0.0047494681 0.042521644 0.62185556 4278190335
0.0047870874 0.042493455 0.62235332 4278190335
0.0048247073 0.042465266 0.62285113 4278190335
0.0048623267 0.042437077 0.62334889 4278190335
0.004899946 0.042408884 0.62384671 4278190335
0.0049375654 0.042380694 0.62434447 4278190335
0.0049751848 0.042352505 0.62484229 4278190335
0.0050128042 0.042324316 0.62534004 4278190335
0.0050504236 0.042296126 0.62583786 4278190335
0.0050880429 0.042267937 0.62633562 4278190335
0.0051256623 0.042239748 0.62683344 4278190335
0.0051632817 0.042211559 0.6273312 4278190335
0.0014013407 0.045030512 0.57755268 4294967295
0.0011756243 0.045199648 0.57456595 4294967295
0.00094990782 0.045368787 0.57157928 4294967295
0.00072419137 0.045537923 0.56859255 4294967295
0.00049847492 0.045707062 0.56560582 4294967295
0.00027275842 0.045876198 0.56261909 4294967295
4.7042035e-05 0.046045337 0.55963242 4294967295
-0.00017867447 0.046214473 0.55664569 4294967295
-0.00040439086 0.046383612 0.55365896 4294967295
-0.00063010759 0.046552747 0.55067229 4294967295
-0.00085582386 0.046721883 0.54768556 4294967295
-0.0010815404 0.046891022 0.54469883 4294967295
-0.0013072566 0.047060158 0.54171216 4294967295
-0.0015329731 0.047229297 0.53872544 4294967295
-0.0017586896 0.047398433 0.53573871 4294967295
-0.0019844063 0.047567572 0.53275198 4294967295
-0.0022101225 0.047736708 0.52976531 4294967295
-0.0024358393 0.047905847 0.52677858 4294967295
-0.002661556 0.048074983 0.52379185 4294967295
-0.0028872718 0.048244119 0.52080518 4294967295
-0.0031129885 0.048413258 0.51781845 4294967295
-0.0033387048 0.048582394 0.51483172 4294967295
-0.0035644216 0.048751533 0.51184499 4294967295
-0.0037901378 0.048920669 0.50885832 4294967295
-0.0040158541 0.049089804 0.50587159 4294967295
-0.0042415708 0.049258944 0.50288486 4294967295
-0.0044672871 0.049428079 0.4998982 4294967295
-0.0046930038 0.049597219 0.49691147 4294967295
-0.0049187201 0.049766354 0.49392474 4294967295
-0.0051444364 0.049935494 0.49093804 4294967295
-0.0053701536 0.050104629 0.48795134 4294967295
-0.0055958699 0.050273769 0.48496461 4294967295
-0.0058215857 0.050442904 0.48197791 4294967295
-0.0060473029 0.050612044 0.47899118 4294967295
-0.0062730191 0.050781179 0.47600448 4294967295
-0.0064987354 0.050950315 0.47301778 4294967295
-0.0067244526 0.051119454 0.47003105 4294967295
-0.0069501689 0.05128859 0.46704435 4294967295
-0.0071758842 0.051457729 0.46405762 4294967295
-0.0074016005 0.051626865 0.46107092 4294967295
-0.0076273177 0.051796004 0.45808423 4294967295
-0.007853034 0.05196514 0.4550975 4294967295
-0.0080787502 0.052134275 0.4521108 4294967295
-0.0083044674 0.052303415 0.4491241 4294967295
-0.0085301837 0.05247255 0.44613737 4294967295
-0.0087559 0.05264169 0.44315064 4294967295
-0.0089816162 0.052810825 0.44016394 4294967295
-0.0092073325 0.052979965 0.43717724 4294967295
-0.0094330488 0.0531491 0.43419051 4294967295
-0.009658766 0.05331824 0.43120381 4294967295
-0.0098844822 0.053487375 0.42821711 4294967295
-0.010110199 0.053656511 0.42523038 4294967295
-0.010335915 0.05382565 0.42224368 4294967295
-0.010561631 0.053994786 0.41925699 4294967295
-0.010787348 0.054163925 0.41627026 4294967295
-0.011013065 0.054333061 0.41328353 4294967295
-0.011238781 0.0545022 0.41029683 4294967295
-0.011464497 0.054671336 0.40731013 4294967295
-0.011690213 0.054840475 0.4043234 4294967295
-0.01191593 0.055009611 0.4013367 4294967295
-0.012141648 0.055178747 0.39834997 4294967295
-0.012367364 0.055347886 0.39536327 4294967295
-0.01259308 0.055517022 0.39237654 4294967295
-0.012818796 0.055686161 0.38938984 4294967295
-0.013044512 0.055855297 0.38640314 4294967295
-0.013270228 0.056024432 0.38341641 4294967295
-0.013495946 0.056193572 0.38042969 4294967295
-0.013721663 0.056362711 0.37744302 4294967295
-0.013947379 0.056531847 0.37445629 4294967295
-0.014173095 0.056700982 0.37146956 4294967295
-0.014398811 0.056870122 0.36848289 4294967295
-0.014624527 0.057039257 0.36549616 4294967295
-0.014850246 0.057208396 0.36250943 4294967295
-0.015075961 0.057377532 0.35952273 4294967295
-0.015301678 0.057546668 0.35653603 4294967295
-0.015527394 0.057715807 0.3535493 4294967295
-0.015753109 0.057884946 0.3505626 4294967295
-0.015978826 0.058054082 0.3475759 4294967295
-0.016204542 0.058223218 0.34458917 4294967295
-0.016430261 0.058392357 0.34160244 4294967295
-0.016655976 0.058561493 0.33861575 4294967295
-0.016881693 0.058730632 0.33562905 4294967295
-0.017107408 0.058899768 0.33264232 4294967295
-0.017333126 0.059068903 0.32965562 4294967295
-0.017558841 0.059238043 0.32666892 4294967295
-0.017784558 0.059407182 0.32368219 4294967295
-0.018010275 0.059576318 0.32069549 4294967295
-0.018235991 0.059745453 0.31770876 4294967295
-0.018461708 0.059914593 0.31472206 4294967295
-0.018687423 0.060083728 0.31173536 4294967295
-0.018913141 0.060252868 0.30874863 4294967295
-0.019138858 0.060422003 0.3057619 4294967295
-0.019364573 0.060591139 0.3027752 4294967295
-0.01959029 0.060760278 0.2997885 4294967295
-0.019816006 0.060929418 0.29680178 4294967295
-0.020041723 0.061098553 0.29381508 4294967295
-0.020267438 0.061267689 0.29082838 4294967295
-0.020493157 0.061436828 0.28784165 4294967295
-0.020718873 0.061605964 0.28485495 4294967295
-0.02094459 0.061775103 0.28186822 4294967295
-0.021170305 0.061944239 0.27888152 4294967295
