# .PCD v0.7 - Point Cloud Data file format
VERSION 0.7
FIELDS x y z rgb
SIZE 4 4 4 4
TYPE F F F U
COUNT 1 1 1 1
WIDTH 1027
HEIGHT 1
VIEWPOINT 0 0 0 1 0 0 0
POINTS 1027
DATA ascii
0.029599108 -0.034662519 0.37800002 4280566313
0.030745298 -0.034570817 0.377 4279850803
0.051066838 -0.035946317 0.39200002 4286291337
0.052473575 -0.036038015 0.39300001 4286292107
0.055866603 -0.036588214 0.39900002 4285765763
0.05730582 -0.036679912 0.40000001 4283660900
0.058751538 -0.036771614 0.40100002 4281687622
0.060203739 -0.036863312 0.40200001 4281030460
0.061509438 -0.036863312 0.40200001 4280571192
0.062971398 -0.036955014 0.40300003 4280769084
0.064280339 -0.036955014 0.40300003 4279389482
0.065589286 -0.036955014 0.40300003 4279916596
0.066898227 -0.036955014 0.40300003 4279851316
0.068207167 -0.036955014 0.40300003 4279391535
0.069688611 -0.037046712 0.40400001 4279457326
0.071000807 -0.037046712 0.40400001 4279457580
0.072313003 -0.037046712 0.40400001 4279194920
0.073625192 -0.037046712 0.40400001 4279129125
0.074937381 -0.037046712 0.40400001 4279129638
0.076249577 -0.037046712 0.40400001 4279063845
0.077561766 -0.037046712 0.40400001 4279194918
0.078873962 -0.037046712 0.40400001 4278931746
0.080384642 -0.037138414 0.40500003 4278668574
0.081700079 -0.037138414 0.40500003 4278865953
0.083220489 -0.037230112 0.40600002 4278865693
0.084747404 -0.03732181 0.40700001 4278799900
0.086280823 -0.037413511 0.40800002 4278602519
0.087605998 -0.037413511 0.40800002 4278602521
0.089149155 -0.037505209 0.40900001 4278602521
0.090477586 -0.037505209 0.40900001 4278734107
0.092030481 -0.037596911 0.41000003 4278470935
0.093362167 -0.037596911 0.41000003 4278733337
0.094924808 -0.037688609 0.41100001 4278535445
0.096493945 -0.037780311 0.41200003 4278798617
0.097832121 -0.037780311 0.41200003 4279061019
0.099411003 -0.037872009 0.41300002 4279258398
0.10075242 -0.037872009 0.41300002 4279653156
0.10234106 -0.037963711 0.41400003 4279192351
0.10368572 -0.037963711 0.41400003 4279193123
0.10528409 -0.038055409 0.41500002 4279061539
0.10663202 -0.038055409 0.41500002 4279319842
0.013818828 -0.033876613 0.38300002 4281484335
0.015062814 -0.033876613 0.38300002 4281221933
0.0211716 -0.03369971 0.38100001 4280891946
0.022350272 -0.03361126 0.38000003 4280101916
0.023584513 -0.03361126 0.38000003 4279706647
0.02475344 -0.033522807 0.37900001 4279772440
0.025984434 -0.033522807 0.37900001 4280364577
0.027143618 -0.033434357 0.37800002 4280101405
0.028371362 -0.033434357 0.37800002 4280102430
0.029599108 -0.033434357 0.37800002 4279971612
0.030745298 -0.033345904 0.377 4278796570
0.032054599 -0.033434357 0.37800002 4279522603
0.033282343 -0.033434357 0.37800002 4279851832
0.034510083 -0.033434357 0.37800002 4279653685
0.035832375 -0.033522807 0.37900001 4284320627
0.044244621 -0.034318864 0.38800001 4286488203
0.045504849 -0.034318864 0.38800001 4286553996
0.048396628 -0.034584217 0.39100003 4285832583
0.049666595 -0.034584217 0.39100003 4283465318
0.051066838 -0.034672666 0.39200002 4281229126
0.052473575 -0.034761116 0.39300001 4280440893
0.054023571 -0.034938019 0.39500001 4280835649
0.055586569 -0.035114922 0.39700001 4280376893
0.057162557 -0.035291821 0.39900002 4279455791
0.058605023 -0.03538027 0.40000001 4280508985
0.060053982 -0.035468724 0.40100002 4279653676
0.061356433 -0.035468724 0.40100002 4279391787
0.062815137 -0.035557173 0.40200001 4279062822
0.064120829 -0.035557173 0.40200001 4279326508
0.065426528 -0.035557173 0.40200001 4279260715
0.066732228 -0.035557173 0.40200001 4279326508
0.06803792 -0.035557173 0.40200001 4279392301
0.069343619 -0.035557173 0.40200001 4279523883
0.070825063 -0.035645626 0.40300003 4279589930
0.07213401 -0.035645626 0.40300003 4279326758
0.073442951 -0.035645626 0.40300003 4278734621
0.074751899 -0.035645626 0.40300003 4278734621
0.076060846 -0.035645626 0.40300003 4279063586
0.077561766 -0.035734076 0.40400001 4278865693
0.078873962 -0.035734076 0.40400001 4278602521
0.080186158 -0.035734076 0.40400001 4278865693
0.081700079 -0.035822526 0.40500003 4278864669
0.083220489 -0.035910975 0.40600002 4278864923
0.084539182 -0.035910975 0.40600002 4278733337
0.086069345 -0.035999425 0.40700001 4278930714
0.087605998 -0.036087878 0.40800002 4279193886
0.089149155 -0.036176328 0.40900001 4279127582
0.090477586 -0.036176328 0.40900001 4278995996
0.092030481 -0.036264781 0.41000003 4279127582
0.093362167 -0.036264781 0.41000003 4279455010
0.094924808 -0.03635323 0.41100001 4279783461
0.096259728 -0.03635323 0.41100001 4278730005
0.097832121 -0.03644168 0.41200003 4278202378
0.099170297 -0.03644168 0.41200003 4279520289
0.10075242 -0.03653013 0.41300002 4279389217
0.10234106 -0.036618583 0.41400003 4279455010
0.10368572 -0.036618583 0.41400003 4279258148
0.10528409 -0.036707032 0.41500002 4279192101
0.10663202 -0.036707032 0.41500002 4279581732
0.013782749 -0.032547005 0.38200003 4281024302
0.015062814 -0.032632206 0.38300002 4281155888
0.0211716 -0.032461803 0.38100001 4280232989
0.022350272 -0.032376602 0.38000003 4280100635
0.023522448 -0.032291397 0.37900001 4279837463
0.02475344 -0.032291397 0.37900001 4279969049
0.025915874 -0.032206196 0.37800002 4280232991
0.027143618 -0.032206196 0.37800002 4279904026
0.028371362 -0.032206196 0.37800002 4280101405
0.029599108 -0.032206196 0.37800002 4279904537
0.030826852 -0.032206196 0.37800002 4279255838
0.032054599 -0.032206196 0.37800002 4279258918
0.033282343 -0.032206196 0.37800002 4279326508
0.034601379 -0.032291397 0.37900001 4279523887
0.035832375 -0.032291397 0.37900001 4279721014
0.03716116 -0.032376602 0.38000003 4279982650
0.038496442 -0.032461803 0.38100001 4281623884
0.039838221 -0.032547005 0.38200003 4283202916
0.041294027 -0.032717407 0.384 4283860076
0.042652048 -0.032802608 0.38500002 4282609494
0.04413059 -0.032973014 0.38700002 4280965950
0.045504849 -0.033058211 0.38800001 4280505912
0.046765074 -0.033058211 0.38800001 4280441141
0.048272848 -0.033228617 0.39000002 4280244276
0.04953957 -0.033228617 0.39000002 4279917107
0.050936565 -0.033313818 0.39100003 4279457326
0.052340057 -0.033399019 0.39200002 4279194668
0.053886805 -0.033569422 0.39400002 4279063082
0.055446554 -0.033739828 0.39600003 4279194668
0.056876026 -0.033825029 0.39700001 4279260715
0.058458511 -0.033995431 0.39900002 4279523883
0.059754461 -0.033995431 0.39900002 4279326504
0.06120342 -0.034080632 0.40000001 4279194918
0.062502623 -0.034080632 0.40000001 4279589676
0.063961327 -0.034165833 0.40100002 4279129640
0.065263778 -0.034165833 0.40100002 4279063847
0.066566229 -0.034165833 0.40100002 4278866466
0.067868672 -0.034165833 0.40100002 4278669087
0.069171123 -0.034165833 0.40100002 4278734621
0.070473574 -0.034165833 0.40100002 4278603035
0.071955018 -0.034251034 0.40200001 4278734107
0.07326071 -0.034251034 0.40200001 4278931486
0.074566409 -0.034251034 0.40200001 4278996509
0.076060846 -0.034336239 0.40300003 4279128095
0.077369787 -0.034336239 0.40300003 4279062302
0.078678735 -0.034336239 0.40300003 4279193888
0.080186158 -0.034421436 0.40400001 4279258914
0.081498347 -0.034421436 0.40400001 4279127328
0.083015516 -0.034506641 0.40500003 4279258916
0.084539182 -0.034591842 0.40600002 4279456293
0.086069345 -0.034677044 0.40700001 4279455264
0.087605998 -0.034762245 0.40800002 4279586336
0.088931188 -0.034762245 0.40800002 4278333964
0.090477586 -0.034847446 0.40900001 4278199040
0.091806017 -0.034847446 0.40900001 4278199555
0.093362167 -0.034932647 0.41000003 4279516957
0.094693847 -0.034932647 0.41000003 4280570415
0.096259728 -0.035017848 0.41100001 4280373034
0.097594664 -0.035017848 0.41100001 4278200069
0.099170297 -0.035103053 0.41200003 4279913768
0.10075242 -0.035188254 0.41300002 4279586598
0.10209385 -0.035188254 0.41300002 4279389219
0.10368572 -0.035273455 0.41400003 4279191840
0.10528409 -0.035358656 0.41500002 4279257635
0.10663202 -0.035358656 0.41500002 4282146378
0.0211716 -0.031223893 0.38100001 4279969815
0.022350272 -0.031141942 0.38000003 4280100633
0.023584513 -0.031141942 0.38000003 4279837461
0.02475344 -0.031059988 0.37900001 4279837463
0.025915874 -0.030978037 0.37800002 4280101405
0.027143618 -0.030978037 0.37800002 4280298784
0.028371362 -0.030978037 0.37800002 4280430370
0.029599108 -0.030978037 0.37800002 4280365088
0.030826852 -0.030978037 0.37800002 4279253017
0.032054599 -0.030978037 0.37800002 4279058972
0.033370391 -0.031059988 0.37900001 4278996259
0.034601379 -0.031059988 0.37900001 4278734369
0.035926919 -0.031141942 0.38000003 4279327017
0.037258953 -0.031223893 0.38100001 4279721264
0.038496442 -0.031223893 0.38100001 4279259949
0.039838221 -0.03130585 0.38200003 4279653937
0.041186489 -0.031387798 0.38300002 4279522351
0.042652048 -0.031551704 0.38500002 4279324970
0.044016559 -0.031633656 0.38600001 4279786543
0.04538757 -0.031715609 0.38700002 4279063334
0.046765074 -0.031797562 0.38800001 4279129127
0.048149075 -0.031879514 0.38900003 4279260711
0.04953957 -0.031961467 0.39000002 4279194918
0.050806291 -0.031961467 0.39000002 4279260711
0.052206539 -0.03204342 0.39100003 4279524396
0.053750034 -0.032207321 0.39300001 4279261224
0.05516652 -0.032289278 0.39400002 4279129638
0.056732766 -0.032453183 0.39600003 4278998052
0.058165487 -0.032535132 0.39700001 4279063845
0.059604701 -0.032617088 0.39800003 4278537501
0.061050415 -0.032699037 0.39900002 4278669341
0.062346369 -0.032699037 0.39900002 4278669341
0.063642316 -0.032699037 0.39900002 4279063586
0.06493827 -0.032699037 0.39900002 4278931486
0.066234224 -0.032699037 0.39900002 4279457830
0.067699425 -0.03278099 0.40000001 4278997279
0.068998627 -0.03278099 0.40000001 4278931232
0.07029783 -0.03278099 0.40000001 4279062302
0.071597032 -0.03278099 0.40000001 4279193888
0.073078468 -0.032862943 0.40100002 4279062302
0.074380919 -0.032862943 0.40100002 4279192605
0.075872101 -0.032944895 0.40200001 4279192605
0.0771778 -0.032944895 0.40200001 4279258398
0.078678735 -0.033026848 0.40300003 4279455264
0.079987675 -0.033026848 0.40300003 4279520291
0.081498347 -0.033108801 0.40400001 4278664214
0.083015516 -0.033190753 0.40500003 4278199040
0.084539182 -0.033272706 0.40600002 4278199297
0.086069345 -0.033354659 0.40700001 4279320859
0.08739128 -0.033354659 0.40700001 4279781410
0.088931188 -0.033436611 0.40800002 4279781410
0.090477586 -0.033518564 0.40900001 4279847203
0.091806017 -0.033518564 0.40900001 4280176166
0.093362167 -0.033600517 0.41000003 4279912994
0.094693847 -0.033600517 0.41000003 4279716385
0.096259728 -0.033682469 0.41100001 4279519006
0.097594664 -0.033682469 0.41100001 4280043301
0.099170297 -0.033764422 0.41200003 4280045354
0.10050847 -0.033764422 0.41200003 4279323426
0.10209385 -0.033846375 0.41300002 4279586598
0.10368572 -0.033928327 0.41400003 4279191840
0.1050304 -0.033928327 0.41400003 4279189275
0.02122717 -0.030064689 0.38200003 4280562467
0.022409089 -0.029985983 0.38100001 4280167196
0.023584513 -0.029907281 0.38000003 4280363805
0.02475344 -0.029828576 0.37900001 4280298012
0.030908404 -0.029828576 0.37900001 4279252758
0.032139398 -0.029828576 0.37900001 4278860310
0.033370391 -0.029828576 0.37900001 4278993945
0.034692679 -0.029907281 0.38000003 4278797847
0.035926919 -0.029907281 0.38000003 4278734619
0.037258953 -0.029985983 0.38100001 4278800414
0.038597483 -0.030064689 0.38200003 4281563983
0.039838221 -0.030064689 0.38200003 4282616156
0.041186489 -0.030143391 0.38300002 4279852336
0.042541262 -0.030222094 0.384 4279326504
0.044016559 -0.0303795 0.38600001 4279129892
0.04538757 -0.030458204 0.38700002 4279327271
0.046644546 -0.030458204 0.38700002 4279458857
0.048025295 -0.030536907 0.38800001 4279064099
0.049412545 -0.030615611 0.38900003 4279261478
0.050676022 -0.030615611 0.38900003 4279195685
0.052073013 -0.030694313 0.39000002 4278669087
0.053476501 -0.030773019 0.39100003 4278405915
0.055026501 -0.030930424 0.39300001 4278734367
0.056446236 -0.031009128 0.39400002 4278668574
0.057872459 -0.031087831 0.39500001 4278800160
0.05930518 -0.031166535 0.39600003 4278997025
0.060744397 -0.031245237 0.39700001 4278997025
0.062190115 -0.031323943 0.39800003 4278931232
0.063482814 -0.031323943 0.39800003 4279127841
0.064775519 -0.031323943 0.39800003 4279127841
0.066068225 -0.031323943 0.39800003 4279193121
0.06736093 -0.031323943 0.39800003 4279061535
0.068826132 -0.031402644 0.39900002 4279127330
0.070122086 -0.031402644 0.39900002 4279193121
0.07141804 -0.031402644 0.39900002 4279849768
0.072896227 -0.031481348 0.40000001 4279783461
0.07419543 -0.031481348 0.40000001 4278794513
0.07568337 -0.031560052 0.40100002 4278199040
0.0771778 -0.031638753 0.40200001 4278200838
0.078483492 -0.031638753 0.40200001 4279451162
0.079987675 -0.031717457 0.40300003 4280372266
0.081498347 -0.031796161 0.40400001 4280307243
0.083015516 -0.031874865 0.40500003 4279847205
0.084539182 -0.03195357 0.40600002 4279716387
0.086069345 -0.03203227 0.40700001 4279716387
0.08739128 -0.03203227 0.40700001 4279650594
0.088931188 -0.032110974 0.40800002 4279584799
0.090477586 -0.032189678 0.40900001 4278532111
0.091806017 -0.032189678 0.40900001 4279255834
0.093362167 -0.032268383 0.41000003 4279320859
0.094693847 -0.032268383 0.41000003 4279650596
0.096025527 -0.032268383 0.41000003 4279321631
0.097594664 -0.032347083 0.41100001 4280570928
0.098929591 -0.032347083 0.41100001 4279782180
0.10050847 -0.032425791 0.41200003 4279389219
0.10209385 -0.032504492 0.41300002 4279191840
0.10343527 -0.032504492 0.41300002 4279716900
0.02122717 -0.028823532 0.38200003 4280365088
0.022467906 -0.028823532 0.38200003 4280101403
0.023646578 -0.028748076 0.38100001 4280298012
0.024818754 -0.028672623 0.38000003 4280495391
0.030989956 -0.028672623 0.38000003 4279515930
0.032224201 -0.028672623 0.38000003 4279189275
0.033458438 -0.028672623 0.38000003 4278993175
0.034692679 -0.028672623 0.38000003 4278928152
0.036021464 -0.028748076 0.38100001 4278798617
0.037258953 -0.028748076 0.38100001 4278800414
0.038597483 -0.028823532 0.38200003 4278735650
0.039838221 -0.028823532 0.38200003 4278538786
0.041186489 -0.028898984 0.38300002 4278669859
0.042541262 -0.028974438 0.384 4278735650
0.043902528 -0.029049894 0.38500002 4278209560
0.045270287 -0.029125346 0.38600001 4278670109
0.046644546 -0.029200802 0.38700002 4278669339
0.047901522 -0.029200802 0.38700002 4278734619
0.04928552 -0.029276256 0.38800001 4278865691
0.050545745 -0.029276256 0.38800001 4278931484
0.051939495 -0.029351711 0.38900003 4279128093
0.053339731 -0.029427165 0.39000002 4278995994
0.054746471 -0.029502621 0.39100003 4279390500
0.056302968 -0.029653527 0.39300001 4279127328
0.057725951 -0.029728983 0.39400002 4279127328
0.059155416 -0.029804435 0.39500001 4279193121
0.060591388 -0.02987989 0.39600003 4279258914
0.061877601 -0.02987989 0.39600003 4279127328
0.063323312 -0.029955344 0.39700001 4279193121
0.064612769 -0.029955344 0.39700001 4279389217
0.065902226 -0.029955344 0.39700001 4279321627
0.067191675 -0.029955344 0.39700001 4278399755
0.068653636 -0.0300308 0.39800003 4278200326
0.069946341 -0.0300308 0.39800003 4279912485
0.07141804 -0.030106254 0.39900002 4279847205
0.072713986 -0.030106254 0.39900002 4280241450
0.07419543 -0.030181706 0.40000001 4280307239
0.075494632 -0.030181706 0.40000001 4279715615
0.076985814 -0.030257162 0.40100002 4280110373
0.078483492 -0.030332616 0.40200001 4280110375
0.079987675 -0.030408071 0.40300003 4280241448
0.081498347 -0.030483523 0.40400001 4278399246
0.083015516 -0.030558979 0.40500003 4279320859
0.084539182 -0.030634433 0.40600002 4279781408
0.086069345 -0.030709887 0.40700001 4278199552
0.087605998 -0.030785341 0.40800002 4278794002
0.088931188 -0.030785341 0.40800002 4279649311
0.090477586 -0.030860795 0.40900001 4278596625
0.091806017 -0.030860795 0.40900001 4278464015
0.093362167 -0.03093625 0.41000003 4278529808
0.094693847 -0.03093625 0.41000003 4279584803
0.096025527 -0.03093625 0.41000003 4278200327
0.097594664 -0.031011704 0.41100001 4279913768
0.098929591 -0.031011704 0.41100001 4279848484
0.10050847 -0.03108716 0.41200003 4279717668
0.10184665 -0.03108716 0.41200003 4279586082
0.10343527 -0.031162612 0.41300002 4279647777
0.016264223 -0.027582375 0.38200003 4281157169
0.020038752 -0.027654579 0.38300002 4280826153
0.021282736 -0.027654579 0.38300002 4280430366
0.022526722 -0.027654579 0.38300002 4280363803
0.023708643 -0.027582375 0.38200003 4280297497
0.024884066 -0.027510168 0.38100001 4280363290
0.031071508 -0.027510168 0.38100001 4279450650
0.032308999 -0.027510168 0.38100001 4279255068
0.033546485 -0.027510168 0.38100001 4278993175
0.034783974 -0.027510168 0.38100001 4278993945
0.036021464 -0.027510168 0.38100001 4278929179
0.037356745 -0.027582375 0.38200003 4279192351
0.038597483 -0.027582375 0.38200003 4278536474
0.039942507 -0.027654579 0.38300002 4278733853
0.041186489 -0.027654579 0.38300002 4278997025
0.042541262 -0.027726782 0.384 4278799646
0.043902528 -0.02779899 0.38500002 4278799900
0.045270287 -0.027871193 0.38600001 4279063072
0.046524014 -0.027871193 0.38600001 4278931486
0.047901522 -0.027943401 0.38700002 4279128095
0.049158495 -0.027943401 0.38700002 4279391267
0.050545745 -0.028015604 0.38800001 4279062302
0.051805973 -0.028015604 0.38800001 4278664464
0.053202964 -0.028087812 0.38900003 4278334732
0.054606453 -0.028160015 0.39000002 4279323426
0.056016441 -0.028232221 0.39100003 4279323424
0.057579435 -0.02837663 0.39300001 4279586596
0.059005659 -0.028448837 0.39400002 4279256349
0.06043838 -0.02852104 0.39500001 4278661132
0.06172134 -0.02852104 0.39500001 4278198785
0.063163802 -0.028593246 0.39600003 4278395912
0.064450018 -0.028593246 0.39600003 4278723595
0.065736227 -0.028593246 0.39600003 4278919439
0.067191675 -0.028665451 0.39700001 4278985232
0.068481132 -0.028665451 0.39700001 4278263558
0.069770597 -0.028665451 0.39700001 4279912485
0.071239047 -0.028737657 0.39800003 4279782180
0.072713986 -0.028809862 0.39900002 4278268171
0.07400994 -0.028809862 0.39900002 4278199296
0.075494632 -0.028882066 0.40000001 4279320344
0.076985814 -0.028954273 0.40100002 4279912481
0.078483492 -0.029026477 0.40200001 4278925588
0.079987675 -0.029098682 0.40300003 4279254555
0.081498347 -0.029170888 0.40400001 4279912485
0.083015516 -0.029243093 0.40500003 4279648543
0.084539182 -0.029315298 0.40600002 4278464015
0.086069345 -0.029387502 0.40700001 4279253271
0.087605998 -0.029459707 0.40800002 4280174119
0.089149155 -0.029531913 0.40900001 4278925590
0.090477586 -0.029531913 0.40900001 4280438829
0.092030481 -0.029604118 0.41000003 4280175657
0.093362167 -0.029604118 0.41000003 4280570415
0.094693847 -0.029604118 0.41000003 4278596625
0.096025527 -0.029604118 0.41000003 4279517727
0.097594664 -0.029676324 0.41100001 4279782180
0.098929591 -0.029676324 0.41100001 4279980070
0.10026452 -0.029676324 0.41100001 4280111656
0.10184665 -0.029748529 0.41200003 4280570928
0.016306799 -0.026410174 0.38300002 4280630825
0.020091072 -0.026479129 0.384 4280759585
0.021338305 -0.026479129 0.384 4280693538
0.022585537 -0.026479129 0.384 4280298010
0.023770707 -0.026410174 0.38300002 4280363290
0.025014691 -0.026410174 0.38300002 4280889634
0.029912326 -0.026341219 0.38200003 4279776281
0.031153062 -0.026341219 0.38200003 4279385371
0.032393802 -0.026341219 0.38200003 4279254553
0.033634536 -0.026341219 0.38200003 4278795796
0.034875274 -0.026341219 0.38200003 4278862359
0.036116011 -0.026341219 0.38200003 4279258144
0.037356745 -0.026341219 0.38200003 4278929179
0.038597483 -0.026341219 0.38200003 4278732570
0.039942507 -0.026410174 0.38300002 4279258914
0.041186489 -0.026410174 0.38300002 4279062048
0.042541262 -0.026479129 0.384 4279062048
0.043902528 -0.026548086 0.38500002 4279325220
0.045153007 -0.026548086 0.38500002 4279127841
0.046524014 -0.026617041 0.38600001 4279193888
0.047777742 -0.026617041 0.38600001 4278996509
0.049158495 -0.026685998 0.38700002 4279061789
0.050415475 -0.026685998 0.38700002 4278995996
0.051805973 -0.026754953 0.38800001 4278201862
0.053066194 -0.026754953 0.38800001 4279453215
0.054466438 -0.02682391 0.38900003 4279585312
0.055873174 -0.026892865 0.39000002 4278200323
0.057432923 -0.027030777 0.39200002 4278657035
0.058855895 -0.027099732 0.39300001 4278853646
0.060285371 -0.027168689 0.39400002 4279049742
0.061565086 -0.027168689 0.39400002 4279181328
0.0630043 -0.027237644 0.39500001 4278655754
0.06428726 -0.027237644 0.39500001 4279116305
0.065736227 -0.027306603 0.39600003 4279379990
0.067022428 -0.027306603 0.39600003 4280630057
0.068481132 -0.027375558 0.39700001 4278724109
0.069770597 -0.027375558 0.39700001 4279912483
0.071239047 -0.027444515 0.39800003 4278726927
0.072531752 -0.027444515 0.39800003 4278789900
0.07400994 -0.027513471 0.39900002 4278921486
0.075494632 -0.027582426 0.40000001 4279318551
0.076985814 -0.027651383 0.40100002 4279254551
0.078288265 -0.027651383 0.40100002 4279649309
0.079987675 -0.027789295 0.40300003 4278200583
0.081498347 -0.02785825 0.40400001 4279517727
0.083015516 -0.027927207 0.40500003 4279847205
0.084539182 -0.027996162 0.40600002 4279912998
0.086069345 -0.028065117 0.40700001 4280176170
0.087605998 -0.028134074 0.40800002 4279451934
0.089149155 -0.028203029 0.40900001 4278200329
0.090698808 -0.028271988 0.41000003 4278199815
0.092030481 -0.028271988 0.41000003 4279055892
0.093362167 -0.028271988 0.41000003 4280963889
0.094693847 -0.028271988 0.41000003 4280899380
0.096259728 -0.028340943 0.41100001 4280110377
0.097594664 -0.028340943 0.41100001 4280176938
0.098929591 -0.028340943 0.41100001 4280176170
0.10026452 -0.028340943 0.41100001 4281948736
0.020143393 -0.025297182 0.38500002 4280298780
0.021393875 -0.025297182 0.38500002 4280890401
0.022644356 -0.025297182 0.38500002 4280495130
0.023894835 -0.025297182 0.38500002 4280560923
0.025080003 -0.025231473 0.384 4281482284
0.02999063 -0.025165766 0.38300002 4279710740
0.031234615 -0.025165766 0.38300002 4279451160
0.032478601 -0.025165766 0.38300002 4279057172
0.033722583 -0.025165766 0.38300002 4279058968
0.034966566 -0.025165766 0.38300002 4278664980
0.036210552 -0.025165766 0.38300002 4278929179
0.037454538 -0.025165766 0.38300002 4279126812
0.038698524 -0.025165766 0.38300002 4279126812
0.039942507 -0.025165766 0.38300002 4279259168
0.041186489 -0.025165766 0.38300002 4279193121
0.042541262 -0.025231473 0.384 4279127328
0.043788493 -0.025231473 0.384 4279127328
0.045153007 -0.025297182 0.38500002 4279061535
0.046524014 -0.025362886 0.38600001 4279127582
0.047777742 -0.025362886 0.38600001 4279456547
0.049158495 -0.025428595 0.38700002 4279192605
0.050415475 -0.025428595 0.38700002 4279257885
0.051672455 -0.025428595 0.38700002 4278197504
0.053066194 -0.025494302 0.38800001 4278728211
0.054466438 -0.02556001 0.38900003 4280570413
0.055873174 -0.025625715 0.39000002 4278526730
0.057286412 -0.025691424 0.39100003 4279050512
0.058706135 -0.02575713 0.39200002 4279905053
0.060132362 -0.025822837 0.39300001 4280300579
0.061565086 -0.025888544 0.39400002 4280103200
0.062844798 -0.025888544 0.39400002 4279380760
0.06428726 -0.02595425 0.39500001 4278525451
0.06557022 -0.02595425 0.39500001 4280170789
0.067022428 -0.026019959 0.39600003 4278920722
0.068308644 -0.026019959 0.39600003 4281159731
0.069770597 -0.026085664 0.39700001 4279845922
0.071060054 -0.026085664 0.39700001 4278657802
0.072531752 -0.026151372 0.39800003 4279051023
0.07400994 -0.026217079 0.39900002 4280436778
0.075305894 -0.026217079 0.39900002 4279977508
0.076793827 -0.026282785 0.40000001 4280043299
0.078288265 -0.026348492 0.40100002 4280438057
0.079987675 -0.026479907 0.40300003 4279780127
0.081498347 -0.026545614 0.40400001 4278398476
0.083015516 -0.026611321 0.40500003 4278198784
0.084539182 -0.026677027 0.40600002 4279121945
0.086069345 -0.026742734 0.40700001 4280240680
0.087820716 -0.026874147 0.40900001 4280306473
0.089149155 -0.026874147 0.40900001 4280175655
0.090698808 -0.026939856 0.41000003 4280241446
0.092030481 -0.026939856 0.41000003 4280241446
0.09358988 -0.027005563 0.41100001 4279846690
0.094924808 -0.027005563 0.41100001 4279714852
0.096259728 -0.027005563 0.41100001 4281095223
0.020248035 -0.024171194 0.38700002 4280562465
0.021449441 -0.024108734 0.38600001 4281021474
0.022703171 -0.024108734 0.38600001 4280626716
0.0239569 -0.024108734 0.38600001 4280758302
0.025145316 -0.024046278 0.38500002 4280824608
0.028821699 -0.023983818 0.384 4283789141
0.030068934 -0.023983818 0.384 4279580186
0.031316165 -0.023983818 0.384 4279319576
0.0325634 -0.023983818 0.384 4279189271
0.03381063 -0.023983818 0.384 4278927382
0.035057861 -0.023983818 0.384 4278862359
0.036210552 -0.023921361 0.38300002 4278994713
0.037454538 -0.023921361 0.38300002 4279061019
0.038698524 -0.023921361 0.38300002 4279258398
0.039942507 -0.023921361 0.38300002 4279587363
0.041294027 -0.023983818 0.384 4279193121
0.042541262 -0.023983818 0.384 4279258914
0.043902528 -0.024046278 0.38500002 4279127328
0.045153007 -0.024046278 0.38500002 4279127328
0.046524014 -0.024108734 0.38600001 4279193121
0.047777742 -0.024108734 0.38600001 4279061535
0.049158495 -0.024171194 0.38700002 4279258144
0.050415475 -0.024171194 0.38700002 4279783975
0.051672455 -0.024171194 0.38700002 4278198019
0.053066194 -0.02423365 0.38800001 4279912485
0.054466438 -0.024296109 0.38900003 4278856976
0.055873174 -0.024358567 0.39000002 4278986254
0.0571399 -0.024358567 0.39000002 4280235551
0.058556378 -0.024421025 0.39100003 4278327300
0.059979353 -0.024483481 0.39200002 4280170274
0.061408829 -0.02454594 0.39300001 4278920207
0.062844798 -0.024608398 0.39400002 4278787853
0.06412451 -0.024608398 0.39400002 4281025585
0.06557022 -0.024670856 0.39500001 4279448602
0.066853181 -0.024670856 0.39500001 4278657548
0.068308644 -0.024733314 0.39600003 4280240680
0.069594853 -0.024733314 0.39600003 4279847205
0.071060054 -0.024795771 0.39700001 4280303909
0.072531752 -0.024858231 0.39800003 4280764460
0.073824458 -0.024858231 0.39800003 4278331917
0.075305894 -0.024920687 0.39900002 4278198275
0.076793827 -0.024983143 0.40000001 4278199815
0.078288265 -0.025045604 0.40100002 4280174119
0.079789191 -0.02510806 0.40200001 4280701231
0.081498347 -0.025232976 0.40400001 4279912485
0.083015516 -0.025295435 0.40500003 4280110377
0.084539182 -0.025357893 0.40600002 4280110377
0.086069345 -0.025420349 0.40700001 4280044584
0.087820716 -0.025545266 0.40900001 4280241963
0.089367121 -0.025607724 0.41000003 4280110375
0.090698808 -0.025607724 0.41000003 4279780899
0.022761988 -0.022913791 0.38700002 4280034840
0.024018966 -0.022913791 0.38700002 4280955681
0.025210626 -0.022854581 0.38600001 4281416745
0.03014724 -0.022795374 0.38500002 4279778332
0.031397719 -0.022795374 0.38500002 4279320348
0.032648202 -0.022795374 0.38500002 4279123480
0.03381063 -0.022736164 0.384 4278927382
0.035057861 -0.022736164 0.384 4278862359
0.036305096 -0.022736164 0.384 4279257885
0.037552327 -0.022736164 0.384 4279257885
0.038799562 -0.022736164 0.384 4279389984
0.040046792 -0.022736164 0.384 4279323937
0.041294027 -0.022736164 0.384 4279323937
0.042541262 -0.022736164 0.384 4279323937
0.043902528 -0.022795374 0.38500002 4279060765
0.045153007 -0.022795374 0.38500002 4279323937
0.046524014 -0.022854581 0.38600001 4279323937
0.047777742 -0.022854581 0.38600001 4279323424
0.049158495 -0.022913791 0.38700002 4279192351
0.050415475 -0.022913791 0.38700002 4279389217
0.051805973 -0.022972999 0.38800001 4279648543
0.053066194 -0.022972999 0.38800001 4279715619
0.054466438 -0.023032209 0.38900003 4278197508
0.055729914 -0.023032209 0.38900003 4280432676
0.0571399 -0.023091417 0.39000002 4278458373
0.058556378 -0.023150627 0.39100003 4279314195
0.059979353 -0.023209834 0.39200002 4278919439
0.061408829 -0.023269042 0.39300001 4278853133
0.062685288 -0.023269042 0.39300001 4278984721
0.06412451 -0.023328252 0.39400002 4279115283
0.06557022 -0.02338746 0.39500001 4278985234
0.066853181 -0.02338746 0.39500001 4278591757
0.068308644 -0.02344667 0.39600003 4278989845
0.069594853 -0.02344667 0.39600003 4278595341
0.071060054 -0.023505878 0.39700001 4279844895
0.072349504 -0.023505878 0.39700001 4280832049
0.073824458 -0.023565087 0.39800003 4280175657
0.075305894 -0.023624295 0.39900002 4280109864
0.076793827 -0.023683503 0.40000001 4280044584
0.078288265 -0.023742713 0.40100002 4279782182
0.079789191 -0.023801921 0.40200001 4279913766
0.081296615 -0.023861131 0.40300003 4280045352
0.083015516 -0.023979548 0.40500003 4279913766
0.084539182 -0.024038756 0.40600002 4279715619
0.086069345 -0.024097964 0.40700001 4280962870
0.024018966 -0.021656388 0.38700002 4281154091
0.030225543 -0.021600427 0.38600001 4279581723
0.031479269 -0.021600427 0.38600001 4279320348
0.032648202 -0.02154447 0.38500002 4278926103
0.033898681 -0.02154447 0.38500002 4278796568
0.035149161 -0.02154447 0.38500002 4279257117
0.036305096 -0.021488508 0.384 4279257371
0.037552327 -0.021488508 0.384 4279257369
0.038799562 -0.021488508 0.384 4279389469
0.040046792 -0.021488508 0.384 4279389984
0.041294027 -0.021488508 0.384 4279389984
0.042652048 -0.02154447 0.38500002 4279389984
0.043902528 -0.02154447 0.38500002 4279324191
0.045270287 -0.021600427 0.38600001 4279324191
0.046524014 -0.021600427 0.38600001 4279389984
0.047901522 -0.021656388 0.38700002 4279258398
0.049158495 -0.021656388 0.38700002 4279257885
0.050415475 -0.021656388 0.38700002 4279320859
0.051805973 -0.021712348 0.38800001 4279911715
0.053066194 -0.021712348 0.38800001 4279519010
0.054466438 -0.021768307 0.38900003 4278458886
0.055873174 -0.021824267 0.39000002 4279312398
0.0571399 -0.021824267 0.39000002 4279180814
0.058556378 -0.021880228 0.39100003 4279180816
0.059979353 -0.021936186 0.39200002 4279181330
0.061408829 -0.021992145 0.39300001 4278720777
0.062685288 -0.021992145 0.39300001 4278393865
0.06412451 -0.022048106 0.39400002 4280171303
0.065404221 -0.022048106 0.39400002 4280700463
0.066853181 -0.022104066 0.39500001 4280240426
0.068136141 -0.022104066 0.39500001 4279912744
0.069594853 -0.022160025 0.39600003 4279846951
0.070881061 -0.022160025 0.39600003 4279782182
0.072349504 -0.022215985 0.39700001 4279979561
0.073824458 -0.022271946 0.39800003 4279650596
0.075305894 -0.022327904 0.39900002 4279979559
0.076793827 -0.022383863 0.40000001 4280111145
0.078288265 -0.022439824 0.40100002 4279782182
0.079789191 -0.022495782 0.40200001 4279912233
0.081296615 -0.022551743 0.40300003 4283069273
0.029046871 -0.020398986 0.38700002 4279842842
0.030225543 -0.020346273 0.38600001 4279581723
0.031479269 -0.020346273 0.38600001 4279058459
0.032733001 -0.020346273 0.38600001 4278861080
0.033986729 -0.020346273 0.38600001 4278795798
0.035149161 -0.020293564 0.38500002 4279059738
0.036399644 -0.020293564 0.38500002 4279520289
0.037650123 -0.020293564 0.38500002 4279323164
0.038900606 -0.020293564 0.38500002 4279586850
0.040151086 -0.020293564 0.38500002 4279586850
0.041401565 -0.020293564 0.38500002 4279258398
0.042652048 -0.020293564 0.38500002 4279192605
0.044016559 -0.020346273 0.38600001 4279324191
0.045270287 -0.020346273 0.38600001 4279389984
0.046644546 -0.020398986 0.38700002 4279324191
0.047901522 -0.020398986 0.38700002 4279521570
0.04928552 -0.020451695 0.38800001 4279519519
0.050545745 -0.020451695 0.38800001 4278199044
0.051805973 -0.020451695 0.38800001 4279780899
0.053202964 -0.020504406 0.38900003 4279715617
0.054466438 -0.020504406 0.38900003 4278196740
0.055873174 -0.020557117 0.39000002 4279249172
0.0571399 -0.020557117 0.39000002 4280105508
0.058556378 -0.020609828 0.39100003 4280764721
0.059979353 -0.020662537 0.39200002 4280372012
0.061252572 -0.020662537 0.39200002 4279715106
0.062685288 -0.020715248 0.39300001 4279979561
0.063961752 -0.020715248 0.39300001 4279650596
0.065404221 -0.020767959 0.39400002 4279716900
0.066683933 -0.020767959 0.39400002 4280045352
0.068136141 -0.020820668 0.39500001 4279848486
0.069419101 -0.020820668 0.39500001 4279914279
0.070881061 -0.020873381 0.39600003 4279914281
0.072349504 -0.02092609 0.39700001 4279979307
0.073638961 -0.02092609 0.39700001 4279780645
0.029046871 -0.019141583 0.38700002 4279844125
0.030303849 -0.019141583 0.38700002 4279648029
0.031560823 -0.019141583 0.38700002 4279058459
0.032733001 -0.01909212 0.38600001 4278795800
0.033986729 -0.01909212 0.38600001 4278928154
0.035240456 -0.01909212 0.38600001 4279257117
0.036494188 -0.01909212 0.38600001 4279257631
0.037650123 -0.01904266 0.38500002 4279126558
0.038900606 -0.01904266 0.38500002 4279521316
0.040151086 -0.01904266 0.38500002 4279258144
0.041401565 -0.01904266 0.38500002 4279323937
0.042762831 -0.01909212 0.38600001 4279456293
0.044016559 -0.01909212 0.38600001 4279193121
0.04538757 -0.019141583 0.38700002 4279389984
0.046644546 -0.019141583 0.38700002 4279323678
0.048025295 -0.019191043 0.38800001 4279586850
0.04928552 -0.019191043 0.38800001 4279519519
0.050545745 -0.019191043 0.38800001 4278991894
0.051805973 -0.019191043 0.38800001 4280241961
0.053202964 -0.019240506 0.38900003 4279716900
0.054466438 -0.019240506 0.38900003 4279716900
0.055873174 -0.019289967 0.39000002 4279387937
0.0571399 -0.019289967 0.39000002 4279914027
0.058556378 -0.019339429 0.39100003 4279716648
0.059979353 -0.01938889 0.39200002 4279849256
0.061252572 -0.01938889 0.39200002 4279586084
0.062685288 -0.019438351 0.39300001 4279783463
0.063961752 -0.019438351 0.39300001 4279717670
0.065404221 -0.019487813 0.39400002 4279913766
0.066683933 -0.019487813 0.39400002 4280176168
0.067963645 -0.019487813 0.39400002 4280372012
0.029046871 -0.01788418 0.38700002 4279647264
0.030303849 -0.01788418 0.38700002 4279385887
0.031560823 -0.01788418 0.38700002 4279124252
0.032817803 -0.01788418 0.38700002 4278796570
0.033986729 -0.017837968 0.38600001 4278993947
0.035240456 -0.017837968 0.38600001 4279257631
0.036494188 -0.017837968 0.38600001 4279126558
0.037747912 -0.017837968 0.38600001 4279061535
0.039001644 -0.017837968 0.38600001 4279456293
0.040255371 -0.017837968 0.38600001 4279456547
0.041509099 -0.017837968 0.38600001 4279193375
0.042762831 -0.017837968 0.38600001 4279193375
0.04413059 -0.01788418 0.38700002 4279258914
0.04538757 -0.01788418 0.38700002 4279390500
0.046765074 -0.017930392 0.38800001 4279521570
0.048025295 -0.017930392 0.38800001 4279323678
0.04928552 -0.017930392 0.38800001 4278203661
0.050545745 -0.017930392 0.38800001 4279321629
0.051939495 -0.017976604 0.38900003 4280045867
0.053202964 -0.017976604 0.38900003 4279520291
0.054466438 -0.017976604 0.38900003 4279520291
0.055873174 -0.018022817 0.39000002 4279849256
0.057286412 -0.018069031 0.39100003 4279586086
0.058556378 -0.018069031 0.39100003 4279520293
0.059979353 -0.018115241 0.39200002 4279190045
0.061252572 -0.018115241 0.39200002 4279846951
0.062685288 -0.018161453 0.39300001 4281818692
0.030303849 -0.016626777 0.38700002 4279252506
0.031560823 -0.016626777 0.38700002 4279058459
0.032817803 -0.016626777 0.38700002 4278927386
0.03407478 -0.016626777 0.38700002 4278731287
0.035331756 -0.016626777 0.38700002 4279323424
0.036494188 -0.016583813 0.38600001 4279323937
0.037747912 -0.016583813 0.38600001 4279587363
0.039001644 -0.016583813 0.38600001 4279324191
0.040255371 -0.016583813 0.38600001 4279193375
0.041509099 -0.016583813 0.38600001 4279390754
0.042873617 -0.016626777 0.38700002 4279456547
0.04413059 -0.016626777 0.38700002 4279127328
0.04538757 -0.016626777 0.38700002 4279193121
0.046765074 -0.016669741 0.38800001 4279259168
0.048025295 -0.016669741 0.38800001 4279389984
0.04928552 -0.016669741 0.38800001 4279717922
0.050676022 -0.016712705 0.38900003 4279520289
0.051939495 -0.016712705 0.38900003 4279914279
0.053202964 -0.016712705 0.38900003 4279651109
0.054606453 -0.016755667 0.39000002 4279386402
0.055873174 -0.016755667 0.39000002 4281424448
0.031560823 -0.015369375 0.38700002 4279843871
0.032817803 -0.015369375 0.38700002 4279516703
0.03407478 -0.015369375 0.38700002 4279387935
0.035331756 -0.015369375 0.38700002 4279388703
0.036588732 -0.015369375 0.38700002 4279257631
0.037747912 -0.015329661 0.38600001 4279587363
0.039001644 -0.015329661 0.38600001 4279587363
0.040255371 -0.015329661 0.38600001 4279521570
0.041616637 -0.015369375 0.38700002 4279389984
0.042873617 -0.015369375 0.38700002 4279587363
0.04413059 -0.015369375 0.38700002 4279652389
0.045504849 -0.01540909 0.38800001 4279718182
0.046765074 -0.01540909 0.38800001 4279717670
0.048025295 -0.01540909 0.38800001 4279781410
0.04928552 -0.01540909 0.38800001 4281818946
0.035331756 -0.014111971 0.38700002 4279056152
0.036588732 -0.014111971 0.38700002 4279980074
0.037845708 -0.014111971 0.38700002 4279915051
0.039102685 -0.014111971 0.38700002 4279652393
0.040359661 -0.014111971 0.38700002 4279126049
0.041616637 -0.014111971 0.38700002 4279649824
0.042873617 -0.014111971 0.38700002 4281227323
0.04413059 -0.014111971 0.38700002 4284054371
0.05889646 -0.028647402 0.39438295 4294967295
0.05889646 -0.028647402 0.39438295 4294901760
0.058814 -0.029136535 0.39444581 4294901760
0.058731545 -0.029625669 0.39450863 4294901760
0.058649085 -0.030114802 0.39457148 4294901760
0.05856663 -0.030603936 0.39463434 4294901760
0.058484171 -0.031093068 0.39469719 4294901760
0.058401715 -0.031582203 0.39476001 4294901760
0.058319256 -0.032071337 0.39482287 4294901760
0.0582368 -0.032560468 0.39488572 4294901760
0.058154341 -0.033049602 0.39494854 4294901760
0.058071882 -0.033538736 0.3950114 4294901760
0.057989426 -0.034027867 0.39507425 4294901760
0.057906967 -0.034517001 0.3951371 4294901760
0.057824511 -0.035006136 0.39519992 4294901760
0.057742052 -0.03549527 0.39526278 4294901760
0.057659596 -0.035984401 0.39532563 4294901760
0.057577137 -0.036473535 0.39538845 4294901760
0.057494681 -0.036962669 0.39545131 4294901760
0.057412222 -0.037451804 0.39551416 4294901760
0.057329766 -0.037940934 0.39557698 4294901760
0.057247307 -0.038430069 0.39563984 4294901760
0.057164848 -0.038919203 0.39570269 4294901760
0.057082392 -0.039408334 0.39576554 4294901760
0.056999933 -0.039897468 0.39582837 4294901760
0.056917477 -0.040386602 0.39589122 4294901760
0.056835018 -0.040875733 0.39595407 4294901760
0.056752563 -0.041364867 0.3960169 4294901760
0.056670103 -0.041854002 0.39607975 4294901760
0.056587648 -0.042343136 0.3961426 4294901760
0.056505188 -0.042832267 0.39620546 4294901760
0.056422733 -0.043321401 0.39626828 4294901760
0.056340273 -0.043810535 0.39633113 4294901760
0.056257814 -0.04429967 0.39639398 4294901760
0.056175359 -0.0447888 0.39645681 4294901760
0.056092899 -0.045277935 0.39651966 4294901760
0.056010444 -0.045767069 0.39658251 4294901760
0.055927984 -0.046256199 0.39664537 4294901760
0.055845529 -0.046745334 0.39670819 4294901760
0.05576307 -0.047234468 0.39677104 4294901760
0.055680614 -0.047723599 0.3968339 4294901760
0.055598155 -0.048212737 0.39689672 4294901760
0.055515695 -0.048701867 0.39695957 4294901760
0.05543324 -0.049190998 0.39702243 4294901760
0.05535078 -0.049680136 0.39708528 4294901760
0.055268325 -0.050169267 0.3971481 4294901760
0.055185866 -0.050658397 0.39721096 4294901760
0.05510341 -0.051147535 0.39727381 4294901760
0.055020951 -0.051636666 0.39733663 4294901760
0.054938495 -0.0521258 0.39739949 4294901760
0.054856036 -0.052614935 0.39746234 4294901760
0.054773577 -0.053104065 0.39752519 4294901760
0.054691121 -0.0535932 0.39758801 4294901760
0.054608665 -0.054082334 0.39765087 4294901760
0.054526206 -0.054571465 0.39771372 4294901760
0.054443747 -0.055060603 0.39777654 4294901760
0.054361291 -0.055549733 0.3978394 4294901760
0.054278832 -0.056038868 0.39790225 4294901760
0.054196376 -0.056528002 0.39796507 4294901760
0.054113917 -0.057017133 0.39802793 4294901760
0.054031461 -0.057506263 0.39809078 4294901760
0.053949002 -0.057995401 0.39815363 4294901760
0.053866543 -0.058484532 0.39821646 4294901760
0.053784087 -0.058973666 0.39827931 4294901760
0.053701628 -0.059462801 0.39834216 4294901760
0.053619172 -0.059951931 0.39840499 4294901760
0.053536713 -0.060441062 0.39846784 4294901760
0.053454258 -0.0609302 0.39853069 4294901760
0.053371798 -0.061419331 0.39859354 4294901760
0.053289343 -0.061908469 0.39865637 4294901760
0.053206883 -0.062397599 0.39871922 4294901760
0.053124428 -0.06288673 0.39878207 4294901760
0.053041968 -0.063375868 0.3988449 4294901760
0.052959509 -0.063864999 0.39890775 4294901760
0.052877054 -0.064354137 0.3989706 4294901760
0.052794594 -0.064843267 0.39903346 4294901760
0.052712139 -0.065332398 0.39909628 4294901760
0.052629679 -0.065821536 0.39915913 4294901760
0.052547224 -0.066310667 0.39922199 4294901760
0.052464765 -0.066799797 0.39928481 4294901760
0.052382305 -0.067288935 0.39934766 4294901760
0.05229985 -0.067778066 0.39941052 4294901760
0.052217394 -0.068267196 0.39947337 4294901760
0.052134935 -0.068756334 0.39953619 4294901760
0.052052476 -0.069245465 0.39959905 4294901760
0.05197002 -0.069734596 0.3996619 4294901760
0.051887561 -0.070223734 0.39972472 4294901760
0.051805105 -0.070712864 0.39978758 4294901760
0.051722646 -0.071202002 0.39985043 4294901760
0.05164019 -0.071691133 0.39991325 4294901760
0.051557731 -0.072180264 0.3999761 4294901760
0.051475272 -0.072669394 0.40003896 4294901760
0.051392816 -0.073158532 0.40010181 4294901760
0.051310357 -0.073647663 0.40016463 4294901760
0.051227901 -0.074136801 0.40022749 4294901760
0.051145442 -0.074625932 0.40029034 4294901760
0.051062986 -0.075115062 0.40035316 4294901760
0.050980527 -0.0756042 0.40041602 4294901760
0.050898068 -0.076093331 0.40047887 4294901760
0.050815612 -0.076582469 0.40054172 4294901760
0.050733157 -0.0770716 0.40060455 4294901760
0.050650697 -0.07756073 0.4006674 4294901760
0.05889646 -0.028647402 0.39438295 4278255360
0.059353597 -0.028699312 0.39457873 4278255360
0.059810735 -0.028751221 0.39477453 4278255360
0.060267869 -0.028803131 0.3949703 4278255360
0.060725007 -0.028855039 0.3951661 4278255360
0.061182145 -0.028906949 0.39536187 4278255360
0.061639283 -0.028958857 0.39555767 4278255360
0.062096417 -0.029010767 0.39575344 4278255360
0.062553555 -0.029062675 0.39594921 4278255360
0.063010693 -0.029114585 0.39614502 4278255360
0.06346783 -0.029166494 0.39634079 4278255360
0.063924968 -0.029218404 0.39653659 4278255360
0.064382106 -0.029270312 0.39673236 4278255360
0.064839236 -0.029322222 0.39692813 4278255360
0.065296374 -0.02937413 0.39712393 4278255360
0.065753512 -0.02942604 0.3973197 4278255360
0.06621065 -0.029477948 0.39751551 4278255360
0.066667788 -0.029529858 0.39771128 4278255360
0.067124926 -0.029581767 0.39790708 4278255360
0.067582063 -0.029633677 0.39810285 4278255360
0.068039201 -0.029685585 0.39829862 4278255360
0.068496332 -0.029737495 0.39849442 4278255360
0.068953469 -0.029789403 0.39869019 4278255360
0.069410607 -0.029841313 0.398886 4278255360
0.069867745 -0.029893221 0.39908177 4278255360
0.070324883 -0.029945131 0.39927757 4278255360
0.070782021 -0.02999704 0.39947334 4278255360
0.071239159 -0.03004895 0.39966911 4278255360
0.071696296 -0.030100858 0.39986491 4278255360
0.072153434 -0.030152768 0.40006068 4278255360
0.072610572 -0.030204676 0.40025648 4278255360
0.073067702 -0.030256586 0.40045226 4278255360
0.07352484 -0.030308494 0.40064803 4278255360
0.073981978 -0.030360404 0.40084383 4278255360
0.074439116 -0.030412313 0.4010396 4278255360
0.074896254 -0.030464223 0.4012354 4278255360
0.075353391 -0.030516131 0.40143117 4278255360
0.075810522 -0.030568041 0.40162697 4278255360
0.07626766 -0.030619949 0.40182275 4278255360
0.076724797 -0.030671859 0.40201852 4278255360
0.077181935 -0.030723767 0.40221432 4278255360
0.077639073 -0.030775677 0.40241009 4278255360
0.078096211 -0.030827586 0.40260589 4278255360
0.078553349 -0.030879496 0.40280166 4278255360
0.079010487 -0.030931404 0.40299743 4278255360
0.079467624 -0.030983314 0.40319324 4278255360
0.079924762 -0.031035222 0.40338901 4278255360
0.080381893 -0.031087132 0.40358481 4278255360
0.08083903 -0.031139042 0.40378058 4278255360
0.081296168 -0.03119095 0.40397638 4278255360
0.081753306 -0.031242859 0.40417215 4278255360
0.082210444 -0.031294771 0.40436792 4278255360
0.082667582 -0.031346679 0.40456372 4278255360
0.083124712 -0.031398587 0.4047595 4278255360
0.083581857 -0.031450495 0.4049553 4278255360
0.084038988 -0.031502407 0.40515107 4278255360
0.084496126 -0.031554315 0.40534687 4278255360
0.084953263 -0.031606223 0.40554264 4278255360
0.085410401 -0.031658132 0.40573841 4278255360
0.085867539 -0.031710044 0.40593421 4278255360
0.086324677 -0.031761952 0.40612999 4278255360
0.086781815 -0.03181386 0.40632579 4278255360
0.087238953 -0.031865768 0.40652156 4278255360
0.08769609 -0.03191768 0.40671733 4278255360
0.088153221 -0.031969588 0.40691313 4278255360
0.088610359 -0.032021496 0.4071089 4278255360
0.089067496 -0.032073405 0.4073047 4278255360
0.089524634 -0.032125317 0.40750048 4278255360
0.089981772 -0.032177225 0.40769628 4278255360
0.090438902 -0.032229133 0.40789205 4278255360
0.09089604 -0.032281041 0.40808782 4278255360
0.091353178 -0.032332953 0.40828362 4278255360
0.091810316 -0.032384861 0.40847939 4278255360
0.092267454 -0.032436769 0.40867519 4278255360
0.092724591 -0.032488678 0.40887097 4278255360
0.093181729 -0.03254059 0.40906674 4278255360
0.093638867 -0.032592498 0.40926254 4278255360
0.094096005 -0.032644406 0.40945831 4278255360
0.094553143 -0.032696314 0.40965411 4278255360
0.095010281 -0.032748226 0.40984988 4278255360
0.095467418 -0.032800134 0.41004568 4278255360
0.095924556 -0.032852042 0.41024145 4278255360
0.096381687 -0.032903951 0.41043723 4278255360
0.096838824 -0.032955863 0.41063303 4278255360
0.097295962 -0.033007771 0.4108288 4278255360
0.0977531 -0.033059679 0.4110246 4278255360
0.098210238 -0.033111587 0.41122037 4278255360
0.098667368 -0.033163499 0.41141617 4278255360
0.099124506 -0.033215407 0.41161194 4278255360
0.099581644 -0.033267315 0.41180772 4278255360
0.10003878 -0.033319224 0.41200352 4278255360
0.10049592 -0.033371136 0.41219929 4278255360
0.10095306 -0.033423044 0.41239509 4278255360
0.1014102 -0.033474952 0.41259086 4278255360
0.10186733 -0.03352686 0.41278666 4278255360
0.10232447 -0.033578772 0.41298243 4278255360
0.10278161 -0.03363068 0.41317821 4278255360
0.10323875 -0.033682588 0.41337401 4278255360
0.10369588 -0.0337345 0.41356978 4278255360
0.10415301 -0.033786409 0.41376558 4278255360
0.10461015 -0.033838317 0.41396135 4278255360
0.05889646 -0.028647402 0.39438295 4278190335
0.058688451 -0.028555134 0.39482817 4278190335
0.058480442 -0.028462866 0.39527339 4278190335
0.058272433 -0.028370598 0.3957186 4278190335
0.058064424 -0.02827833 0.39616382 4278190335
0.057856414 -0.028186062 0.39660904 4278190335
0.057648405 -0.028093794 0.39705426 4278190335
0.057440396 -0.028001526 0.39749947 4278190335
0.057232387 -0.027909258 0.39794469 4278190335
0.057024382 -0.02781699 0.39838991 4278190335
0.056816373 -0.027724721 0.39883512 4278190335
0.056608364 -0.027632453 0.39928034 4278190335
0.056400355 -0.027540185 0.39972556 4278190335
0.056192346 -0.027447917 0.40017077 4278190335
0.055984337 -0.027355649 0.40061599 4278190335
0.055776328 -0.027263381 0.40106121 4278190335
0.055568319 -0.027171113 0.40150642 4278190335
0.05536031 -0.027078845 0.40195167 4278190335
0.055152301 -0.026986577 0.40239689 4278190335
0.054944292 -0.026894309 0.4028421 4278190335
0.054736283 -0.026802041 0.40328732 4278190335
0.054528274 -0.026709773 0.40373254 4278190335
0.054320265 -0.026617505 0.40417776 4278190335
0.054112256 -0.026525237 0.40462297 4278190335
0.05390425 -0.026432969 0.40506819 4278190335
0.053696238 -0.026340701 0.40551341 4278190335
0.053488232 -0.026248433 0.40595862 4278190335
0.053280219 -0.026156165 0.40640384 4278190335
0.053072214 -0.026063897 0.40684906 4278190335
0.052864205 -0.025971629 0.40729427 4278190335
0.052656196 -0.025879361 0.40773949 4278190335
0.052448187 -0.025787093 0.40818471 4278190335
0.052240178 -0.025694823 0.40862992 4278190335
0.052032169 -0.025602555 0.40907514 4278190335
0.05182416 -0.025510287 0.40952036 4278190335
0.051616151 -0.025418019 0.40996557 4278190335
0.051408142 -0.025325751 0.41041079 4278190335
0.051200133 -0.025233483 0.41085601 4278190335
0.050992124 -0.025141215 0.41130123 4278190335
0.050784118 -0.025048947 0.41174644 4278190335
