# .PCD v0.7 - Point Cloud Data file format
VERSION 0.7
FIELDS x y z rgb
SIZE 4 4 4 4
TYPE F F F U
COUNT 1 1 1 1
WIDTH 1059
HEIGHT 1
VIEWPOINT 0 0 0 1 0 0 0
POINTS 1059
DATA ascii
0.069865167 0.02261851 0.35200003 4278664212
0.070806727 0.02255425 0.35100001 4278532626
0.071946777 0.02255425 0.35100001 4278335247
0.073086828 0.02255425 0.35100001 4278664212
0.074226879 0.02255425 0.35100001 4278401810
0.075366922 0.02255425 0.35100001 4278204174
0.076506972 0.02255425 0.35100001 4278204431
0.077647023 0.02255425 0.35100001 4278336017
0.07856261 0.022489995 0.35000002 4278401810
0.079699412 0.022489995 0.35000002 4278401810
0.080836214 0.022489995 0.35000002 4278599187
0.081973009 0.022489995 0.35000002 4278402322
0.083109811 0.022489995 0.35000002 4278468115
0.084246613 0.022489995 0.35000002 4278468117
0.085383408 0.022489995 0.35000002 4278336531
0.08652021 0.022489995 0.35000002 4278731289
0.087657012 0.022489995 0.35000002 4278664980
0.088793814 0.022489995 0.35000002 4278664980
0.089930616 0.022489995 0.35000002 4278928152
0.091067418 0.022489995 0.35000002 4278862359
0.092467658 0.02255425 0.35100001 4278796568
0.093607709 0.02255425 0.35100001 4278928152
0.094747759 0.02255425 0.35100001 4278796566
0.096160986 0.02261851 0.35200003 4278928152
0.097304285 0.02261851 0.35200003 4278862359
0.098447584 0.02261851 0.35200003 4278993945
0.099590883 0.02261851 0.35200003 4278993945
0.050545976 0.024369748 0.36100003 4279056152
0.05157524 0.024302242 0.36000001 4278858773
0.052744523 0.024302242 0.36000001 4278532115
0.053913798 0.024302242 0.36000001 4278729494
0.055083081 0.024302242 0.36000001 4278729494
0.056252364 0.024302242 0.36000001 4278992666
0.05742164 0.024302242 0.36000001 4278993177
0.058590923 0.024302242 0.36000001 4279124763
0.059594207 0.024234736 0.35900003 4278927384
0.060590982 0.024167228 0.35800001 4278795798
0.061581276 0.024099724 0.35700002 4278664212
0.062565066 0.024032217 0.35600001 4278927384
0.063721359 0.024032217 0.35600001 4278795798
0.064695403 0.023964711 0.35500002 4278730005
0.06566295 0.023897203 0.354 4278663699
0.066812746 0.023897203 0.354 4278662931
0.067770556 0.023829699 0.35300002 4278266122
0.068917103 0.023829699 0.35300002 4278199815
0.069865167 0.023762193 0.35200003 4278729494
0.071008459 0.023762193 0.35200003 4278729494
0.072151758 0.023762193 0.35200003 4278795285
0.073086828 0.023694685 0.35100001 4278730005
0.074226879 0.023694685 0.35100001 4278730005
0.075366922 0.023694685 0.35100001 4278466833
0.076506972 0.023694685 0.35100001 4278663699
0.077647023 0.023694685 0.35100001 4278729492
0.078787073 0.023694685 0.35100001 4278861078
0.079927124 0.023694685 0.35100001 4278532113
0.080836214 0.023627181 0.35000002 4278663697
0.081973009 0.023627181 0.35000002 4278597904
0.083109811 0.023627181 0.35000002 4278268941
0.084246613 0.023627181 0.35000002 4278466833
0.085383408 0.023627181 0.35000002 4278466833
0.08652021 0.023627181 0.35000002 4278466833
0.087657012 0.023627181 0.35000002 4278532624
0.088793814 0.023627181 0.35000002 4278598417
0.089930616 0.023627181 0.35000002 4278401808
0.091327608 0.023694685 0.35100001 4278599187
0.092467658 0.023694685 0.35100001 4278796566
0.093607709 0.023694685 0.35100001 4278664980
0.095017701 0.023762193 0.35200003 4278796566
0.096160986 0.023762193 0.35200003 4278928152
0.097304285 0.023762193 0.35200003 4278928152
0.098447584 0.023762193 0.35200003 4278928152
0.099590883 0.023762193 0.35200003 4278928154
0.10073418 0.023762193 0.35200003 4278862361
0.049236674 0.025471918 0.36000001 4279317529
0.050545976 0.025542675 0.36100003 4278990359
0.051718507 0.025542675 0.36100003 4278595601
0.052891035 0.025542675 0.36100003 4278333966
0.054063562 0.025542675 0.36100003 4279123482
0.05523609 0.025542675 0.36100003 4278992666
0.056408621 0.025542675 0.36100003 4278992666
0.057581145 0.025542675 0.36100003 4279124250
0.058590923 0.025471918 0.36000001 4279058457
0.059760205 0.025471918 0.36000001 4278795285
0.060760234 0.025401164 0.35900003 4278729492
0.061753768 0.025330408 0.35800001 4278729492
0.06274081 0.025259653 0.35700002 4278729492
0.063721359 0.025188897 0.35600001 4278795285
0.064695403 0.025118142 0.35500002 4278795285
0.06566295 0.025047386 0.354 4278729494
0.066812746 0.025047386 0.354 4278925590
0.067962535 0.025047386 0.354 4278396427
0.068917103 0.024976632 0.35300002 4278461453
0.070063643 0.024976632 0.35300002 4278859543
0.071210191 0.024976632 0.35300002 4278794517
0.072151758 0.024905877 0.35200003 4278728724
0.073295057 0.024905877 0.35200003 4278728724
0.074438356 0.024905877 0.35200003 4278860310
0.075581647 0.024905877 0.35200003 4278794517
0.076724946 0.024905877 0.35200003 4278926103
0.077868246 0.024905877 0.35200003 4278662929
0.078787073 0.024835119 0.35100001 4278794515
0.079927124 0.024835119 0.35100001 4278794515
0.081067167 0.024835119 0.35100001 4278794515
0.082207218 0.024835119 0.35100001 4278991894
0.083347268 0.024835119 0.35100001 4278795285
0.084487319 0.024835119 0.35100001 4278795285
0.085627362 0.024835119 0.35100001 4278597906
0.086767413 0.024835119 0.35100001 4278795285
0.087907456 0.024835119 0.35100001 4278729494
0.089047506 0.024835119 0.35100001 4278795287
0.090187557 0.024835119 0.35100001 4278795287
0.091327608 0.024835119 0.35100001 4278597908
0.092467658 0.024835119 0.35100001 4278532115
0.093874402 0.024905877 0.35200003 4278532115
0.095017701 0.024905877 0.35200003 4278400529
0.096160986 0.024905877 0.35200003 4278597906
0.097304285 0.024905877 0.35200003 4278663699
0.098447584 0.024905877 0.35200003 4278795285
0.099590883 0.024905877 0.35200003 4278466833
0.10073418 0.024905877 0.35200003 4278927384
0.10187748 0.024905877 0.35200003 4278927384
0.050685991 0.026789604 0.36200002 4278924566
0.05186177 0.026789604 0.36200002 4278727441
0.053037547 0.026789604 0.36200002 4278531345
0.054213319 0.026789604 0.36200002 4278532115
0.055389099 0.026789604 0.36200002 4278861080
0.056564875 0.026789604 0.36200002 4279058459
0.057740647 0.026789604 0.36200002 4279124250
0.058753677 0.026715601 0.36100003 4278992664
0.059760205 0.026641594 0.36000001 4278795285
0.060929481 0.026641594 0.36000001 4278795285
0.061753768 0.026493585 0.35800001 4278795285
0.06274081 0.026419582 0.35700002 4278795285
0.063721359 0.026345577 0.35600001 4278729492
0.064695403 0.026271572 0.35500002 4278729492
0.065848447 0.026271572 0.35500002 4278860308
0.066812746 0.026197568 0.354 4279056152
0.067962535 0.026197568 0.354 4278195456
0.069112331 0.026197568 0.354 4279317275
0.070063643 0.026123563 0.35300002 4278990613
0.071210191 0.026123563 0.35300002 4278794004
0.072356731 0.026123563 0.35300002 4278196994
0.073503278 0.026123563 0.35300002 4278196224
0.074649826 0.026123563 0.35300002 4278196742
0.075796366 0.026123563 0.35300002 4278461453
0.076942913 0.026123563 0.35300002 4278856978
0.077868246 0.02604956 0.35200003 4279318299
0.079011537 0.02604956 0.35200003 4279055640
0.080154836 0.02604956 0.35200003 4279187224
0.081298135 0.02604956 0.35200003 4278794004
0.082441427 0.02604956 0.35200003 4278860310
0.083347268 0.025975555 0.35100001 4279123482
0.084487319 0.025975555 0.35100001 4278991894
0.085627362 0.025975555 0.35100001 4278794515
0.086767413 0.025975555 0.35100001 4278926101
0.087907456 0.025975555 0.35100001 4278991896
0.089047506 0.025975555 0.35100001 4278926103
0.090187557 0.025975555 0.35100001 4278663701
0.091587804 0.02604956 0.35200003 4278861080
0.092731103 0.02604956 0.35200003 4278992666
0.093874402 0.02604956 0.35200003 4278729494
0.095017701 0.02604956 0.35200003 4278663701
0.096434169 0.026123563 0.35300002 4278861080
0.097580716 0.026123563 0.35300002 4278860308
0.098727256 0.026123563 0.35300002 4278926101
0.099873804 0.026123563 0.35300002 4278860308
0.10102035 0.026123563 0.35300002 4278860308
0.10187748 0.02604956 0.35200003 4278728722
0.10302076 0.02604956 0.35200003 4278860308
0.10416406 0.02604956 0.35200003 4278598419
0.10500818 0.025975555 0.35100001 4278466833
0.10645066 0.02604956 0.35200003 4278664212
0.11459805 0.026345577 0.35600001 4279059738
0.11575434 0.026345577 0.35600001 4278928152
0.11658224 0.026271572 0.35500002 4278993945
0.11773527 0.026271572 0.35500002 4278928152
0.11888831 0.026271572 0.35500002 4278993175
0.12004135 0.026271572 0.35500002 4279058968
0.12119439 0.026271572 0.35500002 4279124248
0.12234744 0.026271572 0.35500002 4279255834
0.12384836 0.026345577 0.35600001 4279058455
0.12500465 0.026345577 0.35600001 4279255834
0.12616093 0.026345577 0.35600001 4279715104
0.049646977 0.028043032 0.36300001 4279253017
0.050685991 0.027965778 0.36200002 4278858773
0.05186177 0.027965778 0.36200002 4278530832
0.053184059 0.028043032 0.36300001 4278728722
0.054363079 0.028043032 0.36300001 4278861076
0.055542104 0.028043032 0.36300001 4278861076
0.056721132 0.028043032 0.36300001 4279190041
0.057740647 0.027965778 0.36200002 4279058457
0.058916427 0.027965778 0.36200002 4278992664
0.059926208 0.027888525 0.36100003 4278795285
0.060929481 0.027811272 0.36000001 4278795285
0.061926268 0.027734019 0.35900003 4278992664
0.062916555 0.027656764 0.35800001 4278992664
0.063900352 0.027579511 0.35700002 4278860308
0.064877644 0.027502256 0.35600001 4278860308
0.065848447 0.027425004 0.35500002 4278728211
0.067001484 0.027425004 0.35500002 4278791955
0.068154521 0.027425004 0.35500002 4278458888
0.069112331 0.027347749 0.354 4279119637
0.070262127 0.027347749 0.354 4279055638
0.071411915 0.027347749 0.354 4278196480
0.072561711 0.027347749 0.354 4278654472
0.0737115 0.027347749 0.354 4278522886
0.074861296 0.027347749 0.354 4278719498
0.075796366 0.027270496 0.35300002 4278785291
0.076942913 0.027270496 0.35300002 4278719752
0.078089461 0.027270496 0.35300002 4278654472
0.079236001 0.027270496 0.35300002 4278523400
0.080382548 0.027270496 0.35300002 4278523400
0.081529096 0.027270496 0.35300002 4278260996
0.082441427 0.027193245 0.35200003 4278195203
0.083584726 0.027193245 0.35200003 4278195972
0.084728025 0.027193245 0.35200003 4278262792
0.085871316 0.027193245 0.35200003 4278329867
0.087014616 0.027193245 0.35200003 4278858259
0.088157907 0.027193245 0.35200003 4278924566
0.089301206 0.027193245 0.35200003 4279253017
0.090444505 0.027193245 0.35200003 4279121947
0.091587804 0.027193245 0.35200003 4279319324
0.092731103 0.027193245 0.35200003 4279187992
0.094141088 0.027270496 0.35300002 4278990613
0.095287628 0.027270496 0.35300002 4279122199
0.096434169 0.027270496 0.35300002 4279056406
0.097580716 0.027270496 0.35300002 4278991383
0.098727256 0.027270496 0.35300002 4278991383
0.099873804 0.027270496 0.35300002 4278925590
0.10102035 0.027270496 0.35300002 4278991381
0.10187748 0.027193245 0.35200003 4279056404
0.10331343 0.027270496 0.35300002 4279319576
0.10416406 0.027193245 0.35200003 4278991381
0.10500818 0.027115989 0.35100001 4278925588
0.10645066 0.027193245 0.35200003 4278728722
0.10789962 0.027270496 0.35300002 4278795285
0.10904616 0.027270496 0.35300002 4278597906
0.11197007 0.027425004 0.35500002 4278400527
0.11344176 0.027502256 0.35600001 4278861076
0.11459805 0.027502256 0.35600001 4278729490
0.11575434 0.027502256 0.35600001 4278795283
0.11658224 0.027425004 0.35500002 4278927382
0.11773527 0.027425004 0.35500002 4278993175
0.11888831 0.027425004 0.35500002 4279124761
0.12004135 0.027425004 0.35500002 4279190808
0.12119439 0.027425004 0.35500002 4279255834
0.12234744 0.027425004 0.35500002 4279124248
0.12384836 0.027502256 0.35600001 4279058455
0.12500465 0.027502256 0.35600001 4279058968
0.12616093 0.027502256 0.35600001 4279124248
0.12767486 0.027579511 0.35700002 4279058455
0.1288344 0.027579511 0.35700002 4279320857
0.12999393 0.027579511 0.35700002 4279452445
0.049783751 0.029302958 0.36400002 4279121947
0.050826006 0.029222455 0.36300001 4278661394
0.05200503 0.029222455 0.36300001 4278464785
0.053184059 0.029222455 0.36300001 4279123478
0.054363079 0.029222455 0.36300001 4278729490
0.055542104 0.029222455 0.36300001 4278861076
0.056721132 0.029222455 0.36300001 4279058455
0.057900153 0.029222455 0.36300001 4279058457
0.059079178 0.029222455 0.36300001 4278861078
0.060092207 0.029141953 0.36200002 4278861078
0.061098732 0.029061452 0.36100003 4278861080
0.062098764 0.028980948 0.36000001 4278663701
0.062916555 0.028819943 0.35800001 4278991896
0.063900352 0.028739441 0.35700002 4278860310
0.065059885 0.028739441 0.35700002 4278794004
0.06603393 0.028658936 0.35600001 4278990613
0.067190222 0.028658936 0.35600001 4278659084
0.068154521 0.028578434 0.35500002 4278789134
0.069307566 0.028578434 0.35500002 4279186713
0.07046061 0.028578434 0.35500002 4278858261
0.071613647 0.028578434 0.35500002 4278195715
0.072561711 0.028497931 0.354 4278917131
0.0737115 0.028497931 0.354 4279180303
0.074861296 0.028497931 0.354 4278982924
0.076011084 0.028497931 0.354 4278917131
0.07716088 0.028497931 0.354 4278982924
0.078310676 0.028497931 0.354 4278851084
0.079460464 0.028497931 0.354 4278851338
0.080610253 0.028497931 0.354 4278719752
0.081529096 0.028417429 0.35300002 4278916361
0.082675636 0.028417429 0.35300002 4278785291
0.083822183 0.028417429 0.35300002 4278718728
0.084968723 0.028417429 0.35300002 4278785291
0.086115263 0.028417429 0.35300002 4278458123
0.087261811 0.028417429 0.35300002 4279974692
0.088408351 0.028417429 0.35300002 4280107045
0.089554898 0.028417429 0.35300002 4279185943
0.090701446 0.028417429 0.35300002 4278922004
0.091847993 0.028417429 0.35300002 4278197510
0.092994541 0.028417429 0.35300002 4278195968
0.094141088 0.028417429 0.35300002 4278194688
0.095287628 0.028417429 0.35300002 4278195456
0.096707352 0.028497931 0.354 4278196225
0.09785714 0.028497931 0.354 4278396427
0.099006936 0.028497931 0.354 4279054357
0.10015673 0.028497931 0.354 4279055127
0.10130653 0.028497931 0.354 4279252504
0.10274575 0.028578434 0.35500002 4279581982
0.10331343 0.028417429 0.35300002 4279055892
0.10445998 0.028417429 0.35300002 4279450648
0.10620487 0.028578434 0.35500002 4279319062
0.10675307 0.028417429 0.35300002 4278925588
0.10820528 0.028497931 0.354 4278925588
0.10935507 0.028497931 0.354 4279057174
0.11197007 0.028578434 0.35500002 4278794002
0.11344176 0.028658936 0.35600001 4278991381
0.11459805 0.028658936 0.35600001 4279123480
0.11575434 0.028658936 0.35600001 4278597906
0.11658224 0.028578434 0.35500002 4278729492
0.11773527 0.028578434 0.35500002 4278795285
0.11888831 0.028578434 0.35500002 4278663697
0.12004135 0.028578434 0.35500002 4278795283
0.12119439 0.028578434 0.35500002 4278663697
0.12269207 0.028658936 0.35600001 4278795283
0.12384836 0.028658936 0.35600001 4278992662
0.12500465 0.028658936 0.35600001 4279058455
0.12616093 0.028658936 0.35600001 4279190295
0.12767486 0.028739441 0.35700002 4279453467
0.1288344 0.028739441 0.35700002 4278992662
0.12999393 0.028739441 0.35700002 4279124248
0.13115348 0.028739441 0.35700002 4280172323
0.049783751 0.030485632 0.36400002 4279187226
0.050966024 0.030485632 0.36400002 4278858773
0.052148297 0.030485632 0.36400002 4278596371
0.053330574 0.030485632 0.36400002 4278861078
0.05451284 0.030485632 0.36400002 4278795285
0.055695117 0.030485632 0.36400002 4278992664
0.05687739 0.030485632 0.36400002 4279190043
0.058059659 0.030485632 0.36400002 4278992664
0.059079178 0.030401878 0.36300001 4278861078
0.060092207 0.030318128 0.36200002 4278861080
0.061098732 0.030234378 0.36100003 4278795287
0.062098764 0.030150624 0.36000001 4278795287
0.063092306 0.030066874 0.35900003 4278729494
0.064079344 0.02998312 0.35800001 4278860310
0.065059885 0.02989937 0.35700002 4278860310
0.06603393 0.029815616 0.35600001 4278924820
0.067190222 0.029815616 0.35600001 4278197765
0.068346508 0.029815616 0.35600001 4279842590
0.069307566 0.029731866 0.35500002 4279187224
0.07046061 0.029731866 0.35500002 4278856465
0.071613647 0.029731866 0.35500002 4278458375
0.072766684 0.029731866 0.35500002 4279444500
0.073919728 0.029731866 0.35500002 4279642649
0.075072773 0.029731866 0.35500002 4278524168
0.07622581 0.029731866 0.35500002 4278326019
0.077378854 0.029731866 0.35500002 4279970844
0.078531891 0.029731866 0.35500002 4278983949
0.079460464 0.029648112 0.354 4279840028
0.080610253 0.029648112 0.354 4279511063
0.081760049 0.029648112 0.354 4278852365
0.082909837 0.029648112 0.354 4279312916
0.084059633 0.029648112 0.354 4279838746
0.085209429 0.029648112 0.354 4278917644
0.086359218 0.029648112 0.354 4278195718
0.087509014 0.029648112 0.354 4279448348
0.088658802 0.029648112 0.354 4279121433
0.089808591 0.029648112 0.354 4279187226
0.090958387 0.029648112 0.354 4279055127
0.092108183 0.029648112 0.354 4279712287
0.093257979 0.029648112 0.354 4279383322
0.094407767 0.029648112 0.354 4279251736
0.095557563 0.029648112 0.354 4279251736
0.096707352 0.029648112 0.354 4279252506
0.09785714 0.029648112 0.354 4279515678
0.099006936 0.029648112 0.354 4279515678
0.10015673 0.029648112 0.354 4279383322
0.10130653 0.029648112 0.354 4279448602
0.10274575 0.029731866 0.35500002 4278659086
0.1036061 0.029648112 0.354 4278198278
0.10475589 0.029648112 0.354 4278196224
0.10620487 0.029731866 0.35500002 4278195712
0.10705549 0.029648112 0.354 4278196480
0.10820528 0.029648112 0.354 4278197251
0.10966399 0.029731866 0.35500002 4278593291
0.11344176 0.029815616 0.35600001 4279120918
0.11459805 0.029815616 0.35600001 4279582236
0.11575434 0.029815616 0.35600001 4279122199
0.11658224 0.029731866 0.35500002 4279056406
0.11773527 0.029731866 0.35500002 4279056404
0.11888831 0.029731866 0.35500002 4279122197
0.12004135 0.029731866 0.35500002 4278991381
0.12153578 0.029815616 0.35600001 4279123480
0.12269207 0.029815616 0.35600001 4278794515
0.12384836 0.029815616 0.35600001 4278794515
0.12500465 0.029815616 0.35600001 4278926099
0.12651533 0.02989937 0.35700002 4278926099
0.12767486 0.02989937 0.35700002 4278794513
0.1288344 0.02989937 0.35700002 4279123478
0.12999393 0.02989937 0.35700002 4278991892
0.13152085 0.02998312 0.35800001 4279187988
0.049920518 0.031755306 0.36500001 4279383320
0.051106039 0.031755306 0.36500001 4278924566
0.052291561 0.031755306 0.36500001 4278596371
0.053477082 0.031755306 0.36500001 4278991896
0.0546626 0.031755306 0.36500001 4279123482
0.055848122 0.031755306 0.36500001 4279124252
0.057033643 0.031755306 0.36500001 4279058459
0.058059659 0.031668305 0.36400002 4279124252
0.059241932 0.031668305 0.36400002 4278861080
0.060258206 0.031581301 0.36300001 4278729494
0.061267979 0.031494305 0.36200002 4278729494
0.062098764 0.0313203 0.36000001 4278860310
0.063092306 0.031233301 0.35900003 4278926103
0.064079344 0.031146299 0.35800001 4278926103
0.065242119 0.031146299 0.35800001 4278925590
0.066219419 0.031059299 0.35700002 4278198535
0.067378961 0.031059299 0.35700002 4278524681
0.068346508 0.030972296 0.35600001 4278658832
0.069502793 0.030972296 0.35600001 4279120918
0.070659086 0.030972296 0.35600001 4279250453
0.071815372 0.030972296 0.35600001 4278523400
0.072766684 0.030885298 0.35500002 4278917644
0.073919728 0.030885298 0.35500002 4278720265
0.075072773 0.030885298 0.35500002 4279511061
0.07622581 0.030885298 0.35500002 4279050512
0.077378854 0.030885298 0.35500002 4278786572
0.078531891 0.030885298 0.35500002 4278720011
0.079684928 0.030885298 0.35500002 4280103200
0.080837972 0.030885298 0.35500002 4278523398
0.081991017 0.030885298 0.35500002 4278983949
0.083144054 0.030885298 0.35500002 4279774746
0.084297091 0.030885298 0.35500002 4278392582
0.085450135 0.030885298 0.35500002 4278654984
0.086359218 0.030798296 0.354 4278985232
0.087509014 0.030798296 0.354 4279449115
0.088658802 0.030798296 0.354 4279121431
0.089808591 0.030798296 0.354 4278196736
0.090958387 0.030798296 0.354 4278590472
0.092108183 0.030798296 0.354 4278590472
0.093257979 0.030798296 0.354 4278527246
0.094407767 0.030798296 0.354 4278988564
0.095827505 0.030885298 0.35500002 4278462220
0.096980534 0.030885298 0.35500002 4278264841
0.098133579 0.030885298 0.35500002 4278923541
0.099286623 0.030885298 0.35500002 4279055640
0.10043967 0.030885298 0.35500002 4279253019
0.1015927 0.030885298 0.35500002 4279120920
0.10274575 0.030885298 0.35500002 4279318299
0.10389878 0.030885298 0.35500002 4279318297
0.10505182 0.030885298 0.35500002 4279253017
0.10620487 0.030885298 0.35500002 4279187478
0.1073579 0.030885298 0.35500002 4279318551
0.10851095 0.030885298 0.35500002 4278988562
0.10966399 0.030885298 0.35500002 4279251734
0.11112919 0.030972296 0.35600001 4279975457
0.11228547 0.030972296 0.35600001 4279382807
0.11344176 0.030972296 0.35600001 4279448602
0.11459805 0.030972296 0.35600001 4278329351
0.11575434 0.030972296 0.35600001 4278197251
0.11691063 0.030972296 0.35600001 4278197508
0.11806692 0.030972296 0.35600001 4278195712
0.1192232 0.030972296 0.35600001 4278195712
0.12037949 0.030972296 0.35600001 4279382807
0.12153578 0.030972296 0.35600001 4279057174
0.12269207 0.030972296 0.35600001 4278859795
0.12384836 0.030972296 0.35600001 4278794004
0.1253558 0.031059299 0.35700002 4278991383
0.12651533 0.031059299 0.35700002 4278926101
0.12767486 0.031059299 0.35700002 4278991892
0.12919527 0.031146299 0.35800001 4278991892
0.13035806 0.031146299 0.35800001 4278794513
0.13152085 0.031146299 0.35800001 4279121683
0.13268363 0.031146299 0.35800001 4281420593
0.049920518 0.03294123 0.36500001 4281880892
0.051106039 0.03294123 0.36500001 4278857746
0.052291561 0.03294123 0.36500001 4279056152
0.053477082 0.03294123 0.36500001 4279320348
0.0546626 0.03294123 0.36500001 4278926103
0.055848122 0.03294123 0.36500001 4279386654
0.057033643 0.03294123 0.36500001 4279189275
0.058219161 0.03294123 0.36500001 4279058459
0.059241932 0.032850981 0.36400002 4278861080
0.060258206 0.032760728 0.36300001 4278795287
0.061267979 0.032670479 0.36200002 4278861078
0.062271263 0.03258023 0.36100003 4278926101
0.063268043 0.032489982 0.36000001 4278991894
0.064258337 0.032399733 0.35900003 4278991896
0.065242119 0.03230948 0.35800001 4278794263
0.066219419 0.032219231 0.35700002 4279515678
0.067378961 0.032219231 0.35700002 4279118615
0.068538494 0.032219231 0.35700002 4279646240
0.069502793 0.032128979 0.35600001 4279187226
0.070659086 0.032128979 0.35600001 4278789134
0.071815372 0.032128979 0.35600001 4278589193
0.072971664 0.032128979 0.35600001 4278719498
0.07412795 0.032128979 0.35600001 4278719498
0.075284243 0.032128979 0.35600001 4278719752
0.076440528 0.032128979 0.35600001 4278588166
0.077596813 0.032128979 0.35600001 4278785291
0.078531891 0.03203873 0.35500002 4278785291
0.079684928 0.03203873 0.35500002 4278851338
0.080837972 0.03203873 0.35500002 4278785545
0.081991017 0.03203873 0.35500002 4278589191
0.083144054 0.03203873 0.35500002 4278524681
0.084297091 0.03203873 0.35500002 4279117588
0.085450135 0.03203873 0.35500002 4278589963
0.086603172 0.03203873 0.35500002 4279579164
0.087756217 0.03203873 0.35500002 4279187226
0.088909253 0.03203873 0.35500002 4278197511
0.090062298 0.03203873 0.35500002 4278589961
0.091215335 0.03203873 0.35500002 4278917131
0.092368379 0.03203873 0.35500002 4278982924
0.093521424 0.03203873 0.35500002 4278853648
0.094674461 0.03203873 0.35500002 4278591757
0.095827505 0.03203873 0.35500002 4279251736
0.096980534 0.03203873 0.35500002 4279317529
0.098133579 0.03203873 0.35500002 4278526476
0.099286623 0.03203873 0.35500002 4278460683
0.10043967 0.03203873 0.35500002 4279185943
0.1015927 0.03203873 0.35500002 4279317529
0.10303517 0.032128979 0.35600001 4278460937
0.10419145 0.032128979 0.35600001 4279580186
0.10534774 0.032128979 0.35600001 4279251734
0.10650403 0.032128979 0.35600001 4279449367
0.10766032 0.032128979 0.35600001 4279186965
0.10881661 0.032128979 0.35600001 4279186965
0.1099729 0.032128979 0.35600001 4279252758
0.11112919 0.032128979 0.35600001 4279186965
0.11228547 0.032128979 0.35600001 4279318551
0.11344176 0.032128979 0.35600001 4279252758
0.11459805 0.032128979 0.35600001 4279449367
0.11575434 0.032128979 0.35600001 4279646746
0.11691063 0.032128979 0.35600001 4279646746
0.11806692 0.032128979 0.35600001 4279514906
0.1192232 0.032128979 0.35600001 4279513623
0.12037949 0.032128979 0.35600001 4278197251
0.12153578 0.032128979 0.35600001 4279055892
0.12269207 0.032128979 0.35600001 4279056406
0.12419625 0.032219231 0.35700002 4279057176
0.1253558 0.032219231 0.35700002 4279188762
0.12651533 0.032219231 0.35700002 4279057174
0.12803249 0.03230948 0.35800001 4278859795
0.12919527 0.03230948 0.35800001 4279056404
0.13035806 0.03230948 0.35800001 4279122197
0.13152085 0.03230948 0.35800001 4279319064
0.053623598 0.034220651 0.36600003 4279121945
0.054812364 0.034220651 0.36600003 4279254301
0.055848122 0.03412715 0.36500001 4279583779
0.057033643 0.03412715 0.36500001 4279189275
0.058219161 0.03412715 0.36500001 4279123482
0.059241932 0.034033652 0.36400002 4278926103
0.060258206 0.033940151 0.36300001 4279123482
0.061267979 0.033846654 0.36200002 4278728724
0.062271263 0.033753157 0.36100003 4278926101
0.063268043 0.033659656 0.36000001 4278926101
0.064258337 0.033566158 0.35900003 4278860310
0.065242119 0.033472657 0.35800001 4278991129
0.066404909 0.033472657 0.35800001 4278658834
0.067378961 0.03337916 0.35700002 4278856213
0.068538494 0.03337916 0.35700002 4279252765
0.069698036 0.03337916 0.35700002 4278990107
0.070659086 0.033285659 0.35600001 4279318812
0.071815372 0.033285659 0.35600001 4279448861
0.072971664 0.033285659 0.35600001 4279578654
0.07412795 0.033285659 0.35600001 4279117590
0.075284243 0.033285659 0.35600001 4279050514
0.076440528 0.033285659 0.35600001 4278326021
0.077596813 0.033285659 0.35600001 4278391046
0.078753106 0.033285659 0.35600001 4278851338
0.079909392 0.033285659 0.35600001 4278851084
0.081065685 0.033285659 0.35600001 4278851084
0.08222197 0.033285659 0.35600001 4278719498
0.083378255 0.033285659 0.35600001 4278785291
0.084297091 0.033192161 0.35500002 4278785804
0.085450135 0.033192161 0.35500002 4278720525
0.086603172 0.033192161 0.35500002 4279317016
0.087756217 0.033192161 0.35500002 4279187226
0.088909253 0.033192161 0.35500002 4279184146
0.090062298 0.033192161 0.35500002 4278523398
0.091215335 0.033192161 0.35500002 4278917129
0.092368379 0.033192161 0.35500002 4278982924
0.093521424 0.033192161 0.35500002 4279381785
0.094674461 0.033192161 0.35500002 4278197508
0.095827505 0.033192161 0.35500002 4278659086
0.096980534 0.033192161 0.35500002 4278198021
0.098133579 0.033192161 0.35500002 4278856465
0.099566296 0.033285659 0.35600001 4278526476
0.10072259 0.033285659 0.35600001 4279449115
0.10187888 0.033285659 0.35600001 4279054357
0.10303517 0.033285659 0.35600001 4278987281
0.10419145 0.033285659 0.35600001 4279053074
0.10534774 0.033285659 0.35600001 4279052560
0.10650403 0.033285659 0.35600001 4278459910
0.10766032 0.033285659 0.35600001 4278460937
0.10881661 0.033285659 0.35600001 4278922258
0.1099729 0.033285659 0.35600001 4278527498
0.11112919 0.033285659 0.35600001 4278593291
0.11260089 0.03337916 0.35700002 4278790670
0.11376042 0.03337916 0.35700002 4279186195
0.11459805 0.033285659 0.35600001 4278330373
0.11575434 0.033285659 0.35600001 4278988303
0.11691063 0.033285659 0.35600001 4279318551
0.11806692 0.033285659 0.35600001 4279252758
0.1192232 0.033285659 0.35600001 4278920974
0.12037949 0.033285659 0.35600001 4279841309
0.12187718 0.03337916 0.35700002 4279187478
0.12303672 0.03337916 0.35700002 4279055890
0.12419625 0.03337916 0.35700002 4279319578
0.1253558 0.03337916 0.35700002 4279056406
0.12686971 0.033472657 0.35800001 4279187992
0.12803249 0.033472657 0.35800001 4279187990
0.12919527 0.033472657 0.35800001 4279450648
0.13035806 0.033472657 0.35800001 4279187476
0.13152085 0.033472657 0.35800001 4279319064
0.055848122 0.035313074 0.36500001 4279055900
0.057033643 0.035313074 0.36500001 4279319324
0.058219161 0.035313074 0.36500001 4278859797
0.059241932 0.035216328 0.36400002 4279057176
0.060258206 0.035119578 0.36300001 4278991383
0.061267979 0.035022829 0.36200002 4279319578
0.062271263 0.034926083 0.36100003 4278990613
0.063268043 0.034829333 0.36000001 4279056406
0.064258337 0.034732588 0.35900003 4279122199
0.065242119 0.034635838 0.35800001 4279385371
0.066404909 0.034635838 0.35800001 4279253019
0.067378961 0.034539089 0.35700002 4279252506
0.068538494 0.034539089 0.35700002 4279187226
0.069698036 0.034539089 0.35700002 4279319326
0.07085757 0.034539089 0.35700002 4279121947
0.071815372 0.034442339 0.35600001 4279121947
0.072971664 0.034442339 0.35600001 4279187226
0.07412795 0.034442339 0.35600001 4279253019
0.075284243 0.034442339 0.35600001 4279120920
0.076440528 0.034442339 0.35600001 4279384092
0.077596813 0.034442339 0.35600001 4279318299
0.078753106 0.034442339 0.35600001 4279713057
0.079909392 0.034442339 0.35600001 4279317016
0.081065685 0.034442339 0.35600001 4279842590
0.08222197 0.034442339 0.35600001 4279841822
0.083378255 0.034442339 0.35600001 4279841822
0.084534548 0.034442339 0.35600001 4279577367
0.085690841 0.034442339 0.35600001 4279183381
0.086847119 0.034442339 0.35600001 4279053592
0.088003412 0.034442339 0.35600001 4278195200
0.089159697 0.034442339 0.35600001 4278195971
0.09031599 0.034442339 0.35600001 4278459658
0.091472276 0.034442339 0.35600001 4278919437
0.092368379 0.034345593 0.35500002 4279314965
0.093521424 0.034345593 0.35500002 4279579418
0.094674461 0.034345593 0.35500002 4279251223
0.09609744 0.034442339 0.35600001 4279317016
0.097253717 0.034442339 0.35600001 4279580186
0.09841001 0.034442339 0.35600001 4279712285
0.099566296 0.034442339 0.35600001 4279251734
0.10072259 0.034442339 0.35600001 4279383322
0.10187888 0.034442339 0.35600001 4279449115
0.10303517 0.034442339 0.35600001 4279449115
0.10419145 0.034442339 0.35600001 4279449115
0.10534774 0.034442339 0.35600001 4279580188
0.10650403 0.034442339 0.35600001 4278724109
0.10766032 0.034442339 0.35600001 4279513625
0.10912228 0.034539089 0.35700002 4278658832
0.11028182 0.034539089 0.35700002 4279053590
0.11144136 0.034539089 0.35700002 4278658832
0.11260089 0.034539089 0.35700002 4279513371
0.11376042 0.034539089 0.35700002 4278526476
0.11491996 0.034539089 0.35700002 4279513111
0.1160795 0.034539089 0.35700002 4279184146
0.11723904 0.034539089 0.35700002 4279252758
0.11839858 0.034539089 0.35700002 4279252758
0.1195581 0.034539089 0.35700002 4278194944
0.12071764 0.034539089 0.35700002 4279513625
0.12187718 0.034539089 0.35700002 4279319064
0.12303672 0.034539089 0.35700002 4279450650
0.12419625 0.034539089 0.35700002 4279122199
0.12570693 0.034635838 0.35800001 4279056406
0.12686971 0.034635838 0.35800001 4279187992
0.12803249 0.034635838 0.35800001 4279187992
0.12919527 0.034635838 0.35800001 4279319064
0.13035806 0.034635838 0.35800001 4279187478
0.13152085 0.034635838 0.35800001 4279909151
0.059241932 0.036398999 0.36400002 4281422392
0.060258206 0.036299001 0.36300001 4281225013
0.062271263 0.036099009 0.36100003 4279777567
0.063268043 0.035999011 0.36000001 4278922771
0.064258337 0.035899013 0.35900003 4278331150
0.065242119 0.035799015 0.35800001 4279647264
0.066404909 0.035799015 0.35800001 4279253019
0.067378961 0.035699017 0.35700002 4279450396
0.068538494 0.035699017 0.35700002 4279319324
0.069698036 0.035699017 0.35700002 4278990359
0.07085757 0.035699017 0.35700002 4279056152
0.072017103 0.035699017 0.35700002 4279187738
0.072971664 0.035599019 0.35600001 4279121945
0.07412795 0.035599019 0.35600001 4279187738
0.075284243 0.035599019 0.35600001 4279056152
0.076440528 0.035599019 0.35600001 4278990359
0.077596813 0.035599019 0.35600001 4279121945
0.078753106 0.035599019 0.35600001 4279121945
0.079909392 0.035599019 0.35600001 4279253017
0.081065685 0.035599019 0.35600001 4279253017
0.08222197 0.035599019 0.35600001 4279450396
0.083378255 0.035599019 0.35600001 4279450396
0.084534548 0.035599019 0.35600001 4279121431
0.085690841 0.035599019 0.35600001 4279253017
0.086847119 0.035599019 0.35600001 4279187224
0.088003412 0.035599019 0.35600001 4279187224
0.089159697 0.035599019 0.35600001 4279253017
0.09031599 0.035599019 0.35600001 4279318297
0.091472276 0.035599019 0.35600001 4279449115
0.092628568 0.035599019 0.35600001 4279514395
0.093784861 0.035599019 0.35600001 4279777567
0.094941147 0.035599019 0.35600001 4279251223
0.09609744 0.035599019 0.35600001 4278658316
0.097253717 0.035599019 0.35600001 4278197765
0.09841001 0.035599019 0.35600001 4278195200
0.099566296 0.035599019 0.35600001 4278196480
0.10072259 0.035599019 0.35600001 4278195200
0.10187888 0.035599019 0.35600001 4278195968
0.10303517 0.035599019 0.35600001 4278724109
0.10448413 0.035699017 0.35700002 4279053074
0.10564367 0.035699017 0.35700002 4279843360
0.1068032 0.035699017 0.35700002 4279119637
0.10796274 0.035699017 0.35700002 4279251736
0.10912228 0.035699017 0.35700002 4279251736
0.11028182 0.035699017 0.35700002 4279317529
0.11144136 0.035699017 0.35700002 4279383322
0.11260089 0.035699017 0.35700002 4279514393
0.11376042 0.035699017 0.35700002 4278922256
0.11491996 0.035699017 0.35700002 4279579416
0.1160795 0.035699017 0.35700002 4279513623
0.11723904 0.035699017 0.35700002 4279252758
0.11839858 0.035699017 0.35700002 4279778078
0.1195581 0.035699017 0.35700002 4278592009
0.12071764 0.035699017 0.35700002 4279514395
0.12187718 0.035699017 0.35700002 4279253017
0.12338135 0.035799015 0.35800001 4279253271
0.12454414 0.035799015 0.35800001 4279187476
0.12570693 0.035799015 0.35800001 4279319062
0.12686971 0.035799015 0.35800001 4279122197
0.12803249 0.035799015 0.35800001 4278990613
0.12919527 0.035799015 0.35800001 4279450650
0.13035806 0.035799015 0.35800001 4279319064
0.13152085 0.035799015 0.35800001 4280828204
0.062271263 0.037271935 0.36100003 4283526234
0.063268043 0.037168685 0.36000001 4283592027
0.064258337 0.037065443 0.35900003 4283592539
0.065242119 0.036962193 0.35800001 4283855711
0.066404909 0.036962193 0.35800001 4284513641
0.067567699 0.036962193 0.35800001 4284184676
0.068538494 0.03685895 0.35700002 4283790688
0.069698036 0.03685895 0.35700002 4282540621
0.07085757 0.03685895 0.35700002 4281158966
0.072017103 0.03685895 0.35700002 4279974692
0.072971664 0.0367557 0.35600001 4279053590
0.07412795 0.0367557 0.35600001 4278988051
0.075284243 0.0367557 0.35600001 4279119637
0.076440528 0.0367557 0.35600001 4279251223
0.077596813 0.0367557 0.35600001 4279251736
0.078753106 0.0367557 0.35600001 4279449113
0.079909392 0.0367557 0.35600001 4279318297
0.081065685 0.0367557 0.35600001 4279515676
0.08222197 0.0367557 0.35600001 4279318810
0.083378255 0.0367557 0.35600001 4279121945
0.084534548 0.0367557 0.35600001 4279187738
0.085690841 0.0367557 0.35600001 4279056152
0.086847119 0.0367557 0.35600001 4279187738
0.088003412 0.0367557 0.35600001 4278990359
0.089159697 0.0367557 0.35600001 4279056152
0.09031599 0.0367557 0.35600001 4279187738
0.091472276 0.0367557 0.35600001 4278990359
0.092628568 0.0367557 0.35600001 4279121945
0.093784861 0.0367557 0.35600001 4279121431
0.094941147 0.0367557 0.35600001 4279318810
0.09609744 0.0367557 0.35600001 4279187224
0.097253717 0.0367557 0.35600001 4279318297
0.09841001 0.0367557 0.35600001 4279318297
0.099566296 0.0367557 0.35600001 4279318297
0.10072259 0.0367557 0.35600001 4279186711
0.10216506 0.03685895 0.35700002 4279712285
0.1033246 0.03685895 0.35700002 4279974944
0.10448413 0.03685895 0.35700002 4279513623
0.10564367 0.03685895 0.35700002 4279842590
0.1068032 0.03685895 0.35700002 4279382039
0.10796274 0.03685895 0.35700002 4278592523
0.10912228 0.03685895 0.35700002 4278855181
0.11028182 0.03685895 0.35700002 4278394376
0.11144136 0.03685895 0.35700002 4278196226
0.11260089 0.03685895 0.35700002 4278196480
0.11376042 0.03685895 0.35700002 4278394630
0.11524186 0.036962193 0.35800001 4278657802
0.11640465 0.036962193 0.35800001 4279183892
0.11756743 0.036962193 0.35800001 4279184146
0.11873022 0.036962193 0.35800001 4278459910
0.11989299 0.036962193 0.35800001 4279448602
0.12105578 0.036962193 0.35800001 4279384090
0.12221856 0.036962193 0.35800001 4279187478
0.12338135 0.036962193 0.35800001 4279582234
0.12454414 0.036962193 0.35800001 4279450646
0.12570693 0.036962193 0.35800001 4279450646
0.12686971 0.036962193 0.35800001 4279187990
0.12803249 0.036962193 0.35800001 4279319576
0.12919527 0.036962193 0.35800001 4279582234
0.13035806 0.036962193 0.35800001 4279842842
0.13152085 0.036962193 0.35800001 4286418556
0.062788747 0.038764346 0.36400002 4283591260
0.063971028 0.038764346 0.36400002 4283788893
0.065153301 0.038764346 0.36400002 4283855199
0.066335566 0.038764346 0.36400002 4283855199
0.067517839 0.038764346 0.36400002 4284052578
0.06870012 0.038764346 0.36400002 4283986785
0.07412795 0.03791238 0.35600001 4284249957
0.075284243 0.03791238 0.35600001 4284644715
0.076440528 0.03791238 0.35600001 4284579436
0.077596813 0.03791238 0.35600001 4284776813
0.078753106 0.03791238 0.35600001 4283921504
0.079909392 0.03791238 0.35600001 4282934095
0.081065685 0.03791238 0.35600001 4281356860
0.08222197 0.03791238 0.35600001 4280107045
0.083378255 0.03791238 0.35600001 4279382807
0.084534548 0.03791238 0.35600001 4278987279
0.085690841 0.03791238 0.35600001 4279118865
0.086847119 0.03791238 0.35600001 4279317529
0.088003412 0.03791238 0.35600001 4279120918
0.089159697 0.03791238 0.35600001 4279384090
0.09031599 0.03791238 0.35600001 4279253017
0.091472276 0.03791238 0.35600001 4279253017
0.092628568 0.03791238 0.35600001 4279253017
0.093784861 0.03791238 0.35600001 4279121431
0.094941147 0.03791238 0.35600001 4279450396
0.09609744 0.03791238 0.35600001 4279253017
0.097253717 0.03791238 0.35600001 4279318810
0.09841001 0.03791238 0.35600001 4279055638
0.099566296 0.03791238 0.35600001 4279318810
0.10100552 0.038018879 0.35700002 4279253271
0.10216506 0.038018879 0.35700002 4279515930
0.1033246 0.038018879 0.35700002 4279384344
0.10448413 0.038018879 0.35700002 4279384344
0.10564367 0.038018879 0.35700002 4279252756
0.1068032 0.038018879 0.35700002 4279384342
0.10796274 0.038018879 0.35700002 4279647514
0.10912228 0.038018879 0.35700002 4279384342
0.11028182 0.038018879 0.35700002 4279318551
0.11144136 0.038018879 0.35700002 4279318297
0.11291629 0.03812537 0.35800001 4279646492
0.11407907 0.03812537 0.35800001 4279711772
0.11524186 0.03812537 0.35800001 4280303911
0.11640465 0.03812537 0.35800001 4279580188
0.11756743 0.03812537 0.35800001 4280039969
0.11873022 0.03812537 0.35800001 4279842590
0.11989299 0.03812537 0.35800001 4279318297
0.12105578 0.03812537 0.35800001 4279581982
0.12221856 0.03812537 0.35800001 4279319064
0.123726 0.038231868 0.35900003 4279450646
0.12489203 0.038231868 0.35900003 4279516693
0.12605807 0.038231868 0.35900003 4279450900
0.1272241 0.038231868 0.35900003 4279253269
0.12839013 0.038231868 0.35900003 4279516441
0.12955616 0.038231868 0.35900003 4279447830
0.13035806 0.03812537 0.35800001 4286157691
0.13152085 0.03812537 0.35800001 4285629042
0.085690841 0.03906906 0.35600001 4284446819
0.086847119 0.03906906 0.35600001 4284907370
0.088003412 0.03906906 0.35600001 4284907883
0.089159697 0.03906906 0.35600001 4284776297
0.09031599 0.03906906 0.35600001 4283855709
0.091472276 0.03906906 0.35600001 4282409035
0.092628568 0.03906906 0.35600001 4281224761
0.093784861 0.03906906 0.35600001 4280895024
0.094941147 0.03906906 0.35600001 4279842590
0.09609744 0.03906906 0.35600001 4279711004
0.097253717 0.03906906 0.35600001 4279053844
0.098686449 0.039178807 0.35700002 4279317016
0.099845983 0.039178807 0.35700002 4279053590
0.10100552 0.039178807 0.35700002 4279250969
0.10216506 0.039178807 0.35700002 4278922517
0.1033246 0.039178807 0.35700002 4279449115
0.10448413 0.039178807 0.35700002 4279251475
0.10564367 0.039178807 0.35700002 4278922510
0.1068032 0.039178807 0.35700002 4279843612
0.10796274 0.039178807 0.35700002 4279646746
0.10912228 0.039178807 0.35700002 4279384344
0.11028182 0.039178807 0.35700002 4279384090
0.11175352 0.039288551 0.35800001 4279384090
0.11291629 0.039288551 0.35800001 4279581469
0.11407907 0.039288551 0.35800001 4279515676
0.11524186 0.039288551 0.35800001 4279712285
0.11640465 0.039288551 0.35800001 4279712285
0.11756743 0.039288551 0.35800001 4279712539
0.11906187 0.039398298 0.35900003 4279646746
0.1202279 0.039398298 0.35900003 4279384344
0.12139393 0.039398298 0.35900003 4279450650
0.12255996 0.039398298 0.35900003 4279516443
0.123726 0.039398298 0.35900003 4279516441
0.12489203 0.039398298 0.35900003 4279450648
0.12605807 0.039398298 0.35900003 4279647514
0.1272241 0.039398298 0.35900003 4279647516
0.12839013 0.039398298 0.35900003 4280303911
0.12955616 0.039398298 0.35900003 4285893497
0.13072219 0.039398298 0.35900003 4285892984
0.13188823 0.039398298 0.35900003 4285564021
0.091472276 0.040225741 0.35600001 4284381541
0.092628568 0.040225741 0.35600001 4284513127
0.093784861 0.040225741 0.35600001 4284577637
0.094941147 0.040225741 0.35600001 4284446051
0.09609744 0.040225741 0.35600001 4284381541
0.097526908 0.040338736 0.35700002 4284381541
0.098686449 0.040338736 0.35700002 4284447336
0.099845983 0.040338736 0.35700002 4284776301
0.10100552 0.040338736 0.35700002 4284513129
0.10216506 0.040338736 0.35700002 4284842094
0.1033246 0.040338736 0.35700002 4284907885
0.10448413 0.040338736 0.35700002 4285368436
0.10564367 0.040338736 0.35700002 4285565815
0.1068032 0.040338736 0.35700002 4285434229
0.10796274 0.040338736 0.35700002 4285434743
0.10912228 0.040338736 0.35700002 4285039985
0.11028182 0.040338736 0.35700002 4284316262
0.11175352 0.040451728 0.35800001 4284579434
0.11291629 0.040451728 0.35800001 4284249953
0.11407907 0.040451728 0.35800001 4283789143
0.11524186 0.040451728 0.35800001 4282867271
0.1167298 0.040564723 0.35900003 4282209341
0.11789584 0.040564723 0.35900003 4282011960
0.11906187 0.040564723 0.35900003 4281420593
0.1202279 0.040564723 0.35900003 4280762663
0.12139393 0.040564723 0.35900003 4280104733
0.12255996 0.040564723 0.35900003 4280236832
0.123726 0.040564723 0.35900003 4280236832
0.12489203 0.040564723 0.35900003 4281617972
0.1264092 0.040677715 0.36000001 4283722580
0.1272241 0.040564723 0.35900003 4285893499
0.12839013 0.040564723 0.35900003 4285629814
0.12955616 0.040564723 0.35900003 4285629814
0.091472276 0.041382421 0.35600001 4284315237
0.092628568 0.041382421 0.35600001 4284446823
0.093784861 0.041382421 0.35600001 4284577637
0.094941147 0.041382421 0.35600001 4284643430
0.096367382 0.041498665 0.35700002 4284577637
0.097526908 0.041498665 0.35700002 4284643430
0.098686449 0.041498665 0.35700002 4284708710
0.099845983 0.041498665 0.35700002 4284774503
0.10100552 0.041498665 0.35700002 4284906602
0.10216506 0.041498665 0.35700002 4284840809
0.1033246 0.041498665 0.35700002 4284906602
0.10448413 0.041498665 0.35700002 4284972395
0.10564367 0.041498665 0.35700002 4284972395
0.1068032 0.041498665 0.35700002 4285301360
0.10796274 0.041498665 0.35700002 4285169774
0.10912228 0.041498665 0.35700002 4285302130
0.11028182 0.041498665 0.35700002 4285301362
0.11175352 0.041614905 0.35800001 4285367155
0.11291629 0.041614905 0.35800001 4285301362
0.11407907 0.041614905 0.35800001 4285564021
0.11524186 0.041614905 0.35800001 4285498228
0.1167298 0.041731153 0.35900003 4285564021
0.11789584 0.041731153 0.35900003 4285432435
0.11906187 0.041731153 0.35900003 4285432435
0.1202279 0.041731153 0.35900003 4285958779
0.12139393 0.041731153 0.35900003 4285366901
0.12255996 0.041731153 0.35900003 4285366901
0.12407064 0.041847393 0.36000001 4285366901
0.12523992 0.041847393 0.36000001 4285366642
0.1264092 0.041847393 0.36000001 4285629814
0.12757848 0.041847393 0.36000001 4285695607
0.12874776 0.041847393 0.36000001 4285498228
0.088415645 0.030667165 0.35638782 4294967295
0.088415645 0.030667165 0.35638782 4294901760
0.08846885 0.030208627 0.35619569 4294901760
0.088522047 0.029750086 0.35600358 4294901760
0.088575251 0.029291548 0.35581145 4294901760
0.088628449 0.028833009 0.35561934 4294901760
0.088681653 0.028374471 0.35542721 4294901760
0.088734858 0.027915932 0.35523507 4294901760
0.088788055 0.027457392 0.35504296 4294901760
0.088841259 0.026998853 0.35485083 4294901760
0.088894457 0.026540313 0.35465872 4294901760
0.088947661 0.026081774 0.35446659 4294901760
0.089000858 0.025623236 0.35427445 4294901760
0.089054063 0.025164697 0.35408235 4294901760
0.089107268 0.024706159 0.35389021 4294901760
0.089160465 0.024247618 0.35369807 4294901760
0.089213669 0.02378908 0.35350597 4294901760
0.089266866 0.023330541 0.35331383 4294901760
0.089320071 0.022872001 0.35312173 4294901760
0.089373276 0.022413462 0.35292959 4294901760
0.089426473 0.021954924 0.35273746 4294901760
0.089479677 0.021496385 0.35254535 4294901760
0.089532875 0.021037847 0.35235322 4294901760
0.089586079 0.020579308 0.35216111 4294901760
0.089639284 0.020120768 0.35196897 4294901760
0.089692481 0.019662229 0.35177684 4294901760
0.089745685 0.019203689 0.35158473 4294901760
0.089798883 0.01874515 0.3513926 4294901760
0.089852087 0.018286612 0.35120049 4294901760
0.089905292 0.017828073 0.35100836 4294901760
0.089958489 0.017369535 0.35081622 4294901760
0.090011694 0.016910994 0.35062411 4294901760
0.090064891 0.016452456 0.35043198 4294901760
0.090118095 0.015993917 0.35023984 4294901760
0.090171292 0.015535377 0.35004774 4294901760
0.090224497 0.015076838 0.3498556 4294901760
0.090277702 0.0146183 0.3496635 4294901760
0.090330899 0.01415976 0.34947136 4294901760
0.090384103 0.013701221 0.34927922 4294901760
0.090437301 0.013242682 0.34908712 4294901760
0.090490505 0.012784144 0.34889498 4294901760
0.09054371 0.012325604 0.34870288 4294901760
0.090596907 0.011867065 0.34851074 4294901760
0.090650111 0.011408526 0.34831861 4294901760
0.090703309 0.010949988 0.3481265 4294901760
0.090756513 0.010491449 0.34793437 4294901760
0.090809718 0.010032911 0.34774226 4294901760
0.090862915 0.0095743705 0.34755012 4294901760
0.09091612 0.0091158319 0.34735799 4294901760
0.090969317 0.0086572934 0.34716588 4294901760
0.091022521 0.008198753 0.34697375 4294901760
0.091075718 0.0077402145 0.34678161 4294901760
0.091128923 0.0072816759 0.34658951 4294901760
0.091182128 0.0068231374 0.34639737 4294901760
0.091235325 0.0063645989 0.34620526 4294901760
0.091288529 0.0059060566 0.34601313 4294901760
0.091341726 0.0054475181 0.34582099 4294901760
0.091394931 0.0049889795 0.34562889 4294901760
0.091448136 0.004530441 0.34543675 4294901760
0.091501333 0.0040719025 0.34524465 4294901760
0.091554537 0.003613364 0.34505251 4294901760
0.091607735 0.0031548236 0.34486037 4294901760
0.091660939 0.002696285 0.34466827 4294901760
0.091714144 0.0022377465 0.34447613 4294901760
0.091767341 0.001779208 0.34428403 4294901760
0.091820545 0.0013206694 0.34409189 4294901760
0.091873743 0.0008621309 0.34389976 4294901760
0.091926947 0.00040358864 0.34370765 4294901760
0.091980152 -5.4949895e-05 0.34351552 4294901760
0.092033349 -0.00051348843 0.34332341 4294901760
0.092086554 -0.00097202696 0.34313127 4294901760
0.092139751 -0.0014305655 0.34293914 4294901760
0.092192955 -0.001889104 0.34274703 4294901760
0.09224616 -0.0023476463 0.3425549 4294901760
0.092299357 -0.0028061848 0.34236276 4294901760
0.092352562 -0.0032647233 0.34217066 4294901760
0.092405759 -0.0037232619 0.34197852 4294901760
0.092458963 -0.0041818004 0.34178641 4294901760
0.092512161 -0.0046403389 0.34159428 4294901760
0.092565365 -0.0050988775 0.34140214 4294901760
0.09261857 -0.0055574197 0.34121004 4294901760
0.092671767 -0.0060159583 0.3410179 4294901760
0.092724971 -0.0064744968 0.3408258 4294901760
0.092778169 -0.0069330353 0.34063366 4294901760
0.092831373 -0.0073915739 0.34044152 4294901760
0.092884578 -0.0078501124 0.34024942 4294901760
0.092937775 -0.0083086509 0.34005728 4294901760
0.09299098 -0.0087671895 0.33986515 4294901760
0.093044177 -0.009225728 0.33967304 4294901760
0.093097381 -0.0096842665 0.33948091 4294901760
0.093150586 -0.010142805 0.3392888 4294901760
0.093203783 -0.010601344 0.33909667 4294901760
0.093256988 -0.011059886 0.33890456 4294901760
0.093310185 -0.011518424 0.33871242 4294901760
0.093363389 -0.011976963 0.33852029 4294901760
0.093416587 -0.012435501 0.33832818 4294901760
0.093469791 -0.01289404 0.33813605 4294901760
0.093522996 -0.013352579 0.33794391 4294901760
0.093576193 -0.013811121 0.33775181 4294901760
