# .PCD v0.7 - Point Cloud Data file format
VERSION 0.7
FIELDS x y z rgb
SIZE 4 4 4 4
TYPE F F F U
COUNT 1 1 1 1
WIDTH 1069
HEIGHT 1
VIEWPOINT 0 0 0 1 0 0 0
POINTS 1069
DATA ascii
0.064695403 0.034345593 0.35500002 4279909916
0.065477468 0.034152094 0.35300002 4279516441
0.066624016 0.034152094 0.35300002 4279122197
0.067578569 0.034055348 0.35200003 4279188760
0.068721868 0.034055348 0.35200003 4279123480
0.069865167 0.034055348 0.35200003 4278992664
0.070806727 0.033958599 0.35100001 4279058459
0.071946777 0.033958599 0.35100001 4278663701
0.072878607 0.033861853 0.35000002 4278532113
0.074015409 0.033861853 0.35000002 4278597906
0.075152203 0.033861853 0.35000002 4278663699
0.076071039 0.033765104 0.34900001 4278663699
0.077204593 0.033765104 0.34900001 4278663699
0.078338139 0.033765104 0.34900001 4278532113
0.079471692 0.033765104 0.34900001 4278663699
0.09009669 0.033087865 0.34200001 4278860308
0.091207512 0.033087865 0.34200001 4278794515
0.092318326 0.033087865 0.34200001 4279057176
0.093429133 0.033087865 0.34200001 4278991381
0.094263524 0.032991119 0.34100002 4278991381
0.095371097 0.032991119 0.34100002 4279188760
0.096478663 0.032991119 0.34100002 4279187990
0.097300053 0.032894369 0.34 4279451162
0.098404378 0.032894369 0.34 4279187478
0.099508688 0.032894369 0.34 4279779102
0.10031709 0.032797623 0.33900002 4279713307
0.10141817 0.032797623 0.33900002 4279976479
0.10251924 0.032797623 0.33900002 4279976481
0.10362031 0.032797623 0.33900002 4279909664
0.10472139 0.032797623 0.33900002 4279843360
0.10582246 0.032797623 0.33900002 4280369450
0.10692353 0.032797623 0.33900002 4281684026
0.06274081 0.035699017 0.35700002 4279711004
0.063721359 0.035599019 0.35600001 4279449367
0.064695403 0.035499025 0.35500002 4279647514
0.06566295 0.035399023 0.354 4279385369
0.066812746 0.035399023 0.354 4279451162
0.067962535 0.035399023 0.354 4279386139
0.068917103 0.035299029 0.35300002 4279386139
0.070063643 0.035299029 0.35300002 4279386141
0.071008459 0.035199031 0.35200003 4279649313
0.072151758 0.035199031 0.35200003 4279320861
0.073086828 0.035099033 0.35100001 4279320861
0.074226879 0.035099033 0.35100001 4279189273
0.075152203 0.034999039 0.35000002 4278991894
0.076071039 0.034899037 0.34900001 4278926101
0.077204593 0.034899037 0.34900001 4278728722
0.078338139 0.034899037 0.34900001 4278926101
0.079243988 0.034799043 0.34800002 4278333964
0.080374293 0.034799043 0.34800002 4278399759
0.082320973 0.034199059 0.34200001 4278662929
0.083187841 0.034099061 0.34100002 4278662929
0.084295407 0.034099061 0.34100002 4278728722
0.085152522 0.033999063 0.34 4278860310
0.086256839 0.033999063 0.34 4278860310
0.087361164 0.033999063 0.34 4278860308
0.088725686 0.034099061 0.34100002 4278860308
0.089833252 0.034099061 0.34100002 4278663699
0.091207512 0.034199059 0.34200001 4278860308
0.092318326 0.034199059 0.34200001 4278794515
0.093429133 0.034199059 0.34200001 4278860306
0.094539955 0.034199059 0.34200001 4278860306
0.095371097 0.034099061 0.34100002 4278860306
0.096478663 0.034099061 0.34100002 4278860306
0.097586237 0.034099061 0.34100002 4278926099
0.098404378 0.033999063 0.34 4278794002
0.099508688 0.033999063 0.34 4278991381
0.10061301 0.033999063 0.34 4278794002
0.10141817 0.033899069 0.33900002 4278465037
0.10251924 0.033899069 0.33900002 4278925588
0.10362031 0.033899069 0.33900002 4279122197
0.10472139 0.033899069 0.33900002 4279385369
0.10582246 0.033899069 0.33900002 4279122199
0.10692353 0.033899069 0.33900002 4279582750
0.1080246 0.033899069 0.33900002 4279779615
0.10912567 0.033899069 0.33900002 4279647516
0.11022675 0.033899069 0.33900002 4280436262
0.061581276 0.03685895 0.35700002 4278854414
0.06274081 0.03685895 0.35700002 4280171555
0.063900352 0.03685895 0.35700002 4279713309
0.064877644 0.0367557 0.35600001 4279648029
0.06603393 0.0367557 0.35600001 4279188760
0.067001484 0.036652453 0.35500002 4279254553
0.068154521 0.036652453 0.35500002 4279516955
0.069307566 0.036652453 0.35500002 4279188760
0.070262127 0.036549207 0.354 4279780899
0.071411915 0.036549207 0.354 4279780899
0.072356731 0.03644596 0.35300002 4279451934
0.073295057 0.036342718 0.35200003 4279320348
0.074226879 0.036239468 0.35100001 4279188762
0.075152203 0.036136225 0.35000002 4279254553
0.076289006 0.036136225 0.35000002 4279254553
0.077204593 0.036032975 0.34900001 4279057174
0.078113675 0.035929732 0.34800002 4279319576
0.079243988 0.035929732 0.34800002 4279254553
0.080143325 0.035826482 0.347 4279319576
0.081036173 0.035723239 0.34600002 4279319576
0.081922531 0.035619993 0.34500003 4279188760
0.082561679 0.0354135 0.34300002 4279057174
0.083431788 0.03531025 0.34200001 4278926101
0.084295407 0.035207007 0.34100002 4278926101
0.085402973 0.035207007 0.34100002 4278728722
0.086510539 0.035207007 0.34100002 4278859797
0.087618113 0.035207007 0.34100002 4278728209
0.088725686 0.035207007 0.34100002 4278596623
0.09009669 0.03531025 0.34200001 4278859795
0.091207512 0.03531025 0.34200001 4278794002
0.092318326 0.03531025 0.34200001 4278728209
0.093429133 0.03531025 0.34200001 4278530830
0.094539955 0.03531025 0.34200001 4278860308
0.09565077 0.03531025 0.34200001 4278860308
0.096478663 0.035207007 0.34100002 4278662929
0.097586237 0.035207007 0.34100002 4278991894
0.098693803 0.035207007 0.34100002 4278794000
0.099508688 0.035103757 0.34 4278794000
0.10061301 0.035103757 0.34 4278925586
0.10171733 0.035103757 0.34 4278859793
0.10282166 0.035103757 0.34 4278859793
0.10362031 0.035000514 0.33900002 4278728207
0.10472139 0.035000514 0.33900002 4278859793
0.10582246 0.035000514 0.33900002 4278859795
0.10692353 0.035000514 0.33900002 4278794002
0.1080246 0.035000514 0.33900002 4278859795
0.10912567 0.035000514 0.33900002 4279056404
0.11022675 0.035000514 0.33900002 4279056404
0.11165622 0.035103757 0.34 4279319576
0.1130922 0.035207007 0.34100002 4279451162
0.11419976 0.035207007 0.34100002 4279516441
0.11530732 0.035207007 0.34100002 4279844893
0.1164149 0.035207007 0.34100002 4279844895
0.11752246 0.035207007 0.34100002 4279909918
0.11863004 0.035207007 0.34100002 4280171807
0.1197376 0.035207007 0.34100002 4280369186
0.12084518 0.035207007 0.34100002 4280632104
0.12195273 0.035207007 0.34100002 4282342724
0.12306031 0.035207007 0.34100002 4284117854
0.12416787 0.035207007 0.34100002 4285432944
0.12527545 0.035207007 0.34100002 4285564017
0.12638302 0.035207007 0.34100002 4285169261
0.061581276 0.038018879 0.35700002 4281091889
0.062916555 0.03812537 0.35800001 4280039969
0.064079344 0.03812537 0.35800001 4280042274
0.065059885 0.038018879 0.35700002 4279516443
0.066219419 0.038018879 0.35700002 4279187990
0.067378961 0.038018879 0.35700002 4279516955
0.068346508 0.03791238 0.35600001 4279451164
0.069502793 0.03791238 0.35600001 4279320348
0.07046061 0.037805885 0.35500002 4279715106
0.071613647 0.037805885 0.35500002 4279649313
0.072561711 0.03769939 0.354 4279254301
0.073503278 0.037592895 0.35300002 4279254555
0.074438356 0.0374864 0.35200003 4279319578
0.075366922 0.037379902 0.35100001 4279122199
0.076289006 0.037273411 0.35000002 4279385371
0.077204593 0.037166912 0.34900001 4279385371
0.078113675 0.037060417 0.34800002 4279319578
0.079243988 0.037060417 0.34800002 4279319578
0.080143325 0.036953922 0.347 4279187478
0.081036173 0.036847427 0.34600002 4278265863
0.081922531 0.036740933 0.34500003 4278198275
0.082802385 0.036634434 0.34400001 4278989845
0.083675742 0.036527943 0.34300002 4279121945
0.084789813 0.036527943 0.34300002 4279187992
0.085653417 0.036421444 0.34200001 4279187992
0.086764239 0.036421444 0.34200001 4279187990
0.087875053 0.036421444 0.34200001 4278859795
0.088985875 0.036421444 0.34200001 4278991381
0.09009669 0.036421444 0.34200001 4279188760
0.091207512 0.036421444 0.34200001 4279122197
0.092318326 0.036421444 0.34200001 4279122197
0.093429133 0.036421444 0.34200001 4279385369
0.094539955 0.036421444 0.34200001 4278991381
0.09565077 0.036421444 0.34200001 4278925588
0.096761592 0.036421444 0.34200001 4278399757
0.097872406 0.036421444 0.34200001 4278465550
0.098693803 0.036314949 0.34100002 4278859795
0.099801362 0.036314949 0.34100002 4278794000
0.10090894 0.036314949 0.34100002 4279517723
0.10171733 0.036208451 0.34 4278991379
0.10282166 0.036208451 0.34 4279122195
0.10392597 0.036208451 0.34 4279122195
0.1050303 0.036208451 0.34 4278925586
0.10613462 0.036208451 0.34 4278859795
0.10723893 0.036208451 0.34 4278925588
0.10834325 0.036208451 0.34 4278794002
0.11009139 0.036421444 0.34200001 4278728209
0.1112022 0.036421444 0.34200001 4278925588
0.11231302 0.036421444 0.34200001 4278794002
0.1130922 0.036314949 0.34100002 4278794002
0.11419976 0.036314949 0.34100002 4278794002
0.11530732 0.036314949 0.34100002 4278990611
0.11675628 0.036421444 0.34200001 4278990611
0.1178671 0.036421444 0.34200001 4279056404
0.11897792 0.036421444 0.34200001 4279187728
0.12008874 0.036421444 0.34200001 4279187728
0.12119956 0.036421444 0.34200001 4279582232
0.12231036 0.036421444 0.34200001 4279582232
0.12342118 0.036421444 0.34200001 4280107293
0.124532 0.036421444 0.34200001 4280238368
0.12564282 0.036421444 0.34200001 4280368934
0.12638302 0.036314949 0.34100002 4280039969
0.12749058 0.036314949 0.34100002 4280762924
0.063092306 0.039398298 0.35900003 4280236834
0.064079344 0.039288551 0.35800001 4279778848
0.065242119 0.039288551 0.35800001 4279647775
0.066404909 0.039288551 0.35800001 4279516957
0.067567699 0.039288551 0.35800001 4279516957
0.068538494 0.039178807 0.35700002 4279451934
0.069698036 0.039178807 0.35700002 4280175657
0.070659086 0.03906906 0.35600001 4279977508
0.071815372 0.03906906 0.35600001 4279582750
0.072766684 0.038959317 0.35500002 4279254301
0.073503278 0.038739827 0.35300002 4279385887
0.074438356 0.038630083 0.35200003 4279319578
0.075366922 0.038520336 0.35100001 4279451164
0.076289006 0.038410597 0.35000002 4279122199
0.077204593 0.038300849 0.34900001 4279187992
0.078338139 0.038300849 0.34900001 4279319578
0.079243988 0.038191106 0.34800002 4279122199
0.080143325 0.038081359 0.347 4279318299
0.081270382 0.038081359 0.347 4278790931
0.082159981 0.037971616 0.34600002 4278987027
0.083043091 0.037861872 0.34500003 4279448602
0.083919697 0.037752125 0.34400001 4279253017
0.085037008 0.037752125 0.34400001 4279450396
0.085903868 0.037642382 0.34300002 4279319064
0.087017938 0.037642382 0.34300002 4279450650
0.088132001 0.037642382 0.34300002 4279319064
0.089246072 0.037642382 0.34300002 4279187992
0.090360135 0.037642382 0.34300002 4279319578
0.091474198 0.037642382 0.34300002 4279450650
0.092588268 0.037642382 0.34300002 4279450650
0.093702324 0.037642382 0.34300002 4279319064
0.094816387 0.037642382 0.34300002 4279187992
0.095930457 0.037642382 0.34300002 4279187992
0.09704452 0.037642382 0.34300002 4279122199
0.097872406 0.037532635 0.34200001 4279187992
0.098983228 0.037532635 0.34200001 4279385371
0.10009404 0.037532635 0.34200001 4279319576
0.10120485 0.037532635 0.34200001 4279319574
0.1020165 0.037422892 0.34100002 4279253267
0.10312407 0.037422892 0.34100002 4278990095
0.10423165 0.037422892 0.34100002 4279121681
0.10533921 0.037422892 0.34100002 4278792716
0.10644679 0.037422892 0.34100002 4279121681
0.10755435 0.037422892 0.34100002 4278990609
0.10866191 0.037422892 0.34100002 4279187988
0.11009139 0.037532635 0.34200001 4279187990
0.1112022 0.037532635 0.34200001 4279319576
0.11231302 0.037532635 0.34200001 4279187990
0.11342384 0.037532635 0.34200001 4278925590
0.11453465 0.037532635 0.34200001 4278859797
0.11564547 0.037532635 0.34200001 4278859795
0.11675628 0.037532635 0.34200001 4278859025
0.1178671 0.037532635 0.34200001 4278661646
0.11897792 0.037532635 0.34200001 4278859023
0.12008874 0.037532635 0.34200001 4278990609
0.12119956 0.037532635 0.34200001 4278924816
0.12231036 0.037532635 0.34200001 4279056402
0.12342118 0.037532635 0.34200001 4279187988
0.124532 0.037532635 0.34200001 4279187474
0.12564282 0.037532635 0.34200001 4279450648
0.12675364 0.037532635 0.34200001 4279648029
0.12786445 0.037532635 0.34200001 4279582236
0.12897527 0.037532635 0.34200001 4279911201
0.13008608 0.037532635 0.34200001 4280107813
0.1311969 0.037532635 0.34200001 4280107043
0.13230772 0.037532635 0.34200001 4280434725
0.13341853 0.037532635 0.34200001 4280960042
0.13452935 0.037532635 0.34200001 4281419825
0.061267979 0.040903702 0.36200002 4284380006
0.062271263 0.040790711 0.36100003 4284445799
0.063268043 0.040677715 0.36000001 4280170276
0.064258337 0.040564723 0.35900003 4279976229
0.065424368 0.040564723 0.35900003 4279516703
0.066404909 0.040451728 0.35800001 4279648543
0.067567699 0.040451728 0.35800001 4279648543
0.068730474 0.040451728 0.35800001 4279517727
0.069698036 0.040338736 0.35700002 4279978278
0.07085757 0.040338736 0.35700002 4279714852
0.071815372 0.040225741 0.35600001 4279516703
0.072766684 0.040112749 0.35500002 4279450910
0.0737115 0.039999753 0.354 4279385117
0.074649826 0.039886761 0.35300002 4279451164
0.075366922 0.039660774 0.35100001 4279385371
0.076289006 0.039547779 0.35000002 4279319578
0.077425815 0.039547779 0.35000002 4278859027
0.078338139 0.039434783 0.34900001 4279319578
0.079243988 0.039321791 0.34800002 4279122199
0.080374293 0.039321791 0.34800002 4278723855
0.081270382 0.039208796 0.347 4278394380
0.082397439 0.039208796 0.347 4279250971
0.083283797 0.039095804 0.34600002 4279515678
0.084407598 0.039095804 0.34600002 4279514908
0.085284211 0.038982812 0.34500003 4278328837
0.086404771 0.038982812 0.34500003 4278657037
0.087271631 0.038869817 0.34400001 4278194945
0.088388942 0.038869817 0.34400001 4278195713
0.089506261 0.038869817 0.34400001 4278723341
0.090623572 0.038869817 0.34400001 4279119383
0.091740884 0.038869817 0.34400001 4279251223
0.092858203 0.038869817 0.34400001 4279711774
0.093975507 0.038869817 0.34400001 4279252506
0.095092818 0.038869817 0.34400001 4279187226
0.09621013 0.038869817 0.34400001 4279253017
0.097327448 0.038869817 0.34400001 4279187478
0.09815859 0.038756825 0.34300002 4279319064
0.099272653 0.038756825 0.34300002 4279253271
0.10038671 0.038756825 0.34300002 4279582236
0.10150078 0.038756825 0.34300002 4279582234
0.10231567 0.03864383 0.34200001 4279450646
0.10342649 0.03864383 0.34200001 4279450646
0.10453731 0.03864383 0.34200001 4279450646
0.10564812 0.03864383 0.34200001 4279516441
0.10675894 0.03864383 0.34200001 4279582234
0.10786975 0.03864383 0.34200001 4279319062
0.10898057 0.03864383 0.34200001 4279319062
0.11009139 0.03864383 0.34200001 4279187476
0.1112022 0.03864383 0.34200001 4279187476
0.11264143 0.038756825 0.34300002 4279253269
0.11375549 0.038756825 0.34300002 4279056404
0.11486955 0.038756825 0.34300002 4279122199
0.11598361 0.038756825 0.34300002 4279056406
0.11709768 0.038756825 0.34300002 4279319576
0.11821175 0.038756825 0.34300002 4279385367
0.11932582 0.038756825 0.34300002 4279385367
0.12043988 0.038756825 0.34300002 4279385367
0.12155395 0.038756825 0.34300002 4278990609
0.12266801 0.038756825 0.34300002 4278990609
0.12378207 0.038756825 0.34300002 4278859023
0.124532 0.03864383 0.34200001 4278924816
0.12564282 0.03864383 0.34200001 4278924816
0.12675364 0.03864383 0.34200001 4278924818
0.12786445 0.03864383 0.34200001 4279319060
0.12897527 0.03864383 0.34200001 4279121681
0.13008608 0.03864383 0.34200001 4279121683
0.1311969 0.03864383 0.34200001 4279516441
0.13230772 0.03864383 0.34200001 4279318549
0.13341853 0.03864383 0.34200001 4279779102
0.13452935 0.03864383 0.34200001 4279909918
0.13603678 0.038756825 0.34300002 4279909403
0.13715084 0.038756825 0.34300002 4280040987
0.13866802 0.038869817 0.34400001 4280238366
0.13978532 0.038869817 0.34400001 4280434463
0.061267979 0.042079877 0.36200002 4284511592
0.062271263 0.041963637 0.36100003 4284380006
0.063268043 0.041847393 0.36000001 4283657307
0.064258337 0.041731153 0.35900003 4279713057
0.065424368 0.041731153 0.35900003 4279648289
0.066590399 0.041731153 0.35900003 4279517727
0.067567699 0.041614905 0.35800001 4279451934
0.068730474 0.041614905 0.35800001 4279846692
0.069698036 0.041498665 0.35700002 4279978278
0.07085757 0.041498665 0.35700002 4279649313
0.071815372 0.041382421 0.35600001 4279451934
0.072766684 0.041266181 0.35500002 4279320348
0.0737115 0.041149933 0.354 4279451164
0.074649826 0.041033693 0.35300002 4279450650
0.075581647 0.040917452 0.35200003 4279516443
0.076506972 0.040801208 0.35100001 4279385371
0.077425815 0.040684965 0.35000002 4279385371
0.078338139 0.040568721 0.34900001 4279385371
0.079471692 0.040568721 0.34900001 4279122199
0.080374293 0.04045248 0.34800002 4278920207
0.081504591 0.04045248 0.34800002 4279775518
0.082634896 0.04045248 0.34800002 4279382809
0.083524495 0.040336236 0.347 4279448602
0.084651552 0.040336236 0.347 4278590474
0.085531406 0.040219992 0.34600002 4278655756
0.086655214 0.040219992 0.34600002 4279180816
0.087779023 0.040219992 0.34600002 4278983183
0.08864589 0.040103752 0.34500003 4278917644
0.089766458 0.040103752 0.34500003 4278982924
0.090887018 0.040103752 0.34500003 4278786572
0.092007577 0.040103752 0.34500003 4278852365
0.093128145 0.040103752 0.34500003 4278720779
0.094248697 0.040103752 0.34500003 4278983949
0.095369257 0.040103752 0.34500003 4278589961
0.096489817 0.040103752 0.34500003 4278787851
0.097610384 0.040103752 0.34500003 4278657289
0.098730944 0.040103752 0.34500003 4279249426
0.099562079 0.039987508 0.34400001 4279119635
0.10067938 0.039987508 0.34400001 4279449367
0.10179669 0.039987508 0.34400001 4279712537
0.10291401 0.039987508 0.34400001 4279581721
0.10372891 0.039871268 0.34300002 4279384342
0.10484298 0.039871268 0.34300002 4279581721
0.10595704 0.039871268 0.34300002 4279515928
0.10707111 0.039871268 0.34300002 4279384342
0.10818516 0.039871268 0.34300002 4279516443
0.10929923 0.039871268 0.34300002 4279450650
0.1104133 0.039871268 0.34300002 4279384342
0.11152736 0.039871268 0.34300002 4279581721
0.11264143 0.039871268 0.34300002 4279581721
0.11375549 0.039871268 0.34300002 4279384342
0.11520445 0.039987508 0.34400001 4279384342
0.11632176 0.039987508 0.34400001 4279252756
0.11743907 0.039987508 0.34400001 4279252756
0.11855639 0.039987508 0.34400001 4279121170
0.1196737 0.039987508 0.34400001 4279186963
0.12079101 0.039987508 0.34400001 4279055377
0.12155395 0.039871268 0.34300002 4279055375
0.12266801 0.039871268 0.34300002 4279187474
0.12378207 0.039871268 0.34300002 4279319060
0.12489614 0.039871268 0.34300002 4279648025
0.12601019 0.039871268 0.34300002 4279187474
0.12712426 0.039871268 0.34300002 4279319574
0.12823834 0.039871268 0.34300002 4279056402
0.12897527 0.03975502 0.34200001 4279056402
0.13008608 0.03975502 0.34200001 4279122195
0.1311969 0.03975502 0.34200001 4278924816
0.13230772 0.03975502 0.34200001 4279122195
0.13341853 0.03975502 0.34200001 4278924816
0.13452935 0.03975502 0.34200001 4279055888
0.13603678 0.039871268 0.34300002 4279186961
0.13715084 0.039871268 0.34300002 4279055375
0.13866802 0.039987508 0.34400001 4279186961
0.13978532 0.039987508 0.34400001 4279055375
0.14090264 0.039987508 0.34400001 4279844893
0.061267979 0.043256052 0.36200002 4284445799
0.062271263 0.043136563 0.36100003 4284380006
0.063268043 0.043017067 0.36000001 4284117088
0.064258337 0.042897578 0.35900003 4282736201
0.065424368 0.042897578 0.35900003 4280238631
0.066404909 0.042778086 0.35800001 4279779875
0.067567699 0.042778086 0.35800001 4279845668
0.068538494 0.042658594 0.35700002 4280240426
0.069698036 0.042658594 0.35700002 4280043047
0.070659086 0.042539101 0.35600001 4279715106
0.071815372 0.042539101 0.35600001 4279386141
0.072766684 0.042419609 0.35500002 4279451934
0.0737115 0.042300116 0.354 4279320348
0.074649826 0.042180628 0.35300002 4279451164
0.075581647 0.042061135 0.35200003 4279385371
0.076506972 0.041941643 0.35100001 4279187992
0.077425815 0.04182215 0.35000002 4279385371
0.07856261 0.04182215 0.35000002 4279385371
0.079471692 0.041702658 0.34900001 4279186713
0.080605246 0.041702658 0.34900001 4278854416
0.081504591 0.041583166 0.34800002 4280104994
0.082634896 0.041583166 0.34800002 4279449115
0.083765201 0.041583166 0.34800002 4279513625
0.084651552 0.041463673 0.347 4278983949
0.085778609 0.041463673 0.347 4279773467
0.086905658 0.041463673 0.347 4279642649
0.088032715 0.041463673 0.347 4279182098
0.088902831 0.041344184 0.34600002 4279247121
0.090026647 0.041344184 0.34600002 4280365602
0.091150455 0.041344184 0.34600002 4279444500
0.092274264 0.041344184 0.34600002 4279641365
0.093398072 0.041344184 0.34600002 4279905051
0.094521873 0.041344184 0.34600002 4279049742
0.095645688 0.041344184 0.34600002 4279312400
0.096769497 0.041344184 0.34600002 4279246607
0.097893305 0.041344184 0.34600002 4278983435
0.099017113 0.041344184 0.34600002 4279180301
0.10014093 0.041344184 0.34600002 4279051023
0.10097206 0.041224692 0.34500003 4279843612
0.10209262 0.041224692 0.34500003 4279317268
0.10321318 0.041224692 0.34500003 4278921488
0.10403132 0.0411052 0.34400001 4278724109
0.10514864 0.0411052 0.34400001 4278197765
0.10626595 0.0411052 0.34400001 4278394628
0.10738327 0.0411052 0.34400001 4278987279
0.10850057 0.0411052 0.34400001 4279119635
0.10961788 0.0411052 0.34400001 4279382807
0.11073519 0.0411052 0.34400001 4279383320
0.11185251 0.0411052 0.34400001 4279383574
0.11296982 0.0411052 0.34400001 4279515160
0.11408714 0.0411052 0.34400001 4279383574
0.11520445 0.0411052 0.34400001 4279646746
0.11632176 0.0411052 0.34400001 4279449365
0.11743907 0.0411052 0.34400001 4279646744
0.11855639 0.0411052 0.34400001 4279449365
0.1196737 0.0411052 0.34400001 4279646744
0.12079101 0.0411052 0.34400001 4279515928
0.12190833 0.0411052 0.34400001 4279318549
0.12302563 0.0411052 0.34400001 4279318547
0.12414294 0.0411052 0.34400001 4279384340
0.12526026 0.0411052 0.34400001 4279252754
0.12601019 0.040985707 0.34300002 4279186193
0.12712426 0.040985707 0.34300002 4279055377
0.12823834 0.040985707 0.34300002 4278858511
0.12935241 0.040985707 0.34300002 4279187476
0.13046646 0.040985707 0.34300002 4279450648
0.13158052 0.040985707 0.34300002 4279516441
0.13230772 0.040866215 0.34200001 4279319576
0.13341853 0.040866215 0.34200001 4279451162
0.13492273 0.040985707 0.34300002 4279319576
0.13603678 0.040985707 0.34300002 4279056404
0.13715084 0.040985707 0.34300002 4279121683
0.13826491 0.040985707 0.34300002 4278990095
0.13978532 0.0411052 0.34400001 4279121681
0.14090264 0.0411052 0.34400001 4279055890
0.14201996 0.0411052 0.34400001 4279384342
0.061098732 0.044309489 0.36100003 4284445799
0.062271263 0.044309489 0.36100003 4284380006
0.063268043 0.044186745 0.36000001 4284182627
0.064079344 0.043941263 0.35800001 4283985502
0.065242119 0.043941263 0.35800001 4283591514
0.066219419 0.043818522 0.35700002 4280172586
0.067378961 0.043818522 0.35700002 4280304940
0.068346508 0.043695781 0.35600001 4280108840
0.069502793 0.043695781 0.35600001 4279978024
0.070659086 0.043695781 0.35600001 4279649059
0.071613647 0.043573041 0.35500002 4279451680
0.072561711 0.0434503 0.354 4279451934
0.073503278 0.043327559 0.35300002 4279386141
0.074438356 0.043204818 0.35200003 4279648543
0.075581647 0.043204818 0.35200003 4279516957
0.076506972 0.043082077 0.35100001 4279451162
0.077425815 0.042959336 0.35000002 4279451162
0.07856261 0.042959336 0.35000002 4279450396
0.079699412 0.042959336 0.35000002 4278789648
0.080605246 0.042836595 0.34900001 4279249687
0.0817388 0.042836595 0.34900001 4279514141
0.082872353 0.042836595 0.34900001 4279384092
0.083765201 0.042713854 0.34800002 4278657548
0.084895507 0.042713854 0.34800002 4279180816
0.086025812 0.042713854 0.34800002 4279115023
0.08715611 0.042713854 0.34800002 4279115023
0.088032715 0.04259111 0.347 4279575572
0.089159779 0.04259111 0.347 4279312914
0.090286836 0.04259111 0.347 4279312914
0.091413893 0.04259111 0.347 4279115023
0.09254095 0.04259111 0.347 4280102430
0.093668006 0.04259111 0.347 4278852365
0.094795056 0.04259111 0.347 4278983435
0.095922112 0.04259111 0.347 4279510293
0.097049169 0.04259111 0.347 4279773465
0.098176233 0.04259111 0.347 4279773465
0.09930329 0.04259111 0.347 4279180303
0.10043035 0.04259111 0.347 4279841563
0.10126472 0.042468373 0.34600002 4279580440
0.10238854 0.042468373 0.34600002 4279580440
0.10351235 0.042468373 0.34600002 4279448084
0.10463616 0.042468373 0.34600002 4279578902
0.1054543 0.042345632 0.34500003 4279578902
0.10657487 0.042345632 0.34500003 4280171553
0.10769543 0.042345632 0.34500003 4280039967
0.10881598 0.042345632 0.34500003 4279908381
0.10993654 0.042345632 0.34500003 4279776281
0.1110571 0.042345632 0.34500003 4279644697
0.11217767 0.042345632 0.34500003 4279249939
0.11329823 0.042345632 0.34500003 4278789388
0.11441879 0.042345632 0.34500003 4278328837
0.11553934 0.042345632 0.34500003 4278394630
0.11665991 0.042345632 0.34500003 4278789388
0.11778047 0.042345632 0.34500003 4279249939
0.11890103 0.042345632 0.34500003 4279578902
0.1200216 0.042345632 0.34500003 4279908635
0.12114216 0.042345632 0.34500003 4279514647
0.12226272 0.042345632 0.34500003 4279383061
0.12338327 0.042345632 0.34500003 4279448854
0.12414294 0.042222891 0.34400001 4279383059
0.12526026 0.042222891 0.34400001 4279778330
0.12637757 0.042222891 0.34400001 4279515158
0.12749489 0.042222891 0.34400001 4279449365
0.12861221 0.042222891 0.34400001 4279515158
0.12972951 0.042222891 0.34400001 4279449363
0.13046646 0.04210015 0.34300002 4279449363
0.13158052 0.04210015 0.34300002 4279646742
0.13269459 0.04210015 0.34300002 4279252754
0.13380866 0.04210015 0.34300002 4279121681
0.13492273 0.04210015 0.34300002 4278990097
0.13603678 0.04210015 0.34300002 4279121683
0.13715084 0.04210015 0.34300002 4279648027
0.13826491 0.04210015 0.34300002 4279055890
0.13978532 0.042222891 0.34400001 4279450646
0.14090264 0.042222891 0.34400001 4278990095
0.14201996 0.042222891 0.34400001 4279055375
0.14355338 0.042345632 0.34500003 4279580438
0.061098732 0.045482416 0.36100003 4284511592
0.062098764 0.045356423 0.36000001 4284380006
0.063092306 0.045230437 0.35900003 4284248420
0.063900352 0.044978455 0.35700002 4283985502
0.064877644 0.044852462 0.35600001 4283919709
0.065848447 0.044726476 0.35500002 4283986272
0.067001484 0.044726476 0.35500002 4284710508
0.068154521 0.044726476 0.35500002 4281093688
0.069307566 0.044726476 0.35500002 4279515424
0.070262127 0.044600483 0.354 4280108074
0.071411915 0.044600483 0.354 4279779363
0.072356731 0.044474494 0.35300002 4280239914
0.073503278 0.044474494 0.35300002 4279779361
0.074438356 0.044348504 0.35200003 4279516957
0.075366922 0.044222515 0.35100001 4279780129
0.076506972 0.044222515 0.35100001 4279451164
0.077425815 0.044096526 0.35000002 4279648029
0.07856261 0.044096526 0.35000002 4278462988
0.079699412 0.044096526 0.35000002 4278987281
0.080836214 0.044096526 0.35000002 4279053844
0.0817388 0.043970533 0.34900001 4279778080
0.082872353 0.043970533 0.34900001 4279581471
0.084005907 0.043970533 0.34900001 4279975459
0.085139453 0.043970533 0.34900001 4279314965
0.086025812 0.043844543 0.34800002 4278918926
0.08715611 0.043844543 0.34800002 4278983949
0.088286422 0.043844543 0.34800002 4278983949
0.089416727 0.043844543 0.34800002 4278983437
0.090547033 0.043844543 0.34800002 4279180816
0.091677338 0.043844543 0.34800002 4279180303
0.092807643 0.043844543 0.34800002 4279115023
0.093937948 0.043844543 0.34800002 4279115023
0.095068246 0.043844543 0.34800002 4278851851
0.096198551 0.043844543 0.34800002 4279049742
0.097328857 0.043844543 0.34800002 4279642647
0.098459162 0.043844543 0.34800002 4279181326
0.099589467 0.043844543 0.34800002 4279247119
0.10043035 0.04371855 0.347 4279711004
0.1015574 0.04371855 0.347 4279580186
0.10268445 0.04371855 0.347 4278393863
0.10381151 0.04371855 0.347 4278721545
0.10493857 0.04371855 0.347 4279049742
0.10575996 0.043592565 0.34600002 4279049740
0.10688378 0.043592565 0.34600002 4279578389
0.10800759 0.043592565 0.34600002 4279118351
0.10913139 0.043592565 0.34600002 4279513623
0.1102552 0.043592565 0.34600002 4279118865
0.11137901 0.043592565 0.34600002 4279579418
0.11250281 0.043592565 0.34600002 4279908383
0.11362663 0.043592565 0.34600002 4279447832
0.11475044 0.043592565 0.34600002 4279513625
0.11587424 0.043592565 0.34600002 4279711004
0.11699805 0.043592565 0.34600002 4279448602
0.11812185 0.043592565 0.34600002 4279777567
0.11924567 0.043592565 0.34600002 4280039967
0.12036948 0.043592565 0.34600002 4279973660
0.12149329 0.043592565 0.34600002 4279381523
0.1226171 0.043592565 0.34600002 4278789386
0.12338327 0.043466575 0.34500003 4278328835
0.12450383 0.043466575 0.34500003 4278525701
0.12562439 0.043466575 0.34500003 4278459908
0.12674496 0.043466575 0.34500003 4279184144
0.12786552 0.043466575 0.34500003 4279447832
0.12898608 0.043466575 0.34500003 4280105246
0.12972951 0.043340582 0.34400001 4279644695
0.13084681 0.043340582 0.34400001 4279842840
0.13196413 0.043340582 0.34400001 4279514645
0.13269459 0.043214593 0.34300002 4279580438
0.13380866 0.043214593 0.34300002 4279514645
0.13492273 0.043214593 0.34300002 4279778328
0.13603678 0.043214593 0.34300002 4279515156
0.13715084 0.043214593 0.34300002 4279449365
0.13826491 0.043214593 0.34300002 4279186963
0.13937898 0.043214593 0.34300002 4279186963
0.14090264 0.043340582 0.34400001 4279252756
0.14201996 0.043340582 0.34400001 4278923791
0.063721359 0.046009142 0.35600001 4284117088
0.064695403 0.045879904 0.35500002 4283919709
0.06566295 0.045750663 0.354 4284248674
0.066624016 0.045621425 0.35300002 4284511846
0.067770556 0.045621425 0.35300002 4284446823
0.068917103 0.045621425 0.35300002 4284381543
0.070063643 0.045621425 0.35300002 4284776561
0.071210191 0.045621425 0.35300002 4284974710
0.072151758 0.045492187 0.35200003 4284580204
0.073295057 0.045492187 0.35200003 4283395158
0.074226879 0.045362946 0.35100001 4281881919
0.075366922 0.045362946 0.35100001 4280172071
0.076506972 0.045362946 0.35100001 4279251484
0.077425815 0.045233708 0.35000002 4279448861
0.07856261 0.045233708 0.35000002 4279843873
0.079699412 0.045233708 0.35000002 4279974946
0.080836214 0.045233708 0.35000002 4280040739
0.081973009 0.045233708 0.35000002 4280238116
0.082872353 0.045104466 0.34900001 4280172836
0.084005907 0.045104466 0.34900001 4279909664
0.085139453 0.045104466 0.34900001 4279909664
0.086273007 0.045104466 0.34900001 4279909664
0.08715611 0.044975229 0.34800002 4279909151
0.088286422 0.044975229 0.34800002 4279974944
0.089416727 0.044975229 0.34800002 4280039969
0.090547033 0.044975229 0.34800002 4280039715
0.091677338 0.044975229 0.34800002 4280170787
0.092807643 0.044975229 0.34800002 4279774746
0.093937948 0.044975229 0.34800002 4279445783
0.095068246 0.044975229 0.34800002 4279050512
0.096198551 0.044975229 0.34800002 4279049742
0.097328857 0.044975229 0.34800002 4278983949
0.098459162 0.044975229 0.34800002 4279049742
0.099589467 0.044975229 0.34800002 4280169504
0.10071978 0.044975229 0.34800002 4280368932
0.10185007 0.044975229 0.34800002 4279842588
0.10298038 0.044975229 0.34800002 4279248656
0.10411069 0.044975229 0.34800002 4279115533
0.10493857 0.044845987 0.347 4279312400
0.10606562 0.044845987 0.347 4279247121
0.10719269 0.044845987 0.347 4280301344
0.10831974 0.044845987 0.347 4279644184
0.10944679 0.044845987 0.347 4279842074
0.11057385 0.044845987 0.347 4279184146
0.11170091 0.044845987 0.347 4279578904
0.11282796 0.044845987 0.347 4279381525
0.11395502 0.044845987 0.347 4279842588
0.11508209 0.044845987 0.347 4279711002
0.11620913 0.044845987 0.347 4279644697
0.11733619 0.044845987 0.347 4279249939
0.11846325 0.044845987 0.347 4279842588
0.1195903 0.044845987 0.347 4279579416
0.12071736 0.044845987 0.347 4279579670
0.12184442 0.044845987 0.347 4279711256
0.1226171 0.044716749 0.34600002 4279776535
0.1237409 0.044716749 0.34600002 4279973914
0.1248647 0.044716749 0.34600002 4280171293
0.12598851 0.044716749 0.34600002 4279973914
0.12711233 0.044716749 0.34600002 4280566565
0.12823614 0.044716749 0.34600002 4279645209
0.12898608 0.044587512 0.34500003 4279710490
0.13010664 0.044587512 0.34500003 4279644697
0.1312272 0.044587512 0.34500003 4279842074
0.13196413 0.04445827 0.34400001 4278723082
0.13269459 0.044329032 0.34300002 4279579416
0.13380866 0.044329032 0.34300002 4279712026
0.13492273 0.044329032 0.34300002 4279909405
0.13603678 0.044329032 0.34300002 4279712026
0.13715084 0.044329032 0.34300002 4279712024
0.13826491 0.044329032 0.34300002 4279909916
0.13937898 0.044329032 0.34300002 4279647514
0.14049304 0.044329032 0.34300002 4279581721
0.14160711 0.044329032 0.34300002 4279909403
0.064513162 0.046900846 0.354 4283919455
0.065291978 0.046635874 0.35200003 4284445801
0.066435277 0.046635874 0.35200003 4284643180
0.067578569 0.046635874 0.35200003 4284511592
0.068721868 0.046635874 0.35200003 4284840557
0.069865167 0.046635874 0.35200003 4284709741
0.071008459 0.046635874 0.35200003 4284776047
0.072151758 0.046635874 0.35200003 4284644461
0.073086828 0.046503384 0.35100001 4284710254
0.074226879 0.046503384 0.35100001 4284644461
0.075366922 0.046503384 0.35100001 4284776047
0.076289006 0.046370897 0.35000002 4284710768
0.077425815 0.046370897 0.35000002 4284776561
0.07856261 0.046370897 0.35000002 4284579182
0.079699412 0.046370897 0.35000002 4285434231
0.080836214 0.046370897 0.35000002 4285039210
0.081973009 0.046370897 0.35000002 4283526484
0.082872353 0.046238404 0.34900001 4282144066
0.084005907 0.046238404 0.34900001 4280302373
0.085139453 0.046238404 0.34900001 4279579418
0.086273007 0.046238404 0.34900001 4279974176
0.087406561 0.046238404 0.34900001 4279909666
0.088286422 0.046105918 0.34800002 4279778080
0.089416727 0.046105918 0.34800002 4279909664
0.090547033 0.046105918 0.34800002 4280107813
0.091677338 0.046105918 0.34800002 4280107043
0.092807643 0.046105918 0.34800002 4279909918
0.093937948 0.046105918 0.34800002 4279712285
0.095341429 0.046238404 0.34900001 4279909664
0.096474983 0.046238404 0.34900001 4279909664
0.097608536 0.046238404 0.34900001 4279843358
0.09874209 0.046238404 0.34900001 4280171553
0.099875644 0.046238404 0.34900001 4279711772
0.1010092 0.046238404 0.34900001 4279908381
0.10214274 0.046238404 0.34900001 4279578902
0.1032763 0.046238404 0.34900001 4278920459
0.10411069 0.046105918 0.34800002 4279051275
0.10524099 0.046105918 0.34800002 4279248656
0.1063713 0.046105918 0.34800002 4279380242
0.1075016 0.046105918 0.34800002 4279644184
0.10863191 0.046105918 0.34800002 4280170528
0.10944679 0.045973428 0.347 4280302114
0.11057385 0.045973428 0.347 4280039455
0.11170091 0.045973428 0.347 4279973662
0.11282796 0.045973428 0.347 4279184144
0.11395502 0.045973428 0.347 4279315730
0.11541373 0.046105918 0.34800002 4279578902
0.11654403 0.046105918 0.34800002 4280039453
0.11767434 0.046105918 0.34800002 4278789386
0.11846325 0.045973428 0.347 4279578389
0.1195903 0.045973428 0.347 4279315217
0.12071736 0.045973428 0.347 4279183631
0.12184442 0.045973428 0.347 4279315217
0.12297148 0.045973428 0.347 4279775252
0.12409852 0.045973428 0.347 4279841043
0.12522559 0.045973428 0.347 4279644434
0.12635264 0.045973428 0.347 4279315984
0.1274797 0.045973428 0.347 4279315471
0.12860675 0.045973428 0.347 4279118092
0.12935995 0.045840941 0.34600002 4279777565
0.13048376 0.045840941 0.34600002 4279580186
0.1312272 0.045708455 0.34500003 4279710490
0.13234776 0.045708455 0.34500003 4278985230
0.13308145 0.045575965 0.34400001 4279645209
0.13380866 0.045443479 0.34300002 4279514393
0.13492273 0.045443479 0.34300002 4279580440
0.13564017 0.045310989 0.34200001 4279580438
0.13675098 0.045310989 0.34200001 4279843610
0.1378618 0.045310989 0.34200001 4279514645
0.13937898 0.045443479 0.34300002 4279646744
0.14049304 0.045443479 0.34300002 4279843612
0.14160711 0.045443479 0.34300002 4280237086
0.065106489 0.047643814 0.35100001 4284643180
0.066246539 0.047643814 0.35100001 4284840559
0.067386582 0.047643814 0.35100001 4285037938
0.068526633 0.047643814 0.35100001 4284840557
0.069666684 0.047643814 0.35100001 4284972143
0.070806727 0.047643814 0.35100001 4284972913
0.071946777 0.047643814 0.35100001 4284972913
0.073086828 0.047643814 0.35100001 4284972913
0.074226879 0.047643814 0.35100001 4284972913
0.075366922 0.047643814 0.35100001 4285170292
0.076289006 0.04750808 0.35000002 4284972913
0.077425815 0.04750808 0.35000002 4284972913
0.07856261 0.04750808 0.35000002 4284972913
0.079699412 0.04750808 0.35000002 4284972913
0.080836214 0.04750808 0.35000002 4285170546
0.081973009 0.04750808 0.35000002 4285169776
0.083109811 0.04750808 0.35000002 4285169776
0.084005907 0.047372341 0.34900001 4285038190
0.085139453 0.047372341 0.34900001 4285432948
0.086273007 0.047372341 0.34900001 4285302132
0.087406561 0.047372341 0.34900001 4285565563
0.088286422 0.047236603 0.34800002 4285433977
0.089416727 0.047236603 0.34800002 4284909171
0.090547033 0.047236603 0.34800002 4283264346
0.091677338 0.047236603 0.34800002 4281816126
0.092807643 0.047236603 0.34800002 4280763178
0.094207883 0.047372341 0.34900001 4279447832
0.095341429 0.047372341 0.34900001 4279514395
0.096474983 0.047372341 0.34900001 4279843358
0.097608536 0.047372341 0.34900001 4280303139
0.09874209 0.047372341 0.34900001 4280172323
0.099875644 0.047372341 0.34900001 4279975457
0.1010092 0.047372341 0.34900001 4279778078
0.10214274 0.047372341 0.34900001 4279843871
0.1032763 0.047372341 0.34900001 4279974944
0.10440985 0.047372341 0.34900001 4280171807
0.1055434 0.047372341 0.34900001 4280237086
0.1063713 0.047236603 0.34800002 4280237086
0.1075016 0.047236603 0.34800002 4280039453
0.10863191 0.047236603 0.34800002 4280434211
0.10976221 0.047236603 0.34800002 4280171039
0.11089251 0.047236603 0.34800002 4279249937
0.11202282 0.047236603 0.34800002 4279052560
0.11315312 0.047236603 0.34800002 4278196994
0.11428343 0.047236603 0.34800002 4279249426
0.11541373 0.047236603 0.34800002 4278788875
0.11654403 0.047236603 0.34800002 4278920972
0.11767434 0.047236603 0.34800002 4279710488
0.11880464 0.047236603 0.34800002 4279842074
0.11993495 0.047236603 0.34800002 4279776283
0.12106526 0.047236603 0.34800002 4279973660
0.12219556 0.047236603 0.34800002 4279973660
0.12332587 0.047236603 0.34800002 4279644182
0.12445617 0.047236603 0.34800002 4280104987
0.12558647 0.047236603 0.34800002 4279710227
0.12671678 0.047236603 0.34800002 4278986506
0.12784709 0.047236603 0.34800002 4279644184
0.12860675 0.047100864 0.347 4279249426
0.12973382 0.047100864 0.347 4279777819
0.13048376 0.04696513 0.34600002 4279580440
0.13160756 0.04696513 0.34600002 4278854668
0.13234776 0.046829391 0.34500003 4279907356
0.13308145 0.046693653 0.34400001 4279580186
0.13380866 0.046557918 0.34300002 4279712026
0.13492273 0.046557918 0.34300002 4279712024
0.13564017 0.04642218 0.34200001 4279843610
0.13675098 0.04642218 0.34200001 4279843610
0.1378618 0.04642218 0.34200001 4279777817
0.13897261 0.04642218 0.34200001 4279843610
0.14008343 0.04642218 0.34200001 4280171807
0.14160711 0.046557918 0.34300002 4280434465
0.065106489 0.048784252 0.35100001 4284577387
0.066246539 0.048784252 0.35100001 4284840559
0.067386582 0.048784252 0.35100001 4284840559
0.068331406 0.048645265 0.35000002 4284972145
0.069666684 0.048784252 0.35100001 4285037938
0.070806727 0.048784252 0.35100001 4284972915
0.071946777 0.048784252 0.35100001 4284972913
0.073086828 0.048784252 0.35100001 4285301878
0.074226879 0.048784252 0.35100001 4285236085
0.075366922 0.048784252 0.35100001 4285301878
0.076506972 0.048784252 0.35100001 4285301878
0.077647023 0.048784252 0.35100001 4285301878
0.078787073 0.048784252 0.35100001 4285236085
0.079927124 0.048784252 0.35100001 4285236085
0.081067167 0.048784252 0.35100001 4285367671
0.082207218 0.048784252 0.35100001 4285499257
0.083347268 0.048784252 0.35100001 4285366901
0.084487319 0.048784252 0.35100001 4285564280
0.085627362 0.048784252 0.35100001 4285301108
0.086767413 0.048784252 0.35100001 4285432694
0.087907456 0.048784252 0.35100001 4285432694
0.089047506 0.048784252 0.35100001 4285301878
0.090187557 0.048784252 0.35100001 4285236085
0.091327608 0.048784252 0.35100001 4285038706
0.092467658 0.048784252 0.35100001 4285236339
0.093607709 0.048784252 0.35100001 4284907374
0.094747759 0.048784252 0.35100001 4285170546
0.095341429 0.048506279 0.34900001 4285367925
0.096474983 0.048506279 0.34900001 4285894269
0.097608536 0.048506279 0.34900001 4285762429
0.09874209 0.048506279 0.34900001 4284907374
0.099875644 0.048506279 0.34900001 4283130963
0.1010092 0.048506279 0.34900001 4280960557
0.10214274 0.048506279 0.34900001 4280104735
0.1032763 0.048506279 0.34900001 4279579166
0.10440985 0.048506279 0.34900001 4279842338
0.1055434 0.048506279 0.34900001 4280106014
0.10667696 0.048506279 0.34900001 4280040221
0.10781051 0.048506279 0.34900001 4280040221
0.10863191 0.048367295 0.34800002 4280106014
0.10976221 0.048367295 0.34800002 4279909405
0.11089251 0.048367295 0.34800002 4279975198
0.11202282 0.048367295 0.34800002 4280238370
0.11315312 0.048367295 0.34800002 4279909405
0.11428343 0.048367295 0.34800002 4279843612
0.11541373 0.048367295 0.34800002 4280040221
0.11654403 0.048367295 0.34800002 4280434979
0.11767434 0.048367295 0.34800002 4279711256
0.11880464 0.048367295 0.34800002 4280039453
0.11993495 0.048367295 0.34800002 4279776281
0.12106526 0.048367295 0.34800002 4279249424
0.12219556 0.048367295 0.34800002 4278853898
0.12332587 0.048367295 0.34800002 4278590726
0.12445617 0.048367295 0.34800002 4278723082
0.12558647 0.048367295 0.34800002 4279578389
0.12671678 0.048367295 0.34800002 4279775768
0.12784709 0.048367295 0.34800002 4280105248
0.12897739 0.048367295 0.34800002 4279776281
0.1301077 0.048367295 0.34800002 4279842328
0.13086088 0.048228305 0.347 4279250191
0.13160756 0.048089322 0.34600002 4279315732
0.13273136 0.048089322 0.34600002 4279645211
0.13308145 0.047811348 0.34400001 4279777819
0.13380866 0.047672361 0.34300002 4279712026
0.13492273 0.047672361 0.34300002 4279777817
0.13564017 0.047533374 0.34200001 4279777817
0.13675098 0.047533374 0.34200001 4279843610
0.1378618 0.047533374 0.34200001 4279843610
0.13897261 0.047533374 0.34200001 4280171805
0.14008343 0.047533374 0.34200001 4280434465
0.1032763 0.049640216 0.34900001 4285432181
0.10440985 0.049640216 0.34900001 4285564534
0.1055434 0.049640216 0.34900001 4285828476
0.10667696 0.049640216 0.34900001 4285828474
0.10781051 0.049640216 0.34900001 4284907887
0.10894407 0.049640216 0.34900001 4284775786
0.11007761 0.049640216 0.34900001 4283789143
0.11121117 0.049640216 0.34900001 4282933834
0.11234472 0.049640216 0.34900001 4281355315
0.11347827 0.049640216 0.34900001 4280500006
0.11428343 0.049497984 0.34800002 4280302625
0.11541373 0.049497984 0.34800002 4280565797
0.11654403 0.049497984 0.34800002 4279841815
0.11767434 0.049497984 0.34800002 4280368159
0.11880464 0.049497984 0.34800002 4280368159
0.11993495 0.049497984 0.34800002 4280302366
0.12106526 0.049497984 0.34800002 4280696870
0.12219556 0.049497984 0.34800002 4280302112
0.12368025 0.049640216 0.34900001 4280432928
0.1248138 0.049640216 0.34900001 4280301344
0.12594734 0.049640216 0.34900001 4279841563
0.1270809 0.049640216 0.34900001 4280170528
0.12821445 0.049640216 0.34900001 4280104733
0.12897739 0.049497984 0.34800002 4280367135
0.1301077 0.049497984 0.34800002 4279972631
0.131238 0.049497984 0.34800002 4280170780
0.13198793 0.049355745 0.347 4280171293
0.13273136 0.049213514 0.34600002 4279974174
0.13308145 0.048929039 0.34400001 4280040221
0.13380866 0.048786808 0.34300002 4280171805
0.13452935 0.048644569 0.34200001 4280040219
0.13564017 0.048644569 0.34200001 4279974426
0.13675098 0.048644569 0.34200001 4279974426
0.1378618 0.048644569 0.34200001 4280303393
0.13897261 0.048644569 0.34200001 4280038940
0.12368025 0.05077415 0.34900001 4283985237
0.1248138 0.05077415 0.34900001 4283524688
0.12594734 0.05077415 0.34900001 4282669892
0.1270809 0.05077415 0.34900001 4282340927
0.12821445 0.05077415 0.34900001 4280761895
0.12934801 0.05077415 0.34900001 4280498723
0.1301077 0.05062867 0.34800002 4279972377
0.131238 0.05062867 0.34800002 4280366876
0.13198793 0.050483182 0.347 4281024806
0.13311498 0.050483182 0.347 4279906838
0.13424204 0.050483182 0.347 4280434465
0.13536909 0.050483182 0.347 4280434465
0.13452935 0.04975576 0.34200001 4280302877
0.13564017 0.04975576 0.34200001 4280237086
0.13675098 0.04975576 0.34200001 4280497692
0.1378618 0.04975576 0.34200001 4283654988
0.13897261 0.04975576 0.34200001 4286811771
0.13048157 0.051908091 0.34900001 4285760626
0.131238 0.051759358 0.34800002 4285760880
0.1323683 0.051759358 0.34800002 4285958259
0.13311498 0.051610623 0.347 4286220663
0.13424204 0.051610623 0.347 4286418810
0.13536909 0.051610623 0.347 4285893236
0.13649616 0.051610623 0.347 4285695857
0.13762322 0.051610623 0.347 4285959029
0.13875026 0.051610623 0.347 4285958259
0.13987732 0.051610623 0.347 4286155124
0.14100438 0.051610623 0.347 4286351736
0.098487876 0.041064322 0.34720558 4294967295
0.098487876 0.041064322 0.34720558 4294901760
0.098487876 0.041064322 0.34770557 4294901760
0.098487876 0.041064322 0.34820557 4294901760
0.098487876 0.041064322 0.34870559 4294901760
0.098487876 0.041064322 0.34920558 4294901760
0.098487876 0.041064322 0.34970558 4294901760
0.098487876 0.041064322 0.35020557 4294901760
0.098487876 0.041064322 0.35070559 4294901760
0.098487876 0.041064322 0.35120559 4294901760
0.098487876 0.041064322 0.35170558 4294901760
0.098487876 0.041064322 0.35220557 4294901760
0.098487876 0.041064322 0.35270557 4294901760
0.098487876 0.041064322 0.35320559 4294901760
0.098487876 0.041064322 0.35370559 4294901760
0.098487876 0.041064322 0.35420558 4294901760
0.098487876 0.041064322 0.35470557 4294901760
0.098487876 0.041064322 0.3552056 4294901760
0.098487876 0.041064322 0.35570559 4294901760
0.098487876 0.041064322 0.35620558 4294901760
0.098487876 0.041064322 0.35670558 4294901760
0.098487876 0.041064322 0.35720557 4294901760
0.098487876 0.041064322 0.35770559 4294901760
0.098487876 0.041064322 0.35820559 4294901760
0.098487876 0.041064322 0.35870558 4294901760
0.098487876 0.041064322 0.35920557 4294901760
0.098487876 0.041064322 0.35970557 4294901760
0.098487876 0.041064322 0.36020559 4294901760
0.098487876 0.041064322 0.36070558 4294901760
0.098487876 0.041064322 0.36120558 4294901760
0.098487876 0.041064322 0.36170557 4294901760
0.098487876 0.041064322 0.36220559 4294901760
0.098487876 0.041064322 0.36270559 4294901760
0.098487876 0.041064322 0.36320558 4294901760
0.098487876 0.041064322 0.36370558 4294901760
0.098487876 0.041064322 0.3642056 4294901760
0.098487876 0.041064322 0.36470559 4294901760
0.098487876 0.041064322 0.36520559 4294901760
0.098487876 0.041064322 0.36570558 4294901760
0.098487876 0.041064322 0.36620557 4294901760
0.098487876 0.041064322 0.3667056 4294901760
0.098487876 0.041064322 0.36720559 4294901760
0.098487876 0.041064322 0.36770558 4294901760
0.098487876 0.041064322 0.36820558 4294901760
0.098487876 0.041064322 0.36870557 4294901760
0.098487876 0.041064322 0.36920559 4294901760
0.098487876 0.041064322 0.36970559 4294901760
0.098487876 0.041064322 0.37020558 4294901760
0.098487876 0.041064322 0.37070557 4294901760
0.098487876 0.041064322 0.3712056 4294901760
0.098487876 0.041064322 0.37170559 4294901760
0.098487876 0.041064322 0.37220559 4294901760
0.098487876 0.041064322 0.37270558 4294901760
0.098487876 0.041064322 0.37320557 4294901760
0.098487876 0.041064322 0.3737056 4294901760
0.098487876 0.041064322 0.37420559 4294901760
0.098487876 0.041064322 0.37470558 4294901760
0.098487876 0.041064322 0.37520558 4294901760
0.098487876 0.041064322 0.3757056 4294901760
0.098487876 0.041064322 0.37620559 4294901760
0.098487876 0.041064322 0.37670559 4294901760
0.098487876 0.041064322 0.37720558 4294901760
0.098487876 0.041064322 0.37770557 4294901760
0.098487876 0.041064322 0.3782056 4294901760
0.098487876 0.041064322 0.37870559 4294901760
0.098487876 0.041064322 0.37920558 4294901760
0.098487876 0.041064322 0.37970558 4294901760
0.098487876 0.041064322 0.3802056 4294901760
0.098487876 0.041064322 0.3807056 4294901760
0.098487876 0.041064322 0.38120559 4294901760
0.098487876 0.041064322 0.38170558 4294901760
0.098487876 0.041064322 0.38220558 4294901760
