# .PCD v0.7 - Point Cloud Data file format
VERSION 0.7
FIELDS x y z rgb
SIZE 4 4 4 4
TYPE F F F U
COUNT 1 1 1 1
WIDTH 1042
HEIGHT 1
VIEWPOINT 0 0 0 1 0 0 0
POINTS 1042
DATA ascii
0.013674506 0.021890629 0.37900001 4278465552
0.014944828 0.02194839 0.38000003 4278531345
0.01617907 0.02194839 0.38000003 4278532113
0.017413311 0.02194839 0.38000003 4278334734
0.018647552 0.02194839 0.38000003 4278400527
0.019881791 0.02194839 0.38000003 4278597906
0.021116031 0.02194839 0.38000003 4278532113
0.022409089 0.022006148 0.38100001 4278532113
0.023646578 0.022006148 0.38100001 4278532628
0.024884066 0.022006148 0.38100001 4278335249
0.026121555 0.022006148 0.38100001 4278269456
0.027287235 0.02194839 0.38000003 4278203147
0.028521474 0.02194839 0.38000003 4278598419
0.029755717 0.02194839 0.38000003 4278466833
0.030989956 0.02194839 0.38000003 4278598419
0.032139398 0.021890629 0.37900001 4278532626
0.033370391 0.021890629 0.37900001 4278335247
0.034601379 0.021890629 0.37900001 4278598419
0.035832375 0.021890629 0.37900001 4278532624
0.036965575 0.021832872 0.37800002 4278466831
0.038193323 0.021832872 0.37800002 4278468115
0.039421067 0.021832872 0.37800002 4278533908
0.040648807 0.021832872 0.37800002 4278468117
0.041876554 0.021832872 0.37800002 4278533910
0.043104298 0.021832872 0.37800002 4278665496
0.044214763 0.021775112 0.377 4278600216
0.045439258 0.021775112 0.377 4278271251
0.04678753 0.021832872 0.37800002 4278731802
0.048015274 0.021832872 0.37800002 4278666009
0.050737809 0.02194839 0.38000003 4278337044
0.052108813 0.022006148 0.38100001 4278994461
0.053346302 0.022006148 0.38100001 4279125535
0.054583795 0.022006148 0.38100001 4279059488
-0.020336529 0.02403716 0.39400002 4280167457
-0.019105183 0.024098167 0.39500001 4279443223
-0.017822221 0.024098167 0.39500001 4279509016
-0.016539263 0.024098167 0.39500001 4279641881
-0.014754196 0.023305064 0.38200003 4279445783
-0.013513459 0.023305064 0.38200003 4279056152
-0.012240593 0.023244055 0.38100001 4278728724
-0.011003105 0.023244055 0.38100001 4278664214
-0.0097656166 0.023244055 0.38100001 4278730005
-0.0085281283 0.023244055 0.38100001 4278599189
-0.007290639 0.023244055 0.38100001 4278664982
-0.0060531502 0.023244055 0.38100001 4278335247
-0.0048156618 0.023244055 0.38100001 4278466833
-0.0035781732 0.023244055 0.38100001 4278335249
-0.0023406844 0.023244055 0.38100001 4278335249
-0.0011031957 0.023244055 0.38100001 4278532115
0.00013394043 0.023183048 0.38000003 4278663701
0.0013645806 0.023122039 0.37900001 4278400529
0.0025955732 0.023122039 0.37900001 4278532115
0.0038265658 0.023122039 0.37900001 4278792214
0.0050442144 0.023061031 0.37800002 4278198280
0.0062719584 0.023061031 0.37800002 4278595603
0.0074997037 0.023061031 0.37800002 4278859543
0.0087274481 0.023061031 0.37800002 4278197509
0.0099551929 0.023061031 0.37800002 4278262279
0.011182938 0.023061031 0.37800002 4278393095
0.012443515 0.023122039 0.37900001 4278195717
0.013674506 0.023122039 0.37900001 4278196230
0.014905499 0.023122039 0.37900001 4278197256
0.01617907 0.023183048 0.38000003 4278197763
0.017413311 0.023183048 0.38000003 4278330634
0.018647552 0.023183048 0.38000003 4278726160
0.019881791 0.023183048 0.38000003 4278726160
0.021116031 0.023183048 0.38000003 4278858773
0.022350272 0.023183048 0.38000003 4278727187
0.023646578 0.023244055 0.38100001 4278531091
0.024884066 0.023244055 0.38100001 4278531091
0.026121555 0.023244055 0.38100001 4278728470
0.027287235 0.023183048 0.38000003 4278400529
0.028521474 0.023183048 0.38000003 4278334734
0.029755717 0.023183048 0.38000003 4278532113
0.030989956 0.023183048 0.38000003 4278597906
0.032139398 0.023122039 0.37900001 4278269454
0.033370391 0.023122039 0.37900001 4278269454
0.034601379 0.023122039 0.37900001 4278203661
0.035832375 0.023122039 0.37900001 4278334734
0.036965575 0.023061031 0.37800002 4278334734
0.038193323 0.023061031 0.37800002 4278532626
0.039421067 0.023061031 0.37800002 4278532626
0.040648807 0.023061031 0.37800002 4278336019
0.041876554 0.023061031 0.37800002 4278204433
0.043104298 0.023061031 0.37800002 4278401812
0.044332046 0.023061031 0.37800002 4278204176
0.04555979 0.023061031 0.37800002 4278204433
0.04678753 0.023061031 0.37800002 4278665496
0.048015274 0.023061031 0.37800002 4278731289
0.049503569 0.023183048 0.38000003 4278797082
0.050737809 0.023183048 0.38000003 4278797595
0.052108813 0.023244055 0.38100001 4278862875
0.053346302 0.023244055 0.38100001 4278862875
0.054583795 0.023244055 0.38100001 4278731291
0.0559678 0.023305064 0.38200003 4278797084
0.057208531 0.023305064 0.38200003 4278797084
0.058602277 0.023366071 0.38300002 4278928668
0.059846263 0.023366071 0.38300002 4278928668
0.061090246 0.023366071 0.38300002 4279125535
0.062496983 0.023427079 0.384 4279452965
-0.020388143 0.025381563 0.39500001 4279641113
-0.019105183 0.025381563 0.39500001 4279639830
-0.017822221 0.025381563 0.39500001 4279837979
-0.01595306 0.024481965 0.38100001 4279576088
-0.014754196 0.024546223 0.38200003 4279577369
-0.013478083 0.024481965 0.38100001 4279319324
-0.012240593 0.024481965 0.38100001 4278531345
-0.011003105 0.024481965 0.38100001 4278664214
-0.0097656166 0.024481965 0.38100001 4278795800
-0.0085057449 0.024417708 0.38000003 4278533398
-0.0072715036 0.024417708 0.38000003 4278467605
-0.0060531502 0.024481965 0.38100001 4278203919
-0.0048156618 0.024481965 0.38100001 4278467605
-0.0035781732 0.024481965 0.38100001 4278335249
-0.0023345409 0.024417708 0.38000003 4278466835
-0.0011003002 0.024417708 0.38000003 4278466835
0.00013394043 0.024417708 0.38000003 4278664214
0.0013645806 0.02435345 0.37900001 4278532115
0.0025955732 0.02435345 0.37900001 4278531345
0.0038164693 0.024289194 0.37800002 4278789650
0.0050442144 0.024289194 0.37800002 4278787855
0.0062719584 0.024289194 0.37800002 4278726673
0.0074997037 0.024289194 0.37800002 4279056152
0.0087274481 0.024289194 0.37800002 4278392843
0.0099551929 0.024289194 0.37800002 4278392330
0.011182938 0.024289194 0.37800002 4278654218
0.012443515 0.02435345 0.37900001 4278654218
0.013674506 0.02435345 0.37900001 4278522632
0.014905499 0.02435345 0.37900001 4278720011
0.01617907 0.024417708 0.38000003 4278654218
0.017413311 0.024417708 0.38000003 4278523146
0.018647552 0.024417708 0.38000003 4278391560
0.019881791 0.024417708 0.38000003 4278391560
0.021116031 0.024417708 0.38000003 4278392330
0.022350272 0.024417708 0.38000003 4278260744
0.023646578 0.024481965 0.38100001 4278196482
0.024884066 0.024481965 0.38100001 4278198022
0.026121555 0.024481965 0.38100001 4278195713
0.027287235 0.024417708 0.38000003 4278195457
0.028521474 0.024417708 0.38000003 4278195968
0.029755717 0.024417708 0.38000003 4278196225
0.030989956 0.024417708 0.38000003 4278330380
0.032139398 0.02435345 0.37900001 4278199564
0.033370391 0.02435345 0.37900001 4278397710
0.034601379 0.02435345 0.37900001 4279055640
0.035832375 0.02435345 0.37900001 4278727187
0.037063368 0.02435345 0.37900001 4278924566
0.03829436 0.02435345 0.37900001 4278398992
0.039525352 0.02435345 0.37900001 4278464785
0.040648807 0.024289194 0.37800002 4278794263
0.041876554 0.024289194 0.37800002 4278465298
0.043104298 0.024289194 0.37800002 4278531091
0.044332046 0.024289194 0.37800002 4278400275
0.045680314 0.02435345 0.37900001 4278334482
0.046911307 0.02435345 0.37900001 4278203150
0.048142299 0.02435345 0.37900001 4278269454
0.049503569 0.024417708 0.38000003 4278466833
0.050871328 0.024481965 0.38100001 4278730005
0.052108813 0.024481965 0.38100001 4278598419
0.053486321 0.024546223 0.38200003 4278599189
0.054727063 0.024546223 0.38200003 4278533396
0.056114309 0.024610478 0.38300002 4278665496
0.057358291 0.024610478 0.38300002 4278797082
0.058602277 0.024610478 0.38300002 4278928668
0.060002517 0.024674736 0.384 4278928668
0.061249748 0.024674736 0.384 4278928668
0.062496983 0.024674736 0.384 4278928670
0.063910216 0.024738993 0.38500002 4279256097
-0.020388143 0.026664959 0.39500001 4279443734
-0.019105183 0.026664959 0.39500001 4279837209
-0.017822221 0.026664959 0.39500001 4279772186
-0.01595306 0.025719872 0.38100001 4279642649
-0.014715571 0.025719872 0.38100001 4279577367
-0.013478083 0.025719872 0.38100001 4279319064
-0.012240593 0.025719872 0.38100001 4278859797
-0.011003105 0.025719872 0.38100001 4278664214
-0.0097399848 0.025652368 0.38000003 4278730007
-0.0085057449 0.025652368 0.38000003 4278598421
-0.0072715036 0.025652368 0.38000003 4278532628
-0.0060372627 0.025652368 0.38000003 4278466835
-0.0048030224 0.025652368 0.38000003 4278466835
-0.0035687818 0.025652368 0.38000003 4278598421
-0.0023345409 0.025652368 0.38000003 4278532628
-0.0011003002 0.025652368 0.38000003 4278335249
0.00013358794 0.02558486 0.37900001 4278532628
0.0013645806 0.02558486 0.37900001 4278335249
0.0025955732 0.02558486 0.37900001 4278400529
0.0038164693 0.025517354 0.37800002 4278197769
0.0050442144 0.025517354 0.37800002 4279380762
0.0062719584 0.025517354 0.37800002 4278727187
0.0074997037 0.025517354 0.37800002 4278858259
0.0087274481 0.025517354 0.37800002 4278523146
0.0099551929 0.025517354 0.37800002 4279181076
0.011182938 0.025517354 0.37800002 4278785291
0.012443515 0.02558486 0.37900001 4278983183
0.013674506 0.02558486 0.37900001 4278654220
0.014905499 0.02558486 0.37900001 4278522634
0.016136492 0.02558486 0.37900001 4278456839
0.017413311 0.025652368 0.38000003 4278720011
0.018647552 0.025652368 0.38000003 4278654218
0.019881791 0.025652368 0.38000003 4278654220
0.021116031 0.025652368 0.38000003 4278719500
0.022350272 0.025652368 0.38000003 4278587914
0.023584513 0.025652368 0.38000003 4278789650
0.024884066 0.025719872 0.38100001 4279054873
0.026121555 0.025719872 0.38100001 4278792468
0.027359042 0.025719872 0.38100001 4278923541
0.028521474 0.025652368 0.38000003 4279055127
0.029755717 0.025652368 0.38000003 4279055127
0.030989956 0.025652368 0.38000003 4279186713
0.032224201 0.025652368 0.38000003 4279318299
0.033370391 0.02558486 0.37900001 4278922771
0.034601379 0.02558486 0.37900001 4278593293
0.035832375 0.02558486 0.37900001 4278461453
0.037063368 0.02558486 0.37900001 4278196999
0.03829436 0.02558486 0.37900001 4278195456
0.039525352 0.02558486 0.37900001 4278195714
0.040756345 0.02558486 0.37900001 4278195457
0.041987337 0.02558486 0.37900001 4278195200
0.04321833 0.02558486 0.37900001 4278195456
0.044449326 0.02558486 0.37900001 4278198024
0.045680314 0.02558486 0.37900001 4278330380
0.047035087 0.025652368 0.38000003 4278857748
0.048269324 0.025652368 0.38000003 4278726673
0.049633838 0.025719872 0.38100001 4278595601
0.050871328 0.025719872 0.38100001 4278530578
0.052245583 0.02578738 0.38200003 4278530832
0.053486321 0.02578738 0.38200003 4278465552
0.054870322 0.025854886 0.38300002 4278729494
0.056114309 0.025854886 0.38300002 4278795798
0.057508048 0.02592239 0.384 4278466833
0.058755282 0.02592239 0.384 4278598419
0.060158778 0.025989898 0.38500002 4278730005
0.061409254 0.025989898 0.38500002 4278796570
0.062659733 0.025989898 0.38500002 4278862877
0.064076215 0.026057404 0.38600001 4278797084
0.065499194 0.02612491 0.38700002 4278467605
-0.020388143 0.027948353 0.39500001 4279706906
-0.019105183 0.027948353 0.39500001 4279771416
-0.017822221 0.027948353 0.39500001 4279772186
-0.01595306 0.02695778 0.38100001 4279576856
-0.014715571 0.02695778 0.38100001 4279380758
-0.013478083 0.02695778 0.38100001 4279122199
-0.012240593 0.02695778 0.38100001 4278860308
-0.011003105 0.02695778 0.38100001 4278664212
-0.0097399848 0.026887026 0.38000003 4278730005
-0.0085057449 0.026887026 0.38000003 4278664212
-0.0072715036 0.026887026 0.38000003 4278466833
-0.0060372627 0.026887026 0.38000003 4278532628
-0.0048030224 0.026887026 0.38000003 4278335249
-0.0035687818 0.026887026 0.38000003 4278335249
-0.0023345409 0.026887026 0.38000003 4278335249
-0.0010974046 0.026816269 0.37900001 4278335249
0.00013358794 0.026816269 0.37900001 4278664214
0.0013645806 0.026816269 0.37900001 4278532115
0.0025887247 0.026745515 0.37800002 4278532115
0.0038164693 0.026745515 0.37800002 4278196999
0.0050442144 0.026745515 0.37800002 4279381273
0.0062719584 0.026745515 0.37800002 4278858773
0.0074997037 0.026745515 0.37800002 4278595087
0.0087274481 0.026745515 0.37800002 4278588939
0.0099551929 0.026745515 0.37800002 4279773213
0.011182938 0.026745515 0.37800002 4279181846
0.012443515 0.026816269 0.37900001 4278523916
0.013674506 0.026816269 0.37900001 4279906082
0.014905499 0.026816269 0.37900001 4278656015
0.016136492 0.026816269 0.37900001 4279116820
0.017413311 0.026887026 0.38000003 4279314199
0.018647552 0.026887026 0.38000003 4278918928
0.019881791 0.026887026 0.38000003 4278918928
0.021116031 0.026887026 0.38000003 4279444248
0.022350272 0.026887026 0.38000003 4278588939
0.023584513 0.026887026 0.38000003 4278592269
0.024884066 0.02695778 0.38100001 4278989847
0.026121555 0.02695778 0.38100001 4278530580
0.027359042 0.02695778 0.38100001 4278200074
0.028521474 0.026887026 0.38000003 4278198534
0.029755717 0.026887026 0.38000003 4278595089
0.030989956 0.026887026 0.38000003 4278661396
0.032224201 0.026887026 0.38000003 4278661396
0.033458438 0.026887026 0.38000003 4278990361
0.034692679 0.026887026 0.38000003 4278924566
0.035926919 0.026887026 0.38000003 4279121431
0.037063368 0.026816269 0.37900001 4278858259
0.03829436 0.026816269 0.37900001 4279120918
0.039525352 0.026816269 0.37900001 4279252504
0.040756345 0.026816269 0.37900001 4279055640
0.042098124 0.026887026 0.38000003 4279121433
0.043332364 0.026887026 0.38000003 4279055127
0.044566605 0.026887026 0.38000003 4279120920
0.045800846 0.026887026 0.38000003 4279120666
0.047035087 0.026887026 0.38000003 4278988310
0.048396349 0.02695778 0.38100001 4278658832
0.049633838 0.02695778 0.38100001 4279052820
0.051004853 0.027028536 0.38200003 4278329099
0.052245583 0.027028536 0.38200003 4278197513
0.053626336 0.027099291 0.38300002 4278195712
0.054870322 0.027099291 0.38300002 4278196225
0.05626082 0.027170045 0.384 4278531345
0.057508048 0.027170045 0.384 4278662929
0.058908295 0.027240802 0.38500002 4278729492
0.060158778 0.027240802 0.38500002 4278597906
0.061568756 0.027311556 0.38600001 4278597908
0.062822483 0.027311556 0.38600001 4278664214
0.064076215 0.027311556 0.38600001 4278796570
0.065499194 0.027382312 0.38700002 4278795800
0.066756174 0.027382312 0.38700002 4280371762
-0.020388143 0.029231749 0.39500001 4279772699
-0.019105183 0.029231749 0.39500001 4279903002
-0.017235668 0.028269693 0.38200003 4279969565
-0.015994933 0.028269693 0.38200003 4279840028
-0.014715571 0.028195687 0.38100001 4279447578
-0.013478083 0.028195687 0.38100001 4279319578
-0.012240593 0.028195687 0.38100001 4278794517
-0.011003105 0.028195687 0.38100001 4278664214
-0.0097656166 0.028195687 0.38100001 4278533398
-0.0085057449 0.028121684 0.38000003 4278599191
-0.0072715036 0.028121684 0.38000003 4278533398
-0.0060372627 0.028121684 0.38000003 4278401810
-0.0048030224 0.028121684 0.38000003 4278335247
-0.0035687818 0.028121684 0.38000003 4278466835
-0.0023283972 0.028047679 0.37900001 4278335249
-0.0010974046 0.028047679 0.37900001 4278335249
0.00013358794 0.028047679 0.37900001 4278466835
0.0013609801 0.027973674 0.37800002 4278400529
0.0025887247 0.027973674 0.37800002 4278728724
0.0038164693 0.027973674 0.37800002 4278591757
0.0050442144 0.027973674 0.37800002 4279249687
0.0062719584 0.027973674 0.37800002 4278858775
0.0074997037 0.027973674 0.37800002 4278594322
0.0087274481 0.027973674 0.37800002 4278588939
0.0099551929 0.027973674 0.37800002 4279379225
0.011182938 0.027973674 0.37800002 4278656269
0.012443515 0.028047679 0.37900001 4278985234
0.013674506 0.028047679 0.37900001 4279577117
0.014905499 0.028047679 0.37900001 4278327050
0.016136492 0.028047679 0.37900001 4279511578
0.017367486 0.028047679 0.37900001 4278458377
0.018647552 0.028121684 0.38000003 4278327304
0.019881791 0.028121684 0.38000003 4279380760
0.021116031 0.028121684 0.38000003 4278196486
0.022350272 0.028121684 0.38000003 4278589193
0.023584513 0.028121684 0.38000003 4278987797
0.024884066 0.028195687 0.38100001 4278727187
0.026121555 0.028195687 0.38100001 4278264841
0.027359042 0.028195687 0.38100001 4278262277
0.02859653 0.028195687 0.38100001 4278392582
0.029834021 0.028195687 0.38100001 4278195715
0.030989956 0.028121684 0.38000003 4278331663
0.032224201 0.028121684 0.38000003 4279055386
0.033458438 0.028121684 0.38000003 4278199820
0.034692679 0.028121684 0.38000003 4278594835
0.035926919 0.028121684 0.38000003 4278200077
0.03716116 0.028121684 0.38000003 4278198536
0.038395401 0.028121684 0.38000003 4278199303
0.039629642 0.028121684 0.38000003 4278858773
0.040863883 0.028121684 0.38000003 4278661394
0.042098124 0.028121684 0.38000003 4278727187
0.043332364 0.028121684 0.38000003 4278858773
0.044683885 0.028195687 0.38100001 4278727957
0.045921374 0.028195687 0.38100001 4278925336
0.04715886 0.028195687 0.38100001 4278727957
0.048396349 0.028195687 0.38100001 4278596371
0.049764112 0.028269693 0.38200003 4278727957
0.051004853 0.028269693 0.38200003 4278596371
0.05238235 0.028343696 0.38300002 4278727957
0.053626336 0.028343696 0.38300002 4278858007
0.055013586 0.028417701 0.384 4278196228
0.05626082 0.028417701 0.384 4278595601
0.057657812 0.028491706 0.38500002 4278531345
0.058908295 0.028491706 0.38500002 4278400529
0.060315032 0.028565709 0.38600001 4278729494
0.061568756 0.028565709 0.38600001 4278532115
0.062822483 0.028565709 0.38600001 4278334736
0.064242221 0.028639715 0.38700002 4278597908
0.065499194 0.028639715 0.38700002 4278663447
0.066756174 0.028639715 0.38700002 4278792216
-0.020388143 0.030515144 0.39500001 4279903772
-0.019105183 0.030515144 0.39500001 4279968795
-0.017235668 0.02951085 0.38200003 4280232737
-0.015994933 0.02951085 0.38200003 4279840028
-0.014715571 0.029433595 0.38100001 4279579164
-0.013478083 0.029433595 0.38100001 4279319578
-0.012240593 0.029433595 0.38100001 4278859797
-0.011003105 0.029433595 0.38100001 4278663701
-0.0097656166 0.029433595 0.38100001 4278795800
-0.0085057449 0.029356342 0.38000003 4278533398
-0.0072715036 0.029356342 0.38000003 4278467605
-0.0060372627 0.029356342 0.38000003 4278467603
-0.0048030224 0.029356342 0.38000003 4278269454
-0.0035687818 0.029356342 0.38000003 4278597906
-0.0023283972 0.029279089 0.37900001 4278400527
-0.0010974046 0.029279089 0.37900001 4278400529
0.00013323547 0.029201835 0.37800002 4278729494
0.0013609801 0.029201835 0.37800002 4278400529
0.0025887247 0.029201835 0.37800002 4278267660
0.0038164693 0.029201835 0.37800002 4278524683
0.0050442144 0.029201835 0.37800002 4278393097
0.0062719584 0.029201835 0.37800002 4278858521
0.0074997037 0.029201835 0.37800002 4278199564
0.0087274481 0.029201835 0.37800002 4278654732
0.0099551929 0.029201835 0.37800002 4278720011
0.011182938 0.029201835 0.37800002 4278654218
0.012443515 0.029279089 0.37900001 4278587912
0.013674506 0.029279089 0.37900001 4278523146
0.014905499 0.029279089 0.37900001 4278523146
0.016136492 0.029279089 0.37900001 4278523146
0.017367486 0.029279089 0.37900001 4278523146
0.018647552 0.029356342 0.38000003 4278984721
0.019881791 0.029356342 0.38000003 4278986002
0.021116031 0.029356342 0.38000003 4279775516
0.022350272 0.029356342 0.38000003 4278589191
0.023584513 0.029356342 0.38000003 4279053844
0.024818754 0.029356342 0.38000003 4278792466
0.026121555 0.029433595 0.38100001 4278196484
0.027359042 0.029433595 0.38100001 4278523400
0.02859653 0.029433595 0.38100001 4278786572
0.029834021 0.029433595 0.38100001 4278260998
0.031071508 0.029433595 0.38100001 4278198023
0.032308999 0.029433595 0.38100001 4278989593
0.033458438 0.029356342 0.38000003 4279054873
0.034692679 0.029356342 0.38000003 4278660115
0.035926919 0.029356342 0.38000003 4278462736
0.03716116 0.029356342 0.38000003 4279120920
0.038395401 0.029356342 0.38000003 4278331404
0.039629642 0.029356342 0.38000003 4278594576
0.040971417 0.029433595 0.38100001 4279252506
0.042208906 0.029433595 0.38100001 4278196224
0.043446396 0.029433595 0.38100001 4278660369
0.044683885 0.029433595 0.38100001 4278660369
0.045921374 0.029433595 0.38100001 4278198019
0.04728264 0.02951085 0.38200003 4278198536
0.048523374 0.02951085 0.38200003 4278595603
0.049764112 0.02951085 0.38200003 4278661396
0.051138371 0.029588103 0.38300002 4278661396
0.05238235 0.029588103 0.38300002 4278596373
0.053766351 0.029665355 0.384 4278529810
0.055013586 0.029665355 0.384 4278195712
0.056407336 0.02974261 0.38500002 4278792466
0.057657812 0.02974261 0.38500002 4278662931
0.0590613 0.029819863 0.38600001 4278532115
0.060315032 0.029819863 0.38600001 4278532115
0.061568756 0.029819863 0.38600001 4278597908
0.062822483 0.029819863 0.38600001 4278532115
0.064242221 0.029897118 0.38700002 4278465552
0.065499194 0.029897118 0.38700002 4278662677
0.066756174 0.029897118 0.38700002 4278660632
-0.021945423 0.032201052 0.40000001 4279707160
-0.017235668 0.030752007 0.38200003 4279509014
-0.015994933 0.030752007 0.38200003 4279577367
-0.014754196 0.030752007 0.38200003 4279382039
-0.013478083 0.030671503 0.38100001 4279057176
-0.012240593 0.030671503 0.38100001 4278991894
-0.011003105 0.030671503 0.38100001 4278795285
-0.0097656166 0.030671503 0.38100001 4278861080
-0.0085281283 0.030671503 0.38100001 4278664214
-0.0072715036 0.030591002 0.38000003 4278467605
-0.0060372627 0.030591002 0.38000003 4278335249
-0.0048030224 0.030591002 0.38000003 4278335247
-0.0035593901 0.030510496 0.37900001 4278400527
-0.0023283972 0.030510496 0.37900001 4278663699
-0.0010974046 0.030510496 0.37900001 4278597906
0.00013323547 0.030429995 0.37800002 4278532113
0.0013609801 0.030429995 0.37800002 4278400527
0.0025887247 0.030429995 0.37800002 4278465552
0.0038164693 0.030429995 0.37800002 4279185689
0.0050442144 0.030429995 0.37800002 4279382555
0.0062719584 0.030429995 0.37800002 4278989845
0.0074997037 0.030429995 0.37800002 4278660369
0.0087274481 0.030429995 0.37800002 4278720265
0.0099551929 0.030429995 0.37800002 4278654472
0.011182938 0.030429995 0.37800002 4278654218
0.012443515 0.030510496 0.37900001 4278719500
0.013674506 0.030510496 0.37900001 4278785293
0.014905499 0.030510496 0.37900001 4278719498
0.016136492 0.030510496 0.37900001 4278719498
0.017413311 0.030591002 0.38000003 4278719498
0.018647552 0.030591002 0.38000003 4278654220
0.019881791 0.030591002 0.38000003 4278522634
0.021116031 0.030591002 0.38000003 4278523146
0.022350272 0.030591002 0.38000003 4278391814
0.023584513 0.030591002 0.38000003 4278988562
0.024818754 0.030591002 0.38000003 4278858513
0.026121555 0.030671503 0.38100001 4278195973
0.027359042 0.030671503 0.38100001 4278392330
0.02859653 0.030671503 0.38100001 4278588939
0.029834021 0.030671503 0.38100001 4279445270
0.031071508 0.030671503 0.38100001 4278593552
0.032308999 0.030671503 0.38100001 4278330380
0.033546485 0.030671503 0.38100001 4278197508
0.034783974 0.030671503 0.38100001 4279054873
0.036021464 0.030671503 0.38100001 4278198537
0.037258953 0.030671503 0.38100001 4279186459
0.038496442 0.030671503 0.38100001 4278198790
0.039733931 0.030671503 0.38100001 4279120920
0.040971417 0.030671503 0.38100001 4278198024
0.042208906 0.030671503 0.38100001 4278658832
0.043446396 0.030671503 0.38100001 4278329867
0.044801168 0.030752007 0.38200003 4278198024
0.046041902 0.030752007 0.38200003 4278791703
0.04728264 0.030752007 0.38200003 4278461968
0.048523374 0.030752007 0.38200003 4278461968
0.049894385 0.030832509 0.38300002 4279250971
0.051138371 0.030832509 0.38300002 4278330380
0.052519117 0.03091301 0.384 4278727189
0.053766351 0.03091301 0.384 4278727959
0.055013586 0.03091301 0.384 4278196481
0.056407336 0.030993514 0.38500002 4278595601
0.057657812 0.030993514 0.38500002 4278662931
0.0590613 0.031074015 0.38600001 4278532115
0.060315032 0.031074015 0.38600001 4278532115
0.061568756 0.031074015 0.38600001 4278532115
0.062822483 0.031074015 0.38600001 4278729494
0.064242221 0.031154519 0.38700002 4278532115
0.065499194 0.031154519 0.38700002 4278794263
0.066756174 0.031154519 0.38700002 4278529558
-0.017235668 0.031993162 0.38200003 4284380006
-0.01595306 0.03190941 0.38100001 4279314715
-0.014754196 0.031993162 0.38200003 4279777313
-0.013513459 0.031993162 0.38200003 4278991896
-0.012240593 0.03190941 0.38100001 4278794517
-0.011003105 0.03190941 0.38100001 4278861078
-0.0097656166 0.03190941 0.38100001 4278729492
-0.0085281283 0.03190941 0.38100001 4278664212
-0.007290639 0.03190941 0.38100001 4278598419
-0.0060372627 0.031825658 0.38000003 4278466833
-0.0048030224 0.031825658 0.38000003 4278598419
-0.0035593901 0.031741906 0.37900001 4278598419
-0.0023283972 0.031741906 0.37900001 4278466833
-0.0010945091 0.031658158 0.37800002 4278269454
0.00013323547 0.031658158 0.37800002 4278730005
0.0013609801 0.031658158 0.37800002 4278400527
0.0025818762 0.031574402 0.377 4278200841
0.0038063726 0.031574402 0.377 4278528013
0.0050308695 0.031574402 0.377 4278198023
0.0062553659 0.031574402 0.377 4278858773
0.0074997037 0.031658158 0.37800002 4279121945
0.0087274481 0.031658158 0.37800002 4279055127
0.0099551929 0.031658158 0.37800002 4279186459
0.011182938 0.031658158 0.37800002 4279250971
0.012443515 0.031741906 0.37900001 4279183894
0.013674506 0.031741906 0.37900001 4279314199
0.014905499 0.031741906 0.37900001 4278656269
0.016136492 0.031741906 0.37900001 4278325767
0.017413311 0.031825658 0.38000003 4278391560
0.018647552 0.031825658 0.38000003 4278194181
0.019881791 0.031825658 0.38000003 4278391560
0.021116031 0.031825658 0.38000003 4278654220
0.022350272 0.031825658 0.38000003 4278391046
0.023584513 0.031825658 0.38000003 4279119637
0.024884066 0.03190941 0.38100001 4278725390
0.026121555 0.03190941 0.38100001 4278856213
0.027359042 0.03190941 0.38100001 4279249689
0.02859653 0.03190941 0.38100001 4279578139
0.029834021 0.03190941 0.38100001 4279381271
0.031071508 0.03190941 0.38100001 4279317529
0.032308999 0.03190941 0.38100001 4278923541
0.033546485 0.03190941 0.38100001 4278858261
0.034783974 0.03190941 0.38100001 4278989847
0.036021464 0.03190941 0.38100001 4279187226
0.037258953 0.03190941 0.38100001 4278989847
0.038496442 0.03190941 0.38100001 4279055640
0.039733931 0.03190941 0.38100001 4278858261
0.040971417 0.03190941 0.38100001 4278791955
0.042208906 0.03190941 0.38100001 4278923541
0.04356043 0.031993162 0.38200003 4278988564
0.044801168 0.031993162 0.38200003 4279317529
0.046041902 0.031993162 0.38200003 4278198277
0.04728264 0.031993162 0.38200003 4278264587
0.048650399 0.032076914 0.38300002 4279383068
0.049894385 0.032076914 0.38300002 4278329869
0.051271889 0.032160666 0.384 4278197512
0.052519117 0.032160666 0.384 4278989847
0.053766351 0.032160666 0.384 4278595603
0.055156853 0.032244418 0.38500002 4278197252
0.056407336 0.032244418 0.38500002 4279056406
0.057657812 0.032244418 0.38500002 4278597908
0.0590613 0.03232817 0.38600001 4278597908
0.060315032 0.03232817 0.38600001 4278532115
0.061568756 0.03232817 0.38600001 4278597908
0.062822483 0.03232817 0.38600001 4278597908
0.064076215 0.03232817 0.38600001 4278531091
0.065499194 0.032411922 0.38700002 4278860056
0.066756174 0.032411922 0.38700002 4278529558
0.068013154 0.032411922 0.38700002 4284646258
-0.01595306 0.033147316 0.38100001 4280894514
-0.014754196 0.033234321 0.38200003 4278987547
-0.013513459 0.033234321 0.38200003 4279254301
-0.012272721 0.033234321 0.38200003 4278925849
-0.011003105 0.033147316 0.38100001 4278729240
-0.0097656166 0.033147316 0.38100001 4278795033
-0.0085281283 0.033147316 0.38100001 4278664214
-0.007290639 0.033147316 0.38100001 4278466835
-0.0060372627 0.03306032 0.38000003 4278664212
-0.0048030224 0.03306032 0.38000003 4278532626
-0.0035593901 0.032973316 0.37900001 4278598419
-0.0023283972 0.032973316 0.37900001 4278466833
-0.0010945091 0.032886315 0.37800002 4278334734
0.00013323547 0.032886315 0.37800002 4278597906
0.0013609801 0.032886315 0.37800002 4278597906
0.0025818762 0.032799315 0.377 4278400529
0.0038063726 0.032799315 0.377 4279187738
0.0050308695 0.032799315 0.377 4278989845
0.0062553659 0.032799315 0.377 4278924566
0.0074798628 0.032799315 0.377 4278530578
0.0087274481 0.032886315 0.37800002 4278662677
0.0099551929 0.032886315 0.37800002 4278662677
0.011182938 0.032886315 0.37800002 4278728470
0.012443515 0.032973316 0.37900001 4278793750
0.013674506 0.032973316 0.37900001 4278924568
0.014905499 0.032973316 0.37900001 4278727189
0.01617907 0.03306032 0.38000003 4278989847
0.017413311 0.03306032 0.38000003 4279055640
0.018647552 0.03306032 0.38000003 4278923541
0.019881791 0.03306032 0.38000003 4278923541
0.021116031 0.03306032 0.38000003 4278923541
0.022350272 0.03306032 0.38000003 4279384092
0.023646578 0.033147316 0.38100001 4278857748
0.024884066 0.033147316 0.38100001 4278726162
0.026121555 0.033147316 0.38100001 4278987797
0.027359042 0.033147316 0.38100001 4279052820
0.02859653 0.033147316 0.38100001 4278197511
0.029834021 0.033147316 0.38100001 4278196740
0.031071508 0.033147316 0.38100001 4278195712
0.032308999 0.033147316 0.38100001 4278194432
0.033546485 0.033147316 0.38100001 4278194176
0.034783974 0.033147316 0.38100001 4278194432
0.036021464 0.033147316 0.38100001 4278195970
0.037258953 0.033147316 0.38100001 4278196996
0.038496442 0.033147316 0.38100001 4278264587
0.039733931 0.033147316 0.38100001 4278396943
0.040971417 0.033147316 0.38100001 4278857494
0.042208906 0.033147316 0.38100001 4278791701
0.04356043 0.033234321 0.38200003 4278989847
0.044801168 0.033234321 0.38200003 4279253019
0.046041902 0.033234321 0.38200003 4278989845
0.047406413 0.033321321 0.38300002 4278792466
0.048650399 0.033321321 0.38300002 4278858259
0.049894385 0.033321321 0.38300002 4278989845
0.051271889 0.033408321 0.384 4279055638
0.052519117 0.033408321 0.384 4278858773
0.053766351 0.033408321 0.384 4278726675
0.055156853 0.033495322 0.38500002 4278197253
0.056407336 0.033495322 0.38500002 4278661648
0.057657812 0.033495322 0.38500002 4278596625
0.058908295 0.033495322 0.38500002 4278532113
0.060315032 0.033582322 0.38600001 4278400527
0.061568756 0.033582322 0.38600001 4278597908
0.062822483 0.033582322 0.38600001 4278597908
0.064076215 0.033582322 0.38600001 4278662931
0.065329939 0.033582322 0.38600001 4278925849
0.066583671 0.033582322 0.38600001 4279383842
-0.014792819 0.034565728 0.38300002 4284184164
-0.013513459 0.034475479 0.38200003 4279316764
-0.012272721 0.034475479 0.38200003 4279120666
-0.011031985 0.034475479 0.38200003 4279189023
-0.0097912485 0.034475479 0.38200003 4279254816
-0.0085281283 0.034385227 0.38100001 4279123230
-0.007290639 0.034385227 0.38100001 4279386402
-0.0060372627 0.034294982 0.38000003 4278992412
-0.0048030224 0.034294982 0.38000003 4278729240
-0.0035593901 0.034204729 0.37900001 4278795033
-0.0023283972 0.034204729 0.37900001 4278663447
-0.0010945091 0.03411448 0.37800002 4278729240
0.00013323547 0.03411448 0.37800002 4278400529
0.0013609801 0.03411448 0.37800002 4278597908
0.0025818762 0.034024227 0.377 4278532115
0.0038063726 0.034024227 0.377 4278794517
0.0050308695 0.034024227 0.377 4278728724
0.0062553659 0.034024227 0.377 4278794004
0.0074798628 0.034024227 0.377 4278662931
0.0087274481 0.03411448 0.37800002 4278662931
0.0099551929 0.03411448 0.37800002 4278728724
0.011182938 0.03411448 0.37800002 4278728724
0.012443515 0.034204729 0.37900001 4278728724
0.013674506 0.034204729 0.37900001 4278728470
0.014905499 0.034204729 0.37900001 4278662677
0.01617907 0.034294982 0.38000003 4278728470
0.017413311 0.034294982 0.38000003 4278794263
0.018647552 0.034294982 0.38000003 4278465298
0.01993411 0.034385227 0.38100001 4278728724
0.0211716 0.034385227 0.38100001 4278531345
0.022409089 0.034385227 0.38100001 4278794517
0.023646578 0.034385227 0.38100001 4278530832
0.024884066 0.034385227 0.38100001 4278728211
0.026121555 0.034385227 0.38100001 4278727441
0.027359042 0.034385227 0.38100001 4279055892
0.02859653 0.034385227 0.38100001 4278990099
0.029834021 0.034385227 0.38100001 4278990099
0.031071508 0.034385227 0.38100001 4279121431
0.032308999 0.034385227 0.38100001 4278989845
0.033546485 0.034385227 0.38100001 4279055640
0.034783974 0.034385227 0.38100001 4279055640
0.036021464 0.034385227 0.38100001 4279252506
0.037258953 0.034385227 0.38100001 4278923287
0.038496442 0.034385227 0.38100001 4279054873
0.039733931 0.034385227 0.38100001 4278923287
0.040971417 0.034385227 0.38100001 4279054105
0.042208906 0.034385227 0.38100001 4278461455
0.04356043 0.034475479 0.38200003 4278527248
0.044801168 0.034475479 0.38200003 4278197512
0.046041902 0.034475479 0.38200003 4278195457
0.047406413 0.034565728 0.38300002 4278195457
0.048650399 0.034565728 0.38300002 4278193920
0.050024655 0.034655977 0.384 4278194432
0.051271889 0.034655977 0.384 4278195970
0.052519117 0.034655977 0.384 4278197767
0.05390637 0.03474623 0.38500002 4278196997
0.055156853 0.03474623 0.38500002 4278987281
0.056407336 0.03474623 0.38500002 4278727441
0.057657812 0.03474623 0.38500002 4279056406
0.058908295 0.03474623 0.38500002 4278662931
0.060315032 0.034836479 0.38600001 4278728724
0.061568756 0.034836479 0.38600001 4278728724
0.062822483 0.034836479 0.38600001 4278794517
0.064076215 0.034836479 0.38600001 4278531091
0.065329939 0.034836479 0.38600001 4278925338
0.066583671 0.034836479 0.38600001 4284316264
-0.016120547 0.035997134 0.38500002 4284248420
-0.014792819 0.035810135 0.38300002 4284249444
-0.013548833 0.035810135 0.38300002 4284381543
-0.012272721 0.035716638 0.38200003 4284184678
-0.011031985 0.035716638 0.38200003 4284252524
-0.0097912485 0.035716638 0.38200003 4281884487
-0.0085281283 0.035623137 0.38100001 4279450662
-0.007290639 0.035623137 0.38100001 4278661146
-0.0060531502 0.035623137 0.38100001 4278660630
-0.0048030224 0.03552964 0.38000003 4278462736
-0.0035593901 0.035436139 0.37900001 4279186972
-0.0023283972 0.035436139 0.37900001 4279055900
-0.0010945091 0.035342641 0.37800002 4279055900
0.00013323547 0.035342641 0.37800002 4279055900
0.0013609801 0.035342641 0.37800002 4278465046
0.0025818762 0.03524914 0.377 4278925597
0.0038063726 0.03524914 0.377 4278793750
0.0050308695 0.03524914 0.377 4279188508
0.0062553659 0.03524914 0.377 4278793750
0.0074798628 0.03524914 0.377 4278727957
0.0087274481 0.035342641 0.37800002 4278925849
0.0099551929 0.035342641 0.37800002 4278794263
0.011182938 0.035342641 0.37800002 4278860310
0.012443515 0.035436139 0.37900001 4278860310
0.013674506 0.035436139 0.37900001 4278662931
0.014944828 0.03552964 0.38000003 4279255068
0.01617907 0.03552964 0.38000003 4278728724
0.017413311 0.03552964 0.38000003 4278662931
0.018696623 0.035623137 0.38100001 4278662931
0.01993411 0.035623137 0.38100001 4278662931
0.0211716 0.035623137 0.38100001 4278728724
0.022409089 0.035623137 0.38100001 4278794517
0.023646578 0.035623137 0.38100001 4279123482
0.024884066 0.035623137 0.38100001 4278662931
0.026121555 0.035623137 0.38100001 4278531091
0.027359042 0.035623137 0.38100001 4278596371
0.02859653 0.035623137 0.38100001 4278728211
0.029834021 0.035623137 0.38100001 4278728211
0.031071508 0.035623137 0.38100001 4278201610
0.032308999 0.035623137 0.38100001 4278596625
0.033546485 0.035623137 0.38100001 4278728211
0.034783974 0.035623137 0.38100001 4278596625
0.036021464 0.035623137 0.38100001 4278794004
0.037258953 0.035623137 0.38100001 4278794004
0.038496442 0.035623137 0.38100001 4278794004
0.039733931 0.035623137 0.38100001 4278728211
0.040971417 0.035623137 0.38100001 4278727957
0.042319693 0.035716638 0.38200003 4278793750
0.04356043 0.035716638 0.38200003 4278596371
0.044801168 0.035716638 0.38200003 4278596373
0.046041902 0.035716638 0.38200003 4278793752
0.047406413 0.035810135 0.38300002 4278727189
0.048650399 0.035810135 0.38300002 4279121433
0.050024655 0.035903633 0.384 4278858261
0.051271889 0.035903633 0.384 4279120920
0.052519117 0.035903633 0.384 4279120920
0.05390637 0.035997134 0.38500002 4279252252
0.055156853 0.035997134 0.38500002 4279120666
0.056407336 0.035997134 0.38500002 4278727957
0.057657812 0.035997134 0.38500002 4278662931
0.058908295 0.035997134 0.38500002 4278794517
0.060158778 0.035997134 0.38500002 4278662931
0.061568756 0.036090631 0.38600001 4278860308
0.062822483 0.036090631 0.38600001 4278662931
0.064076215 0.036090631 0.38600001 4278925336
0.065329939 0.036090631 0.38600001 4278396945
0.066583671 0.036090631 0.38600001 4284710254
-0.014792819 0.037054539 0.38300002 4284182881
-0.013548833 0.037054539 0.38300002 4284249957
-0.012304849 0.037054539 0.38300002 4284381289
-0.011031985 0.036957793 0.38200003 4284382057
-0.0097912485 0.036957793 0.38200003 4284513643
-0.0085505117 0.036957793 0.38200003 4284710768
-0.007290639 0.036861043 0.38100001 4284644975
-0.0060531502 0.036861043 0.38100001 4284973940
-0.0048030224 0.036764298 0.38000003 4284973940
-0.0035593901 0.036667548 0.37900001 4285171319
-0.0023283972 0.036667548 0.37900001 4285039733
-0.0010945091 0.036570799 0.37800002 4284579952
0.00013323547 0.036570799 0.37800002 4283724643
0.0013609801 0.036570799 0.37800002 4282212687
0.0025818762 0.036474049 0.377 4280699448
0.0038063726 0.036474049 0.377 4279777830
0.0050308695 0.036474049 0.377 4279185691
0.0062553659 0.036474049 0.377 4278791703
0.0074798628 0.036474049 0.377 4278529044
0.0087274481 0.036570799 0.37800002 4278529560
0.0099551929 0.036570799 0.37800002 4278726939
0.011182938 0.036570799 0.37800002 4278990109
0.012443515 0.036667548 0.37900001 4278990109
0.013674506 0.036667548 0.37900001 4279055900
0.014944828 0.036764298 0.38000003 4279121693
0.01617907 0.036764298 0.38000003 4278925084
0.017413311 0.036764298 0.38000003 4278859545
0.018696623 0.036861043 0.38100001 4278859545
0.01993411 0.036861043 0.38100001 4278859545
0.0211716 0.036861043 0.38100001 4278925338
0.022409089 0.036861043 0.38100001 4278925338
0.023646578 0.036861043 0.38100001 4278859545
0.024884066 0.036861043 0.38100001 4278793752
0.026121555 0.036861043 0.38100001 4278859545
0.027359042 0.036861043 0.38100001 4278793752
0.02859653 0.036861043 0.38100001 4278662677
0.029834021 0.036861043 0.38100001 4278662677
0.031071508 0.036861043 0.38100001 4278662677
0.032308999 0.036861043 0.38100001 4278728470
0.033546485 0.036861043 0.38100001 4278662677
0.034783974 0.036861043 0.38100001 4278662677
0.036021464 0.036861043 0.38100001 4278662677
0.037258953 0.036861043 0.38100001 4278728470
0.038496442 0.036861043 0.38100001 4278728724
0.039733931 0.036861043 0.38100001 4278794517
0.040971417 0.036861043 0.38100001 4278728724
0.042319693 0.036957793 0.38200003 4278662931
0.04356043 0.036957793 0.38200003 4278662677
0.044801168 0.036957793 0.38200003 4278531091
0.04616243 0.037054539 0.38300002 4278662677
0.047406413 0.037054539 0.38300002 4278662677
0.048650399 0.037054539 0.38300002 4278793750
0.050024655 0.037151288 0.384 4278793750
0.051271889 0.037151288 0.384 4278793750
0.052519117 0.037151288 0.384 4278793750
0.05390637 0.037248038 0.38500002 4278793752
0.055156853 0.037248038 0.38500002 4278727959
0.056407336 0.037248038 0.38500002 4278662677
0.057657812 0.037248038 0.38500002 4278531091
0.058908295 0.037248038 0.38500002 4278662931
0.060158778 0.037248038 0.38500002 4278728724
0.061568756 0.037344784 0.38600001 4278926103
0.062822483 0.037344784 0.38600001 4278860056
0.064076215 0.037344784 0.38600001 4279055386
0.065329939 0.037344784 0.38600001 4283988069
-0.013548833 0.038298946 0.38300002 4284117858
-0.012304849 0.038298946 0.38300002 4284315496
-0.011060865 0.038298946 0.38300002 4284447082
-0.0097912485 0.038198952 0.38200003 4284644463
0.018696623 0.03809895 0.38100001 4279515428
0.01993411 0.03809895 0.38100001 4278858011
0.0211716 0.03809895 0.38100001 4278463513
0.022409089 0.03809895 0.38100001 4278266134
0.023646578 0.03809895 0.38100001 4278660632
0.024884066 0.03809895 0.38100001 4278989597
0.026121555 0.03809895 0.38100001 4279186976
0.027359042 0.03809895 0.38100001 4279055388
0.02859653 0.03809895 0.38100001 4278859293
0.029834021 0.03809895 0.38100001 4278793498
0.031071508 0.03809895 0.38100001 4278925084
0.032308999 0.03809895 0.38100001 4278859291
0.033546485 0.03809895 0.38100001 4278991131
0.034783974 0.03809895 0.38100001 4278991131
0.036021464 0.03809895 0.38100001 4278991131
0.037258953 0.03809895 0.38100001 4278925338
0.038496442 0.03809895 0.38100001 4278925338
0.039733931 0.03809895 0.38100001 4278991129
0.040971417 0.03809895 0.38100001 4278991129
0.042319693 0.038198952 0.38200003 4278925336
0.04356043 0.038198952 0.38200003 4278925849
0.044801168 0.038198952 0.38200003 4278860056
0.04616243 0.038298946 0.38300002 4279056922
0.047406413 0.038298946 0.38300002 4279056922
0.048650399 0.038298946 0.38300002 4278859543
0.050024655 0.038398944 0.384 4279056924
0.051271889 0.038398944 0.384 4278991131
0.052519117 0.038398944 0.384 4278991129
0.05390637 0.038498942 0.38500002 4278925336
0.055156853 0.038498942 0.38500002 4278925336
0.056407336 0.038498942 0.38500002 4278991129
0.057657812 0.038498942 0.38500002 4278925336
0.058908295 0.038498942 0.38500002 4278925336
0.060158778 0.038498942 0.38500002 4279188508
0.061409254 0.038498942 0.38500002 4279056922
0.062822483 0.038598936 0.38600001 4278463763
0.064076215 0.038598936 0.38600001 4283066715
0.034783974 0.03933686 0.38100001 4281620804
0.036021464 0.03933686 0.38100001 4281620804
0.037258953 0.03933686 0.38100001 4281226046
0.038496442 0.03933686 0.38100001 4281488964
0.039733931 0.03933686 0.38100001 4280896827
0.040971417 0.03933686 0.38100001 4280173358
0.042319693 0.039440107 0.38200003 4280239151
0.04356043 0.039440107 0.38200003 4280304944
0.044801168 0.039440107 0.38200003 4280107565
0.04616243 0.039543353 0.38300002 4279844391
0.047406413 0.039543353 0.38300002 4279712807
0.048650399 0.039543353 0.38300002 4279712807
0.050024655 0.039646596 0.384 4279581219
0.051271889 0.039646596 0.384 4279712805
0.052519117 0.039646596 0.384 4279712807
0.05390637 0.039749846 0.38500002 4279778600
0.055156853 0.039749846 0.38500002 4279844393
0.056407336 0.039749846 0.38500002 4279581219
0.057657812 0.039749846 0.38500002 4279646242
0.058908295 0.039749846 0.38500002 4280632624
0.060158778 0.039749846 0.38500002 4281488446
0.061409254 0.039749846 0.38500002 4283658334
0.062822483 0.039853089 0.38600001 4284974710
0.036021464 0.040574767 0.38100001 4284580719
0.037258953 0.040574767 0.38100001 4284645999
0.038496442 0.040574767 0.38100001 4284908917
0.039733931 0.040574767 0.38100001 4284645745
0.040971417 0.040574767 0.38100001 4284711538
0.042319693 0.040681265 0.38200003 4284711538
0.04356043 0.040681265 0.38200003 4284579952
0.044801168 0.040681265 0.38200003 4284579952
0.04616243 0.040787756 0.38300002 4284579952
0.047406413 0.040787756 0.38300002 4284645745
0.048650399 0.040787756 0.38300002 4284580206
0.050024655 0.040894251 0.384 4284711792
0.051271889 0.040894251 0.384 4284514413
0.052519117 0.040894251 0.384 4284711792
0.05390637 0.04100075 0.38500002 4284579952
0.055156853 0.04100075 0.38500002 4284579952
0.056407336 0.04100075 0.38500002 4284448366
0.057657812 0.04100075 0.38500002 4284382573
0.058908295 0.04100075 0.38500002 4284645229
0.060158778 0.04100075 0.38500002 4284579436
0.061409254 0.04100075 0.38500002 4284711022
0.062822483 0.041107245 0.38600001 4284711022
0.021473926 0.028888151 0.38163555 4294967295
0.021473926 0.028888151 0.38163555 4294901760
0.021523437 0.028391317 0.38166207 4294901760
0.021572948 0.027894482 0.38168862 4294901760
0.021622458 0.027397648 0.38171515 4294901760
0.021671969 0.026900813 0.3817417 4294901760
0.021721479 0.026403978 0.38176823 4294901760
0.02177099 0.025907144 0.38179475 4294901760
0.0218205 0.025410309 0.3818213 4294901760
0.021870011 0.024913475 0.38184783 4294901760
0.021919522 0.02441664 0.38187438 4294901760
0.021969033 0.023919806 0.38190091 4294901760
0.022018544 0.023422971 0.38192743 4294901760
0.022068055 0.022926137 0.38195398 4294901760
0.022117566 0.022429302 0.38198051 4294901760
0.022167075 0.021932468 0.38200706 4294901760
0.022216586 0.021435633 0.38203359 4294901760
0.022266097 0.020938799 0.38206011 4294901760
0.022315608 0.020441964 0.38208666 4294901760
0.022365119 0.01994513 0.38211319 4294901760
0.02241463 0.019448295 0.38213974 4294901760
0.022464141 0.018951461 0.38216627 4294901760
0.022513652 0.018454626 0.38219279 4294901760
0.022563163 0.017957792 0.38221934 4294901760
0.022612672 0.017460957 0.38224587 4294901760
0.022662183 0.016964123 0.38227242 4294901760
0.022711694 0.016467288 0.38229895 4294901760
0.022761205 0.015970455 0.38232547 4294901760
0.022810716 0.01547362 0.38235202 4294901760
0.022860227 0.014976786 0.38237855 4294901760
0.022909738 0.014479952 0.3824051 4294901760
0.022959249 0.013983116 0.38243163 4294901760
0.02300876 0.013486282 0.38245815 4294901760
0.023058269 0.012989448 0.3824847 4294901760
0.02310778 0.012492612 0.38251123 4294901760
0.023157291 0.011995779 0.38253778 4294901760
0.023206802 0.011498945 0.38256431 4294901760
0.023256313 0.011002108 0.38259083 4294901760
0.023305824 0.010505276 0.38261738 4294901760
0.023355335 0.010008441 0.38264391 4294901760
0.023404846 0.0095116068 0.38267046 4294901760
0.023454357 0.0090147723 0.38269699 4294901760
0.023503866 0.0085179377 0.38272351 4294901760
0.023553377 0.0080211032 0.38275006 4294901760
0.023602888 0.0075242687 0.38277659 4294901760
0.023652399 0.0070274342 0.38280314 4294901760
0.02370191 0.0065305997 0.38282967 4294901760
0.023751421 0.0060337652 0.38285619 4294901760
0.023800932 0.0055369306 0.38288274 4294901760
0.023850443 0.0050400961 0.38290927 4294901760
0.023899954 0.0045432616 0.38293582 4294901760
0.023949463 0.0040464271 0.38296235 4294901760
0.023998974 0.0035495926 0.38298887 4294901760
0.024048485 0.0030527599 0.38301542 4294901760
0.024097996 0.0025559254 0.38304195 4294901760
0.024147507 0.002059089 0.3830685 4294901760
0.024197018 0.0015622545 0.38309503 4294901760
0.024246529 0.00106542 0.38312155 4294901760
0.02429604 0.00056858547 0.3831481 4294901760
0.024345551 7.1752816e-05 0.38317463 4294901760
0.02439506 -0.0004250817 0.38320118 4294901760
0.024444573 -0.00092191808 0.38322771 4294901760
0.024494082 -0.0014187526 0.38325423 4294901760
0.024543593 -0.0019155871 0.38328078 4294901760
0.024593104 -0.0024124198 0.38330731 4294901760
0.024642615 -0.0029092543 0.38333386 4294901760
0.024692126 -0.0034060888 0.38336039 4294901760
0.024741637 -0.003902927 0.38338691 4294901760
0.024791148 -0.0043997616 0.38341346 4294901760
0.024840657 -0.0048965923 0.38343999 4294901760
0.024890168 -0.0053934269 0.38346654 4294901760
0.024939679 -0.0058902614 0.38349307 4294901760
0.02498919 -0.0063870959 0.38351959 4294901760
0.025038701 -0.0068839341 0.38354614 4294901760
0.025088212 -0.0073807687 0.38357267 4294901760
0.025137722 -0.0078775994 0.38359922 4294901760
0.025187233 -0.008374434 0.38362575 4294901760
0.025236744 -0.0088712685 0.38365227 4294901760
0.025286254 -0.009368103 0.38367882 4294901760
0.025335765 -0.0098649375 0.38370535 4294901760
0.025385275 -0.010361772 0.3837319 4294901760
0.025434786 -0.010858607 0.38375843 4294901760
0.025484297 -0.011355441 0.38378495 4294901760
0.025533808 -0.011852276 0.3838115 4294901760
0.025583319 -0.01234911 0.38383803 4294901760
0.02563283 -0.012845945 0.38386458 4294901760
0.025682341 -0.013342779 0.38389111 4294901760
0.02573185 -0.013839614 0.38391763 4294901760
0.025781363 -0.014336448 0.38394418 4294901760
0.025830872 -0.014833283 0.38397071 4294901760
0.025880383 -0.015330117 0.38399726 4294901760
0.025929894 -0.015826952 0.38402379 4294901760
0.025979405 -0.016323786 0.38405031 4294901760
0.026028916 -0.016820621 0.38407686 4294901760
0.026078427 -0.017317455 0.38410339 4294901760
0.026127938 -0.01781429 0.38412994 4294901760
0.026177447 -0.018311124 0.38415647 4294901760
0.02622696 -0.018807959 0.38418299 4294901760
0.026276469 -0.019304793 0.38420954 4294901760
0.02632598 -0.019801628 0.38423607 4294901760
0.026375491 -0.020298462 0.38426262 4294901760
0.026425002 -0.020795297 0.38428915 4294901760
0.021473926 0.028888151 0.38163555 4278255360
0.021971442 0.028937865 0.38163805 4278255360
0.022468958 0.028987577 0.38164058 4278255360
0.022966474 0.029037291 0.38164309 4278255360
