# .PCD v0.7 - Point Cloud Data file format
VERSION 0.7
FIELDS x y z rgb
SIZE 4 4 4 4
TYPE F F F U
COUNT 1 1 1 1
WIDTH 1037
HEIGHT 1
VIEWPOINT 0 0 0 1 0 0 0
POINTS 1037
DATA ascii
0.014071392 0.01365593 0.39000002 4279061537
0.015338113 0.01365593 0.39000002 4281166143
0.016604833 0.01365593 0.39000002 4279787568
0.017871555 0.01365593 0.39000002 4279196201
0.01918735 0.013690946 0.39100003 4279393580
0.020457316 0.013690946 0.39100003 4279327017
0.021671716 0.01365593 0.39000002 4279327271
0.022938438 0.01365593 0.39000002 4279261478
0.024205158 0.01365593 0.39000002 4279261478
0.025471877 0.01365593 0.39000002 4279195685
0.026738601 0.01365593 0.39000002 4279326504
0.027933512 0.013620915 0.38900003 4279326504
-0.0074054524 0.014808287 0.38700002 4281615157
-0.003662697 0.014923079 0.39000002 4281022505
-0.0023959761 0.014923079 0.39000002 4280759333
-0.0011292555 0.014923079 0.39000002 4281484085
0.00013746516 0.014923079 0.39000002 4280102432
0.0014041858 0.014923079 0.39000002 4280957741
0.002650361 0.014808287 0.38700002 4280891948
0.0039073378 0.014808287 0.38700002 4280695337
0.0051643145 0.014808287 0.38700002 4281287474
0.0064378832 0.01484655 0.38800001 4280039967
0.007698108 0.01484655 0.38800001 4279386139
0.0089583332 0.01484655 0.38800001 4279256349
0.010244895 0.014884816 0.38900003 4278928154
0.011508367 0.014884816 0.38900003 4278862875
0.01277184 0.014884816 0.38900003 4279126560
0.014071392 0.014923079 0.39000002 4279127330
0.015338113 0.014923079 0.39000002 4279325220
0.016604833 0.014923079 0.39000002 4279129125
0.01791738 0.014961344 0.39100003 4278866466
0.01918735 0.014961344 0.39100003 4279130408
0.020457316 0.014961344 0.39100003 4278867236
0.021838421 0.015037872 0.39300001 4278800673
0.023173705 0.015076137 0.39400002 4278800673
0.024453416 0.015076137 0.39400002 4278800160
0.02579844 0.015114401 0.39500001 4278800414
0.027081402 0.015114401 0.39500001 4278866207
0.028364362 0.015114401 0.39500001 4278866207
-0.0073863165 0.016024174 0.38600001 4280563753
-0.0049167783 0.016148716 0.38900003 4282010427
-0.0036533056 0.016148716 0.38900003 4280429085
-0.0023959761 0.016190229 0.39000002 4280693542
-0.0011292555 0.016190229 0.39000002 4281089327
0.00013746516 0.016190229 0.39000002 4280102432
0.0013861834 0.015982661 0.38500002 4280826155
0.0026435126 0.016024174 0.38600001 4280431397
0.0038972411 0.016024174 0.38600001 4280826153
0.0051643145 0.016065689 0.38700002 4281155116
0.0064212908 0.016065689 0.38700002 4280500256
0.007678268 0.016065689 0.38700002 4279385369
0.0089583332 0.016107202 0.38800001 4279058457
0.010218557 0.016107202 0.38800001 4279058457
0.011508367 0.016148716 0.38900003 4279058968
0.01277184 0.016148716 0.38900003 4279059738
0.014071392 0.016190229 0.39000002 4279126812
0.015338113 0.016190229 0.39000002 4278929433
0.016604833 0.016190229 0.39000002 4278733853
0.01791738 0.016231744 0.39100003 4278800160
0.01918735 0.016231744 0.39100003 4279063845
0.020509636 0.016273256 0.39200002 4278867236
0.021838421 0.016314769 0.39300001 4278603294
0.023173705 0.016356282 0.39400002 4278668574
0.024453416 0.016356282 0.39400002 4278865953
0.02579844 0.016397797 0.39500001 4278668574
0.027081402 0.016397797 0.39500001 4278206480
0.028364362 0.016397797 0.39500001 4279391267
0.029647322 0.016397797 0.39500001 4278865693
-0.0073863165 0.017278329 0.38600001 4281748023
-0.0036533056 0.017412616 0.38900003 4280495139
-0.0023959761 0.017457379 0.39000002 4280364577
-0.0011292555 0.017457379 0.39000002 4281154604
0.00013535032 0.017188802 0.384 4280299295
0.0013825829 0.017188802 0.384 4280496674
0.0026366641 0.017233565 0.38500002 4280299295
0.0038972411 0.017278329 0.38600001 4280562467
0.0051509701 0.017278329 0.38600001 4281417774
0.0064212908 0.017323092 0.38700002 4279710229
0.007678268 0.017323092 0.38700002 4279713307
0.0089583332 0.017367853 0.38800001 4279320859
0.010218557 0.017367853 0.38800001 4279058455
0.011508367 0.017412616 0.38900003 4279124761
0.01277184 0.017412616 0.38900003 4279125531
0.014035312 0.017412616 0.38900003 4279126299
0.015338113 0.017457379 0.39000002 4279258398
0.016604833 0.017457379 0.39000002 4278930462
0.01791738 0.017502142 0.39100003 4278997025
0.01918735 0.017502142 0.39100003 4278733853
0.020509636 0.017546903 0.39200002 4278931232
0.021838421 0.017591666 0.39300001 4278734107
0.023173705 0.01763643 0.39400002 4278931486
0.024453416 0.01763643 0.39400002 4278864669
0.02579844 0.017681191 0.39500001 4279522086
0.027081402 0.017681191 0.39500001 4279782180
0.028364362 0.017681191 0.39500001 4279454496
0.02972238 0.017725954 0.39600003 4278864923
0.031086894 0.017770715 0.39700001 4278930714
0.032457903 0.01781548 0.39800003 4278733335
0.03392021 0.017905002 0.40000001 4278864921
0.035307456 0.017949766 0.40100002 4278601751
0.036792498 0.018039292 0.40300003 4278864923
0.03819599 0.018084053 0.40400001 4278930716
0.041426618 0.01835263 0.41000003 4278733337
0.042758297 0.01835263 0.41000003 4278667544
0.044197515 0.018397391 0.41100001 4278667031
0.045643229 0.018442154 0.41200003 4278930203
0.048905987 0.018665968 0.41700003 4278798615
0.05038093 0.018710729 0.41800001 4278798615
0.051738594 0.018710729 0.41800001 4278667029
0.053223282 0.018755492 0.41900003 4278798615
0.056879755 0.01906883 0.42600003 4278601751
0.058400165 0.019113591 0.42700002 4278864923
0.059927084 0.019158354 0.42800003 4279127843
0.061460495 0.019203117 0.42900002 4278864671
0.063000396 0.019247878 0.43000001 4278864671
0.064546801 0.019292641 0.43100002 4279325220
0.066099696 0.019337403 0.43200001 4279456806
-0.0049041384 0.018628506 0.38800001 4280628262
-0.0036439139 0.018628506 0.38800001 4280232739
-0.0023959761 0.018724529 0.39000002 4279903772
-0.0011118823 0.01843646 0.384 4280759333
0.00013535032 0.01843646 0.384 4280232219
0.0013825829 0.01843646 0.384 4280561956
0.0026366641 0.018484471 0.38500002 4280364577
0.0038871446 0.018484471 0.38500002 4280365088
0.0051509701 0.018532483 0.38600001 4280759844
0.0064046984 0.018532483 0.38600001 4279644182
0.007678268 0.018580494 0.38700002 4279384344
0.0089352448 0.018580494 0.38700002 4279320859
0.010218557 0.018628506 0.38800001 4278992662
0.011478783 0.018628506 0.38800001 4278928152
0.01277184 0.018676519 0.38900003 4278928666
0.014035312 0.018676519 0.38900003 4278863386
0.015338113 0.018724529 0.39000002 4279061535
0.016604833 0.018724529 0.39000002 4278996255
0.01791738 0.018772542 0.39100003 4278931232
0.01918735 0.018772542 0.39100003 4279062818
0.020509636 0.018820552 0.39200002 4279062818
0.021838421 0.018868564 0.39300001 4278996255
0.023173705 0.018916577 0.39400002 4278996255
0.024453416 0.018916577 0.39400002 4278733083
0.02579844 0.018964587 0.39500001 4279061535
0.027081402 0.018964587 0.39500001 4278993177
0.028436171 0.0190126 0.39600003 4279257117
0.02972238 0.0190126 0.39600003 4278467601
0.031086894 0.01906061 0.39700001 4278200835
0.032539453 0.019156635 0.39900002 4278200840
0.03392021 0.019204644 0.40000001 4278199041
0.035395507 0.019300669 0.40200001 4278199298
0.036792498 0.019348681 0.40300003 4278200326
0.038290534 0.019444704 0.40500003 4278199298
0.039801557 0.019540727 0.40700001 4278197760
0.041325577 0.01963675 0.40900001 4278198785
0.042758297 0.019684762 0.41000003 4278196736
0.044197515 0.019732773 0.41100001 4278196224
0.045643229 0.019780785 0.41200003 4278196736
0.047323503 0.019924819 0.41500002 4278196224
0.048788704 0.019972831 0.41600001 4278196480
0.05038093 0.020068854 0.41800001 4278197248
0.05186237 0.020116867 0.41900003 4278196224
0.053350307 0.020164877 0.42000002 4278196224
0.055105284 0.020308912 0.42300001 4278196736
0.056879755 0.020452948 0.42600003 4278196736
0.058400165 0.02050096 0.42700002 4278196992
0.059927084 0.020548971 0.42800003 4278198274
0.061460495 0.020596983 0.42900002 4278196992
0.063000396 0.020644994 0.43000001 4278994461
0.064546801 0.020693006 0.43100002 4279126558
0.066099696 0.020741018 0.43200001 4278863386
0.067659095 0.020789029 0.43300003 4279126560
-0.0049041384 0.019889157 0.38800001 4281746491
-0.0036439139 0.019889157 0.38800001 4280430116
-0.0023652585 0.019735375 0.38500002 4280101151
-0.0011118823 0.019684114 0.384 4280298014
0.00013535032 0.019684114 0.384 4280363807
0.0013861834 0.019735375 0.38500002 4280561956
0.0026366641 0.019735375 0.38500002 4280232991
0.0038871446 0.019735375 0.38500002 4280694055
0.0051509701 0.019786635 0.38600001 4280562467
0.0064046984 0.019786635 0.38600001 4279578904
0.007678268 0.019837897 0.38700002 4278923023
0.0089352448 0.019837897 0.38700002 4279124250
0.010218557 0.019889157 0.38800001 4278992664
0.011478783 0.019889157 0.38800001 4278928154
0.01277184 0.019940419 0.38900003 4278994461
0.014035312 0.019940419 0.38900003 4279060765
0.015338113 0.019991679 0.39000002 4279192351
0.016604833 0.019991679 0.39000002 4279127328
0.01791738 0.020042941 0.39100003 4278470681
0.01918735 0.020042941 0.39100003 4278865953
0.020509636 0.020094201 0.39200002 4278997025
0.021838421 0.020145461 0.39300001 4278930462
0.023114886 0.020145461 0.39300001 4278930462
0.024453416 0.020196723 0.39400002 4279127328
0.02579844 0.020247983 0.39500001 4278929179
0.027081402 0.020247983 0.39500001 4278198272
0.028436171 0.020299245 0.39600003 4280111147
0.02972238 0.020299245 0.39600003 4278592269
0.031165199 0.020401767 0.39800003 4278656267
0.032539453 0.020453027 0.39900002 4278721549
0.034005009 0.020555547 0.40100002 4278786572
0.035395507 0.020606807 0.40200001 4278786572
0.036883794 0.020709328 0.40400001 4278852365
0.038290534 0.02076059 0.40500003 4278852365
0.039801557 0.02086311 0.40700001 4278590474
0.041325577 0.020965632 0.40900001 4279846438
0.042758297 0.021016894 0.41000003 4279518756
0.044305053 0.021119416 0.41200003 4279256097
0.045754012 0.021170676 0.41300002 4279585062
0.047323503 0.021273198 0.41500002 4279387937
0.048788704 0.021324458 0.41600001 4279519521
0.05038093 0.021426979 0.41800001 4279453728
0.05186237 0.021478241 0.41900003 4279387937
0.053477332 0.021580761 0.42100003 4279256351
0.055105284 0.021683281 0.42300001 4279256351
0.056879755 0.021837065 0.42600003 4279256349
0.058400165 0.021888325 0.42700002 4279387935
0.059927084 0.021939587 0.42800003 4279387935
0.061603755 0.022042107 0.43000001 4279650596
0.063146912 0.022093369 0.43100002 4278993949
0.064696558 0.022144629 0.43200001 4278929181
0.066099696 0.022144629 0.43200001 4279258146
0.067659095 0.022195891 0.43300003 4279126047
0.069224976 0.022247151 0.43400002 4286290820
-0.0036533056 0.021204319 0.38900003 4280101151
-0.0023652585 0.020986279 0.38500002 4280364323
-0.0011118823 0.020931769 0.384 4280298530
0.00013535032 0.020931769 0.384 4279903772
0.0013861834 0.020986279 0.38500002 4280430116
0.0026366641 0.020986279 0.38500002 4280364577
0.0038972411 0.02104079 0.38600001 4280825639
0.0051509701 0.02104079 0.38600001 4281417774
0.0064046984 0.02104079 0.38600001 4279578904
0.007678268 0.0210953 0.38700002 4279450910
0.0089352448 0.0210953 0.38700002 4279058459
0.010218557 0.021149809 0.38800001 4278993179
0.011478783 0.021149809 0.38800001 4278796570
0.01277184 0.021204319 0.38900003 4278929181
0.014035312 0.021204319 0.38900003 4279060767
0.015298785 0.021204319 0.38900003 4279192351
0.016604833 0.021258829 0.39000002 4279062302
0.017871555 0.021258829 0.39000002 4278997277
0.01918735 0.021313339 0.39100003 4279194658
0.020509636 0.021367848 0.39200002 4279062302
0.021782853 0.021367848 0.39200002 4278930203
0.023114886 0.021422358 0.39300001 4278930203
0.024453416 0.021476869 0.39400002 4279389984
0.025733128 0.021476869 0.39400002 4279784488
0.027081402 0.021531377 0.39500001 4278924566
0.028436171 0.021585887 0.39600003 4279912998
0.029797435 0.021640398 0.39700001 4278722830
0.031165199 0.021694908 0.39800003 4278852111
0.032539453 0.021749416 0.39900002 4278720525
0.034005009 0.021858437 0.40100002 4278852111
0.035483554 0.021967458 0.40300003 4278655756
0.036883794 0.022021966 0.40400001 4279642651
0.038385078 0.022130987 0.40600002 4279313686
0.039899349 0.022240005 0.40800002 4278657039
0.041325577 0.022294514 0.40900001 4279256351
0.042758297 0.022349026 0.41000003 4278202121
0.044305053 0.022458045 0.41200003 4278198528
0.045754012 0.022512555 0.41300002 4278334995
0.047323503 0.022621574 0.41500002 4278203661
0.048788704 0.022676084 0.41600001 4278467603
0.05038093 0.022785103 0.41800001 4278200064
0.05186237 0.022839613 0.41900003 4278928668
0.053477332 0.022948634 0.42100003 4278862875
0.055105284 0.023057653 0.42300001 4278797082
0.056879755 0.023221184 0.42600003 4278797082
0.058400165 0.023275692 0.42700002 4278797082
0.060067099 0.023384711 0.42900002 4278928668
0.061603755 0.023439221 0.43000001 4279257119
0.063146912 0.023493731 0.43100002 4279454246
0.064696558 0.02354824 0.43200001 4278929953
0.066252708 0.023602752 0.43300003 4279127330
0.067815349 0.02365726 0.43400002 4278994461
0.069224976 0.02365726 0.43400002 4284910454
-0.0049294177 0.022525977 0.39000002 4281680696
-0.0036720887 0.022583738 0.39100003 4280561704
-0.0023591151 0.022179425 0.384 4280693288
-0.0011118823 0.022179425 0.384 4281088300
0.00013570279 0.022237184 0.38500002 4279969565
0.0013897839 0.022294942 0.38600001 4280561702
0.0026435126 0.022294942 0.38600001 4280561702
0.0038972411 0.022294942 0.38600001 4281154604
0.0051509701 0.022294942 0.38600001 4280628774
0.0064212908 0.022352701 0.38700002 4279317275
0.007678268 0.022352701 0.38700002 4279056922
0.0089352448 0.022352701 0.38700002 4279189791
0.010218557 0.02241046 0.38800001 4278927386
0.011478783 0.02241046 0.38800001 4278928156
0.01277184 0.02246822 0.38900003 4278928670
0.014035312 0.02246822 0.38900003 4279060767
0.015298785 0.02246822 0.38900003 4279258146
0.016604833 0.022525977 0.39000002 4278996255
0.017871555 0.022525977 0.39000002 4278865953
0.01918735 0.022583738 0.39100003 4278865439
0.020509636 0.022641497 0.39200002 4278930462
0.021782853 0.022641497 0.39200002 4278930203
0.023114886 0.022699254 0.39300001 4279061789
0.024453416 0.022757014 0.39400002 4278995742
0.025733128 0.022757014 0.39400002 4280047660
0.027081402 0.022814773 0.39500001 4279584033
0.028436171 0.022872532 0.39600003 4279912996
0.029797435 0.022930291 0.39700001 4278263306
0.031165199 0.022988051 0.39800003 4278920211
0.032621007 0.023103567 0.40000001 4279314199
0.034005009 0.023161327 0.40100002 4278525451
0.035483554 0.023276845 0.40300003 4278920209
0.036975093 0.023392363 0.40500003 4278788623
0.038385078 0.023450121 0.40600002 4279643932
0.039899349 0.023565639 0.40800002 4278723341
0.041325577 0.023623398 0.40900001 4279781412
0.042862587 0.023738915 0.41100001 4278199561
0.044305053 0.023796676 0.41200003 4278197251
0.045754012 0.023854433 0.41300002 4279516703
0.047323503 0.023969952 0.41500002 4279519008
0.048788704 0.024027709 0.41600001 4278663699
0.05038093 0.024143228 0.41800001 4279255838
0.051986147 0.024258746 0.42000002 4278334482
0.053604353 0.024374263 0.42200002 4278201355
0.055235557 0.024489783 0.42400002 4278399507
0.056879755 0.0246053 0.42600003 4279320607
0.058400165 0.024663059 0.42700002 4278399505
0.060067099 0.024778577 0.42900002 4278663701
0.061603755 0.024836333 0.43000001 4279584803
0.063146912 0.024894094 0.43100002 4279257121
0.064696558 0.024951853 0.43200001 4279060769
0.066252708 0.025009612 0.43300003 4279061537
0.067815349 0.02506737 0.43400002 4279389219
0.069224976 0.02506737 0.43400002 4285501567
-0.0049420572 0.023854136 0.39100003 4281746489
-0.0036908714 0.023976151 0.39300001 4280758313
-0.0024328374 0.024159176 0.39600003 4280824358
-0.0011466288 0.024159176 0.39600003 4282075193
0.00013570279 0.023488088 0.38500002 4280430370
0.0013933844 0.023610104 0.38700002 4280759081
0.002650361 0.023610104 0.38700002 4280825128
0.0039073378 0.023610104 0.38700002 4281023018
0.0051643145 0.023610104 0.38700002 4281089325
0.0064212908 0.023610104 0.38700002 4278922517
0.007678268 0.023610104 0.38700002 4279320096
0.0089583332 0.023671111 0.38800001 4279124763
0.010218557 0.023671111 0.38800001 4278927384
0.011478783 0.023671111 0.38800001 4278928154
0.01277184 0.02373212 0.38900003 4278928668
0.014035312 0.02373212 0.38900003 4278863388
0.015298785 0.02373212 0.38900003 4279127330
0.016604833 0.023793127 0.39000002 4278930464
0.017871555 0.023793127 0.39000002 4279325990
0.01918735 0.023854136 0.39100003 4278602781
0.020509636 0.023915144 0.39200002 4278865439
0.021782853 0.023915144 0.39200002 4278864923
0.023114886 0.023976151 0.39300001 4279062302
0.024453416 0.02403716 0.39400002 4278732570
0.02579844 0.024098167 0.39500001 4279587111
0.027081402 0.024098167 0.39500001 4280111147
0.028436171 0.024159176 0.39600003 4280176170
0.029797435 0.024220183 0.39700001 4278658832
0.031243503 0.0243422 0.39900002 4278658062
0.032621007 0.024403207 0.40000001 4278789134
0.034089811 0.024525223 0.40200001 4278194944
0.035571601 0.02464724 0.40400001 4278262277
0.036975093 0.024708249 0.40500003 4280302373
0.038479622 0.024830263 0.40700001 4279908899
0.039899349 0.024891272 0.40800002 4278197511
0.041325577 0.024952279 0.40900001 4279516191
0.042862587 0.025074296 0.41100001 4278657802
0.044305053 0.025135305 0.41200003 4278723341
0.045754012 0.025196312 0.41300002 4278923541
0.047323503 0.025318328 0.41500002 4278202893
0.048788704 0.025379336 0.41600001 4278268943
0.05038093 0.025501352 0.41800001 4278532628
0.051986147 0.025623368 0.42000002 4278597654
0.053604353 0.025745384 0.42200002 4278530578
0.055235557 0.025867401 0.42400002 4279254816
0.056879755 0.025989417 0.42600003 4278201100
0.058536936 0.026111433 0.42800003 4278201612
0.060067099 0.02617244 0.42900002 4278662931
0.061603755 0.026233448 0.43000001 4279190045
0.063146912 0.026294457 0.43100002 4279454498
0.064696558 0.026355464 0.43200001 4279192353
0.066252708 0.026416473 0.43300003 4279323939
0.067815349 0.02647748 0.43400002 4278863390
0.069224976 0.02647748 0.43400002 4286488201
-0.0074245878 0.024931764 0.38800001 4281615417
-0.0049546966 0.025188792 0.39200002 4280825128
-0.0037002631 0.025317308 0.39400002 4280823591
-0.0024328374 0.025445823 0.39600003 4280888868
-0.0011466288 0.025445823 0.39600003 4281088298
0.00013958002 0.025445823 0.39600003 4280825126
0.0013969848 0.024931764 0.38800001 4280693542
0.0026572095 0.024931764 0.38800001 4280825128
0.0039174343 0.024931764 0.38800001 4280957227
0.005177659 0.024931764 0.38800001 4281352497
0.0064378832 0.024931764 0.38800001 4279252506
0.007698108 0.024931764 0.38800001 4279188508
0.0089583332 0.024931764 0.38800001 4278927386
0.010218557 0.024931764 0.38800001 4279058970
0.011508367 0.024996022 0.38900003 4278928154
0.01277184 0.024996022 0.38900003 4278797082
0.014035312 0.024996022 0.38900003 4279060765
0.015338113 0.025060279 0.39000002 4278995742
0.016604833 0.025060279 0.39000002 4278996255
0.01791738 0.025124537 0.39100003 4279193634
0.01918735 0.025124537 0.39100003 4279062818
0.020509636 0.025188792 0.39200002 4278799646
0.021838421 0.02525305 0.39300001 4278734107
0.023114886 0.02525305 0.39300001 4278799900
0.024453416 0.025317308 0.39400002 4278864669
0.02579844 0.025381563 0.39500001 4279059742
0.027081402 0.025381563 0.39500001 4279058459
0.028436171 0.025445823 0.39600003 4280570928
0.029797435 0.025510078 0.39700001 4278722828
0.031243503 0.025638593 0.39900002 4278787853
0.032702558 0.025767108 0.40100002 4278655756
0.034089811 0.025831364 0.40200001 4278655756
0.035571601 0.025959879 0.40400001 4278655756
0.037066389 0.026088392 0.40600002 4278655754
0.038479622 0.02615265 0.40700001 4278393865
0.039899349 0.026216907 0.40800002 4279908899
0.041325577 0.026281163 0.40900001 4279911463
0.042862587 0.026409678 0.41100001 4278197510
0.044305053 0.026473936 0.41200003 4279515678
0.045754012 0.026538193 0.41300002 4279846692
0.047323503 0.026666706 0.41500002 4279190556
0.048788704 0.026730964 0.41600001 4279124763
0.05038093 0.026859477 0.41800001 4279387935
0.051986147 0.026987992 0.42000002 4279256347
0.053604353 0.027116507 0.42200002 4279124761
0.055235557 0.027245022 0.42400002 4279190554
0.056879755 0.027373536 0.42600003 4279190558
0.058536936 0.027502051 0.42800003 4279651109
0.060067099 0.027566306 0.42900002 4279387937
0.061603755 0.027630564 0.43000001 4278202636
0.063146912 0.027694821 0.43100002 4279126045
0.064696558 0.027759077 0.43200001 4279258144
0.066252708 0.027823336 0.43300003 4279390500
0.067815349 0.027887592 0.43400002 4279125281
-0.0086624296 0.02612491 0.38700002 4281878843
-0.0049673361 0.026529947 0.39300001 4281023020
-0.0037002631 0.026597453 0.39400002 4281284909
-0.0024266939 0.026664959 0.39500001 4280955944
-0.0011437332 0.026664959 0.39500001 4281219116
0.00013852259 0.026529947 0.39300001 4282009402
0.0014041858 0.026327427 0.39000002 4281483056
0.002664058 0.026259923 0.38900003 4281285677
0.0039275307 0.026259923 0.38900003 4281220397
0.005177659 0.026192416 0.38800001 4281549362
0.0064378832 0.026192416 0.38800001 4279384090
0.007698108 0.026192416 0.38800001 4279320094
0.0089583332 0.026192416 0.38800001 4279124252
0.010244895 0.026259923 0.38900003 4279190043
0.011508367 0.026259923 0.38900003 4278993947
0.01277184 0.026259923 0.38900003 4279126047
0.014071392 0.026327427 0.39000002 4279126558
0.015338113 0.026327427 0.39000002 4279126558
0.016604833 0.026327427 0.39000002 4279193121
0.01791738 0.026394935 0.39100003 4279193634
0.01918735 0.026394935 0.39100003 4279193634
0.020509636 0.026462441 0.39200002 4278864669
0.021838421 0.026529947 0.39300001 4278930462
0.023114886 0.026529947 0.39300001 4278864669
0.024453416 0.026597453 0.39400002 4279127330
0.02579844 0.026664959 0.39500001 4278466581
0.027149964 0.026732467 0.39600003 4278991644
0.028436171 0.026732467 0.39600003 4279978024
0.029872492 0.026867479 0.39800003 4278919439
0.031243503 0.026934985 0.39900002 4278721549
0.032702558 0.027069997 0.40100002 4279246355
0.034089811 0.027137503 0.40200001 4278983183
0.035571601 0.027272515 0.40400001 4278852111
0.037066389 0.027407529 0.40600002 4278654732
0.038479622 0.027475033 0.40700001 4278720779
0.039899349 0.027542541 0.40800002 4280500268
0.041325577 0.027610047 0.40900001 4278197504
0.042862587 0.027745059 0.41100001 4278196480
0.044305053 0.027812567 0.41200003 4278197509
0.045754012 0.027880071 0.41300002 4278196480
0.047209471 0.027947579 0.41400003 4278195968
0.048788704 0.028082591 0.41600001 4278196224
0.05038093 0.028217603 0.41800001 4278196224
0.051986147 0.028352614 0.42000002 4278196224
0.053604353 0.028487628 0.42200002 4278196480
0.055365831 0.028690146 0.42500001 4278197504
0.057013273 0.028825158 0.42700002 4278198531
0.058536936 0.028892666 0.42800003 4278199045
0.060207114 0.029027676 0.43000001 4278200073
0.061747022 0.029095184 0.43100002 4279254303
0.063293427 0.02916269 0.43200001 4279193121
0.064846322 0.029230196 0.43300003 4279061535
0.066252708 0.029230196 0.43300003 4279389734
0.067815349 0.029297702 0.43400002 4281754696
-0.0098937741 0.027311556 0.38600001 4282010429
-0.008684813 0.027453067 0.38800001 4281549624
-0.0074628587 0.027594578 0.39000002 4281812796
-0.0049673361 0.027806843 0.39300001 4281351218
0.0051910039 0.027523823 0.38900003 4280893227
0.0064544762 0.027523823 0.38900003 4279713055
0.0077179489 0.027523823 0.38900003 4279451934
0.0089814216 0.027523823 0.38900003 4279255838
0.010244895 0.027523823 0.38900003 4279124252
0.011508367 0.027523823 0.38900003 4279125533
0.012804672 0.027594578 0.39000002 4279257119
0.014071392 0.027594578 0.39000002 4279192351
0.015338113 0.027594578 0.39000002 4279258144
0.016647412 0.027665334 0.39100003 4278996509
0.01791738 0.027665334 0.39100003 4279062048
0.019236421 0.027736088 0.39200002 4279522599
0.020509636 0.027736088 0.39200002 4278930462
0.021838421 0.027806843 0.39300001 4278930462
0.023173705 0.027877599 0.39400002 4278996255
0.024453416 0.027877599 0.39400002 4278995744
0.02579844 0.027948353 0.39500001 4278336533
0.027149964 0.028019112 0.39600003 4279124000
0.02850798 0.028089866 0.39700001 4279453476
0.029872492 0.028160622 0.39800003 4280372782
0.031243503 0.028231377 0.39900002 4279912233
0.032702558 0.028372888 0.40100002 4279911461
0.034089811 0.028443642 0.40200001 4280568877
0.035571601 0.028585153 0.40400001 4280240680
0.037066389 0.028726663 0.40600002 4280043301
0.038479622 0.028797418 0.40700001 4279978278
0.039899349 0.028868174 0.40800002 4279649826
0.041325577 0.028938929 0.40900001 4279584801
0.042758297 0.029009685 0.41000003 4279782180
0.044305053 0.029151196 0.41200003 4279453217
0.045754012 0.02922195 0.41300002 4279519010
0.047209471 0.029292706 0.41400003 4279716389
0.048788704 0.029434215 0.41600001 4279519008
0.05038093 0.029575726 0.41800001 4279256349
0.051986147 0.029717239 0.42000002 4279387935
0.053731378 0.029929504 0.42300001 4279322914
0.055365831 0.030071015 0.42500001 4279257121
0.057013273 0.030212525 0.42700002 4279322914
0.058673706 0.030354036 0.42900002 4279257121
0.060207114 0.03042479 0.43000001 4279257121
0.061747022 0.030495547 0.43100002 4279257635
0.063293427 0.030566301 0.43200001 4279191842
0.064846322 0.030637057 0.43300003 4279323941
0.066252708 0.030637057 0.43300003 4279256099
0.067815349 0.030707812 0.43400002 4285765763
-0.014754196 0.028269693 0.38200003 4282271539
-0.0049673361 0.02908374 0.39300001 4282009661
0.0051910039 0.028787725 0.38900003 4280038690
0.0064544762 0.028787725 0.38900003 4279713570
0.0077179489 0.028787725 0.38900003 4279386400
0.0089814216 0.028787725 0.38900003 4279320861
0.010244895 0.028787725 0.38900003 4279124252
0.011508367 0.028787725 0.38900003 4279059742
0.012804672 0.028861728 0.39000002 4279191840
0.014071392 0.028861728 0.39000002 4279126560
0.015377442 0.028935732 0.39100003 4279258916
0.016647412 0.028935732 0.39100003 4279062048
0.017963205 0.029009737 0.39200002 4279325220
0.019236421 0.029009737 0.39200002 4279456806
0.020561956 0.02908374 0.39300001 4279062048
0.021838421 0.02908374 0.39300001 4278930462
0.023173705 0.029157747 0.39400002 4278996255
0.024453416 0.029157747 0.39400002 4278732572
0.02579844 0.029231749 0.39500001 4278203403
0.027149964 0.029305754 0.39600003 4279716648
0.028436171 0.029305754 0.39600003 4279323428
0.029872492 0.029453764 0.39800003 4279060767
0.031243503 0.029527768 0.39900002 4279060767
0.032702558 0.029675776 0.40100002 4279126047
0.034089811 0.029749781 0.40200001 4279126045
0.035571601 0.029897789 0.40400001 4279192351
0.037066389 0.030045798 0.40600002 4278929179
0.038479622 0.030119803 0.40700001 4278929181
0.039899349 0.030193808 0.40800002 4279060765
0.041325577 0.03026781 0.40900001 4279192605
0.042758297 0.030341817 0.41000003 4279126812
0.044197515 0.03041582 0.41100001 4279060765
0.045643229 0.030489827 0.41200003 4279126558
0.047209471 0.030637836 0.41400003 4279061019
0.048671424 0.030711839 0.41500002 4279126812
0.050260402 0.030859848 0.41700003 4278995996
0.051986147 0.031081861 0.42000002 4278667031
0.053731378 0.031303871 0.42300001 4278995742
0.055365831 0.031451881 0.42500001 4278535191
0.057013273 0.03159989 0.42700002 4279258144
0.058673706 0.0317479 0.42900002 4279389217
0.060207114 0.031821903 0.43000001 4279455012
0.061747022 0.031895909 0.43100002 4279455014
0.063293427 0.031969912 0.43200001 4279782182
0.064846322 0.032043919 0.43300003 4279319842
0.066252708 0.032043919 0.43300003 4285697917
-0.011176383 0.029897118 0.38700002 4286684044
-0.0099450368 0.029974369 0.38800001 4286815630
-0.0087071965 0.030051624 0.38900003 4286947216
-0.0074628587 0.030128878 0.39000002 4286618251
-0.0062120259 0.030206133 0.39100003 4286091394
-0.0049546966 0.030283384 0.39200002 4285630843
-0.0011379421 0.030360637 0.39300001 4281747003
0.0051910039 0.030051624 0.38900003 4279842336
0.0064544762 0.030051624 0.38900003 4279516705
0.0077179489 0.030051624 0.38900003 4279451680
0.0089814216 0.030051624 0.38900003 4279320859
0.010244895 0.030051624 0.38900003 4279386652
0.011537951 0.030128878 0.39000002 4279387935
0.012804672 0.030128878 0.39000002 4279454498
0.014071392 0.030128878 0.39000002 4279323426
0.015377442 0.030206133 0.39100003 4279323939
0.016647412 0.030206133 0.39100003 4279127843
0.017963205 0.030283384 0.39200002 4279193636
0.019236421 0.030283384 0.39200002 4279325222
0.020561956 0.030360637 0.39300001 4278996257
0.021838421 0.030360637 0.39300001 4279062050
0.023173705 0.030437892 0.39400002 4279062050
0.02451548 0.030515144 0.39500001 4279061537
0.02579844 0.030515144 0.39500001 4279193123
0.027149964 0.030592399 0.39600003 4279257633
0.028436171 0.030592399 0.39600003 4279323426
0.029797435 0.030669652 0.39700001 4279323426
0.031243503 0.030824158 0.39900002 4279191840
0.032621007 0.030901412 0.40000001 4279258146
0.034089811 0.03105592 0.40200001 4279323939
0.035483554 0.031133173 0.40300003 4279192353
0.037066389 0.031364933 0.40600002 4279258148
0.038479622 0.031442188 0.40700001 4279192353
0.039899349 0.031519443 0.40800002 4279192351
0.041325577 0.031596694 0.40900001 4279258398
0.042758297 0.031673949 0.41000003 4279850535
0.044197515 0.031751201 0.41100001 4279587109
0.045643229 0.031828456 0.41200003 4279126560
0.047095437 0.031905707 0.41300002 4279192355
0.048671424 0.032060217 0.41500002 4279126562
0.050260402 0.032214724 0.41700003 4279126562
0.051986147 0.032446481 0.42000002 4279389734
0.053731378 0.032678243 0.42300001 4279322914
0.055365831 0.032832749 0.42500001 4279322660
0.057013273 0.032987259 0.42700002 4279320357
0.058673706 0.033141766 0.42900002 4279779625
0.060207114 0.033219017 0.43000001 4281883974
0.061747022 0.033296272 0.43100002 4284514924
0.063293427 0.033373524 0.43200001 4286617992
-0.011205262 0.031235021 0.38800001 4286289286
-0.0099706687 0.031315524 0.38900003 4286026630
-0.0087295799 0.031396028 0.39000002 4286355081
-0.0074819946 0.031476531 0.39100003 4286552460
-0.0062120259 0.031476531 0.39100003 4286552458
-0.0049546966 0.031557031 0.39200002 4286552458
-0.0036814802 0.031557031 0.39200002 4286684044
-0.0024082633 0.031557031 0.39200002 4286355079
-0.0011350466 0.031557031 0.39200002 4286947216
0.00013781765 0.031476531 0.39100003 4287144082
0.0026709065 0.031396028 0.39000002 4280169254
0.0039275307 0.031315524 0.38900003 4280630829
0.0051910039 0.031315524 0.38900003 4279908901
0.0064544762 0.031315524 0.38900003 4279713316
0.0077179489 0.031315524 0.38900003 4279516451
0.0089814216 0.031315524 0.38900003 4279451934
0.010244895 0.031315524 0.38900003 4279517727
0.011537951 0.031396028 0.39000002 4279584801
0.012804672 0.031396028 0.39000002 4279519521
0.014107473 0.031476531 0.39100003 4279586598
0.015377442 0.031476531 0.39100003 4279323939
0.016647412 0.031476531 0.39100003 4279390502
0.017963205 0.031557031 0.39200002 4279456295
0.019236421 0.031557031 0.39200002 4279126560
0.020561956 0.031637534 0.39300001 4279258146
0.021893991 0.031718038 0.39400002 4279323939
0.023173705 0.031718038 0.39400002 4279323939
0.02451548 0.031798538 0.39500001 4279323941
0.02579844 0.031798538 0.39500001 4279258148
0.027149964 0.031879045 0.39600003 4279060769
0.028436171 0.031879045 0.39600003 4279389734
0.029797435 0.031959545 0.39700001 4278994463
0.031165199 0.032040048 0.39800003 4279126049
0.032621007 0.032201052 0.40000001 4279257381
0.034089811 0.032362059 0.40200001 4279125281
0.035483554 0.032442562 0.40300003 4279323176
0.037066389 0.032684069 0.40600002 4279191590
0.038479622 0.032764569 0.40700001 4279520039
0.039899349 0.032845076 0.40800002 4279125281
0.041325577 0.032925576 0.40900001 4279585832
0.042758297 0.033006079 0.41000003 4279519523
0.044197515 0.033086583 0.41100001 4279584549
0.045643229 0.033167087 0.41200003 4279518758
0.047095437 0.033247586 0.41300002 4279385635
0.048554145 0.03332809 0.41400003 4280371760
0.05013987 0.033489093 0.41600001 4281160762
0.051986147 0.033811107 0.42000002 4284054371
0.053731378 0.034052614 0.42300001 4286355843
0.055365831 0.034213617 0.42500001 4286751371
-0.011234142 0.032579426 0.38900003 4286551175
-0.0099706687 0.032579426 0.38900003 4286617738
-0.0087295799 0.032663178 0.39000002 4286618253
-0.0074819946 0.03274693 0.39100003 4286486667
-0.0062120259 0.03274693 0.39100003 4286618251
-0.0049420572 0.03274693 0.39100003 4286749837
-0.0036720887 0.03274693 0.39100003 4286618251
-0.0024021198 0.03274693 0.39100003 4286552458
-0.0011321511 0.03274693 0.39100003 4286552458
0.00013781765 0.03274693 0.39100003 4286486665
0.0014041858 0.032663178 0.39000002 4286552458
0.0026709065 0.032663178 0.39000002 4286947216
0.0039275307 0.032579426 0.38900003 4287078802
0.0051910039 0.032579426 0.38900003 4286224777
0.0064544762 0.032579426 0.38900003 4284383086
0.0077179489 0.032579426 0.38900003 4281553987
0.0089814216 0.032579426 0.38900003 4280304174
0.010244895 0.032579426 0.38900003 4279581221
0.011537951 0.032663178 0.39000002 4279713318
0.012804672 0.032663178 0.39000002 4279779625
0.014107473 0.03274693 0.39100003 4279846701
0.015377442 0.03274693 0.39100003 4279716398
0.016689988 0.032830682 0.39200002 4279716398
0.017963205 0.032830682 0.39200002 4280045361
0.019236421 0.032830682 0.39200002 4280177201
0.020561956 0.03291443 0.39300001 4279913516
0.021893991 0.032998186 0.39400002 4279912746
0.023173705 0.032998186 0.39400002 4279649061
0.02451548 0.033081934 0.39500001 4279649320
0.02579844 0.033081934 0.39500001 4279715113
0.027149964 0.033165686 0.39600003 4280109358
0.028436171 0.033165686 0.39600003 4280109358
0.029797435 0.033249438 0.39700001 4280371762
0.031165199 0.03333319 0.39800003 4280569141
0.032621007 0.033500694 0.40000001 4280897592
0.034089811 0.033668198 0.40200001 4280963385
0.035483554 0.03375195 0.40300003 4281423936
0.037066389 0.034003206 0.40600002 4282345038
0.038479622 0.034086954 0.40700001 4282870867
0.039899349 0.03417071 0.40800002 4283265625
0.041325577 0.034254458 0.40900001 4283988582
0.042758297 0.034338214 0.41000003 4285501821
0.044197515 0.034421962 0.41100001 4286751375
0.045643229 0.034505714 0.41200003 4287014547
0.047095437 0.034589466 0.41300002 4287079570
0.048554145 0.034673218 0.41400003 4286684558
0.05013987 0.034840722 0.41600001 4286553226
0.051986147 0.03517573 0.42000002 4286750091
0.053731378 0.035426982 0.42300001 4286749578
-0.012497614 0.033843327 0.38900003 4287076236
-0.011234142 0.033843327 0.38900003 4286814347
-0.0099962996 0.033930324 0.39000002 4286617738
-0.0087295799 0.033930324 0.39000002 4286617738
-0.0074628587 0.033930324 0.39000002 4286617738
-0.0062120259 0.034017328 0.39100003 4287012496
-0.0049420572 0.034017328 0.39100003 4286684044
-0.0036720887 0.034017328 0.39100003 4286815630
-0.0024021198 0.034017328 0.39100003 4286618251
-0.0011321511 0.034017328 0.39100003 4286684044
0.00013781765 0.034017328 0.39100003 4286684044
0.0014041858 0.033930324 0.39000002 4286749837
0.0026709065 0.033930324 0.39000002 4286749837
0.0039275307 0.033843327 0.38900003 4286618251
0.0051910039 0.033843327 0.38900003 4286618251
0.0064544762 0.033843327 0.38900003 4286486667
0.0077179489 0.033843327 0.38900003 4286618251
0.0089814216 0.033843327 0.38900003 4286487179
0.010244895 0.033843327 0.38900003 4286355593
-0.013761087 0.035107229 0.38900003 4286945933
-0.012497614 0.035107229 0.38900003 4286683531
-0.011234142 0.035107229 0.38900003 4286617738
-0.0099962996 0.035197478 0.39000002 4286749324
-0.0087295799 0.035197478 0.39000002 4286420359
-0.0074628587 0.035197478 0.39000002 4286815117
-0.0062120259 0.03528773 0.39100003 4286749324
-0.0049420572 0.03528773 0.39100003 4286815117
-0.0036720887 0.03528773 0.39100003 4286749324
-0.0024021198 0.03528773 0.39100003 4286617738
-0.0011321511 0.03528773 0.39100003 4286815117
0.00013781765 0.03528773 0.39100003 4286815117
0.0014077864 0.03528773 0.39100003 4286880910
0.002677755 0.03528773 0.39100003 4286880910
0.0039477237 0.03528773 0.39100003 4286815117
0.0052176928 0.03528773 0.39100003 4286617738
-0.015063183 0.036464628 0.39000002 4286813834
-0.013796463 0.036464628 0.39000002 4286749326
-0.012529741 0.036464628 0.39000002 4286617740
-0.015101807 0.037828527 0.39100003 4286814088
-0.013831838 0.037828527 0.39100003 4286682761
0.024363276 0.024467088 0.39985156 4294967295
0.024363276 0.024467088 0.39985156 4294901760
0.024398973 0.023968602 0.39983618 4294901760
0.024434671 0.023470115 0.3998208 4294901760
0.024470368 0.022971628 0.39980543 4294901760
0.024506066 0.022473142 0.39979005 4294901760
0.024541764 0.021974655 0.39977464 4294901760
0.024577461 0.021476168 0.39975926 4294901760
0.024613159 0.02097768 0.39974388 4294901760
0.024648856 0.020479195 0.39972851 4294901760
0.024684554 0.019980706 0.39971313 4294901760
0.024720252 0.01948222 0.39969775 4294901760
0.024755949 0.018983733 0.39968237 4294901760
0.024791647 0.018485246 0.39966699 4294901760
0.024827344 0.01798676 0.39965162 4294901760
0.024863042 0.017488273 0.39963621 4294901760
0.02489874 0.016989786 0.39962083 4294901760
0.024934437 0.016491299 0.39960545 4294901760
0.024970135 0.015992813 0.39959008 4294901760
0.025005832 0.015494325 0.3995747 4294901760
0.02504153 0.014995839 0.39955932 4294901760
0.025077228 0.014497352 0.39954394 4294901760
0.025112925 0.013998865 0.39952856 4294901760
0.025148623 0.013500378 0.39951319 4294901760
0.02518432 0.013001891 0.39949778 4294901760
0.025220018 0.012503404 0.3994824 4294901760
0.025255715 0.012004917 0.39946702 4294901760
0.025291413 0.011506431 0.39945164 4294901760
0.025327111 0.011007943 0.39943627 4294901760
0.025362808 0.010509457 0.39942089 4294901760
0.025398506 0.010010971 0.39940551 4294901760
0.025434203 0.0095124831 0.39939013 4294901760
0.025469901 0.0090139965 0.39937475 4294901760
0.025505599 0.0085155107 0.39935935 4294901760
0.025541296 0.0080170222 0.39934397 4294901760
0.025576994 0.0075185355 0.39932859 4294901760
0.025612691 0.0070200488 0.39931321 4294901760
0.025648389 0.0065215621 0.39929783 4294901760
0.025684087 0.0060230754 0.39928246 4294901760
0.025719784 0.0055245887 0.39926708 4294901760
0.025755482 0.0050261021 0.3992517 4294901760
0.025791179 0.0045276154 0.39923632 4294901760
0.025826877 0.0040291287 0.39922091 4294901760
0.025862575 0.003530642 0.39920554 4294901760
0.025898272 0.0030321535 0.39919016 4294901760
0.02593397 0.0025336687 0.39917478 4294901760
0.025969667 0.002035182 0.3991594 4294901760
0.026005365 0.0015366934 0.39914402 4294901760
0.026041063 0.0010382067 0.39912865 4294901760
0.02607676 0.00053972006 0.39911327 4294901760
0.026112458 4.1233376e-05 0.39909789 4294901760
0.026148155 -0.00045725331 0.39908248 4294901760
0.026183853 -0.00095573999 0.3990671 4294901760
0.026219551 -0.0014542267 0.39905173 4294901760
0.026255248 -0.0019527115 0.39903635 4294901760
0.026290946 -0.0024512019 0.39902097 4294901760
0.026326643 -0.0029496886 0.39900559 4294901760
0.026362341 -0.0034481753 0.39899021 4294901760
0.026398038 -0.0039466601 0.39897484 4294901760
0.026433736 -0.0044451468 0.39895946 4294901760
0.026469434 -0.0049436335 0.39894408 4294901760
0.026505131 -0.005442122 0.39892867 4294901760
0.026540829 -0.0059406087 0.39891329 4294901760
0.026576526 -0.0064390954 0.39889792 4294901760
0.026612224 -0.006937582 0.39888254 4294901760
0.026647922 -0.0074360669 0.39886716 4294901760
0.026683619 -0.0079345554 0.39885178 4294901760
0.026719317 -0.008433044 0.3988364 4294901760
0.026755014 -0.0089315288 0.39882103 4294901760
0.026790712 -0.0094300173 0.39880565 4294901760
0.02682641 -0.0099285021 0.39879024 4294901760
0.026862107 -0.010426991 0.39877486 4294901760
0.026897805 -0.010925476 0.39875948 4294901760
0.026933502 -0.011423964 0.39874411 4294901760
0.0269692 -0.011922453 0.39872873 4294901760
0.027004898 -0.012420937 0.39871335 4294901760
0.027040595 -0.012919426 0.39869797 4294901760
0.027076293 -0.013417911 0.39868259 4294901760
0.02711199 -0.013916396 0.39866722 4294901760
0.027147688 -0.014414884 0.39865181 4294901760
0.027183386 -0.014913373 0.39863643 4294901760
0.027219083 -0.015411858 0.39862105 4294901760
0.027254781 -0.015910346 0.39860567 4294901760
0.027290478 -0.016408831 0.3985903 4294901760
0.027326176 -0.016907319 0.39857492 4294901760
0.027361874 -0.017405804 0.39855954 4294901760
0.027397571 -0.017904293 0.39854416 4294901760
0.027433269 -0.018402781 0.39852878 4294901760
0.027468966 -0.018901266 0.39851338 4294901760
0.027504664 -0.019399751 0.398498 4294901760
0.027540362 -0.01989824 0.39848262 4294901760
0.027576059 -0.020396724 0.39846724 4294901760
0.027611757 -0.020895213 0.39845186 4294901760
0.027647454 -0.021393701 0.39843649 4294901760
0.027683152 -0.021892186 0.39842111 4294901760
0.027718849 -0.022390675 0.39840573 4294901760
0.027754547 -0.02288916 0.39839035 4294901760
0.027790245 -0.023387648 0.39837494 4294901760
0.027825942 -0.023886137 0.39835957 4294901760
0.02786164 -0.024384622 0.39834419 4294901760
0.027897337 -0.02488311 0.39832881 4294901760
0.027933035 -0.025381595 0.39831343 4294901760
0.024363276 0.024467088 0.39985156 4278255360
0.024783188 0.02448881 0.40012211 4278255360
0.025203101 0.024510533 0.40039268 4278255360
0.025623016 0.024532255 0.40066323 4278255360
0.026042929 0.024553979 0.4009338 4278255360
0.026462842 0.024575701 0.40120435 4278255360
0.026882757 0.024597423 0.40147489 4278255360
0.027302669 0.024619145 0.40174547 4278255360
0.027722582 0.024640867 0.40201601 4278255360
0.028142495 0.02466259 0.40228656 4278255360
0.02856241 0.024684314 0.40255713 4278255360
0.028982323 0.024706036 0.40282768 4278255360
0.029402236 0.024727758 0.40309826 4278255360
0.029822148 0.02474948 0.4033688 4278255360
0.030242063 0.024771202 0.40363935 4278255360
0.030661976 0.024792925 0.40390992 4278255360
0.031081889 0.024814647 0.40418047 4278255360
0.031501804 0.024836371 0.40445101 4278255360
0.031921715 0.024858093 0.40472159 4278255360
0.032341629 0.024879815 0.40499213 4278255360
0.032761544 0.024901537 0.40526271 4278255360
0.033181455 0.024923259 0.40553325 4278255360
0.03360137 0.024944982 0.4058038 4278255360
0.034021281 0.024966704 0.40607437 4278255360
0.034441195 0.024988428 0.40634492 4278255360
0.03486111 0.02501015 0.4066155 4278255360
0.035281021 0.025031872 0.40688604 4278255360
0.035700936 0.025053594 0.40715659 4278255360
0.036120851 0.025075316 0.40742716 4278255360
0.036540762 0.025097039 0.40769771 4278255360
0.036960676 0.025118761 0.40796825 4278255360
0.037380591 0.025140485 0.40823883 4278255360
0.037800502 0.025162207 0.40850937 4278255360
0.038220417 0.025183929 0.40877995 4278255360
0.038640328 0.025205651 0.40905049 4278255360
0.039060242 0.025227373 0.40932104 4278255360
0.039480157 0.025249096 0.40959162 4278255360
0.039900068 0.02527082 0.40986216 4278255360
0.040319983 0.025292542 0.41013271 4278255360
0.040739894 0.025314264 0.41040328 4278255360
0.041159809 0.025335986 0.41067383 4278255360
0.041579723 0.025357708 0.4109444 4278255360
0.041999638 0.025379431 0.41121495 4278255360
0.042419549 0.025401153 0.41148549 4278255360
0.04283946 0.025422877 0.41175607 4278255360
0.043259375 0.025444599 0.41202661 4278255360
0.04367929 0.025466321 0.41229719 4278255360
0.044099204 0.025488043 0.41256773 4278255360
0.044519115 0.025509765 0.41283828 4278255360
0.04493903 0.025531488 0.41310886 4278255360
0.045358941 0.025553212 0.4133794 4278255360
0.045778856 0.025574934 0.41364995 4278255360
0.04619877 0.025596656 0.41392052 4278255360
0.046618681 0.025618378 0.41419107 4278255360
0.0470386 0.0256401 0.41446164 4278255360
0.047458511 0.025661822 0.41473219 4278255360
0.047878422 0.025683545 0.41500273 4278255360
0.048298337 0.025705269 0.41527331 4278255360
0.048718251 0.025726991 0.41554385 4278255360
0.049138162 0.025748713 0.4158144 4278255360
0.049558077 0.025770435 0.41608498 4278255360
0.049977988 0.025792157 0.41635552 4278255360
0.050397903 0.025813879 0.4166261 4278255360
0.050817817 0.025835602 0.41689664 4278255360
0.051237728 0.025857326 0.41716719 4278255360
0.051657639 0.025879048 0.41743776 4278255360
0.052077558 0.02590077 0.41770831 4278255360
0.052497469 0.025922492 0.41797888 4278255360
0.052917384 0.025944214 0.41824943 4278255360
0.053337298 0.025965936 0.41851997 4278255360
0.053757209 0.025987659 0.41879055 4278255360
0.05417712 0.026009383 0.41906109 4278255360
0.054597035 0.026031105 0.41933164 4278255360
0.05501695 0.026052827 0.41960222 4278255360
0.055436864 0.026074549 0.41987276 4278255360
0.055856775 0.026096271 0.42014331 4278255360
0.05627669 0.026117994 0.42041388 4278255360
0.056696601 0.026139718 0.42068443 4278255360
0.057116516 0.02616144 0.420955 4278255360
0.057536431 0.026183162 0.42122555 4278255360
0.057956345 0.026204884 0.42149609 4278255360
0.058376256 0.026226606 0.42176667 4278255360
0.058796171 0.026248328 0.42203721 4278255360
0.059216082 0.026270051 0.42230779 4278255360
0.059635997 0.026291775 0.42257833 4278255360
0.060055912 0.026313497 0.42284888 4278255360
0.060475823 0.026335219 0.42311946 4278255360
0.060895737 0.026356941 0.42339 4278255360
0.061315648 0.026378663 0.42366055 4278255360
0.061735563 0.026400385 0.42393112 4278255360
0.062155474 0.026422109 0.42420167 4278255360
0.062575392 0.026443832 0.42447224 4278255360
0.0629953 0.026465554 0.42474279 4278255360
0.063415214 0.026487276 0.42501333 4278255360
0.063835129 0.026508998 0.42528391 4278255360
0.064255044 0.02653072 0.42555445 4278255360
0.064674959 0.026552442 0.425825 4278255360
0.065094873 0.026574166 0.42609558 4278255360
0.065514788 0.026595889 0.42636612 4278255360
0.065934695 0.026617611 0.4266367 4278255360
0.06635461 0.026639333 0.42690724 4278255360
0.024363276 0.024467088 0.39985156 4278190335
0.024177285 0.024439473 0.40031487 4278190335
0.023991296 0.024411859 0.40077814 4278190335
0.023805305 0.024384243 0.40124145 4278190335
0.023619315 0.02435663 0.40170476 4278190335
0.023433324 0.024329014 0.40216804 4278190335
0.023247335 0.0243014 0.40263134 4278190335
0.023061344 0.024273785 0.40309465 4278190335
0.022875354 0.024246171 0.40355796 4278190335
0.022689365 0.024218556 0.40402123 4278190335
0.022503374 0.024190942 0.40448454 4278190335
0.022317383 0.024163326 0.40494785 4278190335
0.022131395 0.024135713 0.40541112 4278190335
0.021945404 0.024108097 0.40587443 4278190335
0.021759413 0.024080483 0.40633774 4278190335
0.021573422 0.024052868 0.40680104 4278190335
0.021387434 0.024025254 0.40726432 4278190335
0.021201443 0.023997638 0.40772763 4278190335
0.021015452 0.023970023 0.40819094 4278190335
0.020829462 0.023942409 0.40865421 4278190335
0.020643473 0.023914794 0.40911752 4278190335
0.020457482 0.02388718 0.40958083 4278190335
0.020271491 0.023859564 0.4100441 4278190335
0.020085502 0.023831951 0.41050741 4278190335
0.019899512 0.023804335 0.41097072 4278190335
0.019713521 0.023776721 0.41143399 4278190335
0.019527532 0.023749106 0.4118973 4278190335
0.019341541 0.023721492 0.41236061 4278190335
0.019155551 0.023693876 0.41282392 4278190335
0.018969562 0.023666263 0.41328719 4278190335
0.018783569 0.023638647 0.4137505 4278190335
0.01859758 0.023611033 0.41421381 4278190335
0.01841159 0.023583418 0.41467708 4278190335
0.018225599 0.023555804 0.41514039 4278190335
0.01803961 0.023528188 0.4156037 4278190335
0.01785362 0.023500573 0.416067 4278190335
0.017667629 0.023472959 0.41653028 4278190335
0.01748164 0.023445344 0.41699359 4278190335
0.017295649 0.02341773 0.4174569 4278190335
0.017109659 0.023390114 0.41792017 4278190335
0.01692367 0.023362501 0.41838348 4278190335
0.016737679 0.023334885 0.41884679 4278190335
0.016551688 0.023307271 0.41931006 4278190335
0.016365699 0.023279656 0.41977337 4278190335
0.016179709 0.023252042 0.42023668 4278190335
0.015993718 0.023224426 0.42069995 4278190335
0.015807729 0.023196813 0.42116326 4278190335
0.015621738 0.023169197 0.42162657 4278190335
0.015435748 0.023141583 0.42208987 4278190335
0.015249757 0.023113968 0.42255315 4278190335
0.015063767 0.023086354 0.42301646 4278190335
0.014877778 0.023058739 0.42347977 4278190335
0.014691788 0.023031123 0.42394304 4278190335
0.014505797 0.023003509 0.42440635 4278190335
0.014319806 0.022975894 0.42486966 4278190335
0.014133817 0.02294828 0.42533296 4278190335
0.013947826 0.022920664 0.42579624 4278190335
0.013761836 0.022893051 0.42625955 4278190335
0.013575846 0.022865435 0.42672285 4278190335
