# .PCD v0.7 - Point Cloud Data file format
VERSION 0.7
FIELDS x y z rgb
SIZE 4 4 4 4
TYPE F F F U
COUNT 1 1 1 1
WIDTH 721
HEIGHT 1
VIEWPOINT 0 0 0 1 0 0 0
POINTS 721
DATA ascii
-0.077494211 0.0059884866 0.48800004 4283126328
-0.07462877 0.0060130293 0.49000001 4283586881
-0.073037244 0.0060130293 0.49000001 4283060539
-0.071445726 0.0060130293 0.49000001 4285894269
-0.08454413 0.0074964454 0.48300001 4283256889
-0.081575111 0.0075119659 0.48400003 4284704337
-0.080003075 0.0075119659 0.48400003 4283258686
-0.071299918 0.0075895688 0.48900002 4282406218
-0.06971164 0.0075895688 0.48900002 4282208839
-0.066671163 0.0091971494 0.49000001 4281879872
-0.065345272 0.0092346892 0.49200001 4282603084
-0.06240188 0.0092722289 0.49400002 4282734419
-0.065212458 0.010811228 0.49100003 4281616189
-0.06092044 0.010899303 0.49500003 4281681980
-0.059312679 0.010899303 0.49500003 4282142783
-0.055983827 0.010877284 0.49400002 4281418808
-0.054379314 0.010877284 0.49400002 4281813820
-0.051170286 0.010877284 0.49400002 4280173358
-0.049565777 0.010877284 0.49400002 4279653683
-0.0665351 0.012356001 0.48900002 4282406466
-0.065212458 0.012406537 0.49100003 4281419070
-0.06240188 0.01248234 0.49400002 4281417524
-0.060797367 0.01248234 0.49400002 4281549110
-0.059192851 0.01248234 0.49400002 4281549878
-0.057588339 0.01248234 0.49400002 4280957741
-0.055983827 0.01248234 0.49400002 4281353015
-0.054269236 0.012457073 0.49300003 4281024050
-0.051170286 0.01248234 0.49400002 4280435247
-0.049565777 0.01248234 0.49400002 4279586859
-0.04805835 0.012507609 0.49500003 4279127591
-0.046638269 0.012558145 0.49700001 4278931750
-0.045205195 0.01260868 0.49900001 4279063849
-0.043671783 0.012633948 0.5 4279854133
-0.042131882 0.012659216 0.50100005 4280314682
-0.040585477 0.012684484 0.50200003 4279986234
-0.039032582 0.012709752 0.50300002 4279986234
-0.037473191 0.012735019 0.50400001 4279656502
-0.035836194 0.012735019 0.50400001 4279853881
-0.034199201 0.012735019 0.50400001 4280314432
-0.032562211 0.012735019 0.50400001 4279788088
-0.030925216 0.012735019 0.50400001 4279984699
-0.069141403 0.013830745 0.48500001 4283716920
-0.067844748 0.013887779 0.48700002 4282466855
-0.0665351 0.013944813 0.48900002 4282667832
-0.065212458 0.014001847 0.49100003 4282473033
-0.062275559 0.014058881 0.49300003 4281680696
-0.060797367 0.014087398 0.49400002 4281220145
-0.059192851 0.014087398 0.49400002 4281878329
-0.057588339 0.014087398 0.49400002 4281285938
-0.055870499 0.014058881 0.49300003 4281352245
-0.054269236 0.014058881 0.49300003 4280891948
-0.052667972 0.014058881 0.49300003 4281879609
-0.051066704 0.014058881 0.49300003 4280171301
-0.049565777 0.014087398 0.49400002 4279454500
-0.04805835 0.014115916 0.49500003 4279192355
-0.046638269 0.014172949 0.49700001 4279062822
-0.045205195 0.014229983 0.49900001 4279260201
-0.043671783 0.014258499 0.5 4279064615
-0.042131882 0.014287017 0.50100005 4279065382
-0.040585477 0.014315534 0.50200003 4279592496
-0.039032582 0.014344051 0.50300002 4279921207
-0.037473191 0.014372568 0.50400001 4278868521
-0.035836194 0.014372568 0.50400001 4278736935
-0.034199201 0.014372568 0.50400001 4279394865
-0.032562211 0.014372568 0.50400001 4279131693
-0.030986575 0.014401084 0.505 4278934312
-0.029346334 0.014401084 0.505 4279000105
-0.071844801 0.015311262 0.48200002 4285100372
-0.070425071 0.015343027 0.48300001 4284243255
-0.069141403 0.01540656 0.48500001 4285230661
-0.067844748 0.015470092 0.48700002 4283059244
-0.0665351 0.015533624 0.48900002 4282732594
-0.065212458 0.015597157 0.49100003 4282669638
-0.062275559 0.015660688 0.49300003 4281220145
-0.060797367 0.015692456 0.49400002 4281022768
-0.059192851 0.015692456 0.49400002 4281746489
-0.057471767 0.015660688 0.49300003 4281285938
-0.055870499 0.015660688 0.49300003 4280957741
-0.054269236 0.015660688 0.49300003 4280562981
-0.052667972 0.015660688 0.49300003 4281354032
-0.051066704 0.015660688 0.49300003 4280238118
-0.049565777 0.015692456 0.49400002 4279453476
-0.04805835 0.015724221 0.49500003 4279191842
-0.046638269 0.015787752 0.49700001 4279193638
-0.045205195 0.015851285 0.49900001 4279194922
-0.043671783 0.015883051 0.5 4278998824
-0.042215977 0.015946584 0.50200003 4279064617
-0.040666327 0.015978349 0.50300002 4279130923
-0.039032582 0.015978349 0.50300002 4279854646
-0.037473191 0.016010115 0.50400001 4279065130
-0.035836194 0.016010115 0.50400001 4279130923
-0.034199201 0.016010115 0.50400001 4279130923
-0.032626819 0.01604188 0.505 4279065130
-0.030986575 0.01604188 0.505 4278867749
-0.029346334 0.01604188 0.505 4279328300
-0.026220702 0.016137181 0.50800002 4278933796
-0.02305609 0.016232479 0.51100004 4278999335
-0.021396363 0.016232479 0.51100004 4278802726
-0.019775257 0.016264245 0.51200002 4279197484
-0.018112279 0.016264245 0.51200002 4278605861
-0.013123348 0.016264245 0.51200002 4279000105
-0.011460371 0.016264245 0.51200002 4279329586
-0.0098165292 0.01629601 0.51300001 4279855418
-0.071844801 0.016877329 0.48200002 4283520570
-0.070425071 0.016912343 0.48300001 4283782963
-0.069141403 0.016982375 0.48500001 4283716911
-0.067844748 0.017052405 0.48700002 4283322412
-0.0665351 0.017122434 0.48900002 4282270755
-0.062275559 0.017262496 0.49300003 4280957489
-0.060797367 0.01729751 0.49400002 4280562731
-0.059192851 0.01729751 0.49400002 4280562729
-0.057471767 0.017262496 0.49300003 4280957487
-0.055870499 0.017262496 0.49300003 4280957741
-0.054269236 0.017262496 0.49300003 4281089327
-0.052667972 0.017262496 0.49300003 4280432676
-0.051066704 0.017262496 0.49300003 4279975457
-0.049565777 0.01729751 0.49400002 4279585316
-0.04805835 0.017332526 0.49500003 4279586600
-0.046638269 0.017402556 0.49700001 4279786545
-0.045205195 0.017472588 0.49900001 4279194408
-0.043671783 0.017507602 0.5 4279195435
-0.042215977 0.017577633 0.50200003 4279129642
-0.040666327 0.017612647 0.50300002 4279327789
-0.039032582 0.017612647 0.50300002 4279196203
-0.037473191 0.017647663 0.50400001 4279065130
-0.035836194 0.017647663 0.50400001 4278999337
-0.034267057 0.017682677 0.505 4279327791
-0.032626819 0.017682677 0.505 4279259947
-0.030986575 0.017682677 0.505 4279523887
-0.029404448 0.017717695 0.50600004 4278998054
-0.027870687 0.017787723 0.50800002 4279064615
-0.026220702 0.017787723 0.50800002 4278209560
-0.024667453 0.017857755 0.51000005 4279064869
-0.02305609 0.01789277 0.51100004 4278933029
-0.021438234 0.017927784 0.51200002 4279063845
-0.019813878 0.0179628 0.51300001 4278933031
-0.018147655 0.0179628 0.51300001 4278868519
-0.016513556 0.017997814 0.514 4278868519
-0.014872964 0.018032832 0.51500005 4278868519
-0.01317461 0.017997814 0.514 4278868519
-0.011527522 0.018032832 0.51500005 4278868519
-0.0098739369 0.018067846 0.51600003 4278737447
-0.0081503047 0.0179628 0.51300001 4278276896
-0.070570879 0.018519925 0.48400003 4283520570
-0.069283962 0.018596454 0.48600003 4282730795
-0.067984067 0.018672982 0.48800004 4283519280
-0.066671163 0.018749509 0.49000001 4284310856
-0.065345272 0.018826038 0.49200001 4282865734
-0.06240188 0.018902566 0.49400002 4280497706
-0.060797367 0.018902566 0.49400002 4280694317
-0.059192851 0.018902566 0.49400002 4280562729
-0.057471767 0.018864304 0.49300003 4280365350
-0.055870499 0.018864304 0.49300003 4280431397
-0.054269236 0.018864304 0.49300003 4281155118
-0.052667972 0.018864304 0.49300003 4281222962
-0.051170286 0.018902566 0.49400002 4279976229
-0.049565777 0.018902566 0.49400002 4279454246
-0.048155438 0.018979095 0.49600002 4279126308
-0.046638269 0.019017359 0.49700001 4279194408
-0.045205195 0.019093888 0.49900001 4279391785
-0.043671783 0.019132152 0.5 4279194920
-0.042215977 0.019208683 0.50200003 4279261226
-0.040666327 0.019246945 0.50300002 4279524398
-0.039032582 0.019246945 0.50300002 4280182328
-0.037473191 0.019285209 0.50400001 4278998824
-0.035836194 0.019285209 0.50400001 4278999337
-0.034267057 0.019323474 0.505 4279196205
-0.032626819 0.019323474 0.505 4279390763
-0.031047937 0.01936174 0.50600004 4279390763
-0.029462559 0.019400004 0.50700003 4278201865
-0.027870687 0.019438267 0.50800002 4278200841
-0.026272316 0.019476531 0.509 4278202126
-0.024715818 0.019553062 0.51100004 4278533144
-0.023101209 0.019591324 0.51200002 4279388453
-0.021480104 0.019629588 0.51300001 4279521320
-0.019852502 0.019667853 0.514 4279785773
-0.018218406 0.019706119 0.51500005 4279720748
-0.016577812 0.019744383 0.51600003 4279260711
-0.014930722 0.019782646 0.51700002 4279392297
-0.013251506 0.019782646 0.51700002 4278866466
-0.011594673 0.01982091 0.51800001 4279064615
-0.0099504786 0.01989744 0.52000004 4278998822
-0.0083727296 0.020165289 0.52700001 4279064615
-0.0066989521 0.020280082 0.53000003 4279328300
-0.0050056861 0.020394877 0.53300005 4279065128
-0.003286788 0.020471403 0.53500003 4278802726
-0.0015548979 0.020547932 0.537 4278671656
0.00018998391 0.020624461 0.53900003 4279132207
0.0019442573 0.020662725 0.54000002 4279197234
-0.070716687 0.020134002 0.48500001 4279836948
-0.069426522 0.020217029 0.48700002 4280296204
-0.06812337 0.020300057 0.48900002 4285100890
-0.066807225 0.020383084 0.49100003 4282865472
-0.065478086 0.02046611 0.49300003 4282603334
-0.064006396 0.020507623 0.49400002 4282800461
-0.0625282 0.020549137 0.49500003 4281418292
-0.06092044 0.020549137 0.49500003 4281484085
-0.059312679 0.020549137 0.49500003 4280628522
-0.057588339 0.020507623 0.49400002 4280694569
-0.055983827 0.020507623 0.49400002 4281155116
-0.054269236 0.02046611 0.49300003 4281352495
-0.052667972 0.02046611 0.49300003 4280303141
-0.051170286 0.020507623 0.49400002 4279648289
-0.049666114 0.020549137 0.49500003 4279323174
-0.048155438 0.02059065 0.49600002 4279257894
-0.046638269 0.020632163 0.49700001 4279193384
-0.045114607 0.020673677 0.49800003 4279194408
-0.043671783 0.020756703 0.5 4279195433
-0.042131882 0.020798218 0.50100005 4279064617
-0.040585477 0.02083973 0.50200003 4279459375
-0.039032582 0.020881243 0.50300002 4279064617
-0.037473191 0.020922758 0.50400001 4278933031
-0.035836194 0.020922758 0.50400001 4279064617
-0.034267057 0.02096427 0.505 4279392301
-0.032691427 0.021005785 0.50600004 4278201868
-0.029462559 0.021047298 0.50700003 4278529810
-0.027870687 0.021088811 0.50800002 4278920722
-0.026323933 0.02117184 0.51000005 4279117588
-0.024715818 0.021213353 0.51100004 4278920209
-0.023146328 0.021296378 0.51300001 4278986004
-0.021521976 0.021337891 0.514 4278527246
-0.019891128 0.021379406 0.51500005 4280768305
-0.018253781 0.021420918 0.51600003 4280374832
-0.016609939 0.021462431 0.51700002 4279520041
-0.014988483 0.02154546 0.51900005 4278203924
-0.0133284 0.021586973 0.52000004 4278200583
-0.011661824 0.021628486 0.52100003 4278201095
-0.010007884 0.021711512 0.523 4278199810
-0.0083886171 0.021919077 0.528 4278200324
-0.0067115915 0.022043619 0.53100002 4278203151
-0.0050150775 0.022168159 0.53400004 4278467865
-0.0032929312 0.022251187 0.53600001 4279586859
-0.0015577936 0.022334214 0.53800005 4278602785
0.00019033639 0.02241724 0.54000002 4278736935
0.0019442573 0.02241724 0.54000002 4278802730
0.0037118753 0.022500269 0.54200006 4279195181
-0.070862494 0.02175458 0.48600003 4282998353
-0.066943288 0.022023154 0.49200001 4282669127
-0.064135961 0.022157442 0.49500003 4282010429
-0.062654518 0.022202205 0.49600002 4281286706
-0.061043512 0.022202205 0.49600002 4281286452
-0.059432499 0.022202205 0.49600002 4281484085
-0.057704918 0.022157442 0.49500003 4281089325
-0.055983827 0.022112679 0.49400002 4281418290
-0.054379314 0.022112679 0.49400002 4281484083
-0.052774802 0.022112679 0.49400002 4280303911
-0.051170286 0.022112679 0.49400002 4279385887
-0.049666114 0.022157442 0.49500003 4279256867
-0.048155438 0.022202205 0.49600002 4279257894
-0.046638269 0.022246966 0.49700001 4279391015
-0.045114607 0.022291729 0.49800003 4279260199
-0.04358444 0.022336492 0.49900001 4279129640
-0.042131882 0.022426018 0.50100005 4279130410
-0.040585477 0.02247078 0.50200003 4279393582
-0.039032582 0.022515543 0.50300002 4279130410
-0.037473191 0.022560304 0.50400001 4278933031
-0.035836194 0.022560304 0.50400001 4279195433
-0.034267057 0.022605065 0.505 4279983922
-0.032691427 0.02264983 0.50600004 4279323174
-0.02952067 0.022739355 0.50800002 4279581730
-0.027925549 0.022784116 0.509 4280435245
-0.026323933 0.022828881 0.51000005 4279974694
-0.024764186 0.022918405 0.51200002 4281223991
-0.023191446 0.023007929 0.514 4280039203
-0.021563848 0.023052692 0.51500005 4278329869
-0.01992975 0.023097456 0.51600003 4280176170
-0.018324532 0.02318698 0.51800001 4279191840
-0.016674194 0.023231743 0.51900005 4279652139
-0.015017362 0.023276506 0.52000004 4278732833
-0.013379663 0.023366028 0.52200001 4279588142
-0.011728975 0.023455556 0.52400005 4279588142
-0.010065292 0.023545079 0.52600002 4279456556
-0.0084203929 0.023724129 0.53000003 4279390763
-0.0067368713 0.023858419 0.53300005 4279390763
-0.005024469 0.023947943 0.53500003 4280047664
-0.0032990747 0.024037465 0.537 4280047151
-0.0015606891 0.024126993 0.53900003 4278204697
0.00019033639 0.024171755 0.54000002 4279720498
0.0019478577 0.024216516 0.54100001 4279063849
0.0037118753 0.024261281 0.54200006 4278998056
-0.07115411 0.023429668 0.48800004 4282801228
-0.06971164 0.023477679 0.48900002 4282866767
-0.068402 0.023573702 0.49100003 4282603849
-0.067079358 0.023669727 0.49300003 4281813820
-0.064265527 0.02381376 0.49600002 4281878841
-0.062780835 0.023861771 0.49700001 4281615671
-0.061166581 0.023861771 0.49700001 4281023280
-0.059432499 0.02381376 0.49600002 4281878843
-0.057821494 0.02381376 0.49600002 4281286706
-0.056097154 0.02376575 0.49500003 4281747257
-0.054489397 0.02376575 0.49500003 4281419062
-0.052774802 0.023717737 0.49400002 4279910949
-0.051170286 0.023717737 0.49400002 4279781158
-0.049666114 0.02376575 0.49500003 4279520293
-0.04805835 0.02376575 0.49500003 4279323939
-0.046544429 0.02381376 0.49600002 4279127841
-0.045114607 0.023909785 0.49800003 4279062818
-0.04358444 0.023957795 0.49900001 4279261224
-0.042047784 0.024005806 0.5 4279130408
-0.040504631 0.024053819 0.50100005 4278867236
-0.038954984 0.024101831 0.50200003 4279064615
-0.037398838 0.024149843 0.50300002 4279196203
-0.035836194 0.024197852 0.50400001 4279196201
-0.034267057 0.024245864 0.505 4279983152
-0.032691427 0.024293877 0.50600004 4280705594
-0.031109296 0.024341889 0.50700003 4278268689
-0.02952067 0.0243899 0.50800002 4279450912
-0.027925549 0.02443791 0.509 4278857494
-0.026375549 0.024533935 0.51100004 4278196226
-0.024812553 0.024629958 0.51300001 4278198283
-0.023191446 0.024677968 0.514 4280303659
-0.021605721 0.024773993 0.51600003 4278198021
-0.019968374 0.024822004 0.51700002 4280834100
-0.018359909 0.024918029 0.51900005 4278660882
-0.016706323 0.024966041 0.52000004 4279714600
-0.01507512 0.025062062 0.52200001 4279849518
-0.013405294 0.025110073 0.523 4278994209
-0.011751357 0.025206098 0.52500004 4278665759
-0.010103562 0.025350131 0.528 4278666527
-0.0084362803 0.025494168 0.53100002 4278733087
-0.0067495103 0.025638202 0.53400004 4278404122
-0.0050432519 0.025782235 0.537 4278996257
-0.0033052186 0.02583025 0.53800005 4279193636
-0.0015635845 0.025926271 0.54000002 4278203663
0.00019068885 0.025974283 0.54100001 4279325740
0.0019514584 0.026022296 0.54200006 4279195435
0.0037187238 0.026070308 0.54300004 4279260715
-0.078431047 0.024810188 0.48400003 4283192895
-0.074171856 0.024963968 0.48700002 4282799168
-0.069996759 0.025169011 0.49100003 4282471748
-0.068680622 0.025271533 0.49300003 4282274117
-0.065876536 0.025425315 0.49600002 4282799691
-0.064395092 0.025476575 0.49700001 4282076222
-0.056097154 0.025374055 0.49500003 4282799945
-0.054489397 0.025374055 0.49500003 4282538056
-0.052774802 0.025322793 0.49400002 4279911211
-0.051170286 0.025322793 0.49400002 4279912746
-0.049666114 0.025374055 0.49500003 4279454500
-0.04805835 0.025374055 0.49500003 4279126049
-0.046544429 0.025425315 0.49600002 4279391015
-0.045024011 0.025476575 0.49700001 4279391783
-0.043497097 0.025527837 0.49800003 4279129638
-0.042047784 0.025630357 0.5 4279130408
-0.040504631 0.02568162 0.50100005 4279459373
-0.038954984 0.02573288 0.50200003 4279064615
-0.037398838 0.02578414 0.50300002 4279064617
-0.035836194 0.0258354 0.50400001 4278933031
-0.034267057 0.02588666 0.505 4278202636
-0.032691427 0.025937922 0.50600004 4279519017
-0.031109296 0.025989184 0.50700003 4278198792
-0.02952067 0.026040444 0.50800002 4278856215
-0.027980415 0.026142966 0.51000005 4278789398
-0.026375549 0.026194226 0.51100004 4278854677
-0.024812553 0.026296746 0.51300001 4279118103
-0.023236569 0.02639927 0.51500005 4278592271
-0.021605721 0.02645053 0.51600003 4278595089
-0.020006998 0.02655305 0.51800001 4280241196
-0.018359909 0.026604313 0.51900005 4278593554
-0.01673845 0.026706833 0.52100003 4280109358
-0.015104 0.026809353 0.523 4278467867
-0.013430927 0.026860617 0.52400005 4278270488
-0.011796124 0.027014397 0.52700001 4278928418
-0.010122699 0.027116919 0.52900004 4278203922
-0.0084521677 0.027270699 0.53200001 4278796830
-0.0067621497 0.027424483 0.53500003 4280178485
-0.0050432519 0.027527003 0.537 4278862625
-0.0033113621 0.027629526 0.53900003 4279257894
-0.00156648 0.027732046 0.54100001 4278202892
0.00019104134 0.02778331 0.54200006 4279325224
0.0019514584 0.02778331 0.54200006 4278933033
0.0037187238 0.02783457 0.54300004 4279063082
-0.074324168 0.026600791 0.48800004 4282928953
-0.071591534 0.02676432 0.49100003 4282338878
-0.065876536 0.02703687 0.49600002 4286354820
-0.062907159 0.027145889 0.49800003 4281880896
-0.061289653 0.027145889 0.49800003 4282866254
-0.054489397 0.02698236 0.49500003 4282144577
-0.052881636 0.02698236 0.49500003 4280306739
-0.051170286 0.026927849 0.49400002 4280044078
-0.049666114 0.02698236 0.49500003 4279388455
-0.04805835 0.02698236 0.49500003 4279521066
-0.046544429 0.02703687 0.49600002 4279587883
-0.045024011 0.027091378 0.49700001 4279654189
-0.043497097 0.027145889 0.49800003 4279392299
-0.041963689 0.027200399 0.49900001 4279656754
-0.040423781 0.027254907 0.5 4279262509
-0.038954984 0.027363928 0.50200003 4279065130
-0.037398838 0.027418438 0.50300002 4278933544
-0.035836194 0.027472947 0.50400001 4278933544
-0.034267057 0.027527457 0.505 4278930212
-0.032691427 0.027581969 0.50600004 4279651887
-0.031109296 0.027636478 0.50700003 4278201617
-0.029578781 0.027745496 0.509 4278595353
-0.027980415 0.027800009 0.51000005 4278198287
-0.026427163 0.027909027 0.51200002 4278328847
-0.024812553 0.027963536 0.51300001 4278591505
-0.023236569 0.028072556 0.51500005 4278854418
-0.021647591 0.028181575 0.51700002 4280438323
-0.020006998 0.028236084 0.51800001 4280439860
-0.018395284 0.028345106 0.52000004 4279912233
-0.01673845 0.028399615 0.52100003 4280899126
-0.015104 0.028508633 0.523 4280244016
-0.013456558 0.028617654 0.52500004 4280441395
-0.011796124 0.028726673 0.52700001 4279850285
-0.010141834 0.028890204 0.53000003 4279981871
-0.0084680552 0.029053735 0.53300005 4279522090
-0.0067747892 0.029217262 0.53600001 4279258918
-0.0050526438 0.029326282 0.53800005 4279587883
-0.0033175056 0.029435301 0.54000002 4279193638
-0.00156648 0.02948981 0.54100001 4278666781
0.00019104134 0.029544322 0.54200006 4279456810
0.0019550589 0.029598832 0.54300004 4279260715
0.0037187238 0.029598832 0.54300004 4279061287
-0.071737342 0.028417388 0.49200001 4283457357
-0.064524665 0.028763942 0.49800003 4286684298
-0.059672147 0.028763942 0.49800003 4286552458
-0.057938065 0.028706182 0.49700001 4281420606
-0.056210481 0.028648423 0.49600002 4282078536
-0.054489397 0.028590666 0.49500003 4280369713
-0.052881636 0.028590666 0.49500003 4280635706
-0.051170286 0.028532906 0.49400002 4280044850
-0.049666114 0.028590666 0.49500003 4279519787
-0.04805835 0.028590666 0.49500003 4279717934
-0.046544429 0.028648423 0.49600002 4279653935
-0.045024011 0.028706182 0.49700001 4279457326
-0.043497097 0.028763942 0.49800003 4279392301
-0.041963689 0.028821699 0.49900001 4279458605
-0.040423781 0.028879458 0.5 4279262509
-0.038954984 0.028994977 0.50200003 4279130923
-0.037398838 0.029052736 0.50300002 4278472993
-0.035836194 0.029110495 0.50400001 4279130923
-0.034267057 0.029168252 0.505 4278469148
-0.032691427 0.029226014 0.50600004 4279653422
-0.031170655 0.02934153 0.50800002 4279588144
-0.027980415 0.029457049 0.51000005 4279522351
-0.026427163 0.029572567 0.51200002 4279719217
-0.024812553 0.029630324 0.51300001 4279784492
-0.023236569 0.029745845 0.51500005 4279981871
-0.021647591 0.029861361 0.51700002 4279850285
-0.020006998 0.02991912 0.51800001 4279981617
-0.018395284 0.030034639 0.52000004 4280310582
-0.01673845 0.030092398 0.52100003 4280375862
-0.015104 0.030207913 0.523 4280374832
-0.013456558 0.030323433 0.52500004 4280309039
-0.011796124 0.03043895 0.52700001 4279388453
-0.010141834 0.030612227 0.53000003 4278993697
-0.0084680552 0.030785505 0.53300005 4278927134
-0.0067747892 0.030958779 0.53600001 4278335767
-0.0050526438 0.0310743 0.53800005 4278201357
-0.0033175056 0.031189816 0.54000002 4278199044
-0.00156648 0.031247575 0.54100001 4279653422
0.00019104134 0.031305335 0.54200006 4279588394
0.0019550589 0.031363092 0.54300004 4279654187
-0.054489397 0.030198971 0.49500003 4285369468
-0.052881636 0.030198971 0.49500003 4281553987
-0.051170286 0.030137962 0.49400002 4279647275
-0.049666114 0.030198971 0.49500003 4279649589
-0.04805835 0.030198971 0.49500003 4280177469
-0.046544429 0.030259978 0.49600002 4280047928
-0.045024011 0.030320985 0.49700001 4280442940
-0.043497097 0.030381994 0.49800003 4279983670
-0.041963689 0.030443002 0.49900001 4279325740
-0.040504631 0.03056502 0.50100005 4279326767
-0.038954984 0.030626027 0.50200003 4278866986
-0.037398838 0.030687034 0.50300002 4279327537
-0.035836194 0.030748041 0.50400001 4279458353
-0.034334917 0.03087006 0.50600004 4279654705
-0.032756034 0.030931067 0.50700003 4279654705
-0.031170655 0.030992074 0.50800002 4279325740
-0.029578781 0.031053081 0.509 4279720498
-0.027980415 0.031114092 0.51000005 4279391787
-0.026427163 0.031236107 0.51200002 4279457580
-0.024812553 0.031297114 0.51300001 4279391785
-0.023236569 0.031419132 0.51500005 4279260713
-0.021647591 0.031541146 0.51700002 4279260713
-0.020006998 0.031602152 0.51800001 4279194920
-0.018395284 0.03172417 0.52000004 4279260713
-0.01673845 0.031785179 0.52100003 4279326506
-0.015104 0.031907193 0.523 4279588394
-0.013456558 0.032029212 0.52500004 4279456808
-0.011796124 0.032151226 0.52700001 4279457578
-0.010141834 0.032334249 0.53000003 4279523373
-0.0084521677 0.032456264 0.53200001 4279391787
-0.0067747892 0.032700296 0.53600001 4279391787
-0.0050526438 0.032822315 0.53800005 4279523373
-0.0033175056 0.032944329 0.54000002 4279260461
-0.00156648 0.033005338 0.54100001 4279062568
0.00019104134 0.033066347 0.54200006 4279457580
0.0019550589 0.033127356 0.54300004 4278862373
-0.045024011 0.031935789 0.49700001 4282279759
-0.043497097 0.03200005 0.49800003 4280702530
-0.042047784 0.032128561 0.5 4280636735
-0.035907295 0.032449845 0.505 4280507198
-0.034334917 0.032514106 0.50600004 4280506684
-0.029578781 0.032706875 0.509 4279849779
-0.026427163 0.032899648 0.51200002 4279587631
-0.024812553 0.032963905 0.51300001 4279653937
-0.023236569 0.033092421 0.51500005 4279457328
-0.021605721 0.033156678 0.51600003 4279653935
-0.020006998 0.033285189 0.51800001 4279588142
-0.018359909 0.033349451 0.51900005 4279786293
-0.01673845 0.033477962 0.52100003 4279523121
-0.01507512 0.03354222 0.52200001 4279653935
-0.013430927 0.033670735 0.52400005 4279785521
-0.011773741 0.03379925 0.52600002 4279456558
-0.010122699 0.033992022 0.52900004 4279523121
-0.0084521677 0.034184791 0.53200001 4279654455
-0.0067621497 0.034377564 0.53500003 4279851062
-0.0050526438 0.034570336 0.53800005 4279653424
-0.0033175056 0.034698848 0.54000002 4279849779
-0.00156648 0.034763105 0.54100001 4279126058
0.00019104134 0.034827363 0.54200006 4280374330
-0.035907295 0.034090642 0.505 4287674019
-0.034402769 0.034225658 0.50700003 4287608226
-0.026427163 0.034563188 0.51200002 4285304442
-0.01673845 0.035170745 0.52100003 4282939490
-0.013430927 0.035373263 0.52400005 4285043835
-0.011773741 0.035508275 0.52600002 4285898374
-0.035857309 0.022659691 0.50747859 4294967295
-0.035857309 0.022659691 0.50747859 4294901760
-0.035857309 0.022659691 0.50797862 4294901760
-0.035857309 0.022659691 0.50847858 4294901760
-0.035857309 0.022659691 0.50897861 4294901760
-0.035857309 0.022659691 0.50947857 4294901760
-0.035857309 0.022659691 0.50997859 4294901760
-0.035857309 0.022659691 0.51047862 4294901760
-0.035857309 0.022659691 0.51097858 4294901760
-0.035857309 0.022659691 0.5114786 4294901760
-0.035857309 0.022659691 0.51197857 4294901760
-0.035857309 0.022659691 0.51247859 4294901760
-0.035857309 0.022659691 0.51297861 4294901760
-0.035857309 0.022659691 0.51347858 4294901760
-0.035857309 0.022659691 0.5139786 4294901760
-0.035857309 0.022659691 0.51447862 4294901760
-0.035857309 0.022659691 0.51497859 4294901760
-0.035857309 0.022659691 0.51547861 4294901760
-0.035857309 0.022659691 0.51597857 4294901760
-0.035857309 0.022659691 0.5164786 4294901760
-0.035857309 0.022659691 0.51697862 4294901760
-0.035857309 0.022659691 0.51747859 4294901760
-0.035857309 0.022659691 0.51797861 4294901760
-0.035857309 0.022659691 0.51847857 4294901760
-0.035857309 0.022659691 0.5189786 4294901760
-0.035857309 0.022659691 0.51947862 4294901760
-0.035857309 0.022659691 0.51997858 4294901760
-0.035857309 0.022659691 0.52047861 4294901760
-0.035857309 0.022659691 0.52097857 4294901760
-0.035857309 0.022659691 0.52147859 4294901760
-0.035857309 0.022659691 0.52197862 4294901760
-0.035857309 0.022659691 0.52247858 4294901760
-0.035857309 0.022659691 0.5229786 4294901760
-0.035857309 0.022659691 0.52347863 4294901760
-0.035857309 0.022659691 0.52397859 4294901760
-0.035857309 0.022659691 0.52447861 4294901760
-0.035857309 0.022659691 0.52497858 4294901760
-0.035857309 0.022659691 0.5254786 4294901760
-0.035857309 0.022659691 0.52597862 4294901760
-0.035857309 0.022659691 0.52647859 4294901760
-0.035857309 0.022659691 0.52697861 4294901760
-0.035857309 0.022659691 0.52747858 4294901760
-0.035857309 0.022659691 0.5279786 4294901760
-0.035857309 0.022659691 0.52847862 4294901760
-0.035857309 0.022659691 0.52897859 4294901760
-0.035857309 0.022659691 0.52947861 4294901760
-0.035857309 0.022659691 0.52997857 4294901760
-0.035857309 0.022659691 0.5304786 4294901760
-0.035857309 0.022659691 0.53097862 4294901760
-0.035857309 0.022659691 0.53147858 4294901760
-0.035857309 0.022659691 0.53197861 4294901760
-0.035857309 0.022659691 0.53247857 4294901760
-0.035857309 0.022659691 0.53297859 4294901760
-0.035857309 0.022659691 0.53347862 4294901760
-0.035857309 0.022659691 0.53397858 4294901760
-0.035857309 0.022659691 0.5344786 4294901760
-0.035857309 0.022659691 0.53497863 4294901760
-0.035857309 0.022659691 0.53547859 4294901760
-0.035857309 0.022659691 0.53597862 4294901760
-0.035857309 0.022659691 0.53647858 4294901760
-0.035857309 0.022659691 0.5369786 4294901760
-0.035857309 0.022659691 0.53747863 4294901760
-0.035857309 0.022659691 0.53797859 4294901760
-0.035857309 0.022659691 0.53847861 4294901760
-0.035857309 0.022659691 0.53897858 4294901760
-0.035857309 0.022659691 0.5394786 4294901760
-0.035857309 0.022659691 0.53997862 4294901760
-0.035857309 0.022659691 0.54047859 4294901760
-0.035857309 0.022659691 0.54097861 4294901760
-0.035857309 0.022659691 0.54147863 4294901760
-0.035857309 0.022659691 0.5419786 4294901760
-0.035857309 0.022659691 0.54247862 4294901760
-0.035857309 0.022659691 0.54297858 4294901760
-0.035857309 0.022659691 0.54347861 4294901760
-0.035857309 0.022659691 0.54397863 4294901760
-0.035857309 0.022659691 0.5444786 4294901760
-0.035857309 0.022659691 0.54497862 4294901760
-0.035857309 0.022659691 0.54547858 4294901760
-0.035857309 0.022659691 0.54597861 4294901760
-0.035857309 0.022659691 0.54647863 4294901760
-0.035857309 0.022659691 0.54697859 4294901760
-0.035857309 0.022659691 0.54747862 4294901760
-0.035857309 0.022659691 0.54797858 4294901760
-0.035857309 0.022659691 0.5484786 4294901760
-0.035857309 0.022659691 0.54897863 4294901760
-0.035857309 0.022659691 0.54947859 4294901760
-0.035857309 0.022659691 0.54997861 4294901760
-0.035857309 0.022659691 0.55047858 4294901760
-0.035857309 0.022659691 0.5509786 4294901760
-0.035857309 0.022659691 0.55147862 4294901760
-0.035857309 0.022659691 0.55197859 4294901760
-0.035857309 0.022659691 0.55247861 4294901760
-0.035857309 0.022659691 0.55297863 4294901760
-0.035857309 0.022659691 0.5534786 4294901760
-0.035857309 0.022659691 0.55397862 4294901760
-0.035857309 0.022659691 0.55447859 4294901760
-0.035857309 0.022659691 0.55497861 4294901760
-0.035857309 0.022659691 0.55547863 4294901760
-0.035857309 0.022659691 0.5559786 4294901760
-0.035857309 0.022659691 0.55647862 4294901760
-0.035857309 0.022659691 0.55697858 4294901760
-0.035857309 0.022659691 0.55747861 4294901760
-0.035857309 0.022659691 0.50747859 4278255360
-0.036172878 0.022680772 0.50786585 4278255360
-0.036488444 0.022701854 0.5082531 4278255360
-0.036804013 0.022722937 0.50864041 4278255360
-0.037119579 0.022744019 0.50902766 4278255360
-0.037435148 0.0227651 0.50941491 4278255360
-0.037750714 0.022786181 0.50980216 4278255360
-0.038066283 0.022807263 0.51018941 4278255360
-0.038381848 0.022828344 0.51057673 4278255360
-0.038697418 0.022849428 0.51096398 4278255360
-0.039012983 0.022870509 0.51135123 4278255360
-0.039328553 0.02289159 0.51173848 4278255360
-0.039644122 0.022912672 0.51212573 4278255360
-0.039959688 0.022933753 0.51251298 4278255360
-0.040275257 0.022954836 0.51290029 4278255360
-0.040590823 0.022975918 0.51328754 4278255360
-0.040906392 0.022996999 0.5136748 4278255360
-0.041221958 0.023018081 0.51406205 4278255360
-0.041537527 0.023039162 0.5144493 4278255360
-0.041853093 0.023060244 0.51483661 4278255360
-0.042168662 0.023081327 0.51522386 4278255360
-0.042484231 0.023102408 0.51561111 4278255360
-0.042799797 0.02312349 0.51599836 4278255360
-0.043115366 0.023144571 0.51638561 4278255360
-0.043430932 0.023165653 0.51677293 4278255360
-0.043746501 0.023186736 0.51716018 4278255360
-0.044062067 0.023207817 0.51754743 4278255360
-0.044377636 0.023228899 0.51793468 4278255360
-0.044693202 0.02324998 0.51832193 4278255360
-0.045008771 0.023271061 0.51870918 4278255360
-0.04532434 0.023292143 0.51909649 4278255360
-0.045639906 0.023313226 0.51948375 4278255360
-0.045955472 0.023334308 0.519871 4278255360
-0.046271041 0.023355389 0.52025825 4278255360
-0.04658661 0.02337647 0.5206455 4278255360
-0.046902176 0.023397552 0.52103281 4278255360
-0.047217745 0.023418635 0.52142006 4278255360
-0.047533311 0.023439717 0.52180731 4278255360
-0.04784888 0.023460798 0.52219456 4278255360
-0.048164446 0.023481879 0.52258182 4278255360
-0.048480015 0.023502961 0.52296913 4278255360
-0.048795581 0.023524042 0.52335638 4278255360
-0.04911115 0.023545125 0.52374363 4278255360
-0.04942672 0.023566207 0.52413088 4278255360
-0.049742285 0.023587288 0.52451813 4278255360
-0.050057855 0.02360837 0.52490544 4278255360
-0.05037342 0.023629451 0.52529269 4278255360
-0.050688989 0.023650533 0.52567995 4278255360
-0.051004555 0.023671616 0.5260672 4278255360
-0.051320124 0.023692697 0.52645445 4278255360
-0.05163569 0.023713779 0.52684176 4278255360
-0.051951259 0.02373486 0.52722901 4278255360
-0.052266829 0.023755942 0.52761626 4278255360
-0.052582394 0.023777023 0.52800351 4278255360
-0.052897964 0.023798106 0.52839077 4278255360
-0.053213529 0.023819188 0.52877802 4278255360
-0.053529099 0.023840269 0.52916533 4278255360
-0.053844668 0.02386135 0.52955258 4278255360
-0.054160234 0.023882432 0.52993983 4278255360
-0.054475799 0.023903515 0.53032708 4278255360
-0.054791369 0.023924597 0.53071433 4278255360
-0.055106938 0.023945678 0.53110164 4278255360
-0.055422504 0.023966759 0.5314889 4278255360
-0.055738069 0.023987841 0.53187615 4278255360
-0.056053638 0.024008922 0.5322634 4278255360
-0.056369208 0.024030006 0.53265065 4278255360
-0.056684777 0.024051087 0.53303796 4278255360
-0.057000343 0.024072168 0.53342521 4278255360
-0.057315908 0.02409325 0.53381246 4278255360
-0.057631478 0.024114331 0.53419971 4278255360
-0.057947047 0.024135415 0.53458697 4278255360
-0.058262613 0.024156496 0.53497422 4278255360
-0.058578182 0.024177577 0.53536153 4278255360
-0.058893748 0.024198659 0.53574878 4278255360
-0.059209317 0.02421974 0.53613603 4278255360
-0.059524883 0.024240822 0.53652328 4278255360
-0.059840448 0.024261905 0.53691053 4278255360
-0.060156018 0.024282986 0.53729784 4278255360
-0.060471587 0.024304068 0.5376851 4278255360
-0.060787156 0.024325149 0.53807235 4278255360
-0.061102722 0.024346231 0.5384596 4278255360
-0.061418287 0.024367314 0.53884685 4278255360
-0.061733857 0.024388395 0.53923416 4278255360
-0.062049426 0.024409477 0.53962141 4278255360
-0.062364992 0.024430558 0.54000866 4278255360
-0.062680557 0.02445164 0.54039592 4278255360
-0.062996127 0.024472721 0.54078317 4278255360
-0.063311696 0.024493804 0.54117048 4278255360
-0.063627265 0.024514886 0.54155773 4278255360
-0.063942835 0.024535967 0.54194498 4278255360
-0.064258397 0.024557048 0.54233223 4278255360
-0.064573966 0.02457813 0.54271948 4278255360
-0.064889535 0.024599213 0.54310679 4278255360
-0.065205097 0.024620295 0.54349405 4278255360
-0.065520667 0.024641376 0.5438813 4278255360
-0.065836236 0.024662457 0.54426855 4278255360
-0.066151805 0.024683539 0.5446558 4278255360
-0.066467375 0.02470462 0.54504305 4278255360
-0.066782936 0.024725704 0.54543036 4278255360
-0.067098506 0.024746785 0.54581761 4278255360
-0.067414075 0.024767866 0.54620486 4278255360
