# .PCD v0.7 - Point Cloud Data file format
VERSION 0.7
FIELDS x y z rgb
SIZE 4 4 4 4
TYPE F F F U
COUNT 1 1 1 1
WIDTH 1018
HEIGHT 1
VIEWPOINT 0 0 0 1 0 0 0
POINTS 1018
DATA ascii
-0.013544505 0.0072791572 0.46900001 4287843136
-0.012021191 0.0072791572 0.46900001 4286263334
-0.010520263 0.0072946781 0.47000003 4287183659
-0.008993702 0.0072946781 0.47000003 4287183659
-0.0074830279 0.0073101982 0.47100002 4287053879
-0.0059532197 0.0073101982 0.47100002 4288179038
-0.028225396 0.0086340588 0.46000001 4287013773
-0.026731314 0.0086340588 0.46000001 4287210125
-0.025237234 0.0086340588 0.46000001 4287340941
-0.02379477 0.0086528286 0.46100003 4287801492
-0.022345807 0.0086715985 0.46200001 4287927170
-0.020890351 0.0086903684 0.46300003 4286607199
-0.019428398 0.0087091373 0.46400002 4287388497
-0.01795995 0.0087279081 0.46500003 4286464313
-0.016520379 0.008765447 0.46700001 4287251260
-0.01503569 0.0087842168 0.46800002 4286790450
-0.013515625 0.0087842168 0.46800002 4286065694
-0.012021191 0.0088029858 0.46900001 4286854694
-0.010497879 0.0088029858 0.46900001 4286986278
-0.008993702 0.0088217556 0.47000003 4288828484
-0.0074830279 0.0088405255 0.47100002 4286789167
-0.0059532197 0.0088405255 0.47100002 4287577913
-0.0044328026 0.0088592954 0.47200003 4286870371
-0.029719478 0.010128645 0.46000001 4286548086
-0.028225396 0.010128645 0.46000001 4286339150
-0.026731314 0.010128645 0.46000001 4286863696
-0.025237234 0.010128645 0.46000001 4286994766
-0.02379477 0.010150664 0.46100003 4287389522
-0.022297442 0.010150664 0.46100003 4286069805
-0.020845231 0.010172683 0.46200001 4287250999
-0.019428398 0.01021672 0.46400002 4286790705
-0.01795995 0.01023874 0.46500003 4285542182
-0.016485004 0.010260758 0.46600002 4284825396
-0.015003562 0.010282777 0.46700001 4286011467
-0.013515625 0.010304797 0.46800002 4284493351
-0.012021191 0.010326815 0.46900001 4285673766
-0.010497879 0.010326815 0.46900001 4286328866
-0.008993702 0.010348834 0.47000003 4286985776
-0.0074830279 0.010370852 0.47100002 4291527303
-0.0059532197 0.010370852 0.47100002 4286593073
-0.0044328026 0.010392872 0.47200003 4285281320
-0.031213557 0.011623232 0.46000001 4286413420
-0.029719478 0.011623232 0.46000001 4285679676
-0.028164037 0.011597965 0.45900002 4286593326
-0.026673203 0.011597965 0.45900002 4286592299
-0.025182372 0.011597965 0.45900002 4287118382
-0.023743154 0.011623232 0.46000001 4286987050
-0.022297442 0.0116485 0.46100003 4287776564
-0.020845231 0.011673768 0.46200001 4286330149
-0.019386528 0.011699037 0.46300003 4288712062
-0.017921325 0.011724303 0.46400002 4287994760
-0.016485004 0.01177484 0.46600002 4287274889
-0.015003562 0.011800108 0.46700001 4287209096
-0.013515625 0.011825375 0.46800002 4287537037
-0.012021191 0.011850643 0.46900001 4286348138
-0.010520263 0.011875912 0.47000003 4285804582
-0.008993702 0.011875912 0.47000003 4286263336
-0.0074830279 0.011901179 0.47100002 4286984497
-0.0059658596 0.011926447 0.47200003 4287379762
-0.0044328026 0.011926447 0.47200003 4287054131
-0.031213557 0.013117819 0.46000001 4285284664
-0.029719478 0.013117819 0.46000001 4286134832
-0.028164037 0.013089303 0.45900002 4286328096
-0.026673203 0.013089303 0.45900002 4286787877
-0.025182372 0.013089303 0.45900002 4287051044
-0.023691539 0.013089303 0.45900002 4287445032
-0.022249073 0.013117819 0.46000001 4287445032
-0.020800112 0.013146337 0.46100003 4286919206
-0.019386528 0.013203371 0.46300003 4288973435
-0.017921325 0.013231887 0.46400002 4287602568
-0.016485004 0.013288922 0.46600002 4287012746
-0.015003562 0.013317439 0.46700001 4286815367
-0.013515625 0.013345956 0.46800002 4287340682
-0.012021191 0.013374473 0.46900001 4288849042
-0.010520263 0.01340299 0.47000003 4285346595
-0.009012837 0.013431507 0.47100002 4285672994
-0.0074830279 0.013431507 0.47100002 4286131748
-0.0059658596 0.013460024 0.47200003 4286197541
-0.0044328026 0.013460024 0.47200003 4285411877
-0.032849845 0.014675939 0.46200001 4284838751
-0.031281415 0.014644174 0.46100003 4285479215
-0.029719478 0.014612407 0.46000001 4285672994
-0.028164037 0.014580641 0.45900002 4286263073
-0.026615093 0.014548875 0.45800003 4286197534
-0.02512751 0.014548875 0.45800003 4286788129
-0.023691539 0.014580641 0.45900002 4286985251
-0.022249073 0.014612407 0.46000001 4288237117
-0.020800112 0.014644174 0.46100003 4287577136
-0.019344656 0.014675939 0.46200001 4285739559
-0.017921325 0.014739471 0.46400002 4289697412
-0.016485004 0.014803004 0.46600002 4286936162
-0.015003562 0.01483477 0.46700001 4284890673
-0.013515625 0.014866536 0.46800002 4286529336
-0.012021191 0.014898302 0.46900001 4287317053
-0.010520263 0.014930069 0.47000003 4286658862
-0.009012837 0.014961834 0.47100002 4286856752
-0.0074989158 0.014993601 0.47200003 4285607971
-0.0059784986 0.015025367 0.47300002 4286134828
-0.004442194 0.015025367 0.47300002 4284496944
-0.032920949 0.016212041 0.46300003 4282138667
-0.031281415 0.016142009 0.46100003 4285085224
-0.029654872 0.016071979 0.45900002 4285280802
-0.028164037 0.016071979 0.45900002 4285738269
-0.026615093 0.016036965 0.45800003 4285211152
-0.02512751 0.016036965 0.45800003 4286130199
-0.023639925 0.016036965 0.45800003 4287051301
-0.022200705 0.016071979 0.45900002 4287379759
-0.020754991 0.016106993 0.46000001 4287906360
-0.019344656 0.016177025 0.46200001 4287380784
-0.017921325 0.016247055 0.46400002 4287249200
-0.016485004 0.016317084 0.46600002 4286922543
-0.015003562 0.0163521 0.46700001 4287185717
-0.013544505 0.01642213 0.46900001 4285344799
-0.012046823 0.016457146 0.47000003 4286594868
-0.010542646 0.016492162 0.47100002 4285413676
-0.0090319728 0.016527178 0.47200003 4284623390
-0.0075148032 0.016562192 0.47300002 4285281316
-0.0059784986 0.016562192 0.47300002 4284952351
-0.0044515859 0.016597208 0.47400004 4283838503
-0.032920949 0.017716374 0.46300003 4282399014
-0.031281415 0.017639846 0.46100003 4284559648
-0.029654872 0.017563317 0.45900002 4284491800
-0.028102677 0.017525053 0.45800003 4284622611
-0.026615093 0.017525053 0.45800003 4284884500
-0.02512751 0.017525053 0.45800003 4285671703
-0.023639925 0.017525053 0.45800003 4285868567
-0.022200705 0.017563317 0.45900002 4286656286
-0.020800112 0.017639846 0.46100003 4286918690
-0.019344656 0.01767811 0.46200001 4287511854
-0.017921325 0.017754639 0.46400002 4286920233
-0.016485004 0.017831167 0.46600002 4285870625
-0.01503569 0.017907696 0.46800002 4284820505
-0.013544505 0.017945958 0.46900001 4284360986
-0.012072454 0.018022489 0.47100002 4283769364
-0.01056503 0.018060753 0.47200003 4285088050
-0.0090511087 0.018099017 0.47300002 4284627499
-0.0075148032 0.018099017 0.47300002 4283966743
-0.0059911385 0.018137282 0.47400004 4284953123
-0.0044515859 0.018137282 0.47400004 4285741103
-0.0029181761 0.018175546 0.47500002 4288577398
-0.032849845 0.019179193 0.46200001 4283381797
-0.031213557 0.019096168 0.46000001 4284821537
-0.029590266 0.01901314 0.45800003 4284227601
-0.028102677 0.01901314 0.45800003 4284161808
-0.026615093 0.01901314 0.45800003 4284359187
-0.02512751 0.01901314 0.45800003 4284884500
-0.023691539 0.019054655 0.45900002 4285606937
-0.022249073 0.019096168 0.46000001 4285672473
-0.020800112 0.019137681 0.46100003 4286000414
-0.019386528 0.019220708 0.46300003 4286066209
-0.01795995 0.019303735 0.46500003 4286001443
-0.016520379 0.019386761 0.46700001 4284689183
-0.015067817 0.019469788 0.46900001 4283768597
-0.013573385 0.019511301 0.47000003 4283769110
-0.012072454 0.019552814 0.47100002 4283966743
-0.01056503 0.019594328 0.47200003 4282325775
-0.0090511087 0.019635841 0.47300002 4282986022
-0.0075306911 0.019677356 0.47400004 4283574046
-0.006003778 0.019718869 0.47500002 4283507221
-0.0044609774 0.019718869 0.47500002 4285413676
-0.0029243196 0.019760381 0.47600001 4285017634
-0.029590266 0.02050123 0.45800003 4285411105
-0.028102677 0.02050123 0.45800003 4284228628
-0.026615093 0.02050123 0.45800003 4283768849
-0.02512751 0.02050123 0.45800003 4284162835
-0.023691539 0.020545991 0.45900002 4284886044
-0.022249073 0.020590754 0.46000001 4285346082
-0.020845231 0.020680279 0.46200001 4285542691
-0.019428398 0.020769805 0.46400002 4286731844
-0.01795995 0.020814568 0.46500003 4284428575
-0.016520379 0.02090409 0.46700001 4284164122
-0.015067817 0.020993616 0.46900001 4284425757
-0.013602264 0.021083141 0.47100002 4284753179
-0.012098087 0.021127906 0.47200003 4284096532
-0.010587414 0.021172667 0.47300002 4288783249
-0.0090702446 0.02121743 0.47400004 4288457625
-0.0075465781 0.021262191 0.47500002 4282525473
-0.006003778 0.021262191 0.47500002 4283113499
-0.0044703684 0.021306954 0.47600001 4284427040
-0.0029243196 0.021306954 0.47600001 4285545262
-0.0013811664 0.021351717 0.47700003 4285943361
-0.029525656 0.021941308 0.45700002 4285345053
-0.028102677 0.021989319 0.45800003 4284365862
-0.026615093 0.021989319 0.45800003 4283971106
-0.025182372 0.022037331 0.45900002 4283507473
-0.023743154 0.022085343 0.46000001 4283704339
-0.022297442 0.022133354 0.46100003 4284622363
-0.020890351 0.022229377 0.46300003 4284689699
-0.019428398 0.022277389 0.46400002 4284430372
-0.017998572 0.022373412 0.46600002 4283902747
-0.016555754 0.022469435 0.46800002 4283902493
-0.015099945 0.02256546 0.47000003 4284230944
-0.013602264 0.02261347 0.47100002 4284623906
-0.012123718 0.022709493 0.47300002 4284165667
-0.010609797 0.022757506 0.47400004 4287472266
-0.0090893796 0.022805518 0.47500002 4287539090
-0.0075465781 0.022805518 0.47500002 4287731338
-0.0060164174 0.022853527 0.47600001 4282524703
-0.0044797603 0.022901541 0.47700003 4283705116
-0.0029304633 0.022901541 0.47700003 4285019431
-0.0013840619 0.022949552 0.47800002 4285936936
0.00016883542 0.022997564 0.47900003 4286725682
-0.032423224 0.023374887 0.45600003 4285085222
-0.030942136 0.023374887 0.45600003 4286067236
-0.029525656 0.023426147 0.45700002 4285213978
-0.028102677 0.023477409 0.45800003 4282131469
-0.026615093 0.023477409 0.45800003 4281935119
-0.025182372 0.023528669 0.45900002 4283839520
-0.023743154 0.023579929 0.46000001 4284099612
-0.022345807 0.023682451 0.46200001 4285477670
-0.020890351 0.023733713 0.46300003 4286270781
-0.019470271 0.023836233 0.46500003 4284168231
-0.018037196 0.023938753 0.46700001 4282328857
-0.01659113 0.024041275 0.46900001 4279962885
-0.015099945 0.024092536 0.47000003 4283385659
-0.013631144 0.024195058 0.47200003 4279963907
-0.012123718 0.024246318 0.47300002 4286019945
-0.010609797 0.02429758 0.47400004 4287079052
-0.0090893796 0.02434884 0.47500002 4287145361
-0.0075624655 0.0244001 0.47600001 4288262047
-0.0060290569 0.024451362 0.47700003 4281280031
-0.0044797603 0.024451362 0.47700003 4283441690
-0.0029366068 0.024502622 0.47800002 4284033054
-0.0013840619 0.024502622 0.47800002 4285738271
0.00016883542 0.024553884 0.47900003 4287314991
0.0017282286 0.024605144 0.48000002 4286658094
-0.035385404 0.024856478 0.45600003 4282466594
-0.033904314 0.024856478 0.45600003 4284692261
-0.032423224 0.024856478 0.45600003 4285346084
-0.030942136 0.024856478 0.45600003 4286266155
-0.029525656 0.024910986 0.45700002 4283769360
-0.028041318 0.024910986 0.45700002 4281606929
-0.026615093 0.024965497 0.45800003 4281738002
-0.025182372 0.025020007 0.45900002 4284100896
-0.023743154 0.025074515 0.46000001 4285411877
-0.022345807 0.025183534 0.46200001 4285806635
-0.02093547 0.025292555 0.46400002 4284692261
-0.019470271 0.025347065 0.46500003 4280556044
-0.018037196 0.025456084 0.46700001 4280162831
-0.01659113 0.025565105 0.46900001 4279244561
-0.015132072 0.025674123 0.47100002 4282403906
-0.013631144 0.025728634 0.47200003 4284377950
-0.012123718 0.025783144 0.47300002 4280363040
-0.010632181 0.025892163 0.47500002 4287999904
-0.0091085145 0.025946673 0.47600001 4287343512
-0.0075624655 0.025946673 0.47600001 4287408533
-0.0060290569 0.026001183 0.47700003 4282732351
-0.0044891518 0.026055692 0.47800002 4283047704
-0.0029366068 0.026055692 0.47800002 4283901727
-0.0013869575 0.026110204 0.47900003 4285081627
0.00016883542 0.026110204 0.47900003 4286659114
0.0017282286 0.026164712 0.48000002 4286527283
0.0032872695 0.026164712 0.48000002 4286329906
-0.035385404 0.026338067 0.45600003 4282860069
-0.033829961 0.026280308 0.45500001 4285084709
-0.03235212 0.026280308 0.45500001 4285475615
-0.03087428 0.026280308 0.45500001 4284359187
-0.02946105 0.026338067 0.45600003 4282852112
-0.028041318 0.026395826 0.45700002 4280686851
-0.026615093 0.026453586 0.45800003 4282527772
-0.025182372 0.026511343 0.45900002 4284952353
-0.023743154 0.026569102 0.46000001 4286133545
-0.022345807 0.026684619 0.46200001 4285872941
-0.02093547 0.026800139 0.46400002 4284038960
-0.019512143 0.026915656 0.46600002 4280294934
-0.018037196 0.026973415 0.46700001 4279703824
-0.01659113 0.027088933 0.46900001 4280365099
-0.015132072 0.02720445 0.47100002 4280628271
-0.013631144 0.027262211 0.47200003 4278982672
-0.01214935 0.027377728 0.47400004 4281350448
-0.010632181 0.027435487 0.47500002 4280102948
-0.0091085145 0.027493244 0.47600001 4287277465
-0.0075783534 0.027551005 0.47700003 4287211924
-0.0060416963 0.027608763 0.47800002 4286024822
-0.0044891518 0.027608763 0.47800002 4283510051
-0.0029427505 0.027666522 0.47900003 4283507483
-0.0013869575 0.027666522 0.47900003 4285344801
0.0001691879 0.027724281 0.48000002 4286461483
0.0017282286 0.027724281 0.48000002 4290674034
0.0032872695 0.027724281 0.48000002 4286462260
-0.037109032 0.028002681 0.45900002 4282400801
-0.035307802 0.027758649 0.45500001 4283580198
-0.033755612 0.027697641 0.45400003 4285608486
-0.032281019 0.027697641 0.45400003 4286067236
-0.03087428 0.027758649 0.45500001 4284097812
-0.029396441 0.027758649 0.45500001 4282064906
-0.027979959 0.027819658 0.45600003 4283253543
-0.02655698 0.027880665 0.45700002 4283251233
-0.02512751 0.027941674 0.45800003 4285279521
-0.023743154 0.028063688 0.46000001 4286396201
-0.022345807 0.028185705 0.46200001 4284563757
-0.02093547 0.028307721 0.46400002 4280424460
-0.019512143 0.028429737 0.46600002 4279573008
-0.018037196 0.028490745 0.46700001 4286614908
-0.01659113 0.028612761 0.46900001 4285434231
-0.015132072 0.028734777 0.47100002 4283196502
-0.013631144 0.028795786 0.47200003 4283917658
-0.01214935 0.028917802 0.47400004 4281548597
-0.010632181 0.02897881 0.47500002 4279575322
-0.0091085145 0.029039817 0.47600001 4288065697
-0.0075783534 0.029100826 0.47700003 4287080340
-0.0060416963 0.029161833 0.47800002 4287539094
-0.0044891518 0.029161833 0.47800002 4282983194
-0.0029427505 0.029222842 0.47900003 4283704089
-0.001389853 0.02928385 0.48000002 4285213215
0.0001691879 0.02928385 0.48000002 4286265131
0.0017282286 0.02928385 0.48000002 4286460713
0.003294118 0.029344859 0.48100004 4286723887
-0.03686649 0.02930125 0.45600003 4282529820
-0.035230204 0.029172735 0.45400003 4284627238
-0.033681259 0.029108478 0.45300001 4285803810
-0.032209914 0.029108478 0.45300001 4286198822
-0.030806426 0.029172735 0.45400003 4282456069
-0.029331835 0.029172735 0.45400003 4281342982
-0.027918598 0.029236991 0.45500001 4282264600
-0.026498869 0.02930125 0.45600003 4283773987
-0.02512751 0.029429764 0.45800003 4285213728
-0.023743154 0.029558277 0.46000001 4285542180
-0.022345807 0.029686792 0.46200001 4283778870
-0.02093547 0.029815305 0.46400002 4284375377
-0.019470271 0.029879564 0.46500003 4281679665
-0.018037196 0.030008078 0.46700001 4285825905
-0.01659113 0.030136591 0.46900001 4282934861
-0.015132072 0.030265106 0.47100002 4283130963
-0.013631144 0.030329363 0.47200003 4282075195
-0.01214935 0.030457878 0.47400004 4282469953
-0.010632181 0.030522134 0.47500002 4282339140
-0.0091276504 0.030650649 0.47700003 4288065186
-0.0075783534 0.030650649 0.47700003 4287277719
-0.0060416963 0.030714905 0.47800002 4288131229
-0.0044985432 0.030779164 0.47900003 4283178520
-0.0029427505 0.030779164 0.47900003 4284294941
-0.001389853 0.03084342 0.48000002 4285213728
0.0001691879 0.03084342 0.48000002 4285411107
0.0017282286 0.03084342 0.48000002 4285674279
0.003294118 0.030907677 0.48100004 4286004275
-0.037843008 0.030377802 0.45000002 4281940761
-0.036623947 0.030580319 0.45300001 4284367146
-0.035075005 0.030512815 0.45200002 4285282086
-0.033606909 0.030512815 0.45200002 4286526247
-0.032209914 0.030580319 0.45300001 4286658346
-0.03073857 0.030580319 0.45300001 4282523406
-0.029331835 0.030647827 0.45400003 4281277964
-0.027918598 0.030715333 0.45500001 4282461727
-0.026498869 0.030782839 0.45600003 4283773221
-0.025072645 0.030850345 0.45700002 4285476900
-0.023691539 0.030985359 0.45900002 4284293909
-0.022297442 0.031120371 0.46100003 4280753423
-0.020890351 0.031255383 0.46300003 4279835408
-0.019470271 0.031390395 0.46500003 4281350187
-0.018037196 0.031525407 0.46700001 4280692770
-0.01659113 0.031660419 0.46900001 4289774503
-0.015132072 0.031795431 0.47100002 4283520822
-0.013631144 0.031862941 0.47200003 4282927924
-0.01214935 0.031997953 0.47400004 4282337332
-0.010654564 0.032132965 0.47600001 4279443986
-0.0091276504 0.032200471 0.47700003 4287802525
-0.0075942408 0.032267977 0.47800002 4287277717
-0.0060416963 0.032267977 0.47800002 4287933080
-0.0044985432 0.032335483 0.47900003 4283242514
-0.0029488937 0.032402989 0.48000002 4284819742
-0.001389853 0.032402989 0.48000002 4285476387
0.0001691879 0.032402989 0.48000002 4285674279
0.0017318293 0.032470495 0.48100004 4284756523
0.003294118 0.032470495 0.48100004 4287330670
-0.037843008 0.031839896 0.45000002 4282006043
-0.036543101 0.031981409 0.45200002 4285284396
-0.035075005 0.031981409 0.45200002 4285674531
-0.033606909 0.031981409 0.45200002 4288368449
-0.03213881 0.031981409 0.45200002 4287052843
-0.030670714 0.031981409 0.45200002 4285082140
-0.029267225 0.032052163 0.45300001 4282126084
-0.027857238 0.032122921 0.45400003 4283510049
-0.026440756 0.032193676 0.45500001 4284362017
-0.025072645 0.032335185 0.45700002 4285542180
-0.023691539 0.032476697 0.45900002 4284555285
-0.022297442 0.032618206 0.46100003 4280883726
-0.020890351 0.032759719 0.46300003 4280755481
-0.019470271 0.032901227 0.46500003 4280888094
-0.018037196 0.033042736 0.46700001 4280033555
-0.01659113 0.033184249 0.46900001 4281678886
-0.015099945 0.033255003 0.47000003 4284374589
-0.013631144 0.033396516 0.47200003 4284703284
-0.01214935 0.033538029 0.47400004 4281743900
-0.010654564 0.033679534 0.47600001 4280233500
-0.0091276504 0.033750292 0.47700003 4288131229
-0.0075942408 0.033821046 0.47800002 4287211924
-0.0060543362 0.033891805 0.47900003 4286156154
-0.0044985432 0.033891805 0.47900003 4284294171
-0.0029488937 0.033962559 0.48000002 4285147935
-0.001389853 0.033962559 0.48000002 4285279008
0.0001691879 0.033962559 0.48000002 4286663743
0.0017318293 0.034033313 0.48100004 4287798412
-0.037843008 0.033301994 0.45000002 4282924065
-0.036462255 0.033376001 0.45100003 4285873707
-0.034997404 0.033376001 0.45100003 4286132772
-0.033532556 0.033376001 0.45100003 4286853665
-0.03213881 0.033450004 0.45200002 4286983966
-0.030670714 0.033450004 0.45200002 4287312933
-0.029267225 0.033524007 0.45300001 4287576618
-0.027857238 0.033598013 0.45400003 4286724391
-0.026440756 0.033672016 0.45500001 4286331178
-0.025072645 0.033820026 0.45700002 4286001189
-0.023691539 0.033968035 0.45900002 4285805352
-0.022297442 0.034116041 0.46100003 4281673242
-0.020890351 0.03426405 0.46300003 4280362004
-0.019470271 0.03441206 0.46500003 4280428313
-0.018037196 0.034560069 0.46700001 4280428567
-0.01659113 0.034708075 0.46900001 4281151261
-0.015099945 0.034782082 0.47000003 4281347859
-0.013631144 0.034930091 0.47200003 4281545490
-0.01214935 0.035078101 0.47400004 4282928428
-0.010654564 0.035226107 0.47600001 4279640852
-0.0091276504 0.035300113 0.47700003 4288000158
-0.0075942408 0.035374116 0.47800002 4287342740
-0.0060543362 0.035448123 0.47900003 4283850832
-0.0044985432 0.035448123 0.47900003 4285215013
-0.0029427505 0.035448123 0.47900003 4285476387
-0.001389853 0.035522126 0.48000002 4285280293
0.0001691879 0.035522126 0.48000002 4290749850
-0.039304607 0.034764089 0.45000002 4282664234
-0.037843008 0.034764089 0.45000002 4283776807
-0.036462255 0.034841344 0.45100003 4285804834
-0.034997404 0.034841344 0.45100003 4286459936
-0.033532556 0.034841344 0.45100003 4286721309
-0.032067709 0.034841344 0.45100003 4287049761
-0.030670714 0.034918595 0.45200002 4287049763
-0.029267225 0.03499585 0.45300001 4290340442
-0.027857238 0.035073105 0.45400003 4287577388
-0.026440756 0.035150357 0.45500001 4287905583
-0.025072645 0.035304863 0.45700002 4287447860
-0.023691539 0.035459369 0.45900002 4285804580
-0.022297442 0.03561388 0.46100003 4281015312
-0.020890351 0.035768386 0.46300003 4279309062
-0.019470271 0.035922892 0.46500003 4280296731
-0.018037196 0.036077399 0.46700001 4282467898
-0.01659113 0.036231905 0.46900001 4281677862
-0.015132072 0.036386412 0.47100002 4285428565
-0.013660023 0.036540922 0.47300002 4281612314
-0.01214935 0.036618177 0.47400004 4282599214
-0.010654564 0.03677268 0.47600001 4285169263
-0.0091276504 0.036849935 0.47700003 4287474074
-0.0075942408 0.036927186 0.47800002 4287605400
-0.0060543362 0.037004441 0.47900003 4282859826
-0.0044985432 0.037004441 0.47900003 4285542178
-0.0029427505 0.037004441 0.47900003 4285869603
-0.001389853 0.037081696 0.48000002 4284492068
-0.039304607 0.036226183 0.45000002 4282004769
-0.037843008 0.036226183 0.45000002 4283906856
-0.036462255 0.03630669 0.45100003 4285608225
-0.034997404 0.03630669 0.45100003 4285935393
-0.033532556 0.03630669 0.45100003 4286459166
-0.032067709 0.03630669 0.45100003 4286656286
-0.030670714 0.03638719 0.45200002 4286984483
-0.029267225 0.03646769 0.45300001 4288036665
-0.027857238 0.036548197 0.45400003 4287975753
-0.026440756 0.036628697 0.45500001 4287379757
-0.025072645 0.036789704 0.45700002 4287050794
-0.023691539 0.036950707 0.45900002 4284818455
-0.022297442 0.037111714 0.46100003 4280620554
-0.020890351 0.037272722 0.46300003 4280295702
-0.019470271 0.037433725 0.46500003 4280757282
-0.018037196 0.037594728 0.46700001 4280165143
-0.01659113 0.037755735 0.46900001 4284705112
-0.015132072 0.037916739 0.47100002 4282337332
-0.013660023 0.038077746 0.47300002 4282600758
-0.012174981 0.038238753 0.47500002 4281482023
-0.010654564 0.038319252 0.47600001 4288195741
-0.0091276504 0.038399756 0.47700003 4287474074
-0.0075942408 0.038480259 0.47800002 4288918690
-0.0060543362 0.038560763 0.47900003 4283511846
-0.0044985432 0.038560763 0.47900003 4285804064
-0.0029427505 0.038560763 0.47900003 4286330151
-0.0013869575 0.038560763 0.47900003 4284562224
-0.039304607 0.037688281 0.45000002 4282004769
-0.037843008 0.037688281 0.45000002 4283512616
-0.036462255 0.037772033 0.45100003 4284952355
-0.034997404 0.037772033 0.45100003 4285411877
-0.033532556 0.037772033 0.45100003 4285804064
-0.03213881 0.037855785 0.45200002 4285869600
-0.030670714 0.037855785 0.45200002 4286590498
-0.029267225 0.037939534 0.45300001 4286919206
-0.027857238 0.038023289 0.45400003 4287708727
-0.026440756 0.038107038 0.45500001 4287774517
-0.025072645 0.038274541 0.45700002 4286722856
-0.023691539 0.038442045 0.45900002 4284688929
-0.022297442 0.038609549 0.46100003 4281546028
-0.020890351 0.038777053 0.46300003 4280033307
-0.019512143 0.039028309 0.46600002 4279835926
-0.01807582 0.039195813 0.46800002 4279638547
-0.016626507 0.039363317 0.47000003 4280691487
-0.0151642 0.039530821 0.47200003 4282797631
-0.013688903 0.039698325 0.47400004 4281086243
-0.012174981 0.039782073 0.47500002 4282133023
-0.010676947 0.039949577 0.47700003 4287793276
-0.0091467863 0.040033329 0.47800002 4288064153
-0.0075942408 0.040033329 0.47800002 4288517765
-0.0060543362 0.040117081 0.47900003 4285149734
-0.0044985432 0.040117081 0.47900003 4286328868
-0.0029427505 0.040117081 0.47900003 4286591270
-0.0013869575 0.040117081 0.47900003 4287791475
-0.040766209 0.039150376 0.45000002 4281415712
-0.039304607 0.039150376 0.45000002 4283519557
-0.037927102 0.03923738 0.45100003 4283119405
-0.036462255 0.03923738 0.45100003 4284494116
-0.034997404 0.03923738 0.45100003 4284690212
-0.033606909 0.039324377 0.45200002 4284425497
-0.03213881 0.039324377 0.45200002 4285279519
-0.03073857 0.039411377 0.45300001 4286197793
-0.029267225 0.039411377 0.45300001 4286460452
-0.027857238 0.039498381 0.45400003 4286787620
-0.026498869 0.039672382 0.45600003 4287313964
-0.025072645 0.039759383 0.45700002 4285212445
-0.023691539 0.039933383 0.45900002 4290159508
-0.022345807 0.040194385 0.46200001 4287932567
-0.02093547 0.040368386 0.46400002 4279772701
-0.019512143 0.04054239 0.46600002 4280296996
-0.01807582 0.040716391 0.46800002 4280297249
-0.016626507 0.040890392 0.47000003 4280232221
-0.0151642 0.041064397 0.47200003 4283389772
-0.013688903 0.041238397 0.47400004 4281406992
-0.012200613 0.041412398 0.47600001 4286334785
-0.010676947 0.041499399 0.47700003 4285937201
-0.0091467863 0.041586399 0.47800002 4290615693
-0.0075942408 0.041586399 0.47800002 4285807150
-0.0060543362 0.0416734 0.47900003 4286657833
-0.0044985432 0.0416734 0.47900003 4286853672
-0.0029427505 0.0416734 0.47900003 4286789165
-0.040856801 0.040702727 0.45100003 4286548347
-0.03939195 0.040702727 0.45100003 4288589727
-0.037927102 0.040702727 0.45100003 4283451200
-0.036462255 0.040702727 0.45100003 4284101675
-0.035075005 0.040792976 0.45200002 4283639839
-0.033606909 0.040792976 0.45200002 4284163868
-0.03213881 0.040792976 0.45200002 4284360218
-0.03073857 0.040883224 0.45300001 4285146650
-0.029331835 0.040973477 0.45400003 4285804580
-0.027918598 0.041063726 0.45500001 4286066725
-0.026498869 0.041153975 0.45600003 4286461483
-0.02512751 0.041334476 0.45800003 4284952101
-0.023743154 0.041514974 0.46000001 4289568656
-0.022345807 0.041695476 0.46200001 4287604885
-0.02093547 0.041875973 0.46400002 4286946187
-0.019512143 0.042056475 0.46600002 4280562480
-0.01807582 0.042236976 0.46800002 4280496173
-0.016661881 0.042507723 0.47100002 4280296731
-0.015196327 0.042688224 0.47300002 4280885273
-0.013717782 0.042868722 0.47500002 4286466625
-0.012200613 0.042958971 0.47600001 4286989624
-0.010676947 0.043049224 0.47700003 4287316792
-0.0091467863 0.043139473 0.47800002 4287843140
-0.0075942408 0.043139473 0.47800002 4286985004
-0.0060543362 0.043229725 0.47900003 4287050792
-0.0044985432 0.043229725 0.47900003 4287116842
-0.0029427505 0.043229725 0.47900003 4286529075
-0.03939195 0.04216807 0.45100003 4288197024
-0.038011197 0.042261571 0.45200002 4282797633
-0.036543101 0.042261571 0.45200002 4283642671
-0.035075005 0.042261571 0.45200002 4284035884
-0.033681259 0.042355068 0.45300001 4284099874
-0.032209914 0.042355068 0.45300001 4284362017
-0.030806426 0.042448569 0.45400003 4284887591
-0.029331835 0.042448569 0.45400003 4285019177
-0.027918598 0.042542066 0.45500001 4285413422
-0.02655698 0.042729065 0.45700002 4285412652
-0.02512751 0.042822566 0.45800003 4285544238
-0.023743154 0.043009561 0.46000001 4290420881
-0.022345807 0.043196559 0.46200001 4287538320
-0.02093547 0.043383557 0.46400002 4287604885
-0.019512143 0.043570556 0.46600002 4287934879
-0.018114444 0.043851051 0.46900001 4287934879
-0.016661881 0.04403805 0.47100002 4283323209
-0.015196327 0.044225048 0.47300002 4283776569
-0.013717782 0.044412047 0.47500002 4285476650
-0.012200613 0.044505544 0.47600001 4286856243
-0.010676947 0.044599045 0.47700003 4288962646
-0.0091467863 0.044692542 0.47800002 4286394920
-0.0075942408 0.044692542 0.47800002 4287116585
-0.0060543362 0.044786043 0.47900003 4287577136
-0.0044985432 0.044786043 0.47900003 4287250483
-0.0029427505 0.044786043 0.47900003 4290944399
-0.038011197 0.043730162 0.45200002 4288723368
-0.036543101 0.043730162 0.45200002 4284240204
-0.035152603 0.043826912 0.45300001 4284169015
-0.033681259 0.043826912 0.45300001 4284496431
-0.032281019 0.043923661 0.45400003 4284232741
-0.030806426 0.043923661 0.45400003 4284034597
-0.029396441 0.044020407 0.45500001 4283575333
-0.027979959 0.044117156 0.45600003 4285686363
-0.02655698 0.044213902 0.45700002 4283446834
-0.02512751 0.044310652 0.45800003 4284822318
-0.023743154 0.044504147 0.46000001 4287455067
-0.022345807 0.044697642 0.46200001 4287735186
-0.02093547 0.044891141 0.46400002 4287670678
-0.019512143 0.045084637 0.46600002 4287869086
-0.018114444 0.045374881 0.46900001 4287474328
-0.016661881 0.045568377 0.47100002 4288262817
-0.015196327 0.045761872 0.47300002 4282993215
-0.013717782 0.045955371 0.47500002 4284559398
-0.012200613 0.046052117 0.47600001 4291138950
-0.010676947 0.046148866 0.47700003 4289751390
-0.0091467863 0.046245612 0.47800002 4287379757
-0.0075942408 0.046245612 0.47800002 4286919206
-0.0060543362 0.046342365 0.47900003 4288632654
-0.0044985432 0.046342365 0.47900003 4288369739
-0.0029427505 0.046342365 0.47900003 4288571486
-0.038095292 0.045298751 0.45300001 4287540637
-0.036623947 0.045298751 0.45300001 4288590758
-0.035152603 0.045298751 0.45300001 4284637272
-0.033755612 0.045398753 0.45400003 4284432437
-0.03235212 0.045498747 0.45500001 4284299565
-0.03087428 0.045498747 0.45500001 4285881427
-0.02946105 0.045598745 0.45600003 4288653975
-0.028041318 0.045698743 0.45700002 4287670678
-0.026615093 0.045798741 0.45800003 4285562224
-0.025182372 0.045898739 0.45900002 4284693560
-0.023743154 0.045998733 0.46000001 4284429359
-0.022345807 0.046198729 0.46200001 4288917147
-0.02093547 0.046398722 0.46400002 4287605398
-0.019512143 0.046598718 0.46600002 4287540121
-0.018114444 0.046898708 0.46900001 4287539867
-0.016661881 0.047098704 0.47100002 4287540121
-0.015196327 0.0472987 0.47300002 4288591010
-0.013717782 0.047498692 0.47500002 4284826173
-0.012200613 0.04759869 0.47600001 4286660922
-0.010676947 0.047698688 0.47700003 4287771946
-0.0091467863 0.047798686 0.47800002 4287969325
-0.0075942408 0.047798686 0.47800002 4293306004
-0.0060416963 0.047798686 0.47800002 4288705372
-0.0044985432 0.047898684 0.47900003 4287644726
-0.0029427505 0.047898684 0.47900003 4286723626
-0.039566636 0.046770595 0.45300001 4287475357
-0.038095292 0.046770595 0.45300001 4287672223
-0.036704794 0.046873845 0.45400003 4287409051
-0.035230204 0.046873845 0.45400003 4288196000
-0.033829961 0.046977088 0.45500001 4284367936
-0.03235212 0.046977088 0.45500001 4284235058
-0.030942136 0.047080338 0.45600003 4282787873
-0.029525656 0.047183581 0.45700002 4289047196
-0.028102677 0.047286831 0.45800003 4287671193
-0.026615093 0.047286831 0.45800003 4288263328
-0.025182372 0.047390074 0.45900002 4284108098
-0.023743154 0.04749332 0.46000001 4284957245
-0.022345807 0.047699813 0.46200001 4285748812
-0.02093547 0.047906306 0.46400002 4288850071
-0.019512143 0.048112798 0.46600002 4287736469
-0.01807582 0.048319291 0.46800002 4287605398
-0.016661881 0.048629031 0.47100002 4288196252
-0.015196327 0.048835523 0.47300002 4288783508
-0.013717782 0.049042016 0.47500002 4286463030
-0.012200613 0.049145263 0.47600001 4287182126
-0.010676947 0.049248509 0.47700003 4287903532
-0.0091276504 0.049248509 0.47700003 4287903532
-0.0075942408 0.049351756 0.47800002 4287774517
-0.0060416963 0.049351756 0.47800002 4287248946
-0.0044891518 0.049351756 0.47800002 4287644474
-0.0029427505 0.049455002 0.47900003 4287776060
-0.041037984 0.048242439 0.45300001 4287606945
-0.039566636 0.048242439 0.45300001 4287475359
-0.03817939 0.048348937 0.45400003 4287540639
-0.036704794 0.048348937 0.45400003 4287803811
-0.035307802 0.048455428 0.45500001 4287672225
-0.033904314 0.048561927 0.45600003 4285295202
-0.032423224 0.048561927 0.45600003 4284302397
-0.031009993 0.048668422 0.45700002 4284759607
-0.029590266 0.04877492 0.45800003 4288842114
-0.028102677 0.04877492 0.45800003 4287671191
-0.026673203 0.048881412 0.45900002 4287605398
-0.025237234 0.048987906 0.46000001 4288261784
-0.02379477 0.049094405 0.46100003 4282400560
-0.022345807 0.0492009 0.46200001 4285283898
-0.02093547 0.04941389 0.46400002 4286730315
-0.019512143 0.049626879 0.46600002 4286998877
-0.01807582 0.049839873 0.46800002 4286010701
-0.016661881 0.050159357 0.47100002 4286002733
-0.015196327 0.050372347 0.47300002 4286986544
-0.013688903 0.050478846 0.47400004 4287772462
-0.012174981 0.050585341 0.47500002 4287969841
-0.010654564 0.050691836 0.47600001 4287969841
-0.0091276504 0.05079833 0.47700003 4287970611
-0.0075942408 0.050904825 0.47800002 4287182126
-0.0060416963 0.050904825 0.47800002 4286918954
-0.0044891518 0.050904825 0.47800002 4286985776
-0.0029427505 0.051011324 0.47900003 4286790450
-0.0013869575 0.051011324 0.47900003 4289177755
-0.041037984 0.049714282 0.45300001 4287672738
-0.039653983 0.049824029 0.45400003 4287672738
-0.03817939 0.049824029 0.45400003 4287277980
-0.03678564 0.049933773 0.45500001 4287540639
-0.035385404 0.050043516 0.45600003 4287540639
-0.033978667 0.050153259 0.45700002 4289052081
-0.032494329 0.050153259 0.45700002 4282400310
-0.031077849 0.050263006 0.45800003 4284562228
-0.029590266 0.050263006 0.45800003 4284495152
-0.028164037 0.05037275 0.45900002 4288720286
-0.026673203 0.05037275 0.45900002 4287539605
-0.025237234 0.050482493 0.46000001 4287539605
-0.02379477 0.05059224 0.46100003 4288197020
-0.022345807 0.050701983 0.46200001 4283442723
-0.02093547 0.050921474 0.46400002 4285872437
-0.019512143 0.05114096 0.46600002 4286723887
-0.01807582 0.051360451 0.46800002 4287315511
-0.016626507 0.051579941 0.47000003 4287774515
-0.0151642 0.051799431 0.47200003 4287182632
-0.013688903 0.052018922 0.47400004 4287970865
-0.012174981 0.052128665 0.47500002 4287970095
-0.010654564 0.052238405 0.47600001 4287577393
-0.0091276504 0.052348152 0.47700003 4286000932
-0.0075783534 0.052348152 0.47700003 4285936170
-0.0060416963 0.052457895 0.47800002 4286199340
-0.0044891518 0.052457895 0.47800002 4285937451
-0.0029366068 0.052457895 0.47800002 4284756007
-0.039653983 0.051299121 0.45400003 4287540639
-0.038263485 0.051412113 0.45500001 4287211674
-0.03686649 0.051525109 0.45600003 4287738018
-0.035463002 0.0516381 0.45700002 4287869604
-0.03405302 0.051751096 0.45800003 4287738529
-0.032565434 0.051751096 0.45800003 4286880394
-0.031145703 0.051864088 0.45900002 4284563001
-0.029654872 0.051864088 0.45900002 4285087289
-0.028164037 0.051864088 0.45900002 4284233522
-0.026731314 0.051977079 0.46000001 4289899679
-0.025237234 0.051977079 0.46000001 4288852122
-0.02379477 0.052090075 0.46100003 4288389518
-0.022345807 0.052203067 0.46200001 4284754210
-0.02093547 0.052429054 0.46400002 4287514950
-0.019512143 0.052655045 0.46600002 4287183673
-0.01807582 0.052881032 0.46800002 4287774522
-0.016626507 0.05310702 0.47000003 4287380011
-0.0151642 0.053333007 0.47200003 4287380266
-0.013660023 0.053445999 0.47300002 4286789417
-0.012174981 0.053671986 0.47500002 4286658346
-0.010654564 0.053784978 0.47600001 4284427294
-0.0091085145 0.053784978 0.47600001 4285020460
-0.0075783534 0.053897973 0.47700003 4285283119
-0.0060416963 0.054010965 0.47800002 4285546293
-0.0044891518 0.054010965 0.47800002 4284432187
-0.0029366068 0.054010965 0.47800002 4288059276
-0.039741322 0.052890453 0.45500001 4287869602
-0.038263485 0.052890453 0.45500001 4287869602
-0.036947336 0.053122938 0.45700002 4287869602
-0.035540603 0.053239185 0.45800003 4287869602
-0.03412737 0.053355426 0.45900002 4287803809
-0.032636534 0.053355426 0.45900002 4288264360
-0.031213557 0.053471666 0.46000001 4283513651
-0.029719478 0.053471666 0.46000001 4284825911
-0.028225396 0.053471666 0.46000001 4285151794
-0.026731314 0.053471666 0.46000001 4284887339
-0.0252921 0.05358791 0.46100003 4284493605
-0.023846386 0.053704154 0.46200001 4285610285
-0.022394177 0.053820398 0.46300003 4286264104
-0.02093547 0.053936638 0.46400002 4287973443
-0.019470271 0.054052882 0.46500003 4292188556
-0.018037196 0.054285366 0.46700001 4287908159
-0.01659113 0.05451785 0.46900001 4286723887
-0.015132072 0.054750338 0.47100002 4286070068
-0.013660023 0.054982822 0.47300002 4284559144
-0.01214935 0.05509907 0.47400004 4284560173
-0.010632181 0.05521531 0.47500002 4284435267
-0.0091085145 0.055331551 0.47600001 4284173378
-0.0075783534 0.055447794 0.47700003 4284569165
-0.0060290569 0.055447794 0.47700003 4287268988
-0.0044891518 0.055564038 0.47800002 4287999645
-0.036947336 0.054607779 0.45700002 4287869602
-0.035618201 0.054846764 0.45900002 4287803809
-0.034201719 0.054966252 0.46000001 4287343258
-0.032707639 0.054966252 0.46000001 4287672223
-0.031213557 0.054966252 0.46000001 4285689960
-0.029719478 0.054966252 0.46000001 4284366905
-0.028225396 0.054966252 0.46000001 4284823343
-0.026789427 0.055085748 0.46100003 4284756007
-0.0252921 0.055085748 0.46100003 4284820769
-0.023846386 0.055205237 0.46200001 4285607973
-0.022394177 0.05532473 0.46300003 4286197795
-0.02093547 0.055444222 0.46400002 4286789419
-0.019470271 0.055563714 0.46500003 4286854188
-0.018037196 0.055802695 0.46700001 4287249716
-0.01659113 0.05604168 0.46900001 4286200110
-0.015132072 0.056280665 0.47100002 4285221183
-0.013631144 0.056400158 0.47200003 4287799186
-0.01214935 0.056639142 0.47400004 4288589475
-0.010632181 0.056758635 0.47500002 4287867289
-0.0090893796 0.056758635 0.47500002 4287933082
-0.0075624655 0.056878123 0.47600001 4287736471
-0.0060290569 0.056997616 0.47700003 4287605398
-0.035618201 0.056338102 0.45900002 4288132776
-0.034276072 0.056583583 0.46100003 4287738018
-0.032778744 0.056583583 0.46100003 4287672225
-0.031281415 0.056583583 0.46100003 4289116073
-0.029784087 0.056583583 0.46100003 4283909954
-0.028286757 0.056583583 0.46100003 4284495152
-0.026789427 0.056583583 0.46100003 4284559657
-0.0252921 0.056583583 0.46100003 4284558115
-0.023846386 0.05670632 0.46200001 4285017634
-0.022394177 0.056829065 0.46300003 4285871658
-0.02093547 0.056951806 0.46400002 4286069037
-0.019470271 0.057074547 0.46500003 4286396719
-0.018037196 0.057320025 0.46700001 4286594098
-0.01659113 0.05756551 0.46900001 4288251772
-0.015132072 0.057810992 0.47100002 4288194967
-0.013631144 0.057933733 0.47200003 4287605400
-0.012123718 0.058056474 0.47300002 4287934625
-0.010609797 0.058179218 0.47400004 4287671453
-0.0090893796 0.058301955 0.47500002 4287671453
-0.0075624655 0.058424696 0.47600001 4287539867
-0.034276072 0.058081422 0.46100003 4287803809
-0.032849845 0.058207411 0.46200001 4287803809
-0.031281415 0.058081422 0.46100003 4288327586
-0.029784087 0.058081422 0.46100003 4282927681
-0.028286757 0.058081422 0.46100003 4284366392
-0.026789427 0.058081422 0.46100003 4284299056
-0.0252921 0.058081422 0.46100003 4284231978
-0.023846386 0.058207411 0.46200001 4284428587
-0.022394177 0.058333404 0.46300003 4285020208
-0.020890351 0.058333404 0.46300003 4285480759
-0.019470271 0.058585383 0.46500003 4285546039
-0.017998572 0.058711372 0.46600002 4285087289
-0.01659113 0.05908934 0.46900001 4288589727
-0.015099945 0.059215333 0.47000003 4287802779
-0.013602264 0.059341323 0.47100002 4287670939
-0.012123718 0.059593301 0.47300002 4287605660
-0.010609797 0.059719294 0.47400004 4287474846
-0.0090702446 0.059719294 0.47400004 4287409053
-0.034350425 0.059708491 0.46200001 4287869602
-0.032849845 0.059708491 0.46200001 4287803809
-0.031349268 0.059708491 0.46200001 4287999904
-0.029848693 0.059708491 0.46200001 4288591528
-0.028286757 0.059579253 0.46100003 4283911751
-0.026789427 0.059579253 0.46100003 4284302913
-0.0252921 0.059579253 0.46100003 4284366392
-0.023846386 0.059708491 0.46200001 4284432439
-0.022345807 0.059708491 0.46200001 4284892220
-0.020890351 0.059837732 0.46300003 4284234806
-0.019428398 0.05996697 0.46400002 4285492066
-0.01795995 0.060096212 0.46500003 4288589727
-0.01659113 0.060613167 0.46900001 4288000158
-0.015099945 0.060742408 0.47000003 4287934111
-0.013602264 0.060871646 0.47100002 4287934111
-0.032849845 0.061209582 0.46200001 4287803811
-0.031349268 0.061209582 0.46200001 4287803811
-0.029848693 0.061209582 0.46200001 4287738018
-0.028348114 0.061209582 0.46200001 4287736986
-0.026789427 0.061077096 0.46100003 4288656288
-0.025346963 0.061209582 0.46200001 4288655258
-0.023846386 0.061209582 0.46200001 4288588952
-0.022345807 0.061209582 0.46200001 4288064151
-0.020890351 0.061342072 0.46300003 4288656805
-0.019428398 0.061474558 0.46400002 4287802779
-0.031349268 0.062710665 0.46200001 4288066213
-0.029848693 0.062710665 0.46200001 4287934627
-0.028348114 0.062710665 0.46200001 4287803039
-0.026789427 0.062574923 0.46100003 4287803039
-0.0252921 0.062574923 0.46100003 4287868832
-0.023846386 0.062710665 0.46200001 4287803039
-0.022345807 0.062710665 0.46200001 4287539867
-0.020845231 0.062710665 0.46200001 4287671453
-0.02379477 0.064072765 0.46100003 4287671453
-0.022345807 0.064211749 0.46200001 4287803039
-0.019738197 0.034981757 0.46588004 4294967295
-0.019738197 0.034981757 0.46588004 4294901760
-0.019738197 0.034981757 0.46638003 4294901760
-0.019738197 0.034981757 0.46688002 4294901760
-0.019738197 0.034981757 0.46738005 4294901760
-0.019738197 0.034981757 0.46788004 4294901760
-0.019738197 0.034981757 0.46838003 4294901760
-0.019738197 0.034981757 0.46888003 4294901760
-0.019738197 0.034981757 0.46938005 4294901760
-0.019738197 0.034981757 0.46988004 4294901760
-0.019738197 0.034981757 0.47038004 4294901760
-0.019738197 0.034981757 0.47088003 4294901760
-0.019738197 0.034981757 0.47138003 4294901760
-0.019738197 0.034981757 0.47188005 4294901760
-0.019738197 0.034981757 0.47238004 4294901760
-0.019738197 0.034981757 0.47288004 4294901760
-0.019738197 0.034981757 0.47338003 4294901760
-0.019738197 0.034981757 0.47388005 4294901760
-0.019738197 0.034981757 0.47438005 4294901760
-0.019738197 0.034981757 0.47488004 4294901760
-0.019738197 0.034981757 0.47538003 4294901760
-0.019738197 0.034981757 0.47588003 4294901760
-0.019738197 0.034981757 0.47638005 4294901760
-0.019738197 0.034981757 0.47688004 4294901760
-0.019738197 0.034981757 0.47738004 4294901760
-0.019738197 0.034981757 0.47788003 4294901760
-0.019738197 0.034981757 0.47838002 4294901760
-0.019738197 0.034981757 0.47888005 4294901760
-0.019738197 0.034981757 0.47938004 4294901760
-0.019738197 0.034981757 0.47988003 4294901760
-0.019738197 0.034981757 0.48038003 4294901760
-0.019738197 0.034981757 0.48088005 4294901760
-0.019738197 0.034981757 0.48138005 4294901760
-0.019738197 0.034981757 0.48188004 4294901760
-0.019738197 0.034981757 0.48238003 4294901760
-0.019738197 0.034981757 0.48288006 4294901760
-0.019738197 0.034981757 0.48338005 4294901760
-0.019738197 0.034981757 0.48388004 4294901760
-0.019738197 0.034981757 0.48438004 4294901760
-0.019738197 0.034981757 0.48488003 4294901760
-0.019738197 0.034981757 0.48538005 4294901760
-0.019738197 0.034981757 0.48588005 4294901760
-0.019738197 0.034981757 0.48638004 4294901760
-0.019738197 0.034981757 0.48688003 4294901760
-0.019738197 0.034981757 0.48738003 4294901760
-0.019738197 0.034981757 0.48788005 4294901760
-0.019738197 0.034981757 0.48838004 4294901760
-0.019738197 0.034981757 0.48888004 4294901760
-0.019738197 0.034981757 0.48938003 4294901760
-0.019738197 0.034981757 0.48988006 4294901760
-0.019738197 0.034981757 0.49038005 4294901760
-0.019738197 0.034981757 0.49088004 4294901760
-0.019738197 0.034981757 0.49138004 4294901760
-0.019738197 0.034981757 0.49188003 4294901760
-0.019738197 0.034981757 0.49238005 4294901760
-0.019738197 0.034981757 0.49288005 4294901760
-0.019738197 0.034981757 0.49338004 4294901760
-0.019738197 0.034981757 0.49388003 4294901760
-0.019738197 0.034981757 0.49438006 4294901760
-0.019738197 0.034981757 0.49488005 4294901760
-0.019738197 0.034981757 0.49538004 4294901760
-0.019738197 0.034981757 0.49588004 4294901760
-0.019738197 0.034981757 0.49638003 4294901760
-0.019738197 0.034981757 0.49688005 4294901760
-0.019738197 0.034981757 0.49738005 4294901760
-0.019738197 0.034981757 0.49788004 4294901760
-0.019738197 0.034981757 0.49838004 4294901760
-0.019738197 0.034981757 0.49888006 4294901760
-0.019738197 0.034981757 0.49938005 4294901760
-0.019738197 0.034981757 0.49988005 4294901760
-0.019738197 0.034981757 0.50038004 4294901760
-0.019738197 0.034981757 0.50088006 4294901760
-0.019738197 0.034981757 0.50138003 4294901760
-0.019738197 0.034981757 0.50188005 4294901760
-0.019738197 0.034981757 0.50238007 4294901760
-0.019738197 0.034981757 0.50288004 4294901760
-0.019738197 0.034981757 0.50338006 4294901760
-0.019738197 0.034981757 0.50388002 4294901760
-0.019738197 0.034981757 0.50438005 4294901760
-0.019738197 0.034981757 0.50488007 4294901760
-0.019738197 0.034981757 0.50538003 4294901760
-0.019738197 0.034981757 0.50588006 4294901760
-0.019738197 0.034981757 0.50638002 4294901760
-0.019738197 0.034981757 0.50688004 4294901760
-0.019738197 0.034981757 0.50738007 4294901760
-0.019738197 0.034981757 0.50788003 4294901760
-0.019738197 0.034981757 0.50838006 4294901760
-0.019738197 0.034981757 0.50888002 4294901760
-0.019738197 0.034981757 0.50938004 4294901760
-0.019738197 0.034981757 0.50988007 4294901760
-0.019738197 0.034981757 0.51038003 4294901760
-0.019738197 0.034981757 0.51088005 4294901760
-0.019738197 0.034981757 0.51138008 4294901760
-0.019738197 0.034981757 0.51188004 4294901760
-0.019738197 0.034981757 0.51238006 4294901760
-0.019738197 0.034981757 0.51288003 4294901760
-0.019738197 0.034981757 0.51338005 4294901760
-0.019738197 0.034981757 0.51388007 4294901760
-0.019738197 0.034981757 0.51438004 4294901760
-0.019738197 0.034981757 0.51488006 4294901760
-0.019738197 0.034981757 0.51538002 4294901760
-0.019738197 0.034981757 0.51588005 4294901760
-0.019738197 0.034981757 0.46588004 4278255360
-0.020057172 0.034926221 0.46626106 4278255360
-0.020376146 0.03487068 0.46664205 4278255360
-0.02069512 0.034815144 0.46702307 4278255360
-0.021014094 0.034759607 0.4674041 4278255360
-0.021333069 0.034704067 0.46778509 4278255360
-0.021652043 0.03464853 0.46816611 4278255360
-0.021971017 0.034592994 0.46854714 4278255360
-0.022289991 0.034537453 0.46892813 4278255360
-0.022608966 0.034481917 0.46930915 4278255360
-0.02292794 0.03442638 0.46969017 4278255360
-0.023246914 0.03437084 0.47007117 4278255360
-0.023565888 0.034315303 0.47045219 4278255360
-0.023884863 0.034259766 0.47083321 4278255360
-0.024203837 0.034204226 0.47121423 4278255360
-0.024522811 0.034148689 0.47159523 4278255360
-0.024841785 0.034093149 0.47197625 4278255360
-0.02516076 0.034037612 0.47235727 4278255360
-0.025479734 0.033982076 0.47273827 4278255360
-0.025798708 0.033926535 0.47311929 4278255360
-0.026117682 0.033870999 0.47350031 4278255360
-0.026436657 0.033815462 0.4738813 4278255360
-0.026755631 0.033759922 0.47426233 4278255360
-0.027074605 0.033704385 0.47464335 4278255360
-0.027393579 0.033648849 0.47502434 4278255360
-0.027712554 0.033593308 0.47540537 4278255360
-0.028031528 0.033537772 0.47578639 4278255360
-0.028350502 0.033482235 0.47616738 4278255360
-0.028669477 0.033426695 0.4765484 4278255360
-0.028988451 0.033371158 0.47692943 4278255360
-0.029307425 0.033315621 0.47731042 4278255360
-0.029626399 0.033260081 0.47769144 4278255360
-0.029945372 0.033204544 0.47807246 4278255360
-0.030264348 0.033149008 0.47845346 4278255360
-0.030583322 0.033093467 0.47883448 4278255360
-0.030902294 0.033037931 0.4792155 4278255360
-0.031221271 0.032982394 0.4795965 4278255360
-0.031540245 0.032926854 0.47997752 4278255360
-0.031859219 0.032871317 0.48035854 4278255360
-0.032178193 0.03281578 0.48073953 4278255360
-0.032497168 0.03276024 0.48112056 4278255360
-0.032816142 0.032704704 0.48150158 4278255360
-0.033135116 0.032649167 0.4818826 4278255360
-0.03345409 0.032593627 0.48226359 4278255360
-0.033773065 0.03253809 0.48264462 4278255360
-0.034092039 0.03248255 0.48302564 4278255360
-0.034411013 0.032427013 0.48340663 4278255360
-0.034729987 0.032371476 0.48378766 4278255360
-0.035048962 0.032315936 0.48416868 4278255360
-0.035367936 0.032260399 0.48454967 4278255360
-0.03568691 0.032204863 0.48493069 4278255360
-0.036005884 0.032149322 0.48531172 4278255360
-0.036324859 0.032093786 0.48569271 4278255360
-0.036643829 0.032038249 0.48607373 4278255360
-0.036962807 0.031982709 0.48645476 4278255360
-0.037281781 0.031927172 0.48683575 4278255360
-0.037600756 0.031871635 0.48721677 4278255360
-0.03791973 0.031816095 0.48759779 4278255360
