# .PCD v0.7 - Point Cloud Data file format
VERSION 0.7
FIELDS x y z rgb
SIZE 4 4 4 4
TYPE F F F U
COUNT 1 1 1 1
WIDTH 1075
HEIGHT 1
VIEWPOINT 0 0 0 1 0 0 0
POINTS 1075
DATA ascii
0.059594207 0.021901879 0.35900003 4280495391
0.060590982 0.02184087 0.35800001 4280034842
0.061753768 0.02184087 0.35800001 4280232991
0.06274081 0.021779863 0.35700002 4280627747
0.063721359 0.021718854 0.35600001 4280364575
0.064695403 0.021657847 0.35500002 4281155118
0.065848447 0.021657847 0.35500002 4279909666
0.066812746 0.021596838 0.354 4279779363
0.052744523 0.023132564 0.36000001 4282734150
0.054063562 0.023196824 0.36100003 4282734148
0.05523609 0.023196824 0.36100003 4282931267
0.056408621 0.023196824 0.36100003 4282536509
0.057581145 0.023196824 0.36100003 4281615153
0.058590923 0.023132564 0.36000001 4280759331
0.059760205 0.023132564 0.36000001 4280298012
0.060760234 0.023068309 0.35900003 4280298014
0.061753768 0.023004051 0.35800001 4280430368
0.06274081 0.022939794 0.35700002 4279904024
0.063721359 0.022875536 0.35600001 4279443473
0.064695403 0.022811281 0.35500002 4279707672
0.06566295 0.022747021 0.354 4279844641
0.066812746 0.022747021 0.354 4279582496
0.05157524 0.024302242 0.36000001 4280628774
0.05523609 0.024369748 0.36100003 4280694051
0.056408621 0.024369748 0.36100003 4282076472
0.057581145 0.024369748 0.36100003 4281944118
0.058590923 0.024302242 0.36000001 4280955942
0.059760205 0.024302242 0.36000001 4279705362
0.060760234 0.024234736 0.35900003 4279771668
0.061753768 0.024167228 0.35800001 4279640082
0.06274081 0.024099724 0.35700002 4279771668
0.063721359 0.024032217 0.35600001 4279837461
0.064513162 0.023897203 0.354 4280036121
0.06566295 0.023897203 0.354 4279648029
0.066624016 0.023829699 0.35300002 4279648543
0.05157524 0.025471918 0.36000001 4281285675
0.052744523 0.025471918 0.36000001 4280363805
0.054063562 0.025542675 0.36100003 4280363807
0.05523609 0.025542675 0.36100003 4280167457
0.058590923 0.025471918 0.36000001 4280365602
0.059760205 0.025471918 0.36000001 4280034327
0.060760234 0.025401164 0.35900003 4279705362
0.061581276 0.025259653 0.35700002 4279705362
0.06274081 0.025259653 0.35700002 4279836948
0.063721359 0.025188897 0.35600001 4279771668
0.064513162 0.025047386 0.354 4279707670
0.06566295 0.025047386 0.354 4279188762
0.066435277 0.024905877 0.35200003 4279320861
0.067386582 0.024835119 0.35100001 4279386654
0.05157524 0.026641594 0.36000001 4280298264
0.052744523 0.026641594 0.36000001 4280232219
0.054063562 0.026715601 0.36100003 4280692770
0.061098732 0.026715601 0.36100003 4279836950
0.061581276 0.026419582 0.35700002 4279968534
0.062565066 0.026345577 0.35600001 4279902741
0.063542366 0.026271572 0.35500002 4279706897
0.064330921 0.026123563 0.35300002 4279774487
0.066246539 0.025975555 0.35100001 4279255068
0.067194603 0.02590155 0.35000002 4279320861
0.047800355 0.027656764 0.35800001 4281286440
0.048963137 0.027656764 0.35800001 4279968786
0.050265942 0.027734019 0.35900003 4279968786
0.05157524 0.027811272 0.36000001 4280100885
0.052744523 0.027811272 0.36000001 4280100631
0.054063562 0.027888525 0.36100003 4279903256
0.059926208 0.027888525 0.36100003 4281680950
0.059406243 0.027115989 0.35100001 4279968536
0.060373798 0.027038736 0.35000002 4279968534
0.0615106 0.027038736 0.35000002 4279968534
0.062647402 0.027038736 0.35000002 4279706897
0.063966438 0.027115989 0.35100001 4279642901
0.064735509 0.026961481 0.34900001 4278596625
0.066057809 0.027038736 0.35000002 4278991896
0.067002617 0.026961481 0.34900001 4279124252
0.068136171 0.026961481 0.34900001 4279452963
0.047800355 0.028819943 0.35800001 4280296461
0.048963137 0.028819943 0.35800001 4280164623
0.050265942 0.028900446 0.35900003 4280165395
0.05157524 0.028980948 0.36000001 4280166165
0.052744523 0.028980948 0.36000001 4279969047
0.060373798 0.028175922 0.35000002 4279705362
0.0615106 0.028175922 0.35000002 4279968534
0.062647402 0.028175922 0.35000002 4279707410
0.063784197 0.028175922 0.35000002 4279907356
0.064735509 0.028095419 0.34900001 4278991381
0.065869063 0.028095419 0.34900001 4278662929
0.067002617 0.028095419 0.34900001 4278598419
0.068136171 0.028095419 0.34900001 4279124763
0.060373798 0.029313108 0.35000002 4280099350
0.0615106 0.029313108 0.35000002 4279968534
0.062647402 0.029313108 0.35000002 4279577108
0.063784197 0.029313108 0.35000002 4280566311
0.064735509 0.029229354 0.34900001 4279187476
0.065869063 0.029229354 0.34900001 4278859795
0.067002617 0.029229354 0.34900001 4278598419
0.068136171 0.029229354 0.34900001 4278730005
0.069071248 0.029145604 0.34800002 4279255068
0.070201546 0.029145604 0.34800002 4279714852
0.071331851 0.029145604 0.34800002 4279778596
0.0615106 0.030450294 0.35000002 4279772438
0.062647402 0.030450294 0.35000002 4279315219
0.063784197 0.030450294 0.35000002 4279974946
0.064920999 0.030450294 0.35000002 4279647514
0.066057809 0.030450294 0.35000002 4278859025
0.067002617 0.030363292 0.34900001 4278729492
0.068136171 0.030363292 0.34900001 4279255836
0.069269724 0.030363292 0.34900001 4279058457
0.07040327 0.030363292 0.34900001 4278991642
0.071331851 0.030276291 0.34800002 4279123228
0.072462156 0.030276291 0.34800002 4279320607
0.073592462 0.030276291 0.34800002 4279517473
0.074508041 0.030189289 0.347 4279516705
0.075635098 0.030189289 0.347 4279516191
0.076540947 0.030102288 0.34600002 4279121433
0.077664748 0.030102288 0.34600002 4279712803
0.0615106 0.031587481 0.35000002 4279641365
0.062826395 0.03167773 0.35100001 4279710750
0.063966438 0.03167773 0.35100001 4279580188
0.064920999 0.031587481 0.35000002 4279581723
0.066057809 0.031587481 0.35000002 4278858511
0.067194603 0.031587481 0.35000002 4278926101
0.068331406 0.031587481 0.35000002 4278992664
0.069269724 0.031497229 0.34900001 4278795287
0.07040327 0.031497229 0.34900001 4283005015
0.071536824 0.031497229 0.34900001 4279452447
0.072462156 0.03140698 0.34800002 4278926103
0.073592462 0.03140698 0.34800002 4278926103
0.074508041 0.031316731 0.347 4278794517
0.075635098 0.031316731 0.347 4279189275
0.076540947 0.03122648 0.34600002 4278991896
0.077664748 0.03122648 0.34600002 4279255068
0.078560852 0.031136231 0.34500003 4279188762
0.061686344 0.032818165 0.35100001 4279642649
0.062826395 0.032818165 0.35100001 4279974946
0.063966438 0.032818165 0.35100001 4279777565
0.065106489 0.032818165 0.35100001 4279581721
0.066246539 0.032818165 0.35100001 4279121683
0.067386582 0.032818165 0.35100001 4278925588
0.068526633 0.032818165 0.35100001 4279255068
0.069468208 0.032724667 0.35000002 4278861080
0.070605002 0.032724667 0.35000002 4278992666
0.071536824 0.032631166 0.34900001 4278992666
0.072670378 0.032631166 0.34900001 4278861080
0.073592462 0.032537669 0.34800002 4278729494
0.074722767 0.032537669 0.34800002 4278729494
0.075635098 0.032444168 0.347 4278729494
0.076540947 0.032350671 0.34600002 4278795287
0.077664748 0.032350671 0.34600002 4278729494
0.078560852 0.032257173 0.34500003 4278795287
0.079681411 0.032257173 0.34500003 4278728724
0.080801971 0.032257173 0.34500003 4278991896
0.061862092 0.034055348 0.35200003 4279314197
0.063005388 0.034055348 0.35200003 4279777567
0.064148679 0.034055348 0.35200003 4279909664
0.065291978 0.034055348 0.35200003 4279516443
0.066435277 0.034055348 0.35200003 4279319062
0.067578569 0.034055348 0.35200003 4279057176
0.068721868 0.034055348 0.35200003 4279057176
0.069666684 0.033958599 0.35100001 4278991896
0.070806727 0.033958599 0.35100001 4279386654
0.071741804 0.033861853 0.35000002 4278926103
0.072878607 0.033861853 0.35000002 4278728724
0.073803931 0.033765104 0.34900001 4278794004
0.074722767 0.033668354 0.34800002 4278794517
0.075635098 0.033571605 0.347 4278663701
0.076540947 0.033474859 0.34600002 4278729494
0.077664748 0.033474859 0.34600002 4278794517
0.078560852 0.033378113 0.34500003 4278991896
0.079681411 0.033378113 0.34500003 4278794517
0.080567755 0.033281364 0.34400001 4278860310
0.082943879 0.032894369 0.34 4278794517
0.083801009 0.032797623 0.33900002 4278662931
0.084902078 0.032797623 0.33900002 4278991896
0.086003147 0.032797623 0.33900002 4278926103
0.061862092 0.035199031 0.35200003 4279710236
0.063363373 0.035399023 0.354 4279317527
0.064513162 0.035399023 0.354 4279976227
0.06566295 0.035399023 0.354 4279516443
0.066624016 0.035299029 0.35300002 4279516957
0.067770556 0.035299029 0.35300002 4279582750
0.068917103 0.035299029 0.35300002 4279386141
0.070063643 0.035299029 0.35300002 4279386654
0.071008459 0.035199031 0.35200003 4279649572
0.071946777 0.035099033 0.35100001 4279517727
0.073086828 0.035099033 0.35100001 4279386141
0.074015409 0.034999039 0.35000002 4279254555
0.074722767 0.034799043 0.34800002 4279320348
0.075853072 0.034799043 0.34800002 4279188762
0.076762155 0.034699045 0.347 4278925590
0.077664748 0.034599047 0.34600002 4278859797
0.078560852 0.034499053 0.34500003 4278925590
0.079681411 0.034499053 0.34500003 4278925590
0.080567755 0.034399055 0.34400001 4278728211
0.081447616 0.034299057 0.34300002 4278794002
0.082320973 0.034199059 0.34200001 4278859795
0.083187841 0.034099061 0.34100002 4278794002
0.084048204 0.033999063 0.34 4278925590
0.084902078 0.033899069 0.33900002 4278859795
0.086003147 0.033899069 0.33900002 4278991381
0.086847283 0.033799071 0.33800003 4278860308
0.087684907 0.033699073 0.33700001 4278926101
0.088779487 0.033699073 0.33700001 4278662929
0.097013876 0.033899069 0.33900002 4278859795
0.098404378 0.033999063 0.34 4278991381
0.10261484 0.034299057 0.34300002 4278925590
0.10372891 0.034299057 0.34300002 4278925590
0.10484298 0.034299057 0.34300002 4279451164
0.10595704 0.034299057 0.34300002 4279648543
0.10675894 0.034199059 0.34200001 4279385371
0.10786975 0.034199059 0.34200001 4279516703
0.10898057 0.034199059 0.34200001 4279779361
0.063542366 0.036652453 0.35500002 4279713309
0.064695403 0.036652453 0.35500002 4279648029
0.065848447 0.036652453 0.35500002 4279451164
0.067001484 0.036652453 0.35500002 4279451164
0.068154521 0.036652453 0.35500002 4279451164
0.069112331 0.036549207 0.354 4279320348
0.070262127 0.036549207 0.354 4279649313
0.071210191 0.03644596 0.35300002 4279780899
0.072356731 0.03644596 0.35300002 4279582496
0.073295057 0.036342718 0.35200003 4279385117
0.074015409 0.036136225 0.35000002 4279187992
0.074937485 0.036032975 0.34900001 4279451164
0.075853072 0.035929732 0.34800002 4279319578
0.076762155 0.035826482 0.347 4279187992
0.077664748 0.035723239 0.34600002 4279319578
0.078788556 0.035723239 0.34600002 4279319578
0.079681411 0.035619993 0.34500003 4279187992
0.080801971 0.035619993 0.34500003 4279122199
0.081685066 0.035516743 0.34400001 4279319578
0.082561679 0.0354135 0.34300002 4279319578
0.083431788 0.03531025 0.34200001 4279187992
0.084295407 0.035207007 0.34100002 4279187992
0.085152522 0.035103757 0.34 4278727441
0.086003147 0.035000514 0.33900002 4278924820
0.086847283 0.034897268 0.33800003 4278794004
0.087945111 0.034897268 0.33800003 4278728211
0.088779487 0.034794021 0.33700001 4278794004
0.089874066 0.034794021 0.33700001 4278794004
0.090968646 0.034794021 0.33700001 4278728724
0.092063211 0.034794021 0.33700001 4278926103
0.093157791 0.034794021 0.33700001 4278860310
0.094532058 0.034897268 0.33800003 4278794517
0.095912807 0.035000514 0.33900002 4278860308
0.097013876 0.035000514 0.33900002 4278860308
0.098404378 0.035103757 0.34 4278859795
0.099801362 0.035207007 0.34100002 4278859795
0.10090894 0.035207007 0.34100002 4278794002
0.10231567 0.03531025 0.34200001 4278991381
0.10342649 0.03531025 0.34200001 4278859795
0.10484298 0.0354135 0.34300002 4278728209
0.10595704 0.0354135 0.34300002 4278794002
0.10675894 0.03531025 0.34200001 4278925588
0.10786975 0.03531025 0.34200001 4278859795
0.10898057 0.03531025 0.34200001 4279056404
0.10976949 0.035207007 0.34100002 4278990613
0.11087705 0.035207007 0.34100002 4278859027
0.11198463 0.035207007 0.34100002 4279122199
0.1130922 0.035207007 0.34100002 4279122199
0.11419976 0.035207007 0.34100002 4279450910
0.061926268 0.038231868 0.35900003 4282933584
0.063092306 0.038231868 0.35900003 4280105248
0.063900352 0.038018879 0.35700002 4279779102
0.065059885 0.038018879 0.35700002 4279779102
0.066219419 0.038018879 0.35700002 4279582750
0.067190222 0.03791238 0.35600001 4279385371
0.068346508 0.03791238 0.35600001 4279386141
0.069502793 0.03791238 0.35600001 4279649313
0.070659086 0.03791238 0.35600001 4279912485
0.071613647 0.037805885 0.35500002 4279845922
0.072561711 0.03769939 0.354 4279516957
0.073503278 0.037592895 0.35300002 4279516957
0.074226879 0.037379902 0.35100001 4279319578
0.075152203 0.037273411 0.35000002 4279385371
0.076071039 0.037166912 0.34900001 4279385371
0.076983377 0.037060417 0.34800002 4279319578
0.077889211 0.036953922 0.347 4279187992
0.078788556 0.036847427 0.34600002 4279319578
0.079912372 0.036847427 0.34600002 4279253271
0.080801971 0.036740933 0.34500003 4278265609
0.081685066 0.036634434 0.34400001 4278856978
0.082802385 0.036634434 0.34400001 4279120918
0.083675742 0.036527943 0.34300002 4279187478
0.084542602 0.036421444 0.34200001 4279450650
0.085402973 0.036314949 0.34100002 4279253271
0.086256839 0.036208451 0.34 4279187992
0.087104224 0.03610196 0.33900002 4278991383
0.0882053 0.03610196 0.33900002 4279057176
0.089042932 0.035995465 0.33800003 4279057176
0.09014076 0.035995465 0.33800003 4279057176
0.090968646 0.035888966 0.33700001 4278991383
0.092336401 0.035995465 0.33800003 4278859797
0.093434229 0.035995465 0.33800003 4278925590
0.09481173 0.03610196 0.33900002 4278728211
0.095912807 0.03610196 0.33900002 4278728211
0.097300053 0.036208451 0.34 4278662931
0.098404378 0.036208451 0.34 4278794517
0.099801362 0.036314949 0.34100002 4278860310
0.10090894 0.036314949 0.34100002 4278860308
0.10261484 0.036527943 0.34300002 4278991894
0.10403132 0.036634434 0.34400001 4279188760
0.10484298 0.036527943 0.34300002 4279057174
0.10595704 0.036527943 0.34300002 4279057174
0.10675894 0.036421444 0.34200001 4278859795
0.10786975 0.036421444 0.34200001 4279057174
0.10866191 0.036314949 0.34100002 4278925588
0.11009139 0.036421444 0.34200001 4278925588
0.1112022 0.036421444 0.34200001 4278859795
0.11231302 0.036421444 0.34200001 4278728209
0.11276054 0.036208451 0.34 4278859797
0.11419976 0.036314949 0.34100002 4278925590
0.061267979 0.039727528 0.36200002 4284248420
0.062098764 0.039508041 0.36000001 4285103729
0.063268043 0.039508041 0.36000001 4280170276
0.064258337 0.039398298 0.35900003 4279909918
0.065242119 0.039288551 0.35800001 4279779102
0.066404909 0.039288551 0.35800001 4279516443
0.067567699 0.039288551 0.35800001 4279648029
0.068730474 0.039288551 0.35800001 4279386141
0.069698036 0.039178807 0.35700002 4279978278
0.07085757 0.039178807 0.35700002 4279846692
0.071815372 0.03906906 0.35600001 4279648543
0.072766684 0.038959317 0.35500002 4279385371
0.0737115 0.03884957 0.354 4279385371
0.074438356 0.038630083 0.35200003 4279385371
0.075366922 0.038520336 0.35100001 4279516957
0.076289006 0.038410597 0.35000002 4279187992
0.076983377 0.038191106 0.34800002 4279187992
0.078113675 0.038191106 0.34800002 4279516957
0.079016268 0.038081359 0.347 4279319578
0.079912372 0.037971616 0.34600002 4279186965
0.081036173 0.037971616 0.34600002 4278988049
0.081922531 0.037861872 0.34500003 4279249939
0.083043091 0.037861872 0.34500003 4279580188
0.083919697 0.037752125 0.34400001 4279384344
0.084789813 0.037642382 0.34300002 4279647516
0.085903868 0.037642382 0.34300002 4279384344
0.086764239 0.037532635 0.34200001 4279121685
0.087618113 0.037422892 0.34100002 4279319064
0.088465489 0.037313148 0.34 4279450650
0.089306369 0.037203405 0.33900002 4279187992
0.090407446 0.037203405 0.33900002 4279121945
0.091508523 0.037203405 0.33900002 4279187992
0.092609584 0.037203405 0.33900002 4279319578
0.093710653 0.037203405 0.33900002 4279319578
0.09509141 0.037313148 0.34 4279187992
0.096195728 0.037313148 0.34 4279056406
0.097586237 0.037422892 0.34100002 4279187992
0.098693803 0.037422892 0.34100002 4279122199
0.10009404 0.037532635 0.34200001 4278990613
0.10179669 0.037752125 0.34400001 4279187990
0.10261484 0.037642382 0.34300002 4279122197
0.10403132 0.037752125 0.34400001 4278990611
0.10484298 0.037642382 0.34300002 4278859025
0.10595704 0.037642382 0.34300002 4278990611
0.10675894 0.037532635 0.34200001 4279056404
0.10786975 0.037532635 0.34200001 4278727439
0.10866191 0.037422892 0.34100002 4278990611
0.10944758 0.037313148 0.34 4279187990
0.11022675 0.037203405 0.33900002 4279122197
0.11099943 0.037093662 0.33800003 4279188762
0.1124289 0.037203405 0.33900002 4279188762
0.11319507 0.037093662 0.33800003 4278925590
0.11395475 0.036983915 0.33700001 4279057176
0.13334927 0.037203405 0.33900002 4281090860
0.13445035 0.037203405 0.33900002 4282274367
0.13555141 0.037203405 0.33900002 4283590227
0.061267979 0.040903702 0.36200002 4284445799
0.062271263 0.040790711 0.36100003 4284445801
0.063268043 0.040677715 0.36000001 4280629805
0.06443733 0.040677715 0.36000001 4279976481
0.065606602 0.040677715 0.36000001 4279713822
0.066590399 0.040564723 0.35900003 4279713822
0.067756437 0.040564723 0.35900003 4279582236
0.06892246 0.040564723 0.35900003 4279386141
0.070088498 0.040564723 0.35900003 4279846692
0.071056046 0.040451728 0.35800001 4279911715
0.072017103 0.040338736 0.35700002 4279648289
0.072971664 0.040225741 0.35600001 4279385117
0.073919728 0.040112749 0.35500002 4279450910
0.074649826 0.039886761 0.35300002 4279385117
0.075581647 0.03977377 0.35200003 4279385117
0.076289006 0.039547779 0.35000002 4279187738
0.077204593 0.039434783 0.34900001 4279121945
0.078113675 0.039321791 0.34800002 4279516443
0.079243988 0.039321791 0.34800002 4279253271
0.080143325 0.039208796 0.347 4279184660
0.081270382 0.039208796 0.347 4278657035
0.082159981 0.039095804 0.34600002 4278855181
0.083283797 0.039095804 0.34600002 4279711774
0.084163651 0.038982812 0.34500003 4279382039
0.085284211 0.038982812 0.34500003 4278196484
0.086154319 0.038869817 0.34400001 4278655752
0.087017938 0.038756825 0.34300002 4278195459
0.088132001 0.038756825 0.34300002 4278328583
0.088985875 0.03864383 0.34200001 4278723341
0.089833252 0.038530838 0.34100002 4278987027
0.090940826 0.038530838 0.34100002 4279777567
0.09177845 0.038417842 0.34 4279712539
0.092882767 0.038417842 0.34 4279383574
0.094263524 0.038530838 0.34100002 4279449365
0.095371097 0.038530838 0.34100002 4279384342
0.096478663 0.038530838 0.34100002 4279384344
0.097872406 0.03864383 0.34200001 4279581723
0.098983228 0.03864383 0.34200001 4279319064
0.10038671 0.038756825 0.34300002 4279450650
0.10179669 0.038869817 0.34400001 4279385371
0.10291401 0.038869817 0.34400001 4279319578
0.10403132 0.038869817 0.34400001 4279187990
0.10514864 0.038869817 0.34400001 4279056404
0.10595704 0.038756825 0.34300002 4279122197
0.10707111 0.038756825 0.34300002 4279122197
0.10786975 0.03864383 0.34200001 4279187990
0.10866191 0.038530838 0.34100002 4279516443
0.10944758 0.038417842 0.34 4279253271
0.11022675 0.03830485 0.33900002 4279187478
0.11132782 0.03830485 0.33900002 4278990099
0.1124289 0.03830485 0.33900002 4278990099
0.11319507 0.038191859 0.33800003 4278990097
0.11395475 0.038078863 0.33700001 4279121683
0.13037339 0.038078863 0.33700001 4279253269
0.13224821 0.03830485 0.33900002 4279319062
0.13374263 0.038417842 0.34 4279713309
0.13484696 0.038417842 0.34 4279646746
0.13595127 0.038417842 0.34 4280238370
0.1378618 0.03864383 0.34200001 4279448600
0.13897261 0.03864383 0.34200001 4280434213
0.060258206 0.042196121 0.36300001 4284380008
0.061267979 0.042079877 0.36200002 4284445801
0.062443756 0.042079877 0.36200002 4284380008
0.063443795 0.041963637 0.36100003 4284972143
0.064616323 0.041963637 0.36100003 4279908381
0.065606602 0.041847393 0.36000001 4279976481
0.066775888 0.041847393 0.36000001 4279911201
0.067945167 0.041847393 0.36000001 4279582750
0.069114447 0.041847393 0.36000001 4279977508
0.070283726 0.041847393 0.36000001 4280240680
0.071254529 0.041731153 0.35900003 4279845922
0.072218828 0.041614905 0.35800001 4279582496
0.073176645 0.041498665 0.35700002 4279450910
0.07412795 0.041382421 0.35600001 4279319324
0.074861296 0.041149933 0.354 4279385117
0.075581647 0.040917452 0.35200003 4279385117
0.076506972 0.040801208 0.35100001 4279385117
0.077425815 0.040684965 0.35000002 4279319324
0.078338139 0.040568721 0.34900001 4279581982
0.079243988 0.04045248 0.34800002 4279319064
0.080374293 0.04045248 0.34800002 4278723082
0.081504591 0.04045248 0.34800002 4279183379
0.082397439 0.040336236 0.347 4279580188
0.083524495 0.040336236 0.347 4279449115
0.084407598 0.040219992 0.34600002 4278919437
0.085531406 0.040219992 0.34600002 4278983435
0.086404771 0.040103752 0.34500003 4279180816
0.08752533 0.040103752 0.34500003 4278982924
0.088388942 0.039987508 0.34400001 4278983437
0.089246072 0.039871268 0.34300002 4278917390
0.090360135 0.039871268 0.34300002 4278983183
0.091207512 0.03975502 0.34200001 4278917644
0.092318326 0.03975502 0.34200001 4278917642
0.093429133 0.03975502 0.34200001 4278851849
0.094539955 0.03975502 0.34200001 4278654984
0.095930457 0.039871268 0.34300002 4278786568
0.09704452 0.039871268 0.34300002 4278590726
0.09815859 0.039871268 0.34300002 4279117840
0.099562079 0.039987508 0.34400001 4279250453
0.10067938 0.039987508 0.34400001 4279711772
0.10209262 0.040103752 0.34500003 4279778078
0.10321318 0.040103752 0.34500003 4279712539
0.10433374 0.040103752 0.34500003 4279449367
0.10514864 0.039987508 0.34400001 4279515160
0.10626595 0.039987508 0.34400001 4279252758
0.10707111 0.039871268 0.34300002 4279252758
0.10818516 0.039871268 0.34300002 4279581723
0.10898057 0.03975502 0.34200001 4279252758
0.10976949 0.03963878 0.34100002 4279515930
0.11087705 0.03963878 0.34100002 4279515930
0.11165622 0.039522536 0.34 4279384344
0.11276054 0.039522536 0.34 4279515930
0.11386485 0.039522536 0.34 4279515928
0.11395475 0.039173808 0.33700001 4279515928
0.12675364 0.03975502 0.34200001 4279253271
0.12786445 0.03975502 0.34200001 4279253271
0.12859815 0.03963878 0.34100002 4279253271
0.12970571 0.03963878 0.34100002 4278858513
0.13004605 0.039406296 0.33900002 4279055890
0.13302843 0.03963878 0.34100002 4278858511
0.13413599 0.03963878 0.34100002 4278990097
0.13524356 0.03963878 0.34100002 4279055890
0.13675098 0.03975502 0.34200001 4279121170
0.13826491 0.039871268 0.34300002 4279318549
0.13937898 0.039871268 0.34300002 4279515928
0.14090264 0.039987508 0.34400001 4279713307
0.060258206 0.043375544 0.36300001 4284511594
0.061267979 0.043256052 0.36200002 4284511594
0.062443756 0.043256052 0.36200002 4284182629
0.063443795 0.043136563 0.36100003 4284182627
0.064616323 0.043136563 0.36100003 4284249955
0.06578885 0.043136563 0.36100003 4280039969
0.066775888 0.043017067 0.36000001 4279976740
0.067945167 0.043017067 0.36000001 4279385117
0.069114447 0.043017067 0.36000001 4280043047
0.070283726 0.043017067 0.36000001 4280043047
0.071254529 0.042897578 0.35900003 4279648543
0.07242056 0.042897578 0.35900003 4279582750
0.073176645 0.042658594 0.35700002 4279451164
0.07412795 0.042539101 0.35600001 4279582750
0.074861296 0.042300116 0.354 4279385371
0.075581647 0.042061135 0.35200003 4279319324
0.076506972 0.041941643 0.35100001 4279319324
0.077425815 0.04182215 0.35000002 4279319324
0.07856261 0.04182215 0.35000002 4279845668
0.079471692 0.041702658 0.34900001 4279120918
0.080605246 0.041702658 0.34900001 4278985230
0.081504591 0.041583166 0.34800002 4280037918
0.082634896 0.041583166 0.34800002 4279646494
0.083765201 0.041583166 0.34800002 4279318299
0.084651552 0.041463673 0.347 4278852363
0.085778609 0.041463673 0.347 4279707158
0.086905658 0.041463673 0.347 4279576086
0.087779023 0.041344184 0.34600002 4279445270
0.088902831 0.041344184 0.34600002 4278984721
0.089766458 0.041224692 0.34500003 4279971616
0.090887018 0.041224692 0.34500003 4279312402
0.091740884 0.0411052 0.34400001 4279575572
0.092858203 0.0411052 0.34400001 4280102428
0.093975507 0.0411052 0.34400001 4279247119
0.095092818 0.0411052 0.34400001 4278917642
0.09621013 0.0411052 0.34400001 4279115021
0.097327448 0.0411052 0.34400001 4279246094
0.098730944 0.041224692 0.34500003 4279246096
0.099851504 0.041224692 0.34500003 4278852365
0.10097206 0.041224692 0.34500003 4279644957
0.10238854 0.041344184 0.34600002 4280105762
0.10321318 0.041224692 0.34500003 4279645211
0.10433374 0.041224692 0.34500003 4278525701
0.1054543 0.041224692 0.34500003 4278657287
0.10626595 0.0411052 0.34400001 4278328322
0.10738327 0.0411052 0.34400001 4278788873
0.10850057 0.0411052 0.34400001 4279513109
0.10929923 0.040985707 0.34300002 4279382037
0.11009139 0.040866215 0.34200001 4279382807
0.1112022 0.040866215 0.34200001 4279514647
0.11231302 0.040866215 0.34200001 4279383572
0.11342384 0.040866215 0.34200001 4279646744
0.11453465 0.040866215 0.34200001 4279384342
0.11665991 0.041224692 0.34500003 4279515926
0.11778047 0.041224692 0.34500003 4279384340
0.11924567 0.041344184 0.34600002 4279450648
0.12036948 0.041344184 0.34600002 4279515928
0.12184442 0.041463673 0.347 4279646744
0.12297148 0.041463673 0.347 4279317266
0.12409852 0.041463673 0.347 4279448854
0.12522559 0.041463673 0.347 4279383320
0.12635264 0.041463673 0.347 4279449113
0.12712426 0.040985707 0.34300002 4279121685
0.12823834 0.040985707 0.34300002 4279121685
0.12935241 0.040985707 0.34300002 4279253271
0.13046646 0.040985707 0.34300002 4278990099
0.13196413 0.0411052 0.34400001 4279319062
0.13308145 0.0411052 0.34400001 4279187476
0.13380866 0.040985707 0.34300002 4279319062
0.13492273 0.040985707 0.34300002 4279385369
0.13603678 0.040985707 0.34300002 4279385369
0.13715084 0.040985707 0.34300002 4279055890
0.13866802 0.0411052 0.34400001 4279187476
0.13978532 0.0411052 0.34400001 4279187476
0.14131224 0.041224692 0.34500003 4279055890
0.14284565 0.041344184 0.34600002 4279252754
0.060258206 0.044554967 0.36300001 4284445801
0.061267979 0.044432227 0.36200002 4284577387
0.062443756 0.044432227 0.36200002 4284248420
0.063443795 0.044309489 0.36100003 4284182627
0.064616323 0.044309489 0.36100003 4283985248
0.06578885 0.044309489 0.36100003 4283788639
0.066775888 0.044186745 0.36000001 4280303659
0.067945167 0.044186745 0.36000001 4280304940
0.069114447 0.044186745 0.36000001 4280240428
0.070283726 0.044186745 0.36000001 4280108842
0.071453013 0.044186745 0.36000001 4279845668
0.07242056 0.044064008 0.35900003 4279648289
0.073381618 0.043941263 0.35800001 4279582750
0.07412795 0.043695781 0.35600001 4279582750
0.074861296 0.0434503 0.354 4279451164
0.075581647 0.043204818 0.35200003 4279451164
0.076506972 0.043082077 0.35100001 4279385371
0.077647023 0.043082077 0.35100001 4279187992
0.07856261 0.042959336 0.35000002 4279319064
0.079699412 0.042959336 0.35000002 4279251734
0.080605246 0.042836595 0.34900001 4279511574
0.0817388 0.042836595 0.34900001 4280302114
0.082872353 0.042836595 0.34900001 4279514908
0.083765201 0.042713854 0.34800002 4278921488
0.084895507 0.042713854 0.34800002 4279180303
0.086025812 0.042713854 0.34800002 4279311889
0.086905658 0.04259111 0.347 4278917644
0.088032715 0.04259111 0.347 4279115535
0.089159779 0.04259111 0.347 4279247121
0.090026647 0.042468373 0.34600002 4279444500
0.091150455 0.042468373 0.34600002 4278982924
0.092274264 0.042468373 0.34600002 4280299297
0.093398072 0.042468373 0.34600002 4278983951
0.094521873 0.042468373 0.34600002 4278917642
0.095645688 0.042468373 0.34600002 4279181328
0.096769497 0.042468373 0.34600002 4279773465
0.097893305 0.042468373 0.34600002 4279510293
0.099017113 0.042468373 0.34600002 4278983951
0.10014093 0.042468373 0.34600002 4280367655
0.10126472 0.042468373 0.34600002 4279777567
0.10238854 0.042468373 0.34600002 4279974946
0.10351235 0.042468373 0.34600002 4279711772
0.10463616 0.042468373 0.34600002 4279381523
0.10575996 0.042468373 0.34600002 4279446803
0.10657487 0.042345632 0.34500003 4279776535
0.10769543 0.042345632 0.34500003 4279842842
0.10850057 0.042222891 0.34400001 4279645463
0.10961788 0.042222891 0.34400001 4279711256
0.11073519 0.042222891 0.34400001 4280171039
0.11152736 0.04210015 0.34300002 4279382037
0.11264143 0.04210015 0.34300002 4278921486
0.11375549 0.04210015 0.34300002 4278197763
0.11520445 0.042222891 0.34400001 4278526728
0.11665991 0.042345632 0.34500003 4278592521
0.11812185 0.042468373 0.34600002 4279053326
0.11924567 0.042468373 0.34600002 4279447830
0.12036948 0.042468373 0.34600002 4279513623
0.12184442 0.04259111 0.347 4279645463
0.12297148 0.04259111 0.347 4279645463
0.12409852 0.04259111 0.347 4279711256
0.12522559 0.04259111 0.347 4279711256
0.12635264 0.04259111 0.347 4279580440
0.12711233 0.042468373 0.34600002 4279317781
0.12749489 0.042222891 0.34400001 4279515160
0.12861221 0.042222891 0.34400001 4279383574
0.12972951 0.042222891 0.34400001 4279449367
0.13084681 0.042222891 0.34400001 4279383574
0.13234776 0.042345632 0.34500003 4279515158
0.13346832 0.042345632 0.34500003 4279317779
0.13419876 0.042222891 0.34400001 4279054607
0.13531607 0.042222891 0.34400001 4279055377
0.13643339 0.042222891 0.34400001 4279187476
0.1375507 0.042222891 0.34400001 4278990611
0.13907112 0.042345632 0.34500003 4279187990
0.14019169 0.042345632 0.34500003 4279187990
0.14172184 0.042468373 0.34600002 4278990611
0.14284565 0.042468373 0.34600002 4278990097
0.14438555 0.04259111 0.347 4279186963
0.061267979 0.045608405 0.36200002 4284380006
0.062271263 0.045482416 0.36100003 4284182627
0.063443795 0.045482416 0.36100003 4284182627
0.06443733 0.045356423 0.36000001 4283656283
0.065606602 0.045356423 0.36000001 4283985248
0.066775888 0.045356423 0.36000001 4283657053
0.067756437 0.045230437 0.35900003 4284250217
0.06892246 0.045230437 0.35900003 4282145863
0.070283726 0.045356423 0.36000001 4279908901
0.071453013 0.045356423 0.36000001 4279713057
0.07242056 0.045230437 0.35900003 4279581471
0.073176645 0.044978455 0.35700002 4279976740
0.07412795 0.044852462 0.35600001 4279779361
0.074649826 0.044474494 0.35300002 4279713568
0.075581647 0.044348504 0.35200003 4279779615
0.076506972 0.044222515 0.35100001 4279385371
0.077647023 0.044222515 0.35100001 4279451164
0.07856261 0.044096526 0.35000002 4278594828
0.079699412 0.044096526 0.35000002 4278527500
0.080836214 0.044096526 0.35000002 4279118353
0.0817388 0.043970533 0.34900001 4280039967
0.082872353 0.043970533 0.34900001 4279581723
0.084005907 0.043970533 0.34900001 4279843873
0.084895507 0.043844543 0.34800002 4279314967
0.086025812 0.043844543 0.34800002 4278984719
0.08715611 0.043844543 0.34800002 4278523398
0.088286422 0.043844543 0.34800002 4279115535
0.089159779 0.04371855 0.347 4279180816
0.090286836 0.04371855 0.347 4279180816
0.091413893 0.04371855 0.347 4279115023
0.09254095 0.04371855 0.347 4279180303
0.093668006 0.04371855 0.347 4278982924
0.094795056 0.04371855 0.347 4279246609
0.095922112 0.04371855 0.347 4278852361
0.097049169 0.04371855 0.347 4279444498
0.098176233 0.04371855 0.347 4279181330
0.09930329 0.04371855 0.347 4278983951
0.10043035 0.04371855 0.347 4279907354
0.1015574 0.04371855 0.347 4279909151
0.10268445 0.04371855 0.347 4278722828
0.10381151 0.04371855 0.347 4278853133
0.10463616 0.043592565 0.34600002 4278983949
0.10575996 0.043592565 0.34600002 4279312400
0.10688378 0.043592565 0.34600002 4279774487
0.10800759 0.043592565 0.34600002 4278656519
0.10881598 0.043466575 0.34500003 4279513623
0.10993654 0.043466575 0.34500003 4279250451
0.1110571 0.043466575 0.34500003 4279118865
0.11217767 0.043466575 0.34500003 4279974174
0.11329823 0.043466575 0.34500003 4279382037
0.11441879 0.043466575 0.34500003 4279382037
0.11553934 0.043466575 0.34500003 4279908381
0.11699805 0.043592565 0.34600002 4279908381
0.11812185 0.043592565 0.34600002 4279776535
0.11924567 0.043592565 0.34600002 4279644949
0.12071736 0.04371855 0.347 4280434211
0.12184442 0.04371855 0.347 4279578902
0.12297148 0.04371855 0.347 4279446803
0.12409852 0.04371855 0.347 4278788103
0.12522559 0.04371855 0.347 4279117068
0.12635264 0.04371855 0.347 4278590724
0.12711233 0.043592565 0.34600002 4278723080
0.12823614 0.043592565 0.34600002 4279184144
0.12898608 0.043466575 0.34500003 4279250451
0.13010664 0.043466575 0.34500003 4279711002
0.1312272 0.043466575 0.34500003 4279711256
0.13273136 0.043592565 0.34600002 4279514647
0.13385518 0.043592565 0.34600002 4279580440
0.13458888 0.043466575 0.34500003 4279580440
0.13570945 0.043466575 0.34500003 4279514645
0.13683 0.043466575 0.34500003 4279383572
0.13835041 0.043592565 0.34600002 4279975709
0.13947421 0.043592565 0.34600002 4278923791
0.14059803 0.043592565 0.34600002 4279319062
0.14172184 0.043592565 0.34600002 4279186965
0.1432585 0.04371855 0.347 4279054609
0.14438555 0.04371855 0.347 4279383061
0.063268043 0.046526097 0.36000001 4284313702
0.06443733 0.046526097 0.36000001 4284050528
0.065606602 0.046526097 0.36000001 4283985248
0.066590399 0.046396859 0.35900003 4284445799
0.067567699 0.046267621 0.35800001 4284445799
0.068730474 0.046267621 0.35800001 4284380776
0.069112331 0.045750663 0.354 4284446569
0.070063643 0.045621425 0.35300002 4284841840
0.071008459 0.045492187 0.35200003 4285105526
0.071946777 0.045362946 0.35100001 4284645745
0.072878607 0.045233708 0.35000002 4283330139
0.074438356 0.045492187 0.35200003 4282408265
0.075366922 0.045362946 0.35100001 4280631854
0.076506972 0.045362946 0.35100001 4279644959
0.077647023 0.045362946 0.35100001 4279579934
0.07856261 0.045233708 0.35000002 4279646494
0.079699412 0.045233708 0.35000002 4279975459
0.080836214 0.045233708 0.35000002 4280172323
0.081973009 0.045233708 0.35000002 4280040737
0.082872353 0.045104466 0.34900001 4279844895
0.084005907 0.045104466 0.34900001 4279976481
0.085139453 0.045104466 0.34900001 4279713309
0.086273007 0.045104466 0.34900001 4279778332
0.08715611 0.044975229 0.34800002 4279909664
0.088286422 0.044975229 0.34800002 4279909153
0.089416727 0.044975229 0.34800002 4280039969
0.090547033 0.044975229 0.34800002 4280368934
0.091677338 0.044975229 0.34800002 4280499752
0.092807643 0.044975229 0.34800002 4279907104
0.093668006 0.044845987 0.347 4279445270
0.094795056 0.044845987 0.347 4278853133
0.096198551 0.044975229 0.34800002 4278786570
0.097328857 0.044975229 0.34800002 4279312400
0.098459162 0.044975229 0.34800002 4279246609
0.099589467 0.044975229 0.34800002 4279576856
0.10071978 0.044975229 0.34800002 4279776281
0.10185007 0.044975229 0.34800002 4279710742
0.10268445 0.044845987 0.347 4279576854
0.10381151 0.044845987 0.347 4279049742
0.10493857 0.044845987 0.347 4279378193
0.10606562 0.044845987 0.347 4279181328
0.10688378 0.044716749 0.34600002 4280037405
0.10800759 0.044716749 0.34600002 4279708953
0.10913139 0.044716749 0.34600002 4279776283
0.1102552 0.044716749 0.34600002 4279315732
0.11137901 0.044716749 0.34600002 4279710490
0.11250281 0.044716749 0.34600002 4279381525
0.11362663 0.044716749 0.34600002 4280039707
0.11475044 0.044716749 0.34600002 4279644949
0.11587424 0.044716749 0.34600002 4278525701
0.11699805 0.044716749 0.34600002 4279578389
0.11812185 0.044716749 0.34600002 4279775768
0.1195903 0.044845987 0.347 4279513109
0.12071736 0.044845987 0.347 4279973662
0.12184442 0.044845987 0.347 4279644695
0.12297148 0.044845987 0.347 4280039453
0.12409852 0.044845987 0.347 4279842074
0.12522559 0.044845987 0.347 4279776281
0.12635264 0.044845987 0.347 4279973660
0.1274797 0.044845987 0.347 4279973660
0.12823614 0.044716749 0.34600002 4279710488
0.12935995 0.044716749 0.34600002 4280039453
0.13048376 0.044716749 0.34600002 4279776281
0.13160756 0.044716749 0.34600002 4279644695
0.13273136 0.044716749 0.34600002 4278657800
0.13385518 0.044716749 0.34600002 4279447832
0.13497899 0.044716749 0.34600002 4279711004
0.1361028 0.044716749 0.34600002 4279777819
0.13722661 0.044716749 0.34600002 4279712026
0.13835041 0.044716749 0.34600002 4279777817
0.13987732 0.044845987 0.347 4279646744
0.14100438 0.044845987 0.347 4279712537
0.14213143 0.044845987 0.347 4279646744
0.1432585 0.044845987 0.347 4279777817
0.14438555 0.044845987 0.347 4280172575
0.066404909 0.047430802 0.35800001 4284313700
0.067567699 0.047430802 0.35800001 4284576874
0.070063643 0.04676836 0.35300002 4284708973
0.072878607 0.046370897 0.35000002 4284709741
0.074226879 0.046503384 0.35100001 4284709741
0.075366922 0.046503384 0.35100001 4284709741
0.076506972 0.046503384 0.35100001 4284775534
0.077425815 0.046370897 0.35000002 4284709741
0.07856261 0.046370897 0.35000002 4284973426
0.079699412 0.046370897 0.35000002 4284908917
0.080836214 0.046370897 0.35000002 4285171571
0.081973009 0.046370897 0.35000002 4284053090
0.083109811 0.046370897 0.35000002 4282671437
0.084005907 0.046238404 0.34900001 4281223991
0.085139453 0.046238404 0.34900001 4279644697
0.086273007 0.046238404 0.34900001 4280236834
0.087406561 0.046238404 0.34900001 4279908383
0.088286422 0.046105918 0.34800002 4280303911
0.089416727 0.046105918 0.34800002 4280040739
0.090547033 0.046105918 0.34800002 4279974946
0.091677338 0.046105918 0.34800002 4279975457
0.092807643 0.046105918 0.34800002 4279975457
0.093937948 0.046105918 0.34800002 4279778078
0.095068246 0.046105918 0.34800002 4279778078
0.096198551 0.046105918 0.34800002 4280172325
0.097328857 0.046105918 0.34800002 4279843360
0.098459162 0.046105918 0.34800002 4279909153
0.099589467 0.046105918 0.34800002 4279777567
0.10071978 0.046105918 0.34800002 4279711002
0.10185007 0.046105918 0.34800002 4279447830
0.10298038 0.046105918 0.34800002 4278855181
0.10411069 0.046105918 0.34800002 4278787851
0.10493857 0.045973428 0.347 4279379988
0.10606562 0.045973428 0.347 4278657035
0.10719269 0.045973428 0.347 4279578650
0.10831974 0.045973428 0.347 4280236834
0.10913139 0.045840941 0.34600002 4279710490
0.1102552 0.045840941 0.34600002 4279973662
0.11137901 0.045840941 0.34600002 4280105248
0.11250281 0.045840941 0.34600002 4279710490
0.11362663 0.045840941 0.34600002 4278789386
0.11475044 0.045840941 0.34600002 4279184144
0.11587424 0.045840941 0.34600002 4279842074
0.11733619 0.045973428 0.347 4279052558
0.11846325 0.045973428 0.347 4279314449
0.1195903 0.045973428 0.347 4279314195
0.12071736 0.045973428 0.347 4279379988
0.12184442 0.045973428 0.347 4279709207
0.12297148 0.045973428 0.347 4279446035
0.12409852 0.045973428 0.347 4280367137
0.12522559 0.045973428 0.347 4279183631
0.12635264 0.045973428 0.347 4279578389
0.1274797 0.045973428 0.347 4278657289
0.12860675 0.045973428 0.347 4279315219
0.12973382 0.045973428 0.347 4279776535
0.13086088 0.045973428 0.347 4279842328
0.13198793 0.045973428 0.347 4279644949
0.13311498 0.045973428 0.347 4278854668
0.13424204 0.045973428 0.347 4279907354
0.13536909 0.045973428 0.347 4279776281
0.13649616 0.045973428 0.347 4279711002
0.13762322 0.045973428 0.347 4279908381
0.13875026 0.045973428 0.347 4279711256
0.13987732 0.045973428 0.347 4279579670
0.14100438 0.045973428 0.347 4279842842
0.14254104 0.046105918 0.34800002 4280040219
0.14367135 0.046105918 0.34800002 4279974426
0.14438555 0.045973428 0.347 4280434979
0.076506972 0.047643814 0.35100001 4285301108
0.077647023 0.047643814 0.35100001 4285169522
0.078787073 0.047643814 0.35100001 4285103729
0.079927124 0.047643814 0.35100001 4284972143
0.081067167 0.047643814 0.35100001 4284972913
0.081973009 0.04750808 0.35000002 4284973167
0.083109811 0.04750808 0.35000002 4285038706
0.084246613 0.04750808 0.35000002 4285103729
0.085139453 0.047372341 0.34900001 4285169522
0.086273007 0.047372341 0.34900001 4285236085
0.087406561 0.047372341 0.34900001 4285630843
0.088286422 0.047236603 0.34800002 4285894267
0.089416727 0.047236603 0.34800002 4285171571
0.090547033 0.047236603 0.34800002 4284053092
0.091677338 0.047236603 0.34800002 4282539849
0.092807643 0.047236603 0.34800002 4280697385
0.093937948 0.047236603 0.34800002 4280105248
0.095068246 0.047236603 0.34800002 4279579418
0.096198551 0.047236603 0.34800002 4279974174
0.097328857 0.047236603 0.34800002 4280171553
0.098459162 0.047236603 0.34800002 4280172323
0.099589467 0.047236603 0.34800002 4280040737
0.10071978 0.047236603 0.34800002 4280040737
0.10185007 0.047236603 0.34800002 4280040737
0.10298038 0.047236603 0.34800002 4279909151
0.10411069 0.047236603 0.34800002 4279909153
0.10493857 0.047100864 0.347 4279777567
0.10606562 0.047100864 0.347 4279842590
0.10719269 0.047100864 0.347 4280040739
0.10831974 0.047100864 0.347 4279974946
0.10944679 0.047100864 0.347 4280172325
0.11057385 0.047100864 0.347 4279645211
0.11170091 0.047100864 0.347 4279578904
0.11282796 0.047100864 0.347 4278394630
0.11395502 0.047100864 0.347 4278394630
0.11508209 0.047100864 0.347 4278723595
0.11620913 0.047100864 0.347 4279513109
0.11733619 0.047100864 0.347 4279841561
0.11846325 0.047100864 0.347 4280170528
0.1195903 0.047100864 0.347 4279907356
0.12071736 0.047100864 0.347 4280170526
0.12184442 0.047100864 0.347 4280104733
0.12297148 0.047100864 0.347 4279644182
0.12409852 0.047100864 0.347 4279644182
0.12522559 0.047100864 0.347 4279907356
0.12671678 0.047236603 0.34800002 4279381012
0.12784709 0.047236603 0.34800002 4279709207
0.12897739 0.047236603 0.34800002 4279511828
0.1301077 0.047236603 0.34800002 4279842328
0.131238 0.047236603 0.34800002 4279776535
0.1323683 0.047236603 0.34800002 4278919689
0.13349861 0.047236603 0.34800002 4279840539
0.13462891 0.047236603 0.34800002 4279842074
0.13575922 0.047236603 0.34800002 4279973660
0.13688952 0.047236603 0.34800002 4279908381
0.13801983 0.047236603 0.34800002 4279908635
0.13915013 0.047236603 0.34800002 4280040221
0.14028043 0.047236603 0.34800002 4279908635
0.14141074 0.047236603 0.34800002 4279711256
0.14254104 0.047236603 0.34800002 4280040221
0.14367135 0.047236603 0.34800002 4280500258
0.076506972 0.048784252 0.35100001 4285432694
0.077647023 0.048784252 0.35100001 4285366901
0.078787073 0.048784252 0.35100001 4285301108
0.079927124 0.048784252 0.35100001 4285366901
0.081067167 0.048784252 0.35100001 4285366901
0.082207218 0.048784252 0.35100001 4285169522
0.083347268 0.048784252 0.35100001 4285366901
0.084487319 0.048784252 0.35100001 4285432181
0.085627362 0.048784252 0.35100001 4285432694
0.086767413 0.048784252 0.35100001 4285432694
0.087907456 0.048784252 0.35100001 4285366901
0.089047506 0.048784252 0.35100001 4285498487
0.090187557 0.048784252 0.35100001 4285564534
0.091327608 0.048784252 0.35100001 4285367155
0.092467658 0.048784252 0.35100001 4285301362
0.093607709 0.048784252 0.35100001 4285432948
0.094747759 0.048784252 0.35100001 4285367155
0.095887795 0.048784252 0.35100001 4285893499
0.096474983 0.048506279 0.34900001 4285959290
0.097608536 0.048506279 0.34900001 4285894265
0.09874209 0.048506279 0.34900001 4284973678
0.099875644 0.048506279 0.34900001 4284184160
0.1010092 0.048506279 0.34900001 4281749560
0.10185007 0.048367295 0.34800002 4280105248
0.10298038 0.048367295 0.34800002 4279513371
0.10411069 0.048367295 0.34800002 4279842338
0.10524099 0.048367295 0.34800002 4279974176
0.10606562 0.048228305 0.347 4280303139
0.10719269 0.048228305 0.347 4280172323
0.10831974 0.048228305 0.347 4280040737
0.10944679 0.048228305 0.347 4279909666
0.11057385 0.048228305 0.347 4279975457
0.11170091 0.048228305 0.347 4279843358
0.11282796 0.048228305 0.347 4279843358
0.11395502 0.048228305 0.347 4279909153
0.11508209 0.048228305 0.347 4279909153
0.11620913 0.048228305 0.347 4279908381
0.11733619 0.048228305 0.347 4280105760
0.11846325 0.048228305 0.347 4280499491
0.1195903 0.048228305 0.347 4280104733
0.12071736 0.048228305 0.347 4280301342
0.12184442 0.048228305 0.347 4278919691
0.12297148 0.048228305 0.347 4278853898
0.12409852 0.048228305 0.347 4278853898
0.12558647 0.048367295 0.34800002 4279248656
0.12671678 0.048367295 0.34800002 4279775000
0.12784709 0.048367295 0.34800002 4280169756
0.12897739 0.048367295 0.34800002 4280236319
0.1301077 0.048367295 0.34800002 4279776281
0.131238 0.048367295 0.34800002 4279644695
0.1323683 0.048367295 0.34800002 4279445783
0.13349861 0.048367295 0.34800002 4279841822
0.13462891 0.048367295 0.34800002 4279711772
0.13575922 0.048367295 0.34800002 4279843612
0.13728288 0.048506279 0.34900001 4279843612
0.13841644 0.048506279 0.34900001 4279909403
0.13954997 0.048506279 0.34900001 4279777817
0.14028043 0.048367295 0.34800002 4279843610
0.14141074 0.048367295 0.34800002 4280106012
0.14254104 0.048367295 0.34800002 4280303391
0.097608536 0.049640216 0.34900001 4285498228
0.09874209 0.049640216 0.34900001 4285498228
0.099875644 0.049640216 0.34900001 4285432435
0.1010092 0.049640216 0.34900001 4285564021
0.10185007 0.049497984 0.34800002 4285629814
0.10298038 0.049497984 0.34800002 4285564021
0.10411069 0.049497984 0.34800002 4285498228
0.10524099 0.049497984 0.34800002 4285827706
0.10606562 0.049355745 0.347 4285893499
0.10719269 0.049355745 0.347 4285696888
0.10831974 0.049355745 0.347 4285170544
0.10944679 0.049355745 0.347 4284249440
0.11057385 0.049355745 0.347 4282999373
0.11170091 0.049355745 0.347 4282079038
0.11282796 0.049355745 0.347 4280960303
0.11395502 0.049355745 0.347 4280894512
0.11508209 0.049355745 0.347 4280170789
0.11620913 0.049355745 0.347 4279775770
0.11733619 0.049355745 0.347 4279907356
0.11846325 0.049355745 0.347 4280171039
0.1195903 0.049355745 0.347 4280236832
0.12071736 0.049355745 0.347 4280500004
0.12184442 0.049355745 0.347 4279973660
0.12297148 0.049355745 0.347 4280302112
0.12445617 0.049497984 0.34800002 4280236319
0.12558647 0.049497984 0.34800002 4280236319
0.12671678 0.049497984 0.34800002 4280104733
0.12784709 0.049497984 0.34800002 4280367905
0.12897739 0.049497984 0.34800002 4280302114
0.1301077 0.049497984 0.34800002 4279907354
0.13161512 0.049640216 0.34900001 4280236319
0.13274866 0.049640216 0.34900001 4280236832
0.13388221 0.049640216 0.34900001 4280236832
0.13501577 0.049640216 0.34900001 4279711772
0.13614932 0.049640216 0.34900001 4279843358
0.13728288 0.049640216 0.34900001 4279712026
0.13841644 0.049640216 0.34900001 4279843612
0.13954997 0.049640216 0.34900001 4280040991
0.14068353 0.049640216 0.34900001 4280303393
0.14181708 0.049640216 0.34900001 4280827686
0.12671678 0.05062867 0.34800002 4281617974
0.12784709 0.05062867 0.34800002 4280827688
0.12934801 0.05077415 0.34900001 4280498723
0.13048157 0.05077415 0.34900001 4280038424
0.13161512 0.05077415 0.34900001 4280301083
0.13274866 0.05077415 0.34900001 4280433180
0.13388221 0.05077415 0.34900001 4280498975
0.13501577 0.05077415 0.34900001 4279841815
0.13614932 0.05077415 0.34900001 4280170780
0.13767624 0.050919637 0.35000002 4280565538
0.13881305 0.050919637 0.35000002 4280236573
0.13954997 0.05077415 0.34900001 4280498208
0.13274866 0.051908091 0.34900001 4285498224
0.13388221 0.051908091 0.34900001 4285958005
0.13540263 0.052056827 0.35000002 4286023798
0.13653944 0.052056827 0.35000002 4285826419
0.13767624 0.052056827 0.35000002 4285958005
0.13881305 0.052056827 0.35000002 4286023798
0.13540263 0.053194009 0.35000002 4285957493
0.13653944 0.053194009 0.35000002 4285957493
0.13767624 0.053194009 0.35000002 4286154359
0.091259941 0.038138267 0.3493259 4294967295
0.091259941 0.038138267 0.3493259 4294901760
0.091259941 0.038138267 0.34982589 4294901760
0.091259941 0.038138267 0.35032588 4294901760
0.091259941 0.038138267 0.35082591 4294901760
0.091259941 0.038138267 0.3513259 4294901760
0.091259941 0.038138267 0.35182589 4294901760
0.091259941 0.038138267 0.35232589 4294901760
0.091259941 0.038138267 0.35282591 4294901760
0.091259941 0.038138267 0.3533259 4294901760
0.091259941 0.038138267 0.3538259 4294901760
0.091259941 0.038138267 0.35432589 4294901760
0.091259941 0.038138267 0.35482588 4294901760
0.091259941 0.038138267 0.35532591 4294901760
0.091259941 0.038138267 0.3558259 4294901760
0.091259941 0.038138267 0.35632589 4294901760
0.091259941 0.038138267 0.35682589 4294901760
0.091259941 0.038138267 0.35732591 4294901760
0.091259941 0.038138267 0.35782591 4294901760
0.091259941 0.038138267 0.3583259 4294901760
0.091259941 0.038138267 0.35882589 4294901760
0.091259941 0.038138267 0.35932589 4294901760
0.091259941 0.038138267 0.35982591 4294901760
0.091259941 0.038138267 0.3603259 4294901760
0.091259941 0.038138267 0.3608259 4294901760
0.091259941 0.038138267 0.36132589 4294901760
