# .PCD v0.7 - Point Cloud Data file format
VERSION 0.7
FIELDS x y z rgb
SIZE 4 4 4 4
TYPE F F F U
COUNT 1 1 1 1
WIDTH 1022
HEIGHT 1
VIEWPOINT 0 0 0 1 0 0 0
POINTS 1022
DATA ascii
-0.016520379 0.010282777 0.46700001 4286407508
-0.01503569 0.010304797 0.46800002 4287791473
-0.013515625 0.010304797 0.46800002 4284493353
-0.012021191 0.010326815 0.46900001 4286133295
-0.010497879 0.010326815 0.46900001 4286460967
-0.008993702 0.010348834 0.47000003 4286592040
-0.0074671404 0.010348834 0.47000003 4292252816
-0.0059532197 0.010370852 0.47100002 4286922036
-0.0044234111 0.010370852 0.47100002 4285414189
-0.032849845 0.011673768 0.46200001 4287210642
-0.031213557 0.011623232 0.46000001 4284897099
-0.029654872 0.011597965 0.45900002 4285545523
-0.028164037 0.011597965 0.45900002 4286723376
-0.026673203 0.011597965 0.45900002 4287248946
-0.025182372 0.011597965 0.45900002 4286985256
-0.023743154 0.011623232 0.46000001 4287248428
-0.022297442 0.0116485 0.46100003 4287579187
-0.020845231 0.011673768 0.46200001 4286527528
-0.019428398 0.011724303 0.46400002 4288519048
-0.01795995 0.011749572 0.46500003 4287142533
-0.016485004 0.01177484 0.46600002 4286946183
-0.015003562 0.011800108 0.46700001 4287011976
-0.013515625 0.011825375 0.46800002 4287538061
-0.012021191 0.011850643 0.46900001 4286611310
-0.010520263 0.011875912 0.47000003 4285936168
-0.008993702 0.011875912 0.47000003 4286066725
-0.0074830279 0.011901179 0.47100002 4286985774
-0.0059532197 0.011901179 0.47100002 4287380786
-0.0044328026 0.011926447 0.47200003 4286594866
-0.031213557 0.013117819 0.46000001 4285546041
-0.029654872 0.013089303 0.45900002 4286067756
-0.028164037 0.013089303 0.45900002 4286459684
-0.026673203 0.013089303 0.45900002 4286656034
-0.025182372 0.013089303 0.45900002 4287051046
-0.023691539 0.013089303 0.45900002 4287116839
-0.022249073 0.013117819 0.46000001 4287511852
-0.020845231 0.013174853 0.46200001 4286723108
-0.019386528 0.013203371 0.46300003 4288515196
-0.01795995 0.013260406 0.46500003 4287274887
-0.016485004 0.013288922 0.46600002 4287012746
-0.015003562 0.013317439 0.46700001 4287144332
-0.013515625 0.013345956 0.46800002 4288326291
-0.012021191 0.013374473 0.46900001 4288846728
-0.010520263 0.01340299 0.47000003 4287451462
-0.009012837 0.013431507 0.47100002 4285804582
-0.0074830279 0.013431507 0.47100002 4286066725
-0.0059658596 0.013460024 0.47200003 4286065955
-0.0044328026 0.013460024 0.47200003 4284492320
-0.031213557 0.014612407 0.46000001 4286005307
-0.029654872 0.014580641 0.45900002 4285542695
-0.028164037 0.014580641 0.45900002 4286132000
-0.026615093 0.014548875 0.45800003 4286328350
-0.02512751 0.014548875 0.45800003 4286590495
-0.023691539 0.014580641 0.45900002 4286984483
-0.022249073 0.014612407 0.46000001 4288896076
-0.020800112 0.014644174 0.46100003 4287249716
-0.019386528 0.014707706 0.46300003 4285740844
-0.01795995 0.014771238 0.46500003 4289499009
-0.016485004 0.014803004 0.46600002 4286274639
-0.01503569 0.014866536 0.46800002 4285546545
-0.013544505 0.014898302 0.46900001 4286331698
-0.012046823 0.014930069 0.47000003 4286790707
-0.010542646 0.014961834 0.47100002 4286658862
-0.009012837 0.014961834 0.47100002 4286593326
-0.0074989158 0.014993601 0.47200003 4285871656
-0.0059658596 0.014993601 0.47200003 4285872428
-0.004442194 0.015025367 0.47300002 4285355074
-0.034796532 0.016387116 0.46800002 4288326805
-0.031281415 0.016142009 0.46100003 4285084970
-0.029654872 0.016071979 0.45900002 4285346599
-0.028102677 0.016036965 0.45800003 4285607453
-0.026615093 0.016036965 0.45800003 4285606426
-0.02512751 0.016036965 0.45800003 4286524959
-0.023639925 0.016036965 0.45800003 4286458909
-0.022200705 0.016071979 0.45900002 4287116842
-0.020800112 0.016142009 0.46100003 4286590243
-0.019344656 0.016177025 0.46200001 4287248428
-0.017921325 0.016247055 0.46400002 4286986798
-0.016485004 0.016317084 0.46600002 4287184690
-0.01503569 0.016387116 0.46800002 4286527276
-0.013544505 0.01642213 0.46900001 4285280289
-0.012046823 0.016457146 0.47000003 4286530871
-0.010542646 0.016492162 0.47100002 4286203451
-0.0090319728 0.016527178 0.47200003 4283899665
-0.0075148032 0.016562192 0.47300002 4284886558
-0.0059784986 0.016562192 0.47300002 4284952351
-0.0044515859 0.016597208 0.47400004 4283905313
-0.034722179 0.01786943 0.46700001 4287601026
-0.032920949 0.017716374 0.46300003 4283185963
-0.031213557 0.017601579 0.46000001 4285019431
-0.029654872 0.017563317 0.45900002 4284754462
-0.028102677 0.017525053 0.45800003 4284621589
-0.026615093 0.017525053 0.45800003 4285016088
-0.02512751 0.017525053 0.45800003 4285605656
-0.023639925 0.017525053 0.45800003 4286262557
-0.022200705 0.017563317 0.45900002 4286853667
-0.020800112 0.017639846 0.46100003 4286985253
-0.019386528 0.017716374 0.46300003 4286787620
-0.01795995 0.017792903 0.46500003 4286458912
-0.016520379 0.01786943 0.46700001 4285410076
-0.01503569 0.017907696 0.46800002 4284490775
-0.013573385 0.017984224 0.47000003 4284164122
-0.012072454 0.018022489 0.47100002 4284033565
-0.01056503 0.018060753 0.47200003 4284759857
-0.0090511087 0.018099017 0.47300002 4284562478
-0.0075148032 0.018099017 0.47300002 4283834903
-0.0059911385 0.018137282 0.47400004 4285149734
-0.0044515859 0.018137282 0.47400004 4285544490
-0.0029181761 0.018175546 0.47500002 4288709747
-0.03464783 0.019345248 0.46600002 4284964939
-0.032920949 0.019220708 0.46300003 4283905059
-0.031213557 0.019096168 0.46000001 4285083427
-0.029654872 0.019054655 0.45900002 4284424984
-0.028102677 0.01901314 0.45800003 4284359704
-0.026615093 0.01901314 0.45800003 4284293911
-0.02512751 0.01901314 0.45800003 4284949271
-0.023691539 0.019054655 0.45900002 4285474845
-0.022249073 0.019096168 0.46000001 4285803805
-0.020800112 0.019137681 0.46100003 4285803035
-0.019386528 0.019220708 0.46300003 4285343256
-0.01795995 0.019303735 0.46500003 4285740842
-0.016520379 0.019386761 0.46700001 4283834903
-0.015067817 0.019469788 0.46900001 4283834903
-0.013573385 0.019511301 0.47000003 4283769112
-0.012098087 0.019594328 0.47200003 4283835675
-0.010587414 0.019635841 0.47300002 4282591514
-0.0090511087 0.019635841 0.47300002 4283185452
-0.0075306911 0.019677356 0.47400004 4283640093
-0.006003778 0.019718869 0.47500002 4283704089
-0.0044609774 0.019718869 0.47500002 4285281318
-0.0029243196 0.019760381 0.47600001 4284622874
-0.0013811664 0.019801896 0.47700003 4288917399
-0.031145703 0.020545991 0.45900002 4285542693
-0.029590266 0.02050123 0.45800003 4285476900
-0.028102677 0.02050123 0.45800003 4283965206
-0.026615093 0.02050123 0.45800003 4283899413
-0.02512751 0.02050123 0.45800003 4284424984
-0.023691539 0.020545991 0.45900002 4284688154
-0.022249073 0.020590754 0.46000001 4285346082
-0.020845231 0.020680279 0.46200001 4285411875
-0.019428398 0.020769805 0.46400002 4287720540
-0.017998572 0.020859329 0.46600002 4284495402
-0.016555754 0.020948855 0.46800002 4284032284
-0.015067817 0.020993616 0.46900001 4284558113
-0.013602264 0.021083141 0.47100002 4284623390
-0.012098087 0.021127906 0.47200003 4283374093
-0.010587414 0.021172667 0.47300002 4288259985
-0.0090702446 0.02121743 0.47400004 4287933078
-0.0075465781 0.021262191 0.47500002 4282065174
-0.006003778 0.021262191 0.47500002 4283441690
-0.0044703684 0.021306954 0.47600001 4284294173
-0.0029243196 0.021306954 0.47600001 4285412906
-0.0013811664 0.021351717 0.47700003 4286338117
-0.031077849 0.021989319 0.45800003 4285606685
-0.029590266 0.021989319 0.45800003 4285279260
-0.028102677 0.021989319 0.45800003 4284036897
-0.026615093 0.021989319 0.45800003 4283642401
-0.025182372 0.022037331 0.45900002 4283310356
-0.023743154 0.022085343 0.46000001 4283966743
-0.022297442 0.022133354 0.46100003 4284228632
-0.020845231 0.022181366 0.46200001 4285875256
-0.019428398 0.022277389 0.46400002 4283575581
-0.017998572 0.022373412 0.46600002 4283838753
-0.016555754 0.022469435 0.46800002 4283640606
-0.015099945 0.02256546 0.47000003 4283640093
-0.013602264 0.02261347 0.47100002 4284231198
-0.012123718 0.022709493 0.47300002 4285614396
-0.010609797 0.022757506 0.47400004 4287209609
-0.0090893796 0.022805518 0.47500002 4287276431
-0.0075465781 0.022805518 0.47500002 4287796611
-0.0060164174 0.022853527 0.47600001 4282984223
-0.0044703684 0.022853527 0.47600001 4283704087
-0.0029304633 0.022901541 0.47700003 4284953636
-0.0013840619 0.022949552 0.47800002 4286134569
0.00016848295 0.022949552 0.47800002 4286265131
0.0017246283 0.022997564 0.47900003 4288254852
-0.03412737 0.023528669 0.45900002 4284496935
-0.032565434 0.023477409 0.45800003 4285281316
-0.031077849 0.023477409 0.45800003 4286330408
-0.029525656 0.023426147 0.45700002 4284425747
-0.028102677 0.023477409 0.45800003 4281868556
-0.026615093 0.023477409 0.45800003 4282067221
-0.025182372 0.023528669 0.45900002 4283446559
-0.023743154 0.023579929 0.46000001 4284033817
-0.022297442 0.023631191 0.46100003 4284886560
-0.020890351 0.023733713 0.46300003 4284298275
-0.019470271 0.023836233 0.46500003 4284564534
-0.018037196 0.023938753 0.46700001 4281080335
-0.01659113 0.024041275 0.46900001 4280424722
-0.015099945 0.024092536 0.47000003 4282926139
-0.013631144 0.024195058 0.47200003 4280688405
-0.012123718 0.024246318 0.47300002 4285756521
-0.010609797 0.02429758 0.47400004 4287079054
-0.0090893796 0.02434884 0.47500002 4287342740
-0.0075624655 0.0244001 0.47600001 4288591010
-0.0060290569 0.024451362 0.47700003 4281411101
-0.0044797603 0.024451362 0.47700003 4283573016
-0.0029366068 0.024502622 0.47800002 4284229913
-0.0013840619 0.024502622 0.47800002 4285935391
0.00016883542 0.024553884 0.47900003 4288038198
0.0017246283 0.024553884 0.47900003 4287184438
-0.03405302 0.024965497 0.45800003 4285150500
-0.032494329 0.024910986 0.45700002 4285411359
-0.031009993 0.024910986 0.45700002 4286266155
-0.029525656 0.024910986 0.45700002 4283375372
-0.028041318 0.024910986 0.45700002 4281672976
-0.026615093 0.024965497 0.45800003 4281804049
-0.025182372 0.025020007 0.45900002 4284231710
-0.023743154 0.025074515 0.46000001 4285608484
-0.022345807 0.025183534 0.46200001 4286069805
-0.020890351 0.025238046 0.46300003 4285415984
-0.019470271 0.025347065 0.46500003 4280095241
-0.018037196 0.025456084 0.46700001 4280097301
-0.01659113 0.025565105 0.46900001 4280296479
-0.015132072 0.025674123 0.47100002 4281482288
-0.013631144 0.025728634 0.47200003 4284246623
-0.01214935 0.025837654 0.47400004 4280166946
-0.010632181 0.025892163 0.47500002 4287933082
-0.0091085145 0.025946673 0.47600001 4287342226
-0.0075624655 0.025946673 0.47600001 4287473814
-0.0060290569 0.026001183 0.47700003 4281678384
-0.0044891518 0.026055692 0.47800002 4283310104
-0.0029366068 0.026055692 0.47800002 4283834903
-0.0013869575 0.026110204 0.47900003 4285935139
0.00016883542 0.026110204 0.47900003 4288960334
0.0017282286 0.026164712 0.48000002 4286856248
0.0032872695 0.026164712 0.48000002 4286395697
-0.035618201 0.026511343 0.45900002 4283449124
-0.033978667 0.026395826 0.45700002 4285148957
-0.032423224 0.026338067 0.45600003 4285935648
-0.030942136 0.026338067 0.45600003 4285017884
-0.02946105 0.026338067 0.45600003 4282524172
-0.028041318 0.026395826 0.45700002 4280817667
-0.02655698 0.026395826 0.45700002 4283250727
-0.025182372 0.026511343 0.45900002 4285149732
-0.023743154 0.026569102 0.46000001 4286265131
-0.022345807 0.026684619 0.46200001 4285414957
-0.02093547 0.026800139 0.46400002 4282395422
-0.019470271 0.026857898 0.46500003 4280294932
-0.018037196 0.026973415 0.46700001 4279769617
-0.01659113 0.027088933 0.46900001 4282273347
-0.015132072 0.02720445 0.47100002 4282339910
-0.013631144 0.027262211 0.47200003 4279507993
-0.01214935 0.027377728 0.47400004 4280956724
-0.010632181 0.027435487 0.47500002 4280629805
-0.0091085145 0.027493244 0.47600001 4287736986
-0.0075783534 0.027551005 0.47700003 4287474328
-0.0060290569 0.027551005 0.47700003 4284313182
-0.0044891518 0.027608763 0.47800002 4283508768
-0.0029366068 0.027608763 0.47800002 4283835675
-0.0013869575 0.027666522 0.47900003 4285212445
0.0001691879 0.027724281 0.48000002 4286526508
0.0017282286 0.027724281 0.48000002 4288829781
0.0032872695 0.027724281 0.48000002 4286724662
-0.036543101 0.027575625 0.45200002 4282465309
-0.035307802 0.027758649 0.45500001 4284037409
-0.033829961 0.027758649 0.45500001 4285739041
-0.032281019 0.027697641 0.45400003 4286790957
-0.03087428 0.027758649 0.45500001 4283901970
-0.029396441 0.027758649 0.45500001 4281868808
-0.027979959 0.027819658 0.45600003 4283449637
-0.02655698 0.027880665 0.45700002 4283906597
-0.02512751 0.027941674 0.45800003 4285147422
-0.023743154 0.028063688 0.46000001 4285935398
-0.022345807 0.028185705 0.46200001 4284959294
-0.02093547 0.028307721 0.46400002 4280358929
-0.019470271 0.02836873 0.46500003 4279507215
-0.018037196 0.028490745 0.46700001 4286615939
-0.01659113 0.028612761 0.46900001 4286091394
-0.015132072 0.028734777 0.47100002 4282933330
-0.013631144 0.028795786 0.47200003 4283654486
-0.01214935 0.028917802 0.47400004 4279772699
-0.010632181 0.02897881 0.47500002 4279116053
-0.0091085145 0.029039817 0.47600001 4287671707
-0.0075783534 0.029100826 0.47700003 4287277719
-0.0060416963 0.029161833 0.47800002 4286156156
-0.0044891518 0.029161833 0.47800002 4283178520
-0.0029427505 0.029222842 0.47900003 4284097564
-0.0013869575 0.029222842 0.47900003 4285476900
0.0001691879 0.02928385 0.48000002 4285936938
0.0017282286 0.02928385 0.48000002 4285802785
0.003294118 0.029344859 0.48100004 4286790450
-0.036462255 0.028979965 0.45100003 4282989088
-0.035152603 0.029108478 0.45300001 4284823847
-0.033681259 0.029108478 0.45300001 4285343256
-0.032209914 0.029108478 0.45300001 4286396199
-0.030806426 0.029172735 0.45400003 4282324998
-0.029331835 0.029172735 0.45400003 4281474570
-0.027918598 0.029236991 0.45500001 4283184416
-0.026498869 0.02930125 0.45600003 4283970593
-0.02512751 0.029429764 0.45800003 4285542178
-0.023743154 0.029558277 0.46000001 4285344799
-0.022297442 0.029622534 0.46100003 4281345308
-0.020890351 0.029751049 0.46300003 4284046162
-0.019470271 0.029879564 0.46500003 4284178516
-0.018037196 0.030008078 0.46700001 4284969315
-0.01659113 0.030136591 0.46900001 4287799697
-0.015132072 0.030265106 0.47100002 4282338878
-0.013660023 0.030393621 0.47300002 4282207040
-0.01214935 0.030457878 0.47400004 4282074941
-0.010632181 0.030522134 0.47500002 4280167971
-0.0091276504 0.030650649 0.47700003 4287934365
-0.0075783534 0.030650649 0.47700003 4287211926
-0.0060416963 0.030714905 0.47800002 4286879879
-0.0044985432 0.030779164 0.47900003 4283968034
-0.0029427505 0.030779164 0.47900003 4284492322
-0.001389853 0.03084342 0.48000002 4285213730
0.0001691879 0.03084342 0.48000002 4285542695
0.0017282286 0.03084342 0.48000002 4285280039
0.003294118 0.030907677 0.48100004 4285084459
-0.037843008 0.030377802 0.45000002 4282203168
-0.036462255 0.030445309 0.45100003 4284233765
-0.035075005 0.030512815 0.45200002 4285347111
-0.033606909 0.030512815 0.45200002 4286330151
-0.03213881 0.030512815 0.45200002 4286066207
-0.03073857 0.030580319 0.45300001 4282260748
-0.029331835 0.030647827 0.45400003 4281475343
-0.027918598 0.030715333 0.45500001 4282459928
-0.026498869 0.030782839 0.45600003 4283772190
-0.025072645 0.030850345 0.45700002 4285607971
-0.023691539 0.030985359 0.45900002 4284424980
-0.022297442 0.031120371 0.46100003 4280556560
-0.020890351 0.031255383 0.46300003 4279374859
-0.019470271 0.031390395 0.46500003 4280888614
-0.018037196 0.031525407 0.46700001 4280888614
-0.01659113 0.031660419 0.46900001 4287535746
-0.015132072 0.031795431 0.47100002 4284111928
-0.013631144 0.031862941 0.47200003 4283060017
-0.01214935 0.031997953 0.47400004 4281810218
-0.010654564 0.032132965 0.47600001 4279377941
-0.0091276504 0.032200471 0.47700003 4288065436
-0.0075942408 0.032267977 0.47800002 4287211924
-0.0060416963 0.032267977 0.47800002 4286287744
-0.0044985432 0.032335483 0.47900003 4283901214
-0.0029427505 0.032335483 0.47900003 4284754208
-0.001389853 0.032402989 0.48000002 4285213217
0.0001691879 0.032402989 0.48000002 4285938223
0.0017318293 0.032470495 0.48100004 4284035884
0.003294118 0.032470495 0.48100004 4288518026
-0.037843008 0.031839896 0.45000002 4282202398
-0.036381405 0.031839896 0.45000002 4285085992
-0.034997404 0.031910654 0.45100003 4285805350
-0.033532556 0.031910654 0.45100003 4289289805
-0.03213881 0.031981409 0.45200002 4287117866
-0.030670714 0.031981409 0.45200002 4286399024
-0.029267225 0.032052163 0.45300001 4282456069
-0.027857238 0.032122921 0.45400003 4283904294
-0.026498869 0.03226443 0.45600003 4284360736
-0.025072645 0.032335185 0.45700002 4286001443
-0.023691539 0.032476697 0.45900002 4284096015
-0.022297442 0.032618206 0.46100003 4281608994
-0.020890351 0.032759719 0.46300003 4279177996
-0.019470271 0.032901227 0.46500003 4280954407
-0.018037196 0.033042736 0.46700001 4280230938
-0.01659113 0.033184249 0.46900001 4281546528
-0.015132072 0.033325758 0.47100002 4283452456
-0.013631144 0.033396516 0.47200003 4283716657
-0.01214935 0.033538029 0.47400004 4281743902
-0.010654564 0.033679534 0.47600001 4280431397
-0.0091276504 0.033750292 0.47700003 4287802779
-0.0075942408 0.033821046 0.47800002 4287211924
-0.0060543362 0.033891805 0.47900003 4284839012
-0.0044985432 0.033891805 0.47900003 4284623908
-0.0029427505 0.033891805 0.47900003 4284951074
-0.001389853 0.033962559 0.48000002 4285937199
0.0001691879 0.033962559 0.48000002 4287851106
0.0017318293 0.034033313 0.48100004 4287932565
-0.037758913 0.033227991 0.44900003 4283450409
-0.036381405 0.033301994 0.45000002 4285938732
-0.034919806 0.033301994 0.45000002 4286461737
-0.033532556 0.033376001 0.45100003 4286458909
-0.032067709 0.033376001 0.45100003 4286851614
-0.030670714 0.033450004 0.45200002 4287246372
-0.029267225 0.033524007 0.45300001 4287378728
-0.027857238 0.033598013 0.45400003 4287050794
-0.026440756 0.033672016 0.45500001 4287315763
-0.025072645 0.033820026 0.45700002 4286328868
-0.023691539 0.033968035 0.45900002 4285409822
-0.022297442 0.034116041 0.46100003 4283516729
-0.020890351 0.03426405 0.46300003 4279703565
-0.019470271 0.03441206 0.46500003 4280559903
-0.018037196 0.034560069 0.46700001 4280691487
-0.01659113 0.034708075 0.46900001 4281019157
-0.015132072 0.034856085 0.47100002 4280887308
-0.013660023 0.035004094 0.47300002 4281875486
-0.01214935 0.035078101 0.47400004 4282796588
-0.010654564 0.035226107 0.47600001 4280496674
-0.0091276504 0.035300113 0.47700003 4287605400
-0.0075942408 0.035374116 0.47800002 4287540119
-0.0060543362 0.035448123 0.47900003 4282599482
-0.0044985432 0.035448123 0.47900003 4285280552
-0.0029427505 0.035448123 0.47900003 4285280293
-0.001389853 0.035522126 0.48000002 4284492068
0.0001691879 0.035522126 0.48000002 4289831576
-0.039217263 0.034686837 0.44900003 4282532133
-0.037758913 0.034686837 0.44900003 4284236845
-0.036381405 0.034764089 0.45000002 4285673764
-0.034919806 0.034764089 0.45000002 4286065696
-0.033458207 0.034764089 0.45000002 4286786850
-0.032067709 0.034841344 0.45100003 4287180579
-0.030670714 0.034918595 0.45200002 4287510060
-0.029267225 0.03499585 0.45300001 4291459434
-0.027857238 0.035073105 0.45400003 4287708206
-0.026440756 0.035150357 0.45500001 4287773999
-0.025072645 0.035304863 0.45700002 4286657061
-0.023691539 0.035459369 0.45900002 4285015066
-0.022297442 0.03561388 0.46100003 4281543201
-0.020890351 0.035768386 0.46300003 4279045894
-0.019470271 0.035922892 0.46500003 4280690717
-0.018037196 0.036077399 0.46700001 4284441686
-0.01659113 0.036231905 0.46900001 4281678116
-0.015132072 0.036386412 0.47100002 4285428308
-0.013660023 0.036540922 0.47300002 4281349399
-0.012174981 0.036695428 0.47500002 4282271019
-0.010654564 0.03677268 0.47600001 4287143564
-0.0091276504 0.036849935 0.47700003 4287408535
-0.0075942408 0.036927186 0.47800002 4288591010
-0.0060543362 0.037004441 0.47900003 4282989615
-0.0044985432 0.037004441 0.47900003 4285542180
-0.0029427505 0.037004441 0.47900003 4285804582
-0.001389853 0.037081696 0.48000002 4284231206
-0.039217263 0.036145683 0.44900003 4282005537
-0.037758913 0.036145683 0.44900003 4283972138
-0.036381405 0.036226183 0.45000002 4285476387
-0.034919806 0.036226183 0.45000002 4285935141
-0.033458207 0.036226183 0.45000002 4286197282
-0.032067709 0.03630669 0.45100003 4286393119
-0.030670714 0.03638719 0.45200002 4286983718
-0.029267225 0.03646769 0.45300001 4287707700
-0.027857238 0.036548197 0.45400003 4289026642
-0.026440756 0.036628697 0.45500001 4287773999
-0.025072645 0.036789704 0.45700002 4286787879
-0.023691539 0.036950707 0.45900002 4285409826
-0.022297442 0.037111714 0.46100003 4280423956
-0.020890351 0.037272722 0.46300003 4280098330
-0.019470271 0.037433725 0.46500003 4280295961
-0.018037196 0.037594728 0.46700001 4279966994
-0.01659113 0.037755735 0.46900001 4284245329
-0.015132072 0.037916739 0.47100002 4282403379
-0.013660023 0.038077746 0.47300002 4282403379
-0.012174981 0.038238753 0.47500002 4281087519
-0.010654564 0.038319252 0.47600001 4288459422
-0.0091276504 0.038399756 0.47700003 4287342740
-0.0075942408 0.038480259 0.47800002 4289377185
-0.0060543362 0.038560763 0.47900003 4284100390
-0.0044985432 0.038560763 0.47900003 4286065959
-0.0029427505 0.038560763 0.47900003 4286460204
-0.0013869575 0.038560763 0.47900003 4285550918
-0.039304607 0.037688281 0.45000002 4282530600
-0.037843008 0.037688281 0.45000002 4283577641
-0.036381405 0.037688281 0.45000002 4285346599
-0.034919806 0.037688281 0.45000002 4285542693
-0.033458207 0.037688281 0.45000002 4285804064
-0.032067709 0.037772033 0.45100003 4285935391
-0.030670714 0.037855785 0.45200002 4286524959
-0.029267225 0.037939534 0.45300001 4286852130
-0.027857238 0.038023289 0.45400003 4287313196
-0.026498869 0.038190793 0.45600003 4287971378
-0.025072645 0.038274541 0.45700002 4285802783
-0.023691539 0.038442045 0.45900002 4284560171
-0.022345807 0.038693301 0.46200001 4281612339
-0.02093547 0.038860805 0.46400002 4280230686
-0.019512143 0.039028309 0.46600002 4279967512
-0.01807582 0.039195813 0.46800002 4279770133
-0.016626507 0.039363317 0.47000003 4280494108
-0.0151642 0.039530821 0.47200003 4283653453
-0.013688903 0.039698325 0.47400004 4281348388
-0.012174981 0.039782073 0.47500002 4284368440
-0.010676947 0.039949577 0.47700003 4287858551
-0.0091467863 0.040033329 0.47800002 4287603854
-0.0075942408 0.040033329 0.47800002 4287197539
-0.0060543362 0.040117081 0.47900003 4286002733
-0.0044985432 0.040117081 0.47900003 4286525995
-0.0029427505 0.040117081 0.47900003 4286723374
-0.0013869575 0.040117081 0.47900003 4289372560
-0.039304607 0.039150376 0.45000002 4286019950
-0.037843008 0.039150376 0.45000002 4283250991
-0.036381405 0.039150376 0.45000002 4284363046
-0.034919806 0.039150376 0.45000002 4284360734
-0.033532556 0.03923738 0.45100003 4284951326
-0.032067709 0.03923738 0.45100003 4285475615
-0.030670714 0.039324377 0.45200002 4285803805
-0.029267225 0.039411377 0.45300001 4286328866
-0.027857238 0.039498381 0.45400003 4286590241
-0.026498869 0.039672382 0.45600003 4287445550
-0.02512751 0.039846383 0.45800003 4284886048
-0.023691539 0.039933383 0.45900002 4289240974
-0.022345807 0.040194385 0.46200001 4287800981
-0.02093547 0.040368386 0.46400002 4279838241
-0.019512143 0.04054239 0.46600002 4279968544
-0.01807582 0.040716391 0.46800002 4280758060
-0.016626507 0.040890392 0.47000003 4279443734
-0.0151642 0.041064397 0.47200003 4282008119
-0.013688903 0.041238397 0.47400004 4282127633
-0.012200613 0.041412398 0.47600001 4286399033
-0.010676947 0.041499399 0.47700003 4286134317
-0.0091467863 0.041586399 0.47800002 4290352008
-0.0075942408 0.041586399 0.47800002 4286068526
-0.0060543362 0.0416734 0.47900003 4286854442
-0.0044985432 0.0416734 0.47900003 4286853670
-0.0029427505 0.0416734 0.47900003 4286527276
-0.03939195 0.040702727 0.45100003 4288851874
-0.037927102 0.040702727 0.45100003 4283713856
-0.036462255 0.040702727 0.45100003 4284035882
-0.034997404 0.040702727 0.45100003 4284165413
-0.033532556 0.040702727 0.45100003 4284097564
-0.03213881 0.040792976 0.45200002 4284425757
-0.03073857 0.040883224 0.45300001 4285213730
-0.029267225 0.040883224 0.45300001 4285476387
-0.027918598 0.041063726 0.45500001 4286067754
-0.026498869 0.041153975 0.45600003 4286265133
-0.02512751 0.041334476 0.45800003 4284427042
-0.023691539 0.041424725 0.45900002 4289306513
-0.022297442 0.041605227 0.46100003 4287539605
-0.02093547 0.041875973 0.46400002 4286947470
-0.019512143 0.042056475 0.46600002 4280233515
-0.01807582 0.042236976 0.46800002 4280364587
-0.016661881 0.042507723 0.47100002 4280492829
-0.015196327 0.042688224 0.47300002 4282197539
-0.013717782 0.042868722 0.47500002 4287056702
-0.012200613 0.042958971 0.47600001 4286527533
-0.010676947 0.043049224 0.47700003 4286856241
-0.0091467863 0.043139473 0.47800002 4286922291
-0.0075942408 0.043139473 0.47800002 4287050794
-0.0060543362 0.043229725 0.47900003 4287116585
-0.0044985432 0.043229725 0.47900003 4287117096
-0.0029427505 0.043229725 0.47900003 4287518282
-0.03939195 0.04216807 0.45100003 4288460707
-0.037927102 0.04216807 0.45100003 4282732353
-0.036462255 0.04216807 0.45100003 4283839278
-0.035075005 0.042261571 0.45200002 4284364847
-0.033606909 0.042261571 0.45200002 4284034597
-0.032209914 0.042355068 0.45300001 4284428325
-0.03073857 0.042355068 0.45300001 4284887591
-0.029331835 0.042448569 0.45400003 4285085224
-0.027918598 0.042542066 0.45500001 4285216297
-0.026498869 0.042635567 0.45600003 4285479469
-0.02512751 0.042822566 0.45800003 4285348914
-0.023691539 0.042916063 0.45900002 4290225303
-0.022297442 0.043103062 0.46100003 4287539607
-0.020890351 0.04329006 0.46300003 4287474328
-0.019512143 0.043570556 0.46600002 4287540121
-0.01807582 0.043757554 0.46800002 4288526502
-0.016661881 0.04403805 0.47100002 4284111698
-0.015196327 0.044225048 0.47300002 4283972149
-0.013717782 0.044412047 0.47500002 4286199340
-0.012200613 0.044505544 0.47600001 4286987311
-0.010676947 0.044599045 0.47700003 4291331192
-0.0091467863 0.044692542 0.47800002 4286526506
-0.0075942408 0.044692542 0.47800002 4287379757
-0.0060543362 0.044786043 0.47900003 4287181608
-0.0044985432 0.044786043 0.47900003 4286923061
-0.0029427505 0.044786043 0.47900003 4291076760
-0.041128576 0.043923661 0.45400003 4287672225
-0.039479293 0.043730162 0.45200002 4287540637
-0.038011197 0.043730162 0.45200002 4288263590
-0.036543101 0.043730162 0.45200002 4284305995
-0.035075005 0.043730162 0.45200002 4284629818
-0.033681259 0.043826912 0.45300001 4284694323
-0.032209914 0.043826912 0.45300001 4284299052
-0.030806426 0.043923661 0.45400003 4283706145
-0.029396441 0.044020407 0.45500001 4283774255
-0.027979959 0.044117156 0.45600003 4286871920
-0.02655698 0.044213902 0.45700002 4283316018
-0.02512751 0.044310652 0.45800003 4284823343
-0.023691539 0.044407401 0.45900002 4287128151
-0.022297442 0.044600897 0.46100003 4287539092
-0.020890351 0.044794392 0.46300003 4287408535
-0.019512143 0.045084637 0.46600002 4287540121
-0.01807582 0.045278132 0.46800002 4287540121
-0.016661881 0.045568377 0.47100002 4288196770
-0.015196327 0.045761872 0.47300002 4283125058
-0.013717782 0.045955371 0.47500002 4285546552
-0.012200613 0.046052117 0.47600001 4292258206
-0.010676947 0.046148866 0.47700003 4288237894
-0.0091467863 0.046245612 0.47800002 4287115563
-0.0075942408 0.046245612 0.47800002 4286392871
-0.0060543362 0.046342365 0.47900003 4289884779
-0.0044985432 0.046342365 0.47900003 4286724662
-0.0029427505 0.046342365 0.47900003 4288505441
-0.041128576 0.045398753 0.45400003 4287738016
-0.039566636 0.045298751 0.45300001 4287738018
-0.038095292 0.045298751 0.45300001 4287738016
-0.036623947 0.045298751 0.45300001 4288918692
-0.035152603 0.045298751 0.45300001 4284703061
-0.033755612 0.045398753 0.45400003 4284169778
-0.032281019 0.045398753 0.45400003 4283839528
-0.03087428 0.045498747 0.45500001 4286935912
-0.02946105 0.045598745 0.45600003 4287997074
-0.027979959 0.045598745 0.45600003 4287801496
-0.02655698 0.045698743 0.45700002 4285234286
-0.02512751 0.045798741 0.45800003 4283970604
-0.023743154 0.045998733 0.46000001 4285086769
-0.022297442 0.046098731 0.46100003 4288325780
-0.020890351 0.046298727 0.46300003 4287934363
-0.019470271 0.046498723 0.46500003 4287540121
-0.01807582 0.046798714 0.46800002 4287474328
-0.016661881 0.047098704 0.47100002 4287474328
-0.015196327 0.0472987 0.47300002 4288065436
-0.013717782 0.047498692 0.47500002 4284892990
-0.012200613 0.04759869 0.47600001 4286529338
-0.010676947 0.047698688 0.47700003 4287904050
-0.0091467863 0.047798686 0.47800002 4287772462
-0.0075942408 0.047798686 0.47800002 4293701027
-0.0060543362 0.047898684 0.47900003 4287914069
-0.0044985432 0.047898684 0.47900003 4286855212
-0.0029427505 0.047898684 0.47900003 4287118130
-0.039566636 0.046770595 0.45300001 4287672736
-0.03817939 0.046873845 0.45400003 4287606943
-0.036704794 0.046873845 0.45400003 4287803293
-0.035230204 0.046873845 0.45400003 4288261534
-0.033829961 0.046977088 0.45500001 4283775540
-0.03235212 0.046977088 0.45500001 4284234288
-0.030942136 0.047080338 0.45600003 4282985252
-0.029525656 0.047183581 0.45700002 4288587415
-0.028041318 0.047183581 0.45700002 4287539867
-0.026615093 0.047286831 0.45800003 4288394662
-0.025182372 0.047390074 0.45900002 4283909952
-0.023743154 0.04749332 0.46000001 4285022525
-0.022297442 0.047596566 0.46100003 4286272844
-0.020890351 0.047803063 0.46300003 4289110931
-0.019470271 0.048009556 0.46500003 4287866772
-0.01807582 0.048319291 0.46800002 4287932565
-0.016661881 0.048629031 0.47100002 4288851354
-0.015196327 0.048835523 0.47300002 4288122491
-0.013717782 0.049042016 0.47500002 4286395690
-0.012200613 0.049145263 0.47600001 4287576368
-0.010676947 0.049248509 0.47700003 4287903278
-0.0091467863 0.049351756 0.47800002 4287904048
-0.0075942408 0.049351756 0.47800002 4287445552
-0.0060543362 0.049455002 0.47900003 4286985004
-0.0044985432 0.049455002 0.47900003 4287577645
-0.0029427505 0.049455002 0.47900003 4287513140
-0.039653983 0.048348937 0.45400003 4287540637
-0.03817939 0.048348937 0.45400003 4287672223
-0.03678564 0.048455428 0.45500001 4287738016
-0.035307802 0.048455428 0.45500001 4287540637
-0.033904314 0.048561927 0.45600003 4285426788
-0.032423224 0.048561927 0.45600003 4284301882
-0.031009993 0.048668422 0.45700002 4285087287
-0.029525656 0.048668422 0.45700002 4288842112
-0.028102677 0.04877492 0.45800003 4287540119
-0.026673203 0.048881412 0.45900002 4287408535
-0.025182372 0.048881412 0.45900002 4288458141
-0.023743154 0.048987906 0.46000001 4282661682
-0.022345807 0.0492009 0.46200001 4285349173
-0.020890351 0.049307395 0.46300003 4287254856
-0.019470271 0.049520388 0.46500003 4287916638
-0.01807582 0.049839873 0.46800002 4285611314
-0.016661881 0.050159357 0.47100002 4286987059
-0.015196327 0.050372347 0.47300002 4287511600
-0.013717782 0.050585341 0.47500002 4287904302
-0.012200613 0.050691836 0.47600001 4287772716
-0.010676947 0.05079833 0.47700003 4287509542
-0.0091467863 0.050904825 0.47800002 4288102449
-0.0075942408 0.050904825 0.47800002 4286853670
-0.0060416963 0.050904825 0.47800002 4286787877
-0.0044985432 0.051011324 0.47900003 4286985001
-0.0029427505 0.051011324 0.47900003 4286657579
-0.039653983 0.049824029 0.45400003 4287738016
-0.038263485 0.049933773 0.45500001 4287672223
-0.03686649 0.050043516 0.45600003 4287672223
-0.035385404 0.050043516 0.45600003 4287738016
-0.033978667 0.050153259 0.45700002 4288788909
-0.032494329 0.050153259 0.45700002 4282531383
-0.031077849 0.050263006 0.45800003 4285022007
-0.029590266 0.050263006 0.45800003 4284625966
-0.028164037 0.05037275 0.45900002 4288654743
-0.026673203 0.05037275 0.45900002 4287210638
-0.025237234 0.050482493 0.46000001 4287408535
-0.02379477 0.05059224 0.46100003 4288262047
-0.022345807 0.050701983 0.46200001 4284099108
-0.02093547 0.050921474 0.46400002 4286463543
-0.019512143 0.05114096 0.46600002 4287118132
-0.01807582 0.051360451 0.46800002 4287511348
-0.016626507 0.051579941 0.47000003 4287971894
-0.015196327 0.051909175 0.47300002 4287708206
-0.013688903 0.052018922 0.47400004 4287904302
-0.012200613 0.052238405 0.47600001 4287773486
-0.010676947 0.052348152 0.47700003 4287249198
-0.0091276504 0.052348152 0.47700003 4285606174
-0.0075942408 0.052457895 0.47800002 4286133547
-0.0060416963 0.052457895 0.47800002 4286067756
-0.0044985432 0.052567642 0.47900003 4286266418
-0.0029427505 0.052567642 0.47900003 4284823343
-0.03834758 0.051525109 0.45600003 4287934627
-0.036947336 0.0516381 0.45700002 4287803811
-0.035463002 0.0516381 0.45700002 4287803811
-0.03405302 0.051751096 0.45800003 4287671455
-0.032565434 0.051751096 0.45800003 4285695353
-0.031145703 0.051864088 0.45900002 4284628794
-0.029654872 0.051864088 0.45900002 4285416252
-0.028225396 0.051977079 0.46000001 4283970091
-0.026731314 0.051977079 0.46000001 4289568917
-0.0252921 0.052090075 0.46100003 4289310622
-0.02379477 0.052090075 0.46100003 4287727995
-0.022345807 0.052203067 0.46200001 4285608488
-0.02093547 0.052429054 0.46400002 4289488992
-0.019512143 0.052655045 0.46600002 4287579196
-0.01807582 0.052881032 0.46800002 4287774517
-0.016626507 0.05310702 0.47000003 4287050792
-0.0151642 0.053333007 0.47200003 4287051049
-0.013688903 0.053558994 0.47400004 4286724137
-0.012174981 0.053671986 0.47500002 4286133797
-0.010654564 0.053784978 0.47600001 4284625189
-0.0091276504 0.053897973 0.47700003 4284823343
-0.0075942408 0.054010965 0.47800002 4285020210
-0.0060416963 0.054010965 0.47800002 4285414968
-0.0044985432 0.05412396 0.47900003 4284435013
-0.0029427505 0.05412396 0.47900003 4288324506
-0.03834758 0.053006697 0.45600003 4287803809
-0.037028186 0.053239185 0.45800003 4287935395
-0.035540603 0.053239185 0.45800003 4287803809
-0.03412737 0.053355426 0.45900002 4287869604
-0.032636534 0.053355426 0.45900002 4288723629
-0.031213557 0.053471666 0.46000001 4284171327
-0.029719478 0.053471666 0.46000001 4284694327
-0.028225396 0.053471666 0.46000001 4285347890
-0.026789427 0.05358791 0.46100003 4284952619
-0.0252921 0.05358791 0.46100003 4284755753
-0.023846386 0.053704154 0.46200001 4285281066
-0.022394177 0.053820398 0.46300003 4286527530
-0.02093547 0.053936638 0.46400002 4288038464
-0.019512143 0.054169126 0.46600002 4291792517
-0.01807582 0.05440161 0.46800002 4287118130
-0.016626507 0.054634098 0.47000003 4285935396
-0.0151642 0.054866582 0.47200003 4284690212
-0.013688903 0.05509907 0.47400004 4284757550
-0.012174981 0.05521531 0.47500002 4284233263
-0.010654564 0.055331551 0.47600001 4284700753
-0.0091276504 0.055447794 0.47700003 4285030234
-0.0075783534 0.055447794 0.47700003 4285953132
-0.0060416963 0.055564038 0.47800002 4288060305
-0.037109032 0.054846764 0.45900002 4287869602
-0.035618201 0.054846764 0.45900002 4287803809
-0.034201719 0.054966252 0.46000001 4287869602
-0.032707639 0.054966252 0.46000001 4287738016
-0.031213557 0.054966252 0.46000001 4285426786
-0.029784087 0.055085748 0.46100003 4284301112
-0.028286757 0.055085748 0.46100003 4285218103
-0.026789427 0.055085748 0.46100003 4284756007
-0.025346963 0.055205237 0.46200001 4285017380
-0.023846386 0.055205237 0.46200001 4285346086
-0.022394177 0.05532473 0.46300003 4286264104
-0.02093547 0.055444222 0.46400002 4286592299
-0.019512143 0.055683207 0.46600002 4286854188
-0.018037196 0.055802695 0.46700001 4287249716
-0.016626507 0.056161173 0.47000003 4285215791
-0.0151642 0.056400158 0.47200003 4286868840
-0.013660023 0.05651965 0.47300002 4288720288
-0.01214935 0.056639142 0.47400004 4288261282
-0.010632181 0.056758635 0.47500002 4288459172
-0.0091085145 0.056878123 0.47600001 4287670426
-0.0075783534 0.056997616 0.47700003 4287670939
-0.0060416963 0.057117108 0.47800002 4287670939
-0.037189879 0.056460839 0.46000001 4288000418
-0.035695799 0.056460839 0.46000001 4287934625
-0.034201719 0.056460839 0.46000001 4288000418
-0.032778744 0.056583583 0.46100003 4287605660
-0.031281415 0.056583583 0.46100003 4289115305
-0.029784087 0.056583583 0.46100003 4283909956
-0.028286757 0.056583583 0.46100003 4284430642
-0.026847538 0.05670632 0.46200001 4284231978
-0.025346963 0.05670632 0.46200001 4284558628
-0.023898002 0.056829065 0.46300003 4284886308
-0.022394177 0.056829065 0.46300003 4285674281
-0.02093547 0.056951806 0.46400002 4286068526
-0.019470271 0.057074547 0.46500003 4286265135
-0.018037196 0.057320025 0.46700001 4286463284
-0.01659113 0.05756551 0.46900001 4289109909
-0.015132072 0.057810992 0.47100002 4287801496
-0.013660023 0.058056474 0.47300002 4287802527
-0.01214935 0.058179218 0.47400004 4287670939
-0.010632181 0.058301955 0.47500002 4287802525
-0.0091085145 0.058424696 0.47600001 4287671453
-0.0075783534 0.058547437 0.47700003 4287605660
-0.037189879 0.057955429 0.46000001 4287934625
-0.035695799 0.057955429 0.46000001 4288066211
-0.034276072 0.058081422 0.46100003 4287934625
-0.032778744 0.058081422 0.46100003 4287868832
-0.031281415 0.058081422 0.46100003 4288526502
-0.029784087 0.058081422 0.46100003 4283060037
-0.028348114 0.058207411 0.46200001 4284234808
-0.026847538 0.058207411 0.46200001 4284300081
-0.025346963 0.058207411 0.46200001 4284890419
-0.023898002 0.058333404 0.46300003 4284758320
-0.022394177 0.058333404 0.46300003 4285086515
-0.02093547 0.05845939 0.46400002 4285743418
-0.019470271 0.058585383 0.46500003 4285414453
-0.017998572 0.058711372 0.46600002 4286141519
-0.01659113 0.05908934 0.46900001 4288327588
-0.015132072 0.059341323 0.47100002 4287670941
-0.013631144 0.059467316 0.47200003 4287802527
-0.01214935 0.059719294 0.47400004 4287934113
-0.010609797 0.059719294 0.47400004 4287605660
-0.037189879 0.059450012 0.46000001 4288066211
-0.0357734 0.059579253 0.46100003 4287738016
-0.034276072 0.059579253 0.46100003 4288000418
-0.032778744 0.059579253 0.46100003 4287868832
-0.031281415 0.059579253 0.46100003 4287671453
-0.029848693 0.059708491 0.46200001 4288394914
-0.028348114 0.059708491 0.46200001 4284438606
-0.026847538 0.059708491 0.46200001 4283974462
-0.025401827 0.059837732 0.46300003 4284499774
-0.023898002 0.059837732 0.46300003 4284301882
-0.022394177 0.059837732 0.46300003 4284103733
-0.02093547 0.05996697 0.46400002 4284433983
-0.019470271 0.060096212 0.46500003 4286480501
-0.01795995 0.060096212 0.46500003 4288195741
-0.0357734 0.061077096 0.46100003 4288066211
-0.034276072 0.061077096 0.46100003 4287868832
-0.032778744 0.061077096 0.46100003 4287934625
-0.031349268 0.061209582 0.46200001 4287868832
-0.029848693 0.061209582 0.46200001 4288000418
-0.028348114 0.061209582 0.46200001 4287803293
-0.026847538 0.061209582 0.46200001 4288723368
-0.025401827 0.061342072 0.46300003 4288722598
-0.023898002 0.061342072 0.46300003 4288459426
-0.022394177 0.061342072 0.46300003 4288656290
-0.02093547 0.061474558 0.46400002 4288459422
-0.019428398 0.061474558 0.46400002 4287934879
-0.01795995 0.061607048 0.46500003 4287605660
-0.028348114 0.062710665 0.46200001 4287803041
-0.02690565 0.0628464 0.46300003 4287803041
-0.025401827 0.0628464 0.46300003 4287934627
-0.023898002 0.0628464 0.46300003 4287671455
-0.022394177 0.0628464 0.46300003 4287671707
-0.017566532 0.03657328 0.46581119 4294967295
-0.017566532 0.03657328 0.46581119 4294901760
-0.017566532 0.03657328 0.46631119 4294901760
-0.017566532 0.03657328 0.46681118 4294901760
-0.017566532 0.03657328 0.4673112 4294901760
-0.017566532 0.03657328 0.4678112 4294901760
-0.017566532 0.03657328 0.46831119 4294901760
-0.017566532 0.03657328 0.46881118 4294901760
-0.017566532 0.03657328 0.46931121 4294901760
-0.017566532 0.03657328 0.4698112 4294901760
-0.017566532 0.03657328 0.47031119 4294901760
-0.017566532 0.03657328 0.47081119 4294901760
-0.017566532 0.03657328 0.47131118 4294901760
-0.017566532 0.03657328 0.47181121 4294901760
-0.017566532 0.03657328 0.4723112 4294901760
-0.017566532 0.03657328 0.47281119 4294901760
-0.017566532 0.03657328 0.47331119 4294901760
-0.017566532 0.03657328 0.47381121 4294901760
-0.017566532 0.03657328 0.4743112 4294901760
-0.017566532 0.03657328 0.4748112 4294901760
-0.017566532 0.03657328 0.47531119 4294901760
-0.017566532 0.03657328 0.47581118 4294901760
-0.017566532 0.03657328 0.47631121 4294901760
-0.017566532 0.03657328 0.4768112 4294901760
-0.017566532 0.03657328 0.47731119 4294901760
-0.017566532 0.03657328 0.47781119 4294901760
-0.017566532 0.03657328 0.47831118 4294901760
-0.017566532 0.03657328 0.4788112 4294901760
-0.017566532 0.03657328 0.4793112 4294901760
-0.017566532 0.03657328 0.47981119 4294901760
-0.017566532 0.03657328 0.48031119 4294901760
-0.017566532 0.03657328 0.48081121 4294901760
-0.017566532 0.03657328 0.4813112 4294901760
-0.017566532 0.03657328 0.4818112 4294901760
-0.017566532 0.03657328 0.48231119 4294901760
-0.017566532 0.03657328 0.48281121 4294901760
-0.017566532 0.03657328 0.48331121 4294901760
-0.017566532 0.03657328 0.4838112 4294901760
-0.017566532 0.03657328 0.48431119 4294901760
-0.017566532 0.03657328 0.48481119 4294901760
-0.017566532 0.03657328 0.48531121 4294901760
-0.017566532 0.03657328 0.4858112 4294901760
-0.017566532 0.03657328 0.4863112 4294901760
-0.017566532 0.03657328 0.48681119 4294901760
-0.017566532 0.03657328 0.48731118 4294901760
-0.017566532 0.03657328 0.48781121 4294901760
-0.017566532 0.03657328 0.4883112 4294901760
-0.017566532 0.03657328 0.48881119 4294901760
-0.017566532 0.03657328 0.48931119 4294901760
-0.017566532 0.03657328 0.48981121 4294901760
-0.017566532 0.03657328 0.49031121 4294901760
-0.017566532 0.03657328 0.4908112 4294901760
-0.017566532 0.03657328 0.49131119 4294901760
-0.017566532 0.03657328 0.49181119 4294901760
-0.017566532 0.03657328 0.49231121 4294901760
-0.017566532 0.03657328 0.4928112 4294901760
-0.017566532 0.03657328 0.4933112 4294901760
-0.017566532 0.03657328 0.49381119 4294901760
-0.017566532 0.03657328 0.49431121 4294901760
-0.017566532 0.03657328 0.49481121 4294901760
-0.017566532 0.03657328 0.4953112 4294901760
-0.017566532 0.03657328 0.49581119 4294901760
-0.017566532 0.03657328 0.49631119 4294901760
-0.017566532 0.03657328 0.49681121 4294901760
-0.017566532 0.03657328 0.4973112 4294901760
-0.017566532 0.03657328 0.4978112 4294901760
-0.017566532 0.03657328 0.49831119 4294901760
-0.017566532 0.03657328 0.49881122 4294901760
-0.017566532 0.03657328 0.49931121 4294901760
-0.017566532 0.03657328 0.4998112 4294901760
-0.017566532 0.03657328 0.5003112 4294901760
-0.017566532 0.03657328 0.50081122 4294901760
-0.017566532 0.03657328 0.50131118 4294901760
-0.017566532 0.03657328 0.50181121 4294901760
-0.017566532 0.03657328 0.50231123 4294901760
-0.017566532 0.03657328 0.50281119 4294901760
-0.017566532 0.03657328 0.50331122 4294901760
-0.017566532 0.03657328 0.50381118 4294901760
-0.017566532 0.03657328 0.5043112 4294901760
-0.017566532 0.03657328 0.50481123 4294901760
-0.017566532 0.03657328 0.50531119 4294901760
-0.017566532 0.03657328 0.50581121 4294901760
-0.017566532 0.03657328 0.50631118 4294901760
-0.017566532 0.03657328 0.5068112 4294901760
-0.017566532 0.03657328 0.50731122 4294901760
-0.017566532 0.03657328 0.50781119 4294901760
-0.017566532 0.03657328 0.50831121 4294901760
-0.017566532 0.03657328 0.50881124 4294901760
-0.017566532 0.03657328 0.5093112 4294901760
-0.017566532 0.03657328 0.50981122 4294901760
-0.017566532 0.03657328 0.51031119 4294901760
-0.017566532 0.03657328 0.51081121 4294901760
-0.017566532 0.03657328 0.51131123 4294901760
-0.017566532 0.03657328 0.5118112 4294901760
-0.017566532 0.03657328 0.51231122 4294901760
-0.017566532 0.03657328 0.51281118 4294901760
-0.017566532 0.03657328 0.51331121 4294901760
-0.017566532 0.03657328 0.51381123 4294901760
-0.017566532 0.03657328 0.51431119 4294901760
-0.017566532 0.03657328 0.51481122 4294901760
-0.017566532 0.03657328 0.51531118 4294901760
-0.017566532 0.03657328 0.5158112 4294901760
-0.017566532 0.03657328 0.46581119 4278255360
-0.017902549 0.036512569 0.46617645 4278255360
-0.018238567 0.036451854 0.46654168 4278255360
-0.018574582 0.036391143 0.46690693 4278255360
-0.0189106 0.036330428 0.46727219 4278255360
-0.019246617 0.036269717 0.46763742 4278255360
-0.019582633 0.036209006 0.46800268 4278255360
-0.01991865 0.036148291 0.46836793 4278255360
-0.020254668 0.03608758 0.46873319 4278255360
-0.020590685 0.036026865 0.46909842 4278255360
-0.020926703 0.035966154 0.46946368 4278255360
-0.021262718 0.035905443 0.46982893 4278255360
-0.021598736 0.035844728 0.47019416 4278255360
-0.021934753 0.035784017 0.47055942 4278255360
-0.022270771 0.035723303 0.47092468 4278255360
-0.022606786 0.035662591 0.47128993 4278255360
-0.022942804 0.03560188 0.47165516 4278255360
-0.023278821 0.035541166 0.47202042 4278255360
-0.023614839 0.035480455 0.47238567 4278255360
-0.023950856 0.03541974 0.4727509 4278255360
-0.024286872 0.035359029 0.47311616 4278255360
-0.024622889 0.035298318 0.47348142 4278255360
-0.024958907 0.035237603 0.47384664 4278255360
-0.025294922 0.035176892 0.4742119 4278255360
-0.02563094 0.035116177 0.47457716 4278255360
-0.025966957 0.035055466 0.47494239 4278255360
-0.026302975 0.034994755 0.47530764 4278255360
-0.026638992 0.03493404 0.4756729 4278255360
-0.02697501 0.034873329 0.47603816 4278255360
-0.027311025 0.034812614 0.47640339 4278255360
-0.027647043 0.034751903 0.47676864 4278255360
-0.027983058 0.034691192 0.4771339 4278255360
-0.028319076 0.034630477 0.47749913 4278255360
-0.028655093 0.034569766 0.47786438 4278255360
-0.028991111 0.034509052 0.47822964 4278255360
-0.029327128 0.034448341 0.4785949 4278255360
-0.029663146 0.034387629 0.47896013 4278255360
-0.029999161 0.034326915 0.47932538 4278255360
-0.030335179 0.034266204 0.47969064 4278255360
-0.030671194 0.034205489 0.48005587 4278255360
-0.031007212 0.034144778 0.48042113 4278255360
-0.031343229 0.034084067 0.48078638 4278255360
-0.031679247 0.034023352 0.48115161 4278255360
-0.032015264 0.033962641 0.48151687 4278255360
-0.032351281 0.033901926 0.48188213 4278255360
-0.032687299 0.033841215 0.48224735 4278255360
-0.033023313 0.033780504 0.48261261 4278255360
-0.033359334 0.033719789 0.48297787 4278255360
-0.033695348 0.033659078 0.48334312 4278255360
-0.034031365 0.033598363 0.48370835 4278255360
-0.034367383 0.033537652 0.48407361 4278255360
-0.0347034 0.033476941 0.48443887 4278255360
-0.035039417 0.033416227 0.48480409 4278255360
-0.035375431 0.033355515 0.48516935 4278255360
-0.035711452 0.033294801 0.48553461 4278255360
-0.036047466 0.03323409 0.48589987 4278255360
-0.036383487 0.033173379 0.48626509 4278255360
-0.036719501 0.033112664 0.48663035 4278255360
-0.037055518 0.033051953 0.48699561 4278255360
-0.037391536 0.032991238 0.48736084 4278255360
-0.037727553 0.032930527 0.48772609 4278255360
-0.038063571 0.032869816 0.48809135 4278255360
-0.038399585 0.032809101 0.48845658 4278255360
-0.038735606 0.03274839 0.48882183 4278255360
-0.03907162 0.032687675 0.48918709 4278255360
-0.039407637 0.032626964 0.48955232 4278255360
-0.039743654 0.032566249 0.48991758 4278255360
-0.040079672 0.032505538 0.49028283 4278255360
-0.040415689 0.032444827 0.49064809 4278255360
-0.040751703 0.032384112 0.49101332 4278255360
-0.041087724 0.032323401 0.49137858 4278255360
-0.041423738 0.03226269 0.49174383 4278255360
-0.041759759 0.032201976 0.49210906 4278255360
-0.042095773 0.032141265 0.49247432 4278255360
-0.04243179 0.03208055 0.49283957 4278255360
-0.042767808 0.032019839 0.49320483 4278255360
-0.043103825 0.031959128 0.49357006 4278255360
-0.043439843 0.031898413 0.49393532 4278255360
-0.043775856 0.031837702 0.49430057 4278255360
-0.044111878 0.031776987 0.4946658 4278255360
-0.044447891 0.031716276 0.49503106 4278255360
-0.044783913 0.031655565 0.49539632 4278255360
-0.045119926 0.03159485 0.49576154 4278255360
-0.045455944 0.031534139 0.4961268 4278255360
-0.045791961 0.031473428 0.49649206 4278255360
-0.046127979 0.031412713 0.49685729 4278255360
-0.046463996 0.031352002 0.49722254 4278255360
-0.04680001 0.031291287 0.4975878 4278255360
-0.047136031 0.031230576 0.49795306 4278255360
-0.047472045 0.031169863 0.49831828 4278255360
-0.047808062 0.03110915 0.49868354 4278255360
-0.04814408 0.031048438 0.4990488 4278255360
-0.048480097 0.030987725 0.49941403 4278255360
