# .PCD v0.7 - Point Cloud Data file format
VERSION 0.7
FIELDS x y z rgb
SIZE 4 4 4 4
TYPE F F F U
COUNT 1 1 1 1
WIDTH 1006
HEIGHT 1
VIEWPOINT 0 0 0 1 0 0 0
POINTS 1006
DATA ascii
-0.0087066684 -0.010678229 0.45500001 4285545262
-0.0072447155 -0.010701698 0.45600003 4286987048
-0.0057762661 -0.010725167 0.45700002 4286985508
-0.0043013212 -0.010748635 0.45800003 4287116837
-0.0028260231 -0.010795572 0.46000001 4289682764
-0.0013377335 -0.01084251 0.46200001 4290278240
0.00016354831 -0.010889446 0.46400002 4287776312
0.0016814225 -0.010959852 0.46700001 4286073916
0.0032119362 -0.011006789 0.46900001 4289042560
0.0047655385 -0.011077196 0.47200003 4288376671
0.00631194 -0.011100665 0.47300002 4286793528
0.007881429 -0.011147602 0.47500002 4289094484
0.009424231 -0.011147602 0.47500002 4285606680
0.01099012 -0.01117107 0.47600001 4286396199
0.012509832 -0.011147602 0.47500002 4284757029
-0.013082432 -0.0091594486 0.45300001 4286621072
-0.011611087 -0.0091594486 0.45300001 4287672475
-0.010162126 -0.0091796685 0.45400003 4284825909
-0.0086875334 -0.0091796685 0.45400003 4285346599
-0.0072288276 -0.0091998875 0.45500001 4286330403
-0.0057636271 -0.0092201075 0.45600003 4286460704
-0.0042919298 -0.0092403265 0.45700002 4287116837
-0.0028198797 -0.0092807664 0.45900002 4287314216
-0.001334838 -0.0093212053 0.46100003 4287579696
0.00016319583 -0.0093616443 0.46300003 4290805350
0.0016778221 -0.0094223022 0.46600002 4287052589
0.0032119362 -0.0094829611 0.46900001 4286987309
0.0047655385 -0.00954362 0.47200003 4287184940
0.006325285 -0.009584059 0.47400004 4287645491
0.007881429 -0.009604279 0.47500002 4286461989
0.009444071 -0.009624498 0.47600001 4286264867
0.01099012 -0.009624498 0.47600001 4284231712
-0.013082432 -0.0076876045 0.45300001 4287146642
-0.011611087 -0.0076876045 0.45300001 4287275918
-0.010139743 -0.0076876045 0.45300001 4284495915
-0.0086875334 -0.0077045755 0.45400003 4285083937
-0.0072288276 -0.0077215456 0.45500001 4285475867
-0.0057636271 -0.0077385162 0.45600003 4285804316
-0.0042919298 -0.0077554868 0.45700002 4286131741
-0.0028137362 -0.0077724573 0.45800003 4286591520
-0.0013319424 -0.007806398 0.46000001 4286984483
0.00016319583 -0.0078573097 0.46300003 4287642413
0.0016778221 -0.0079082204 0.46600002 4288432956
0.0032119362 -0.0079591321 0.46900001 4287710003
0.0047655385 -0.0080100438 0.47200003 4285935648
0.006325285 -0.008043984 0.47400004 4284621589
0.0078980215 -0.0080779251 0.47600001 4284622359
0.0094639119 -0.0080948956 0.47700003 4285215523
0.011013209 -0.0080948956 0.47700003 4283641374
-0.017573714 -0.0062432047 0.45500001 4286818449
-0.016060498 -0.0062294835 0.45400003 4286818449
-0.014585904 -0.0062294835 0.45400003 4286621070
-0.013082432 -0.0062157619 0.45300001 4286686091
-0.011611087 -0.0062157619 0.45300001 4284906852
-0.010139743 -0.0062157619 0.45300001 4285349679
-0.0086875334 -0.0062294835 0.45400003 4284886558
-0.0072129401 -0.0062294835 0.45400003 4284819220
-0.0057509872 -0.0062432047 0.45500001 4284818707
-0.0042825383 -0.0062569259 0.45600003 4285277718
-0.0028137362 -0.0062843687 0.45800003 4285606426
-0.0013319424 -0.006311811 0.46000001 4286920233
0.00016319583 -0.0063529755 0.46300003 4287248682
0.0016778221 -0.006394139 0.46600002 4287380266
0.0032119362 -0.006435303 0.46900001 4286459936
0.0047655385 -0.0064764675 0.47200003 4285082140
0.0063386289 -0.0065176315 0.47500002 4283571218
0.0079146149 -0.0065450738 0.47700003 4284032282
0.0094837518 -0.006558795 0.47800002 4284362271
0.011036297 -0.006558795 0.47800002 4284560423
0.012615179 -0.0065725166 0.47900003 4289237890
-0.017573714 -0.0047648628 0.45500001 4282866758
-0.016060498 -0.004754391 0.45400003 4286223743
-0.014553776 -0.0047439183 0.45300001 4287409303
-0.013082432 -0.0047439183 0.45300001 4287473810
-0.011611087 -0.0047439183 0.45300001 4282994492
-0.010139743 -0.0047439183 0.45300001 4285020199
-0.0086683976 -0.0047439183 0.45300001 4285215777
-0.0072129401 -0.004754391 0.45400003 4284622611
-0.0057509872 -0.0047648628 0.45500001 4284425232
-0.0042825383 -0.0047753355 0.45600003 4283701257
-0.0028137362 -0.0047962801 0.45800003 4285411105
-0.0013319424 -0.0048172241 0.46000001 4285607971
0.00016319583 -0.0048486409 0.46300003 4286199592
0.0016778221 -0.0048800576 0.46600002 4286395942
0.0032187847 -0.0049219467 0.47000003 4285935391
0.004775635 -0.004953363 0.47300002 4287460709
0.0063519734 -0.0049847797 0.47600001 4288783249
0.0079146149 -0.004995252 0.47700003 4283046932
0.0094837518 -0.0050057243 0.47800002 4283770395
0.011059386 -0.0050161965 0.47900003 4284362017
0.012641515 -0.0050266688 0.48000002 4284890671
-0.017573714 -0.0032865216 0.45500001 4282602037
-0.016060498 -0.0032792985 0.45400003 4282536246
-0.014553776 -0.0032720752 0.45300001 4282075697
-0.013082432 -0.0032720752 0.45300001 4282401585
-0.011585455 -0.0032648523 0.45200002 4283382829
-0.010117359 -0.0032648523 0.45200002 4284886558
-0.0086683976 -0.0032720752 0.45300001 4285739809
-0.0072129401 -0.0032792985 0.45400003 4285279519
-0.0057509872 -0.0032865216 0.45500001 4283570702
-0.0042825383 -0.0032937448 0.45600003 4284228378
-0.0028137362 -0.0033081912 0.45800003 4285083687
-0.0013319424 -0.0033226372 0.46000001 4285346597
0.00016319583 -0.0033443067 0.46300003 4285675562
0.0016814225 -0.0033731991 0.46700001 4285543976
0.0032187847 -0.0033948685 0.47000003 4284491288
0.0047857314 -0.0034237611 0.47400004 4288851606
0.0063519734 -0.0034382071 0.47600001 4287868309
0.0079312064 -0.0034526535 0.47800002 4282524953
0.0095035927 -0.0034598766 0.47900003 4284099358
0.011082474 -0.0034670997 0.48000002 4284757288
0.012641515 -0.0034670997 0.48000002 4284560423
-0.016060498 -0.0018042063 0.45400003 4282338601
-0.014553776 -0.0018002321 0.45300001 4282930484
-0.013053553 -0.0017962581 0.45200002 4281212941
-0.011585455 -0.0017962581 0.45200002 4283774759
-0.010117359 -0.0017962581 0.45200002 4285542691
-0.0086683976 -0.0018002321 0.45300001 4286461735
-0.0072129401 -0.0018042063 0.45400003 4289302652
-0.0057509872 -0.0018081802 0.45500001 4288324999
-0.0042919298 -0.0018161283 0.45700002 4287196254
-0.0028198797 -0.0018240763 0.45900002 4283244565
-0.001334838 -0.0018320244 0.46100003 4284821537
0.00016354831 -0.0018439464 0.46400002 4285413674
0.0016814225 -0.0018558685 0.46700001 4282062090
0.0032256332 -0.0018717645 0.47100002 4282724133
0.0047958279 -0.0018876607 0.47500002 4287802516
0.0063653183 -0.0018956087 0.47700003 4287277715
0.0079477997 -0.0019035569 0.47900003 4284174913
0.0095234327 -0.0019075308 0.48000002 4283641374
0.011105563 -0.0019115049 0.48100004 4284100896
0.012667852 -0.0019115049 0.48100004 4285349679
0.01423014 -0.0019115049 0.48100004 4286727485
-0.016060498 -0.0003291138 0.45400003 4282864432
-0.014553776 -0.00032838885 0.45300001 4280889618
-0.013053553 -0.00032766393 0.45200002 4282065935
-0.011559824 -0.00032693904 0.45100003 4284430890
-0.010094976 -0.00032693904 0.45100003 4285542432
-0.0086683976 -0.00032838885 0.45300001 4286199592
-0.0072129401 -0.0003291138 0.45400003 4288520586
-0.0057636271 -0.00033056363 0.45600003 4288061575
-0.0042919298 -0.00033128855 0.45700002 4283708966
-0.0028198797 -0.00033273839 0.45900002 4283705884
-0.0013377335 -0.00033491314 0.46200001 4285151015
0.00016390078 -0.0003370879 0.46500003 4282980618
0.001685023 -0.00033926265 0.46800002 4281938213
0.0032324817 -0.00034216236 0.47200003 4282796088
0.0048059244 -0.00034506203 0.47600001 4287868059
0.0063786623 -0.00034651186 0.47800002 4287015830
0.0079643913 -0.0003479617 0.48000002 4287599234
0.0095432736 -0.00034868665 0.48100004 4283445540
0.011128651 -0.00034941154 0.48200002 4284035103
0.012694187 -0.00034941154 0.48200002 4284954408
0.014259725 -0.00034941154 0.48200002 4287645241
0.015890928 -0.0003508614 0.48400003 4287382069
-0.017573714 0.0011485028 0.45500001 4281679384
-0.01602512 0.0011434545 0.45300001 4283718969
-0.014521649 0.0011409303 0.45200002 4281150480
-0.013053553 0.0011409303 0.45200002 4284037413
-0.011559824 0.0011384061 0.45100003 4284559646
-0.010094976 0.0011384061 0.45100003 4285935391
-0.0086683976 0.0011434545 0.45300001 4287386432
-0.0072129401 0.0011459787 0.45400003 4285355333
-0.0057636271 0.001151027 0.45600003 4285088052
-0.0042919298 0.0011535512 0.45700002 4284429089
-0.0028198797 0.0011585996 0.45900002 4284953636
-0.0013377335 0.0011661721 0.46200001 4286664254
0.00016390078 0.0011737447 0.46500003 4281929221
0.0016886235 0.0011838414 0.46900001 4279571209
0.0032393301 0.0011939381 0.47300002 4280361500
0.0048160208 0.0012040349 0.47700003 4283788123
0.0063920072 0.0012090832 0.47900003 4287278232
0.0079809846 0.0012141316 0.48100004 4288455831
0.0095631136 0.0012166557 0.48200002 4282459162
0.011151739 0.0012191799 0.48300001 4283967511
0.01274686 0.0012217042 0.48400003 4284953121
0.015923759 0.0012242283 0.48500001 4288435525
-0.01753509 0.0026210712 0.45400003 4281744150
-0.01602512 0.0026152977 0.45300001 4281282831
-0.014521649 0.0026095244 0.45200002 4282926375
-0.013024674 0.0026037514 0.45100003 4284627236
-0.011559824 0.0026037514 0.45100003 4285281056
-0.010094976 0.0026037514 0.45100003 4286067234
-0.0086492617 0.0026095244 0.45200002 4286200873
-0.0071970522 0.0026152977 0.45300001 4285546541
-0.0057509872 0.0026268442 0.45500001 4284887843
-0.0042919298 0.002638391 0.45700002 4285479465
-0.0028260231 0.0026557108 0.46000001 4285149984
-0.001340629 0.0026730306 0.46300003 4284888615
0.00016425326 0.0026903504 0.46600002 4286147166
0.0016922239 0.0027134437 0.47000003 4284246875
0.0032461786 0.0027365368 0.47400004 4281284396
0.0048261173 0.0027596299 0.47800002 4280562983
0.0064053512 0.0027711764 0.48000002 4287277719
0.0079975771 0.0027827229 0.48200002 4286349937
0.0096027954 0.0027942697 0.48400003 4282917916
0.011197916 0.0028000427 0.48500001 4285282086
0.012773197 0.0028000427 0.48500001 4285149984
0.014407647 0.0028115895 0.48700002 4286460706
0.015956592 0.0028058162 0.48600003 4287052589
0.017607281 0.0028173628 0.48800004 4283710510
-0.019051556 0.0041051856 0.45500001 4282007322
-0.01753509 0.0040961634 0.45400003 4281678357
-0.01602512 0.0040871408 0.45300001 4280624651
-0.014521649 0.0040781186 0.45200002 4281542671
-0.013024674 0.0040690964 0.45100003 4284954917
-0.011559824 0.0040690964 0.45100003 4285477922
-0.010094976 0.0040690964 0.45100003 4286791727
-0.0086492617 0.0040781186 0.45200002 4285016086
-0.0071970522 0.0040871408 0.45300001 4285610535
-0.0057509872 0.0041051856 0.45500001 4284492570
-0.0042919298 0.0041232305 0.45700002 4284754972
-0.0028260231 0.0041502975 0.46000001 4285741607
-0.001340629 0.004177365 0.46300003 4283052319
0.00016425326 0.004204432 0.46600002 4285101405
0.0016922239 0.0042405217 0.47000003 4282010679
0.0032461786 0.0042766114 0.47400004 4283523404
0.0048362138 0.0043217232 0.47900003 4280761132
0.0064320406 0.0043487903 0.48200002 4287409305
0.008030762 0.0043668351 0.48400003 4283252787
0.0096226353 0.0043758573 0.48500001 4283705632
0.011221006 0.00438488 0.48600003 4284952351
0.012799534 0.00438488 0.48600003 4285346082
0.014407647 0.0043939021 0.48700002 4286067236
0.015989425 0.0043939021 0.48700002 4285936166
-0.019009683 0.0055712559 0.45400003 4281941788
-0.01753509 0.0055712559 0.45400003 4280625419
-0.01602512 0.0055589844 0.45300001 4280688909
-0.014521649 0.0055467128 0.45200002 4282198807
-0.013024674 0.0055344417 0.45100003 4285413156
-0.011559824 0.0055344417 0.45100003 4286264613
-0.010094976 0.0055344417 0.45100003 4286922543
-0.0086492617 0.0055467128 0.45200002 4284292363
-0.0071970522 0.0055589844 0.45300001 4286532666
-0.0057509872 0.005583527 0.45500001 4283966739
-0.0042919298 0.0056080702 0.45700002 4285412642
-0.0028260231 0.0056448844 0.46000001 4285939500
-0.001340629 0.0056816991 0.46300003 4284040757
0.00016425326 0.0057185139 0.46600002 4282663219
0.0016922239 0.0057675997 0.47000003 4289252011
0.0032461786 0.005816686 0.47400004 4281877546
0.0048463102 0.0058903145 0.48000002 4280891946
0.0064453846 0.0059271287 0.48300001 4288460192
0.0080473544 0.0059516719 0.48500001 4283249444
0.0096424762 0.0059639434 0.48600003 4284098845
0.011244093 0.005976215 0.48700002 4284885531
0.012852207 0.0059884866 0.48800004 4285740070
0.014437232 0.0059884866 0.48800004 4285872943
0.015989425 0.005976215 0.48700002 4285419845
-0.019009683 0.0070463484 0.45400003 4282467880
-0.017496467 0.0070308275 0.45300001 4280690960
-0.015989747 0.007015307 0.45200002 4280688396
-0.014489522 0.0069997869 0.45100003 4283973421
-0.013024674 0.0069997869 0.45100003 4286068774
-0.011559824 0.0069997869 0.45100003 4286919463
-0.010094976 0.0069997869 0.45100003 4285474842
-0.0086492617 0.007015307 0.45200002 4284556566
-0.0071970522 0.0070308275 0.45300001 4286402365
-0.0057509872 0.0070618689 0.45500001 4283968024
-0.0042919298 0.0070929099 0.45700002 4284821019
-0.0028260231 0.0071394718 0.46000001 4285348646
-0.001340629 0.0071860338 0.46300003 4282790690
0.00016425326 0.0072325952 0.46600002 4281411355
0.0016886235 0.0072791572 0.46900001 4286480226
0.0032461786 0.0073567606 0.47400004 4287533416
0.0048665032 0.0074809249 0.48200002 4285955159
0.006472074 0.0075274864 0.48500001 4283915071
0.0080805393 0.0075585279 0.48700002 4283969056
0.0096821571 0.0075740488 0.48800004 4284689181
0.011290271 0.0075895688 0.48900002 4285213213
0.012878543 0.0075895688 0.48900002 4285673764
0.014437232 0.0075740488 0.48800004 4287992963
-0.018967811 0.0085026706 0.45300001 4281086229
-0.017457843 0.0084839016 0.45200002 4280888593
-0.015989747 0.0084839016 0.45200002 4281803535
-0.014489522 0.0084651317 0.45100003 4284889642
-0.013024674 0.0084651317 0.45100003 4286133024
-0.011559824 0.0084651317 0.45100003 4289617998
-0.010094976 0.0084651317 0.45100003 4287709233
-0.0086492617 0.0084839016 0.45200002 4286986280
-0.0071970522 0.0085026706 0.45300001 4286003242
-0.0057509872 0.0085402103 0.45500001 4285017121
-0.0042919298 0.0085777501 0.45700002 4284754458
-0.0028198797 0.0086152889 0.45900002 4285348392
-0.0013377335 0.0086715985 0.46200001 4282264861
0.00016390078 0.0087279081 0.46500003 4281278997
0.001685023 0.0087842168 0.46800002 4282530852
0.0032324817 0.0088592954 0.47200003 4281807381
0.0048967926 0.009103301 0.48500001 4282333984
0.0064987629 0.0091408407 0.48700002 4282135578
0.0080971317 0.0091596106 0.48800004 4284098329
0.009701997 0.0091783805 0.48900002 4284951326
0.011313358 0.0091971494 0.49000001 4285935396
0.012904879 0.0091971494 0.49000001 4285017117
-0.0219105 0.0099745141 0.45300001 4281942308
-0.020439155 0.0099745141 0.45300001 4281810468
-0.018925941 0.0099524958 0.45200002 4281678112
-0.017457843 0.0099524958 0.45200002 4280427788
-0.015954372 0.0099304765 0.45100003 4283576094
-0.014489522 0.0099304765 0.45100003 4285413672
-0.013024674 0.0099304765 0.45100003 4286658085
-0.011559824 0.0099304765 0.45100003 4286657311
-0.010094976 0.0099304765 0.45100003 4287313698
-0.0086492617 0.0099524958 0.45200002 4287641896
-0.0071970522 0.0099745141 0.45300001 4287906355
-0.0057509872 0.010018552 0.45500001 4288761664
-0.0042919298 0.010062589 0.45700002 4288830535
-0.0028198797 0.010106627 0.45900002 4284556820
-0.0013377335 0.010172683 0.46200001 4282328344
0.00016354831 0.01021672 0.46400002 4281343248
0.0016778221 0.010260758 0.46600002 4282794283
0.0033352089 0.010723153 0.48700002 4282861098
0.0049068891 0.010701135 0.48600003 4281609750
0.0065121073 0.010745172 0.48800004 4282198293
0.0081303166 0.010789209 0.49000001 4284885531
0.0097218379 0.010789209 0.49000001 4285804064
0.011336448 0.010811228 0.49100003 4286593580
0.012904879 0.010789209 0.49000001 4286663741
-0.0219105 0.011446357 0.45300001 4282073390
-0.020394037 0.011421089 0.45200002 4281941804
-0.018925941 0.011421089 0.45200002 4281810470
-0.017419221 0.011395821 0.45100003 4281809700
-0.015954372 0.011395821 0.45100003 4284101927
-0.014489522 0.011395821 0.45100003 4285281318
-0.013024674 0.011395821 0.45100003 4286789671
-0.011559824 0.011395821 0.45100003 4286722336
-0.010117359 0.011421089 0.45200002 4287378978
-0.0086492617 0.011421089 0.45200002 4287313698
-0.0071970522 0.011446357 0.45300001 4293898395
-0.0057509872 0.011496893 0.45500001 4287383091
-0.0042919298 0.011547429 0.45700002 4287972144
-0.0028260231 0.011623232 0.46000001 4284357386
-0.0013377335 0.011673768 0.46200001 4282263834
0.00016354831 0.011724303 0.46400002 4283517243
0.0016778221 0.01177484 0.46600002 4282073390
0.0033352089 0.012305466 0.48700002 4282270253
0.0049169855 0.012305466 0.48700002 4286017115
0.0065254518 0.012356001 0.48900002 4282654481
0.0081303166 0.012381269 0.49000001 4285607455
0.0097416788 0.012406537 0.49100003 4286197280
0.011359536 0.012431805 0.49200001 4286460967
-0.021862132 0.012889684 0.45200002 4285892984
-0.020348918 0.012861167 0.45100003 4282010427
-0.01888407 0.012861167 0.45100003 4281219882
-0.017419221 0.012861167 0.45100003 4281415978
-0.015954372 0.012861167 0.45100003 4283773737
-0.014489522 0.012861167 0.45100003 4285019177
-0.013024674 0.012861167 0.45100003 4286132000
-0.011559824 0.012861167 0.45100003 4286065948
-0.010117359 0.012889684 0.45200002 4286722338
-0.0086683976 0.0129182 0.45300001 4286984481
-0.0072129401 0.012946718 0.45400003 4286460965
-0.0057636271 0.013003753 0.45600003 4292713869
-0.0043013212 0.013060786 0.45800003 4288367161
-0.0028321669 0.013146337 0.46100003 4284752916
-0.001340629 0.013203371 0.46300003 4281212173
0.00016390078 0.013260406 0.46500003 4281807656
0.0017426306 0.013802228 0.48400003 4282863678
0.0033283604 0.013859262 0.48600003 4284572756
0.0049169855 0.013887779 0.48700002 4284434235
0.0065254518 0.013944813 0.48900002 4284492322
0.0081303166 0.013973329 0.49000001 4286460454
0.0097416788 0.014001847 0.49100003 4286853670
0.011359536 0.014030363 0.49200001 4286461483
-0.021862132 0.014358278 0.45200002 4286751886
-0.020348918 0.014326513 0.45100003 4286686093
-0.01888407 0.014326513 0.45100003 4286882959
-0.017419221 0.014326513 0.45100003 4287539605
-0.015954372 0.014326513 0.45100003 4284169780
-0.014489522 0.014326513 0.45100003 4284625189
-0.013053553 0.014358278 0.45200002 4285606426
-0.011585455 0.014358278 0.45200002 4285934621
-0.010139743 0.014390044 0.45300001 4285802776
-0.0086875334 0.014421811 0.45400003 4286722338
-0.0072288276 0.014453577 0.45500001 4286721311
-0.0057762661 0.014517109 0.45700002 4287707952
-0.0043107127 0.014580641 0.45900002 4287840815
-0.0028383103 0.014675939 0.46200001 4287384118
-0.0013435245 0.014739471 0.46400002 4280685579
0.00016460572 0.01483477 0.46700001 4281612589
0.0017426306 0.015374794 0.48400003 4281211408
0.0033215119 0.01540656 0.48500001 4286204736
0.0049169855 0.015470092 0.48700002 4285543463
0.0065254518 0.015533624 0.48900002 4286068524
0.0081303166 0.01556539 0.49000001 4287050794
0.0097416788 0.015597157 0.49100003 4287313196
0.011359536 0.015628923 0.49200001 4285478185
-0.020348918 0.015791858 0.45100003 4286949267
-0.01888407 0.015791858 0.45100003 4286751886
-0.017419221 0.015791858 0.45100003 4287144847
-0.015954372 0.015791858 0.45100003 4283578413
-0.014521649 0.015826873 0.45200002 4283969056
-0.013053553 0.015826873 0.45200002 4284950554
-0.011611087 0.015861887 0.45300001 4284883478
-0.010139743 0.015861887 0.45300001 4285672219
-0.0086875334 0.015896903 0.45400003 4286000668
-0.0072447155 0.015966933 0.45600003 4286394143
-0.005788906 0.016036965 0.45800003 4286590752
-0.0043294956 0.016142009 0.46100003 4287511850
-0.0028444538 0.016212041 0.46300003 4286266153
-0.0013493155 0.016317084 0.46600002 4281080085
0.00016531067 0.01642213 0.46900001 4280556823
0.0017354296 0.016877329 0.48200002 4287190087
0.0033146634 0.016947359 0.48400003 4286857522
0.0049068891 0.017017391 0.48600003 4290936688
0.0065121073 0.01708742 0.48800004 4286527530
0.0081137242 0.017122434 0.48900002 4287182380
0.0097218379 0.01715745 0.49000001 4288103482
0.011359536 0.01722748 0.49200001 4286273869
-0.01888407 0.017257202 0.45100003 4286817168
-0.017419221 0.017257202 0.45100003 4287671707
-0.015989747 0.017295467 0.45200002 4282723617
-0.014521649 0.017295467 0.45200002 4284035364
-0.013082432 0.017333731 0.45300001 4284229402
-0.011636719 0.017371995 0.45400003 4284030739
-0.010162126 0.017371995 0.45400003 4284687384
-0.0087258043 0.017448524 0.45600003 4285476385
-0.0072606024 0.017486788 0.45700002 4285870373
-0.0058015455 0.017563317 0.45900002 4286133799
-0.0043388871 0.01767811 0.46200001 4286396971
-0.002856741 0.017792903 0.46500003 4288243804
-0.0013551066 0.017907696 0.46800002 4282264098
0.0001663681 0.018060753 0.47200003 4284299569
0.0017282286 0.018366868 0.48000002 4287054131
0.0033078149 0.018481659 0.48300001 4287710003
0.0048967926 0.018558187 0.48500001 4293107857
0.0064987629 0.018634716 0.48700002 4287382067
0.0080971317 0.018672982 0.48800004 4287054131
0.009701997 0.018711247 0.48900002 4290741108
-0.01888407 0.018722547 0.45100003 4286949267
-0.017419221 0.018722547 0.45100003 4287409305
-0.01602512 0.018805573 0.45300001 4283053866
-0.014553776 0.018805573 0.45300001 4284036395
-0.013111312 0.018847087 0.45400003 4284362784
-0.01166235 0.0188886 0.45500001 4284494370
-0.010206894 0.018930115 0.45600003 4284888613
-0.0087449402 0.018971628 0.45700002 4285150502
-0.0072764903 0.01901314 0.45800003 4285281318
-0.0058141849 0.019096168 0.46000001 4285347111
-0.004348279 0.019220708 0.46300003 4285347109
-0.0028628844 0.019345248 0.46600002 4289693814
-0.0013608977 0.019511301 0.47000003 4288321930
0.00016672058 0.019635841 0.47300002 4283578159
0.0017246283 0.019884923 0.47900003 4287317049
0.0033009665 0.020009462 0.48200002 4288367933
0.0048866961 0.020092489 0.48400003 4288102710
0.0064854184 0.020175517 0.48600003 4293301902
0.0080805393 0.020217029 0.48700002 4294962652
0.0096821571 0.020258544 0.48800004 4287519561
0.011267182 0.020258544 0.48800004 4288781448
-0.01888407 0.020187892 0.45100003 4286883474
-0.017419221 0.020187892 0.45100003 4287146644
-0.016060498 0.020322179 0.45400003 4287864459
-0.014585904 0.020322179 0.45400003 4284369472
-0.013140191 0.020366941 0.45500001 4284561706
-0.011687982 0.020411704 0.45600003 4284627238
-0.010229276 0.020456467 0.45700002 4284165917
-0.0087640751 0.02050123 0.45800003 4284959031
-0.0072923778 0.020545991 0.45900002 4285419845
-0.0058268243 0.020635517 0.46100003 4283705632
-0.0043576704 0.020769805 0.46400002 4284098075
-0.0028690279 0.02090409 0.46700001 4286996049
-0.0013608977 0.02103838 0.47000003 4287933332
0.00016707306 0.02121743 0.47400004 4285891952
0.0017210278 0.021396479 0.47800002 4287977036
0.003294118 0.021530768 0.48100004 4287710773
0.0048765996 0.021620292 0.48300001 4288234033
0.006472074 0.021709817 0.48500001 4287772716
0.0080639469 0.02175458 0.48600003 4287971126
0.0096623162 0.021799341 0.48700002 4288036917
0.011244093 0.021799341 0.48700002 4285678642
-0.016095873 0.021845285 0.45500001 4287736982
-0.01465016 0.021893296 0.45600003 4283060033
-0.013169071 0.021893296 0.45600003 4284693812
-0.011713613 0.021941308 0.45700002 4284691757
-0.010251661 0.021989319 0.45800003 4284960064
-0.008783211 0.022037331 0.45900002 4288588952
-0.0073082652 0.022085343 0.46000001 4288853921
-0.0058394638 0.022181366 0.46200001 4283450168
-0.0043670619 0.022325402 0.46500003 4284559911
-0.0028690279 0.022421423 0.46700001 4284296737
-0.0013637932 0.02261347 0.47100002 4288327059
0.00016707306 0.022757506 0.47400004 4288524954
0.0017210278 0.022949552 0.47800002 4286265905
0.0032872695 0.023045575 0.48000002 4287313964
0.0048765996 0.02318961 0.48300001 4288299056
0.0064587295 0.023237621 0.48400003 4288298286
0.0080473544 0.023285633 0.48500001 4288825400
0.0096424762 0.023333644 0.48600003 4288431412
0.011244093 0.023381656 0.48700002 4287254081
-0.016166624 0.023426147 0.45700002 4287344023
-0.014682286 0.023426147 0.45700002 4287342226
-0.01322683 0.023477409 0.45800003 4284825400
-0.011739245 0.023477409 0.45800003 4284691761
-0.010274044 0.023528669 0.45900002 4282985506
-0.008802346 0.023579929 0.46000001 4288719514
-0.0073241526 0.023631191 0.46100003 4287802777
-0.0058521037 0.023733713 0.46300003 4284839012
-0.0043670619 0.023836233 0.46500003 4284035112
-0.0028751716 0.023990015 0.46800002 4284954667
-0.0013637932 0.024143796 0.47100002 4288376671
0.00016707306 0.02429758 0.47400004 4286268983
0.0017174273 0.024451362 0.47700003 4287577913
0.0032872695 0.024605144 0.48000002 4289221966
0.0048665032 0.024707666 0.48200002 4287377954
0.0064587295 0.024810188 0.48400003 4288562228
0.0080473544 0.024861448 0.48500001 4287641126
0.0096424762 0.024912708 0.48600003 4287247140
0.011221006 0.024912708 0.48600003 4286399287
-0.016201999 0.024965497 0.45800003 4287344025
-0.014746542 0.025020007 0.45900002 4287936162
-0.01325571 0.025020007 0.45900002 4283512366
-0.011790507 0.025074515 0.46000001 4284693040
-0.010296428 0.025074515 0.46000001 4284757550
-0.0088214818 0.025129026 0.46100003 4290425508
-0.0073400401 0.025183534 0.46200001 4287934877
-0.0058647431 0.025292555 0.46400002 4288724393
-0.0043670619 0.025347065 0.46500003 4285752923
-0.0028751716 0.025510594 0.46800002 4283837218
-0.0013637932 0.025674123 0.47100002 4287053620
0.00016672058 0.025783144 0.47300002 4289355344
0.0017138268 0.025946673 0.47600001 4289814352
0.003280421 0.026110204 0.47900003 4287180579
0.0048564067 0.026219223 0.48100004 4288036658
0.0064453846 0.026328241 0.48300001 4287051303
0.008030762 0.026382752 0.48400003 4286460452
0.0096226353 0.02643726 0.48500001 4286789932
0.011221006 0.026491772 0.48600003 4284896068
-0.016237374 0.026511343 0.45900002 4287607197
-0.014778669 0.026569102 0.46000001 4287475357
-0.013284588 0.026569102 0.46000001 4284832851
-0.011816139 0.026626863 0.46100003 4284299054
-0.010318811 0.026626863 0.46100003 4285019179
-0.0088406177 0.026684619 0.46200001 4287193174
-0.007355928 0.02674238 0.46300003 4287934361
-0.0058647431 0.026800139 0.46400002 4287605912
-0.0043764533 0.026915656 0.46600002 4289967523
-0.0028751716 0.027031174 0.46800002 4283903524
-0.0013608977 0.027146691 0.47000003 4286395692
0.00016672058 0.027319968 0.47300002 4288236865
0.0017138268 0.027493244 0.47600001 4287839277
0.003280421 0.027666522 0.47900003 4287971374
0.0048564067 0.027782042 0.48100004 4285936168
0.0064320406 0.027839798 0.48200002 4285872943
0.008030762 0.027955318 0.48400003 4285676596
0.0096226353 0.028013075 0.48500001 4285879885
-0.01627275 0.028063688 0.46000001 4287738783
-0.014810797 0.028124698 0.46100003 4287607197
-0.013313469 0.028124698 0.46100003 4288915610
-0.01184177 0.028185705 0.46200001 4284497978
-0.010341194 0.028185705 0.46200001 4284953386
-0.0088597536 0.028246714 0.46300003 4284952103
-0.0073718154 0.028307721 0.46400002 4284626738
-0.0058773826 0.02836873 0.46500003 4284497978
-0.0043764533 0.028429737 0.46600002 4285412652
-0.0028751716 0.028551754 0.46800002 4286068776
-0.0013608977 0.02867377 0.47000003 4291726702
0.0001663681 0.028795786 0.47200003 4287316011
0.0017102263 0.02897881 0.47500002 4286855212
0.0032735725 0.029161833 0.47800002 4286204475
0.0048463102 0.02928385 0.48000002 4284833357
0.0064320406 0.029405866 0.48200002 4286018914
0.0080141686 0.029466873 0.48300001 4288062869
-0.014842924 0.029686792 0.46200001 4287607713
-0.013342348 0.029686792 0.46200001 4289380013
-0.011867403 0.029751049 0.46300003 4283711542
-0.010363579 0.029751049 0.46300003 4284823597
-0.0088788886 0.029815305 0.46400002 4284953638
-0.0073718154 0.029815305 0.46400002 4285279010
-0.0058773826 0.029879564 0.46500003 4285279008
-0.0043764533 0.02994382 0.46600002 4286066207
-0.0028690279 0.030008078 0.46700001 4286789671
-0.0013580021 0.030136591 0.46900001 4287972405
0.00016601563 0.030265106 0.47100002 4287314475
0.0017066259 0.030457878 0.47400004 4285806637
0.0032735725 0.030714905 0.47800002 4289373585
0.0048463102 0.03084342 0.48000002 4287145613
0.0064186961 0.030907677 0.48100004 4287211152
-0.014875052 0.031255383 0.46300003 4287805092
-0.013371228 0.031255383 0.46300003 4288987053
-0.011867403 0.031255383 0.46300003 4282924854
-0.010385961 0.031322889 0.46400002 4284692781
-0.0088788886 0.031322889 0.46400002 4284758056
-0.0073877033 0.031390395 0.46500003 4284820251
-0.0058773826 0.031390395 0.46500003 4284621076
-0.0043764533 0.031457901 0.46600002 4286067234
-0.0028690279 0.031525407 0.46700001 4286527528
-0.0013551066 0.031592913 0.46800002 4286592038
0.00016566315 0.031727929 0.47000003 4287052589
0.0017030254 0.031930447 0.47300002 4284496685
-0.014875052 0.032759719 0.46300003 4287739299
-0.013400107 0.032830473 0.46400002 4287935395
-0.011893034 0.032830473 0.46400002 4282862404
-0.010385961 0.032830473 0.46400002 4284562228
-0.0088980244 0.032901227 0.46500003 4284429868
-0.0073877033 0.032901227 0.46500003 4285020462
-0.005890022 0.032971982 0.46600002 4284559396
-0.0043764533 0.032971982 0.46600002 4285216295
-0.0028690279 0.033042736 0.46700001 4285413674
-0.0013551066 0.033113495 0.46800002 4286070836
0.00016531067 0.033184249 0.46900001 4285741871
-0.014907179 0.034338053 0.46400002 4287607715
-0.013400107 0.034338053 0.46400002 4288002473
-0.011893034 0.034338053 0.46400002 4286947216
-0.010408346 0.03441206 0.46500003 4284169274
-0.0088980244 0.03441206 0.46500003 4284496694
-0.0073877033 0.03441206 0.46500003 4285088570
-0.005890022 0.034486063 0.46600002 4284759603
-0.0043764533 0.034486063 0.46600002 4284891189
-0.0028690279 0.034560069 0.46700001 4284759603
-0.0013551066 0.034634072 0.46800002 4283974968
0.0001649582 0.034634072 0.46800002 4289046680
-0.013400107 0.035845637 0.46400002 4288002473
-0.011918666 0.035922892 0.46500003 4288068266
-0.010408346 0.035922892 0.46500003 4288262813
-0.0088980244 0.035922892 0.46500003 4286681214
-0.0074035903 0.036000147 0.46600002 4286153587
-0.005890022 0.036000147 0.46600002 4286876797
-0.0043764533 0.036000147 0.46600002 4287337602
-0.0028690279 0.036077399 0.46700001 4288457625
-0.010408346 0.037433725 0.46500003 4287739553
-0.0089171594 0.037514228 0.46600002 4287673760
-0.0074035903 0.037514228 0.46600002 4287476381
-0.005890022 0.037514228 0.46600002 4287673760
-0.0043764533 0.037514228 0.46600002 4287475611
-0.00104855 0.010459796 0.46805638 4294967295
-0.00104855 0.010459796 0.46805638 4294901760
-0.00104855 0.0099701835 0.46795499 4294901760
-0.00104855 0.0094805714 0.46785361 4294901760
-0.00104855 0.0089909593 0.46775222 4294901760
-0.00104855 0.0085013472 0.46765083 4294901760
-0.00104855 0.008011735 0.46754944 4294901760
-0.00104855 0.0075221234 0.46744803 4294901760
-0.00104855 0.0070325113 0.46734664 4294901760
-0.00104855 0.0065428992 0.46724525 4294901760
-0.00104855 0.0060532871 0.46714386 4294901760
-0.00104855 0.005563675 0.46704248 4294901760
-0.00104855 0.0050740633 0.46694109 4294901760
-0.00104855 0.0045844512 0.4668397 4294901760
-0.00104855 0.0040948396 0.46673831 4294901760
-0.00104855 0.003605227 0.46663693 4294901760
-0.00104855 0.0031156149 0.46653551 4294901760
-0.00104855 0.0026260028 0.46643412 4294901760
-0.00104855 0.0021363907 0.46633273 4294901760
-0.00104855 0.0016467785 0.46623135 4294901760
-0.00104855 0.0011571674 0.46612996 4294901760
-0.00104855 0.00066755433 0.46602857 4294901760
-0.00104855 0.00017794315 0.46592718 4294901760
-0.00104855 -0.00031166896 0.4658258 4294901760
-0.00104855 -0.00080128107 0.46572441 4294901760
-0.00104855 -0.0012908932 0.46562302 4294901760
-0.00104855 -0.0017805053 0.46552163 4294901760
-0.00104855 -0.0022701165 0.46542022 4294901760
-0.00104855 -0.0027597295 0.46531883 4294901760
-0.00104855 -0.0032493416 0.46521744 4294901760
-0.00104855 -0.0037389528 0.46511605 4294901760
-0.00104855 -0.0042285658 0.46501467 4294901760
-0.00104855 -0.004718178 0.46491328 4294901760
-0.00104855 -0.0052077901 0.46481189 4294901760
-0.00104855 -0.0056974031 0.4647105 4294901760
-0.00104855 -0.0061870143 0.46460912 4294901760
-0.00104855 -0.0066766255 0.4645077 4294901760
-0.00104855 -0.0071662385 0.46440631 4294901760
-0.00104855 -0.0076558497 0.46430492 4294901760
-0.00104855 -0.0081454609 0.46420354 4294901760
-0.00104855 -0.0086350739 0.46410215 4294901760
-0.00104855 -0.0091246869 0.46400076 4294901760
-0.00104855 -0.0096142981 0.46389937 4294901760
-0.00104855 -0.010103909 0.46379799 4294901760
-0.00104855 -0.010593522 0.4636966 4294901760
-0.00104855 -0.011083134 0.46359521 4294901760
-0.00104855 -0.011572745 0.46349382 4294901760
-0.00104855 -0.012062358 0.46339241 4294901760
-0.00104855 -0.012551971 0.46329102 4294901760
-0.00104855 -0.013041582 0.46318963 4294901760
-0.00104855 -0.013531195 0.46308824 4294901760
-0.00104855 -0.014020806 0.46298686 4294901760
-0.00104855 -0.014510417 0.46288547 4294901760
-0.00104855 -0.015000029 0.46278408 4294901760
-0.00104855 -0.015489642 0.46268269 4294901760
-0.00104855 -0.015979255 0.46258131 4294901760
-0.00104855 -0.016468868 0.46247989 4294901760
-0.00104855 -0.016958479 0.4623785 4294901760
-0.00104855 -0.01744809 0.46227711 4294901760
-0.00104855 -0.017937701 0.46217573 4294901760
-0.00104855 -0.018427312 0.46207434 4294901760
-0.00104855 -0.018916927 0.46197295 4294901760
-0.00104855 -0.019406538 0.46187156 4294901760
-0.00104855 -0.019896151 0.46177018 4294901760
-0.00104855 -0.020385763 0.46166879 4294901760
-0.00104855 -0.020875376 0.4615674 4294901760
-0.00104855 -0.021364987 0.46146601 4294901760
-0.00104855 -0.021854602 0.4613646 4294901760
-0.00104855 -0.022344213 0.46126321 4294901760
-0.00104855 -0.022833824 0.46116182 4294901760
-0.00104855 -0.023323435 0.46106043 4294901760
-0.00104855 -0.023813047 0.46095905 4294901760
-0.00104855 -0.024302658 0.46085766 4294901760
-0.00104855 -0.024792273 0.46075627 4294901760
-0.00104855 -0.025281884 0.46065488 4294901760
-0.00104855 -0.025771495 0.4605535 4294901760
-0.00104855 -0.026261106 0.46045208 4294901760
-0.00104855 -0.026750717 0.46035069 4294901760
-0.00104855 -0.027240328 0.4602493 4294901760
-0.00104855 -0.027729943 0.46014792 4294901760
-0.00104855 -0.028219555 0.46004653 4294901760
-0.00104855 -0.028709169 0.45994514 4294901760
-0.00104855 -0.029198781 0.45984375 4294901760
-0.00104855 -0.029688392 0.45974237 4294901760
-0.00104855 -0.030178003 0.45964098 4294901760
-0.00104855 -0.030667614 0.45953959 4294901760
-0.00104855 -0.031157229 0.4594382 4294901760
-0.00104855 -0.03164684 0.45933679 4294901760
-0.00104855 -0.032136451 0.4592354 4294901760
-0.00104855 -0.032626063 0.45913401 4294901760
-0.00104855 -0.033115674 0.45903262 4294901760
-0.00104855 -0.033605285 0.45893124 4294901760
-0.00104855 -0.0340949 0.45882985 4294901760
-0.00104855 -0.034584511 0.45872846 4294901760
-0.00104855 -0.035074122 0.45862707 4294901760
-0.00104855 -0.035563737 0.45852569 4294901760
-0.00104855 -0.036053348 0.45842427 4294901760
-0.00104855 -0.03654296 0.45832288 4294901760
-0.00104855 -0.037032574 0.4582215 4294901760
-0.00104855 -0.037522186 0.45812011 4294901760
-0.00104855 -0.038011797 0.45801872 4294901760
-0.00104855 -0.038501408 0.45791733 4294901760
-0.00104855 0.010459796 0.46805638 4278255360
-0.00075218774 0.010378135 0.46845073 4278255360
-0.00045582547 0.010296474 0.46884504 4278255360
-0.0001594632 0.010214814 0.46923938 4278255360
0.00013689906 0.010133154 0.46963373 4278255360
0.00043326139 0.010051494 0.47002807 4278255360
0.0007296236 0.0099698324 0.47042239 4278255360
0.0010259859 0.0098881721 0.47081673 4278255360
0.0013223481 0.0098065119 0.47121108 4278255360
0.0016187106 0.0097248508 0.47160539 4278255360
0.0019150728 0.0096431905 0.47199973 4278255360
0.002211435 0.0095615303 0.47239408 4278255360
0.0025077972 0.0094798692 0.47278842 4278255360
0.0028041597 0.0093982089 0.47318274 4278255360
0.0031005219 0.0093165487 0.47357708 4278255360
0.0033968845 0.0092348885 0.47397143 4278255360
0.0036932463 0.0091532273 0.47436577 4278255360
0.003989609 0.0090715671 0.47476009 4278255360
0.0042859712 0.0089899069 0.47515443 4278255360
0.0045823334 0.0089082457 0.47554877 4278255360
0.0048786956 0.0088265855 0.47594309 4278255360
0.0051750578 0.0087449253 0.47633743 4278255360
0.00547142 0.008663265 0.47673178 4278255360
0.0057677827 0.0085816039 0.47712612 4278255360
0.0060641444 0.0084999437 0.47752044 4278255360
0.0063605071 0.0084182834 0.47791478 4278255360
0.0066568693 0.0083366223 0.47830912 4278255360
0.006953232 0.008254962 0.47870344 4278255360
0.0072495937 0.0081733018 0.47909778 4278255360
0.0075459564 0.0080916416 0.47949213 4278255360
0.0078423191 0.0080099804 0.47988647 4278255360
0.0081386808 0.0079283202 0.48028079 4278255360
0.0084350426 0.00784666 0.48067513 4278255360
0.0087314062 0.0077649988 0.48106948 4278255360
0.0090277679 0.0076833386 0.48146379 4278255360
0.0093241297 0.0076016784 0.48185813 4278255360
0.0096204923 0.0075200177 0.48225248 4278255360
0.009916855 0.007438357 0.48264682 4278255360
0.010213217 0.0073566968 0.48304114 4278255360
0.010509579 0.0072750365 0.48343548 4278255360
0.010805941 0.0071933754 0.48382983 4278255360
0.011102304 0.0071117152 0.48422414 4278255360
0.011398666 0.0070300549 0.48461848 4278255360
0.011695028 0.0069483942 0.48501283 4278255360
0.01199139 0.0068667335 0.48540717 4278255360
0.012287753 0.0067850733 0.48580149 4278255360
0.012584115 0.0067034126 0.48619583 4278255360
0.012880477 0.0066217524 0.48659018 4278255360
0.013176839 0.0065400917 0.48698452 4278255360
0.013473202 0.006458431 0.48737884 4278255360
0.013769564 0.0063767708 0.48777318 4278255360
0.014065926 0.0062951106 0.48816752 4278255360
0.014362289 0.0062134499 0.48856184 4278255360
0.01465865 0.0061317896 0.48895618 4278255360
0.014955014 0.0060501285 0.48935053 4278255360
0.015251376 0.0059684683 0.48974487 4278255360
0.015547737 0.0058868076 0.49013919 4278255360
0.015844099 0.0058051473 0.49053353 4278255360
0.016140463 0.0057234871 0.49092788 4278255360
0.016436825 0.0056418264 0.49132219 4278255360
0.016733188 0.0055601657 0.49171653 4278255360
0.01702955 0.005478505 0.49211088 4278255360
0.017325912 0.0053968448 0.49250522 4278255360
0.017622273 0.0053151846 0.49289954 4278255360
0.017918635 0.0052335239 0.49329388 4278255360
0.018214997 0.0051518637 0.49368823 4278255360
0.018511362 0.0050702025 0.49408257 4278255360
0.018807724 0.0049885423 0.49447688 4278255360
0.019104086 0.0049068816 0.49487123 4278255360
0.019400448 0.0048252214 0.49526557 4278255360
0.019696809 0.0047435611 0.49565989 4278255360
0.019993171 0.0046619005 0.49605423 4278255360
0.020289535 0.0045802398 0.49644858 4278255360
0.020585896 0.0044985791 0.49684292 4278255360
0.02088226 0.0044169188 0.49723724 4278255360
0.021178622 0.0043352582 0.49763158 4278255360
0.021474984 0.0042535979 0.49802592 4278255360
0.021771345 0.0041719377 0.49842024 4278255360
0.022067707 0.004090277 0.49881458 4278255360
0.022364071 0.0040086163 0.49920893 4278255360
0.022660432 0.0039269556 0.49960327 4278255360
0.022956796 0.0038452954 0.49999759 4278255360
0.023253158 0.0037636352 0.50039196 4278255360
0.023549519 0.0036819745 0.50078624 4278255360
0.023845881 0.0036003143 0.50118059 4278255360
0.024142245 0.0035186531 0.50157493 4278255360
0.024438607 0.0034369929 0.50196928 4278255360
0.024734968 0.0033553322 0.50236362 4278255360
0.02503133 0.003273672 0.50275797 4278255360
0.025327694 0.0031920117 0.50315225 4278255360
0.025624055 0.003110351 0.5035466 4278255360
0.025920419 0.0030286903 0.50394094 4278255360
0.026216781 0.0029470297 0.50433528 4278255360
0.026513143 0.0028653694 0.50472963 4278255360
0.026809504 0.0027837092 0.50512397 4278255360
0.027105866 0.0027020485 0.50551832 4278255360
0.027402228 0.0026203878 0.50591266 4278255360
0.027698593 0.0025387276 0.50630695 4278255360
0.027994955 0.0024570664 0.50670129 4278255360
0.028291317 0.0023754062 0.50709563 4278255360
0.028587678 0.002293746 0.50748998 4278255360
-0.00104855 0.010459796 0.46805638 4278190335
-0.0014512526 0.010399699 0.4683466 4278190335
-0.0018539552 0.010339602 0.46863678 4278190335
-0.0022566579 0.010279506 0.468927 4278190335
-0.0026593604 0.010219409 0.46921721 4278190335
-0.0030620634 0.010159312 0.4695074 4278190335
-0.0034647658 0.010099215 0.46979761 4278190335
-0.0038674686 0.010039119 0.47008783 4278190335
-0.0042701708 0.0099790227 0.47037801 4278190335
-0.0046728738 0.0099189254 0.47066823 4278190335
-0.0050755767 0.009858829 0.47095844 4278190335
-0.0054782792 0.0097987326 0.47124863 4278190335
-0.0058809817 0.0097386353 0.47153884 4278190335
-0.0062836842 0.0096785389 0.47182906 4278190335
-0.0066863871 0.0096184425 0.47211924 4278190335
-0.0070890901 0.0095583452 0.47240946 4278190335
-0.0074917921 0.0094982488 0.47269967 4278190335
-0.0078944955 0.0094381524 0.47298986 4278190335
-0.0082971975 0.0093780551 0.47328007 4278190335
-0.0086999005 0.0093179587 0.47357029 4278190335
-0.0091026034 0.0092578623 0.47386047 4278190335
-0.0095053054 0.009197766 0.47415069 4278190335
-0.0099080084 0.0091376686 0.4744409 4278190335
-0.010310711 0.0090775723 0.47473109 4278190335
-0.010713413 0.0090174759 0.4750213 4278190335
-0.011116116 0.0089573786 0.47531152 4278190335
-0.011518818 0.0088972822 0.4756017 4278190335
-0.011921522 0.0088371858 0.47589192 4278190335
-0.012324224 0.0087770894 0.47618213 4278190335
-0.012726926 0.0087169921 0.47647232 4278190335
-0.01312963 0.0086568957 0.47676253 4278190335
-0.013532332 0.0085967984 0.47705275 4278190335
-0.013935034 0.008536702 0.47734293 4278190335
-0.014337738 0.0084766056 0.47763315 4278190335
-0.01474044 0.0084165093 0.47792336 4278190335
-0.015143143 0.0083564119 0.47821355 4278190335
-0.015545846 0.0082963156 0.47850376 4278190335
-0.015948549 0.0082362192 0.47879398 4278190335
-0.016351251 0.0081761219 0.47908416 4278190335
-0.016753953 0.0081160255 0.47937438 4278190335
-0.017156657 0.0080559291 0.47966459 4278190335
-0.017559359 0.0079958327 0.47995478 4278190335
-0.017962061 0.0079357354 0.48024499 4278190335
-0.018364765 0.007875639 0.48053521 4278190335
-0.018767467 0.0078155417 0.48082539 4278190335
-0.019170169 0.0077554453 0.48111561 4278190335
-0.019572873 0.0076953489 0.48140582 4278190335
-0.019975575 0.0076352526 0.48169601 4278190335
-0.020378277 0.0075751557 0.48198622 4278190335
-0.020780981 0.0075150589 0.48227644 4278190335
-0.021183683 0.0074549625 0.48256665 4278190335
-0.021586385 0.0073948656 0.48285684 4278190335
-0.021989087 0.0073347688 0.48314705 4278190335
-0.022391789 0.0072746724 0.48343724 4278190335
-0.022794494 0.0072145755 0.48372746 4278190335
-0.023197196 0.0071544787 0.48401767 4278190335
-0.023599898 0.0070943823 0.48430789 4278190335
-0.0240026 0.0070342859 0.48459807 4278190335
-0.024405302 0.0069741891 0.48488829 4278190335
-0.024808004 0.0069140922 0.48517847 4278190335
-0.02521071 0.0068539954 0.48546869 4278190335
-0.025613412 0.0067938985 0.4857589 4278190335
-0.026016114 0.0067338021 0.48604912 4278190335
-0.026418816 0.0066737058 0.4863393 4278190335
-0.026821518 0.0066136089 0.48662952 4278190335
-0.027224222 0.0065535125 0.4869197 4278190335
-0.027626926 0.0064934152 0.48720992 4278190335
-0.028029628 0.0064333188 0.48750013 4278190335
-0.02843233 0.006373222 0.48779035 4278190335
-0.028835032 0.0063131256 0.48808053 4278190335
-0.029237736 0.0062530288 0.48837075 4278190335
-0.029640438 0.0061929324 0.48866096 4278190335
-0.030043142 0.0061328355 0.48895115 4278190335
-0.030445844 0.0060727387 0.48924136 4278190335
-0.030848546 0.0060126423 0.48953158 4278190335
-0.031251248 0.0059525454 0.48982176 4278190335
-0.031653952 0.0058924491 0.49011198 4278190335
-0.032056652 0.0058323522 0.49040219 4278190335
-0.032459356 0.0057722558 0.49069238 4278190335
-0.03286206 0.005712159 0.49098259 4278190335
-0.033264764 0.0056520621 0.49127281 4278190335
-0.033667464 0.0055919657 0.49156299 4278190335
-0.034070168 0.0055318689 0.49185321 4278190335
-0.034472868 0.0054717725 0.49214342 4278190335
-0.034875572 0.0054116757 0.49243361 4278190335
-0.035278276 0.0053515788 0.49272382 4278190335
-0.035680979 0.005291482 0.49301404 4278190335
-0.03608368 0.0052313856 0.49330422 4278190335
-0.036486384 0.0051712887 0.49359444 4278190335
-0.036889084 0.0051111924 0.49388465 4278190335
-0.037291788 0.0050510955 0.49417484 4278190335
-0.037694491 0.0049909987 0.49446505 4278190335
-0.038097195 0.0049309023 0.49475527 4278190335
-0.038499895 0.0048708054 0.49504545 4278190335
-0.038902599 0.004810709 0.49533567 4278190335
-0.039305303 0.0047506122 0.49562588 4278190335
-0.039708003 0.0046905158 0.49591607 4278190335
-0.040110707 0.0046304185 0.49620628 4278190335
-0.040513411 0.0045703221 0.4964965 4278190335
-0.040916111 0.0045102253 0.49678668 4278190335
-0.041318815 0.0044501289 0.4970769 4278190335
-0.00104855 0.010459796 0.46805638 4294967295
-0.00024314481 0.010579989 0.46747598 4294967295
0.00056226039 0.010700182 0.46689555 4294967295
0.0013676656 0.010820376 0.46631515 4294967295
0.0021730708 0.010940569 0.46573475 4294967295
0.0029784762 0.011060762 0.46515432 4294967295
0.0037838812 0.011180956 0.46457392 4294967295
0.0045892866 0.011301149 0.46399352 4294967295
0.0053946916 0.011421342 0.46341309 4294967295
0.0062000975 0.011541536 0.46283269 4294967295
0.0070055025 0.011661729 0.46225229 4294967295
0.0078109074 0.011781923 0.46167186 4294967295
0.0086163124 0.011902115 0.46109146 4294967295
0.0094217174 0.012022309 0.46051106 4294967295
0.010227123 0.012142502 0.45993063 4294967295
0.011032529 0.012262695 0.45935023 4294967295
0.011837933 0.012382889 0.45876983 4294967295
0.012643339 0.012503082 0.4581894 4294967295
0.013448745 0.012623276 0.457609 4294967295
0.014254149 0.012743468 0.4570286 4294967295
0.015059555 0.012863662 0.45644817 4294967295
0.015864959 0.012983855 0.45586777 4294967295
0.016670365 0.013104049 0.45528737 4294967295
0.017475771 0.013224242 0.45470694 4294967295
0.018281175 0.013344435 0.45412654 4294967295
0.019086581 0.013464629 0.45354614 4294967295
0.019891985 0.013584822 0.45296571 4294967295
0.020697393 0.013705015 0.45238531 4294967295
0.021502797 0.013825209 0.45180491 4294967295
0.022308201 0.013945402 0.45122448 4294967295
0.023113608 0.014065595 0.45064408 4294967295
0.023919012 0.014185789 0.45006368 4294967295
0.024724416 0.014305982 0.44948325 4294967295
0.025529824 0.014426176 0.44890285 4294967295
0.026335228 0.014546368 0.44832245 4294967295
0.027140632 0.014666562 0.44774202 4294967295
0.02794604 0.014786756 0.44716161 4294967295
0.028751444 0.014906948 0.44658121 4294967295
0.029556848 0.015027141 0.44600081 4294967295
0.030362252 0.015147335 0.44542038 4294967295
0.03116766 0.015267529 0.44483998 4294967295
0.031973064 0.015387721 0.44425958 4294967295
0.032778468 0.015507915 0.44367915 4294967295
0.033583876 0.015628109 0.44309875 4294967295
0.03438928 0.015748302 0.44251835 4294967295
0.035194684 0.015868496 0.44193792 4294967295
0.036000092 0.015988689 0.44135752 4294967295
0.036805496 0.016108882 0.44077712 4294967295
0.0376109 0.016229074 0.44019669 4294967295
0.038416307 0.016349269 0.43961629 4294967295
0.039221711 0.016469462 0.43903589 4294967295
0.040027115 0.016589655 0.43845546 4294967295
0.04083252 0.016709849 0.43787506 4294967295
0.041637924 0.016830042 0.43729466 4294967295
0.042443335 0.016950235 0.43671423 4294967295
0.043248739 0.017070428 0.43613383 4294967295
0.044054143 0.017190622 0.43555343 4294967295
0.044859547 0.017310815 0.434973 4294967295
0.045664951 0.017431008 0.4343926 4294967295
0.046470355 0.017551202 0.4338122 4294967295
0.047275767 0.017671395 0.43323177 4294967295
0.048081171 0.017791588 0.43265137 4294967295
0.048886575 0.017911782 0.43207097 4294967295
0.049691979 0.018031975 0.43149054 4294967295
0.050497383 0.018152168 0.43091014 4294967295
0.051302787 0.018272363 0.43032974 4294967295
0.052108198 0.018392555 0.42974931 4294967295
0.052913602 0.018512748 0.42916891 4294967295
0.053719006 0.018632941 0.42858851 4294967295
0.054524411 0.018753134 0.42800808 4294967295
0.055329815 0.018873328 0.42742768 4294967295
0.056135219 0.018993521 0.42684728 4294967295
0.05694063 0.019113716 0.42626685 4294967295
0.057746034 0.019233909 0.42568645 4294967295
0.058551438 0.019354101 0.42510605 4294967295
0.059356842 0.019474294 0.42452562 4294967295
0.060162246 0.019594487 0.42394522 4294967295
