# .PCD v0.7 - Point Cloud Data file format
VERSION 0.7
FIELDS x y z rgb
SIZE 4 4 4 4
TYPE F F F U
COUNT 1 1 1 1
WIDTH 1072
HEIGHT 1
VIEWPOINT 0 0 0 1 0 0 0
POINTS 1072
DATA ascii
0.065207683 0.055103082 0.33400002 4279058970
0.058698688 0.056188285 0.33400002 4282931531
0.059783522 0.056188285 0.33400002 4279051277
0.060868353 0.056188285 0.33400002 4280171039
0.061953187 0.056188285 0.33400002 4279648029
0.063038021 0.056188285 0.33400002 4279123482
0.064122848 0.056188285 0.33400002 4279058970
0.065207683 0.056188285 0.33400002 4279256349
0.066292517 0.056188285 0.33400002 4279190556
0.067377344 0.056188285 0.33400002 4279255836
0.068462178 0.056188285 0.33400002 4279912231
0.057786349 0.057444956 0.33500001 4281418292
0.058698688 0.057273481 0.33400002 4282208576
0.059783522 0.057273481 0.33400002 4279775770
0.060868353 0.057273481 0.33400002 4280105760
0.061953187 0.057273481 0.33400002 4280108580
0.063038021 0.057273481 0.33400002 4279319576
0.064122848 0.057273481 0.33400002 4278993177
0.065207683 0.057273481 0.33400002 4278993177
0.066292517 0.057273481 0.33400002 4283796064
0.067377344 0.057273481 0.33400002 4280109860
0.068462178 0.057273481 0.33400002 4279189273
0.069547012 0.057273481 0.33400002 4279255066
0.057786349 0.058533408 0.33500001 4280628522
0.058874432 0.058533408 0.33500001 4279708955
0.059783522 0.058358684 0.33400002 4279711002
0.060868353 0.058358684 0.33400002 4280369702
0.061953187 0.058358684 0.33400002 4280174119
0.063038021 0.058358684 0.33400002 4279845922
0.064122848 0.058358684 0.33400002 4279058459
0.065207683 0.058358684 0.33400002 4279058459
0.066292517 0.058358684 0.33400002 4278992664
0.067377344 0.058358684 0.33400002 4282084937
0.068462178 0.058358684 0.33400002 4279453217
0.069547012 0.058358684 0.33400002 4279320859
0.057786349 0.059621859 0.33500001 4281155636
0.058874432 0.059621859 0.33500001 4279051025
0.059962511 0.059621859 0.33500001 4280105760
0.06105059 0.059621859 0.33500001 4280435495
0.061953187 0.059443887 0.33400002 4280042787
0.063038021 0.059443887 0.33400002 4279713822
0.064122848 0.059443887 0.33400002 4279649313
0.065207683 0.059443887 0.33400002 4279254555
0.066292517 0.059443887 0.33400002 4279188762
0.067377344 0.059443887 0.33400002 4278991896
0.068462178 0.059443887 0.33400002 4278533398
0.069547012 0.059443887 0.33400002 4279059742
0.057786349 0.060710307 0.33500001 4283327572
0.058874432 0.060710307 0.33500001 4279314195
0.059962511 0.060710307 0.33500001 4280500518
0.06105059 0.060710307 0.33500001 4280436008
0.061953187 0.060529083 0.33400002 4279976994
0.063038021 0.060529083 0.33400002 4279976994
0.064122848 0.060529083 0.33400002 4280042785
0.065207683 0.060529083 0.33400002 4279845920
0.066292517 0.060529083 0.33400002 4279845920
0.067377344 0.060529083 0.33400002 4280241448
0.068462178 0.060529083 0.33400002 4279715106
0.069547012 0.060529083 0.33400002 4278794515
0.059962511 0.061798759 0.33500001 4280829737
0.06105059 0.061798759 0.33500001 4280501542
0.062138673 0.061798759 0.33500001 4280042787
0.063038021 0.061614286 0.33400002 4279779615
0.064122848 0.061614286 0.33400002 4279780129
0.065207683 0.061614286 0.33400002 4279780129
0.066292517 0.061614286 0.33400002 4279911715
0.067377344 0.061614286 0.33400002 4280043301
0.068462178 0.061614286 0.33400002 4280240680
0.069547012 0.061614286 0.33400002 4279715106
0.06105059 0.062887207 0.33500001 4280304676
0.062138673 0.062887207 0.33500001 4280042787
0.063226752 0.062887207 0.33500001 4279779615
0.064122848 0.062699482 0.33400002 4279780129
0.065207683 0.062699482 0.33400002 4279845922
0.066292517 0.062699482 0.33400002 4279911715
0.067377344 0.062699482 0.33400002 4280306473
0.068462178 0.062699482 0.33400002 4279977508
0.069547012 0.062699482 0.33400002 4279977508
0.071711667 0.06282983 0.32900003 4279451934
0.072780266 0.06282983 0.32900003 4279451934
0.073848851 0.06282983 0.32900003 4279320348
0.074917451 0.06282983 0.32900003 4279254553
0.071929634 0.064093001 0.33000001 4279582750
0.072780266 0.063898779 0.32900003 4279845922
0.073848851 0.063898779 0.32900003 4279582750
0.074917451 0.063898779 0.32900003 4279648543
0.075986043 0.063898779 0.32900003 4279385371
0.077054627 0.063898779 0.32900003 4279451934
0.077885762 0.063704558 0.32800001 4279123482
0.078951113 0.063704558 0.32800001 4278794515
0.071072519 0.065362677 0.33100003 4279516957
0.071929634 0.065165207 0.33000001 4279648543
0.073001474 0.065165207 0.33000001 4279582750
0.073848851 0.064967737 0.32900003 4279780129
0.074917451 0.064967737 0.32900003 4279976227
0.075986043 0.064967737 0.32900003 4279119637
0.077054627 0.064967737 0.32900003 4279119635
0.078123227 0.064967737 0.32900003 4279516443
0.078951113 0.064770259 0.32800001 4279779615
0.080016449 0.064770259 0.32800001 4279451164
0.0810818 0.064770259 0.32800001 4279122199
0.071072519 0.066438131 0.33100003 4279911715
0.072147608 0.066438131 0.33100003 4279911201
0.073001474 0.066237405 0.33000001 4279779361
0.074073315 0.066237405 0.33000001 4279713568
0.075145155 0.066237405 0.33000001 4280172836
0.075986043 0.066036686 0.32900003 4280171301
0.077054627 0.066036686 0.32900003 4278921234
0.078123227 0.066036686 0.32900003 4279712026
0.079191819 0.066036686 0.32900003 4280173090
0.080016449 0.065835968 0.32800001 4279976481
0.0810818 0.065835968 0.32800001 4279844893
0.082147136 0.065835968 0.32800001 4279451162
0.083212487 0.065835968 0.32800001 4279451162
0.08402089 0.065635249 0.32700002 4279187990
0.085082985 0.065635249 0.32700002 4279057174
0.0702089 0.067717552 0.33200002 4280108840
0.071287237 0.067717552 0.33200002 4279779875
0.072147608 0.067513585 0.33100003 4279648289
0.073222697 0.067513585 0.33100003 4279779615
0.074073315 0.067309611 0.33000001 4279779615
0.075145155 0.067309611 0.33000001 4280303909
0.076216996 0.067309611 0.33000001 4279051025
0.077054627 0.067105643 0.32900003 4279118101
0.078123227 0.067105643 0.32900003 4279975457
0.079191819 0.067105643 0.32900003 4279976227
0.080260411 0.067105643 0.32900003 4279976481
0.0810818 0.066901676 0.32800001 4279779100
0.082147136 0.066901676 0.32800001 4279713820
0.083212487 0.066901676 0.32800001 4279911199
0.08402089 0.066697709 0.32700002 4279713820
0.085082985 0.066697709 0.32700002 4279582748
0.086145088 0.066697709 0.32700002 4279516957
0.08694049 0.066493735 0.32600001 4279057176
0.087999336 0.066493735 0.32600001 4278333964
0.089058183 0.066493735 0.32600001 4278991894
0.07042037 0.069003463 0.333 4279779875
0.071287237 0.068796247 0.33200002 4279911461
0.072365575 0.068796247 0.33200002 4279845922
0.073222697 0.068589032 0.33100003 4279911199
0.074297786 0.068589032 0.33100003 4279844895
0.075372875 0.068589032 0.33100003 4279184406
0.076216996 0.068381809 0.33000001 4279774746
0.077288836 0.068381809 0.33000001 4280302627
0.078123227 0.068174601 0.32900003 4279778848
0.079191819 0.068174601 0.32900003 4280042020
0.080260411 0.068174601 0.32900003 4278787851
0.081329003 0.068174601 0.32900003 4278919437
0.082147136 0.067967378 0.32800001 4278985484
0.083212487 0.067967378 0.32800001 4280303139
0.084277831 0.067967378 0.32800001 4279581982
0.085082985 0.067760162 0.32700002 4279779361
0.086145088 0.067760162 0.32700002 4279582496
0.08694049 0.067552939 0.32600001 4279516703
0.087999336 0.067552939 0.32600001 4279386141
0.089058183 0.067552939 0.32600001 4279320346
0.089840598 0.067345724 0.32500002 4279188760
0.090896204 0.067345724 0.32500002 4278794515
0.091951802 0.067345724 0.32500002 4278991894
0.096631467 0.066931292 0.32300001 4278926099
0.097982988 0.067138501 0.324 4278860306
0.099035338 0.067138501 0.324 4278991894
0.10008769 0.067138501 0.324 4279386139
0.10114004 0.067138501 0.324 4279845920
0.10219239 0.067138501 0.324 4280042785
0.07042037 0.070085414 0.333 4279779361
0.071501955 0.070085414 0.333 4280042533
0.072365575 0.06987495 0.33200002 4279845922
0.073443912 0.06987495 0.33200002 4279911201
0.074297786 0.069664486 0.33100003 4278921488
0.075372875 0.069664486 0.33100003 4279051025
0.076447964 0.069664486 0.33100003 4279907104
0.077288836 0.069454014 0.33000001 4280303141
0.078360677 0.069454014 0.33000001 4279975457
0.079191819 0.06924355 0.32900003 4278789134
0.080260411 0.06924355 0.32900003 4279181330
0.081329003 0.06924355 0.32900003 4279444500
0.082147136 0.069033086 0.32800001 4279246094
0.083212487 0.069033086 0.32800001 4279376910
0.084277831 0.069033086 0.32800001 4278654984
0.085082985 0.068822622 0.32700002 4279644445
0.086145088 0.068822622 0.32700002 4280172838
0.087207183 0.068822622 0.32700002 4279778850
0.087999336 0.068612151 0.32600001 4279779613
0.089058183 0.068612151 0.32600001 4279648027
0.089840598 0.068401687 0.32500002 4279713820
0.090896204 0.068401687 0.32500002 4279451162
0.091668874 0.068191215 0.324 4279254553
0.092721224 0.068191215 0.324 4279188760
0.093484156 0.067980751 0.32300001 4278991381
0.094533257 0.067980751 0.32300001 4278860308
0.095582359 0.067980751 0.32300001 4278794515
0.096631467 0.067980751 0.32300001 4279189271
0.097680576 0.067980751 0.32300001 4278992146
0.098729677 0.067980751 0.32300001 4279255318
0.099778786 0.067980751 0.32300001 4279057172
0.10082789 0.067980751 0.32300001 4279188758
0.10187699 0.067980751 0.32300001 4279188758
0.10260744 0.067770287 0.32200003 4279254551
0.1039752 0.067980751 0.32300001 4279713818
0.069547012 0.071381092 0.33400002 4280368934
0.07042037 0.071167372 0.333 4280370215
0.071501955 0.071167372 0.333 4280239399
0.072365575 0.07095366 0.33200002 4280107813
0.073443912 0.07095366 0.33200002 4279647262
0.074522242 0.07095366 0.33200002 4280039969
0.075372875 0.07073994 0.33100003 4280104481
0.076447964 0.07073994 0.33100003 4280105762
0.077523045 0.07073994 0.33100003 4280238116
0.078360677 0.070526227 0.33000001 4280303139
0.079432517 0.070526227 0.33000001 4279051025
0.080260411 0.070312507 0.32900003 4279510295
0.081329003 0.070312507 0.32900003 4280036637
0.082397588 0.070312507 0.32900003 4279576086
0.083212487 0.070098795 0.32800001 4279772951
0.084277831 0.070098795 0.32800001 4279377682
0.085082985 0.069885075 0.32700002 4279180816
0.086145088 0.069885075 0.32700002 4279444502
0.087207183 0.069885075 0.32700002 4278853133
0.087999336 0.069671355 0.32600001 4279513109
0.089058183 0.069671355 0.32600001 4280106014
0.089840598 0.069457643 0.32500002 4279909916
0.090896204 0.069457643 0.32500002 4279779613
0.091951802 0.069457643 0.32500002 4279516955
0.092721224 0.069243923 0.324 4279451162
0.093773581 0.069243923 0.324 4279451932
0.094533257 0.06903021 0.32300001 4279386139
0.095582359 0.06903021 0.32300001 4279517725
0.096631467 0.06903021 0.32300001 4278991379
0.097680576 0.06903021 0.32300001 4279057426
0.098424017 0.068816498 0.32200003 4279057426
0.099469878 0.068816498 0.32200003 4279320598
0.10051574 0.068816498 0.32200003 4279254805
0.10156158 0.068816498 0.32200003 4278992146
0.10228878 0.068602778 0.32100001 4279123732
0.10333139 0.068602778 0.32100001 4279189525
0.10372369 0.068175346 0.31900001 4279255318
0.07042037 0.072249316 0.333 4282734918
0.071501955 0.072249316 0.333 4281223216
0.072583541 0.072249316 0.333 4280368934
0.073443912 0.072032355 0.33200002 4280369704
0.074522242 0.072032355 0.33200002 4280763692
0.075600579 0.072032355 0.33200002 4279579164
0.076447964 0.071815394 0.33100003 4279909153
0.077523045 0.071815394 0.33100003 4280238116
0.078360677 0.071598426 0.33000001 4280171041
0.079432517 0.071598426 0.33000001 4279247121
0.080260411 0.071381465 0.32900003 4279443475
0.081329003 0.071381465 0.32900003 4279377682
0.082397588 0.071381465 0.32900003 4279905051
0.083212487 0.071164496 0.32800001 4279116305
0.084277831 0.071164496 0.32800001 4279905821
0.085343175 0.071164496 0.32800001 4279971614
0.086145088 0.070947535 0.32700002 4279772699
0.087207183 0.070947535 0.32700002 4279378195
0.088269278 0.070947535 0.32700002 4279312400
0.089058183 0.070730567 0.32600001 4279246607
0.09011703 0.070730567 0.32600001 4279049994
0.090896204 0.070513599 0.32500002 4279512080
0.091951802 0.070513599 0.32500002 4279252756
0.092721224 0.07029663 0.324 4279582748
0.093773581 0.07029663 0.324 4279582748
0.094533257 0.070079669 0.32300001 4279648541
0.095582359 0.070079669 0.32300001 4279451162
0.096631467 0.070079669 0.32300001 4279319576
0.097378157 0.069862708 0.32200003 4279516953
0.098424017 0.069862708 0.32200003 4279385367
0.099469878 0.069862708 0.32200003 4278925840
0.10020357 0.06964574 0.32100001 4278991633
0.10124617 0.06964574 0.32100001 4279123732
0.10197013 0.069428779 0.32000002 4279255318
0.10300949 0.069428779 0.32000002 4278860306
0.10372369 0.069211811 0.31900001 4279189271
0.10480098 0.068560913 0.31600001 4279320598
0.10582734 0.068560913 0.31600001 4279386137
0.10685371 0.068560913 0.31600001 4279254553
0.10788008 0.068560913 0.31600001 4280174373
0.10890645 0.068560913 0.31600001 4280435747
0.10993282 0.068560913 0.31600001 4280959272
0.074522242 0.073111057 0.33200002 4281091628
0.075600579 0.073111057 0.33200002 4280566311
0.076447964 0.072890848 0.33100003 4280501288
0.077523045 0.072890848 0.33100003 4280304422
0.078360677 0.072670631 0.33000001 4280238629
0.079432517 0.072670631 0.33000001 4280302627
0.080504358 0.072670631 0.33000001 4279576856
0.081329003 0.072450422 0.32900003 4279181328
0.082397588 0.072450422 0.32900003 4279312402
0.083212487 0.072230205 0.32800001 4279378195
0.084277831 0.072230205 0.32800001 4280036123
0.085343175 0.072230205 0.32800001 4279247121
0.086408526 0.072230205 0.32800001 4279247123
0.087207183 0.072009988 0.32700002 4280300579
0.088269278 0.072009988 0.32700002 4280037407
0.089331366 0.072009988 0.32700002 4278984719
0.09011703 0.071789771 0.32600001 4279508496
0.091175877 0.071789771 0.32600001 4279508494
0.091951802 0.071569562 0.32500002 4279312137
0.093007408 0.071569562 0.32500002 4278919176
0.093773581 0.071349345 0.324 4279383320
0.094825923 0.071349345 0.324 4279975709
0.095582359 0.071129136 0.32300001 4279779100
0.096631467 0.071129136 0.32300001 4279647514
0.097378157 0.070908919 0.32200003 4279647514
0.098424017 0.070908919 0.32200003 4279648027
0.099160962 0.070688702 0.32100001 4279451160
0.10020357 0.070688702 0.32100001 4279320344
0.10093077 0.070468493 0.32000002 4279188758
0.10197013 0.070468493 0.32000002 4278991379
0.10268757 0.070248276 0.31900001 4279320598
0.10339855 0.070028067 0.31800002 4279189012
0.10410301 0.069807842 0.317 4279255318
0.10480098 0.069587633 0.31600001 4279189525
0.10582734 0.069587633 0.31600001 4279189525
0.10685371 0.069587633 0.31600001 4279189271
0.10788008 0.069587633 0.31600001 4279255066
0.10890645 0.069587633 0.31600001 4279517725
0.10993282 0.069587633 0.31600001 4280173858
0.11095919 0.069587633 0.31600001 4280304674
0.11336955 0.069807842 0.317 4281222962
0.076447964 0.073966302 0.33100003 4281816126
0.077523045 0.073966302 0.33100003 4280368680
0.078598142 0.073966302 0.33100003 4280698667
0.079432517 0.073742829 0.33000001 4280369702
0.080504358 0.073742829 0.33000001 4280303911
0.081329003 0.073519371 0.32900003 4280303141
0.082397588 0.073519371 0.32900003 4280038942
0.083466187 0.073519371 0.32900003 4278918924
0.084277831 0.073295906 0.32800001 4279509268
0.085343175 0.073295906 0.32800001 4279311889
0.086408526 0.073295906 0.32800001 4279640852
0.087473869 0.073295906 0.32800001 4279443986
0.088269278 0.073072441 0.32700002 4279246607
0.089331366 0.073072441 0.32700002 4279443988
0.090393469 0.073072441 0.32700002 4279640850
0.091175877 0.072848976 0.32600001 4280101401
0.092234731 0.072848976 0.32600001 4279772436
0.093007408 0.072625518 0.32500002 4279246092
0.094063006 0.072625518 0.32500002 4278985230
0.094825923 0.072402053 0.324 4279909405
0.095582359 0.072178587 0.32300001 4278593545
0.096631467 0.072178587 0.32300001 4279909405
0.097378157 0.07195513 0.32200003 4279975196
0.098424017 0.07195513 0.32200003 4279909916
0.099160962 0.071731664 0.32100001 4279582234
0.10020357 0.071731664 0.32100001 4279516955
0.10093077 0.071508206 0.32000002 4279779613
0.10165147 0.071284734 0.31900001 4279582232
0.10268757 0.071284734 0.31900001 4279319574
0.10339855 0.071061276 0.31800002 4279057426
0.10410301 0.070837811 0.317 4278860045
0.10513262 0.070837811 0.317 4279254803
0.10582734 0.070614345 0.31600001 4279189012
0.10685371 0.070614345 0.31600001 4279254551
0.10788008 0.070614345 0.31600001 4279189273
0.10890645 0.070614345 0.31600001 4279188760
0.10993282 0.070614345 0.31600001 4279451162
0.11131032 0.070837811 0.317 4279385369
0.11233994 0.070837811 0.317 4279845920
0.11336955 0.070837811 0.317 4279911201
0.11439916 0.070837811 0.317 4280633128
0.079432517 0.074815035 0.33000001 4281354032
0.080504358 0.074815035 0.33000001 4280763178
0.081329003 0.074588329 0.32900003 4280434725
0.082397588 0.074588329 0.32900003 4280434979
0.083466187 0.074588329 0.32900003 4280434979
0.084277831 0.074361615 0.32800001 4280697131
0.085343175 0.074361615 0.32800001 4280235299
0.086408526 0.074361615 0.32800001 4278983437
0.087473869 0.074361615 0.32800001 4279312402
0.088539213 0.074361615 0.32800001 4279574291
0.089331366 0.074134901 0.32700002 4279508496
0.090393469 0.074134901 0.32700002 4280760098
0.091455564 0.074134901 0.32700002 4279576338
0.092234731 0.073908187 0.32600001 4279180814
0.093293577 0.073908187 0.32600001 4279378195
0.094063006 0.073681481 0.32500002 4280170787
0.095118605 0.073681481 0.32500002 4280172836
0.095878281 0.07345476 0.324 4280107297
0.096631467 0.073228054 0.32300001 4279778332
0.097680576 0.073228054 0.32300001 4278921486
0.098424017 0.07300134 0.32200003 4278987279
0.099160962 0.072774626 0.32100001 4279514906
0.10020357 0.072774626 0.32100001 4279712539
0.10093077 0.07254792 0.32000002 4280042272
0.10197013 0.07254792 0.32000002 4279844893
0.10268757 0.072321199 0.31900001 4279713818
0.10339855 0.072094493 0.31800002 4279451160
0.10443141 0.072094493 0.31800002 4279648793
0.10513262 0.071867779 0.317 4279451414
0.10616223 0.071867779 0.317 4279122195
0.10685371 0.071641065 0.31600001 4279254551
0.10788008 0.071641065 0.31600001 4279189273
0.10890645 0.071641065 0.31600001 4279254553
0.10993282 0.071641065 0.31600001 4279188760
0.11131032 0.071867779 0.317 4279320344
0.11233994 0.071867779 0.317 4279188758
0.11336955 0.071867779 0.317 4279189271
0.11439916 0.071867779 0.317 4279320344
0.082397588 0.075657278 0.32900003 4280499239
0.083466187 0.075657278 0.32900003 4280961069
0.084534779 0.075657278 0.32900003 4280303909
0.085343175 0.075427316 0.32800001 4280238118
0.086408526 0.075427316 0.32800001 4280303911
0.087473869 0.075427316 0.32800001 4280434213
0.088539213 0.075427316 0.32800001 4279445268
0.089604549 0.075427316 0.32800001 4279312914
0.0906699 0.075427316 0.32800001 4279443473
0.091455564 0.075197354 0.32700002 4279509266
0.092517667 0.075197354 0.32700002 4279377680
0.093293577 0.074967392 0.32600001 4279707158
0.094352432 0.074967392 0.32600001 4280171553
0.095118605 0.074737437 0.32500002 4279975457
0.096174203 0.074737437 0.32500002 4280238883
0.096930631 0.074507467 0.324 4280238370
0.097680576 0.074277513 0.32300001 4279645209
0.098729677 0.074277513 0.32300001 4280632104
0.099469878 0.074047551 0.32200003 4279513625
0.10020357 0.073817588 0.32100001 4278789902
0.10124617 0.073817588 0.32100001 4278921740
0.10197013 0.073587626 0.32000002 4279712539
0.10268757 0.073357664 0.31900001 4279911199
0.10372369 0.073357664 0.31900001 4279648027
0.10443141 0.073127702 0.31800002 4279713818
0.10513262 0.07289774 0.317 4279647512
0.10616223 0.07289774 0.317 4279976477
0.10719185 0.07289774 0.317 4279844891
0.10822146 0.07289774 0.317 4279319574
0.10925108 0.07289774 0.317 4279187988
0.1102807 0.07289774 0.317 4279254551
0.11131032 0.07289774 0.317 4279320344
0.11233994 0.07289774 0.317 4279123478
0.11336955 0.07289774 0.317 4279189271
0.11439916 0.07289774 0.317 4279189271
0.11542878 0.07289774 0.317 4279255064
0.1164584 0.07289774 0.317 4279386139
0.11748802 0.07289774 0.317 4279582748
0.085603371 0.076726235 0.32900003 4281026096
0.086671971 0.076726235 0.32900003 4280894764
0.087473869 0.076493025 0.32800001 4280566311
0.088539213 0.076493025 0.32800001 4280238116
0.089604549 0.076493025 0.32800001 4280238116
0.0906699 0.076493025 0.32800001 4280434211
0.091735244 0.076493025 0.32800001 4279840280
0.092517667 0.076259814 0.32700002 4279443986
0.093579762 0.076259814 0.32700002 4280497956
0.094352432 0.076026604 0.32600001 4279909405
0.095411271 0.076026604 0.32600001 4279712539
0.096174203 0.075793393 0.32500002 4279183633
0.096930631 0.075560182 0.324 4279050512
0.097982988 0.075560182 0.324 4279247121
0.098729677 0.075326972 0.32300001 4279312914
0.099469878 0.075093761 0.32200003 4279578904
0.10051574 0.075093761 0.32200003 4280039967
0.10124617 0.07486055 0.32100001 4280040221
0.10228878 0.07486055 0.32100001 4279645463
0.10300949 0.07462734 0.32000002 4279250191
0.10372369 0.074394129 0.31900001 4279448084
0.1047598 0.074394129 0.31900001 4279777819
0.10546428 0.074160919 0.31800002 4279975709
0.10649713 0.074160919 0.31800002 4279779100
0.10719185 0.073927708 0.317 4279779098
0.10822146 0.073927708 0.317 4279582232
0.10925108 0.073927708 0.317 4279648025
0.1102807 0.073927708 0.317 4279385367
0.11131032 0.073927708 0.317 4279122195
0.11233994 0.073927708 0.317 4278926099
0.11336955 0.073927708 0.317 4279320857
0.11439916 0.073927708 0.317 4279255064
0.11542878 0.073927708 0.317 4279320857
0.1164584 0.073927708 0.317 4279255064
0.11748802 0.073927708 0.317 4279254551
0.11851764 0.073927708 0.317 4279648539
0.11954726 0.073927708 0.317 4279779611
0.12057687 0.073927708 0.317 4280108578
0.12199011 0.074160919 0.31800002 4280042787
0.12302297 0.074160919 0.31800002 4280763176
0.12405583 0.074160919 0.31800002 4281616691
0.12508871 0.074160919 0.31800002 4284707426
0.088809155 0.077795193 0.32900003 4280236834
0.08987774 0.077795193 0.32900003 4280369186
0.090946332 0.077795193 0.32900003 4280566565
0.091735244 0.077558726 0.32800001 4280500772
0.092800587 0.077558726 0.32800001 4280369186
0.093865931 0.077558726 0.32800001 4280303393
0.094641857 0.077322267 0.32700002 4278855179
0.095411271 0.077085808 0.32600001 4279776281
0.096470118 0.077085808 0.32600001 4280235551
0.097229809 0.076849349 0.32500002 4279444500
0.097982988 0.076612882 0.324 4279443473
0.099035338 0.076612882 0.324 4279706647
0.099778786 0.076376431 0.32300001 4279708953
0.10082789 0.076376431 0.32300001 4279446805
0.10156158 0.076139972 0.32200003 4279579156
0.10228878 0.075903513 0.32100001 4279644947
0.10333139 0.075903513 0.32100001 4280105498
0.10404885 0.075667053 0.32000002 4280105498
0.1047598 0.075430587 0.31900001 4279644949
0.10579592 0.075430587 0.31900001 4278921226
0.10649713 0.075194135 0.31800002 4279579670
0.10753 0.075194135 0.31800002 4279974944
0.10856286 0.075194135 0.31800002 4279778332
0.10925108 0.074957669 0.317 4279779102
0.1102807 0.074957669 0.317 4279648027
0.11131032 0.074957669 0.317 4279582232
0.11233994 0.074957669 0.317 4279451160
0.11336955 0.074957669 0.317 4279187988
0.11439916 0.074957669 0.317 4279451160
0.11542878 0.074957669 0.317 4279582746
0.1164584 0.074957669 0.317 4279451930
0.11748802 0.074957669 0.317 4279320344
0.11851764 0.074957669 0.317 4279188758
0.11954726 0.074957669 0.317 4279188758
0.12057687 0.074957669 0.317 4279386139
0.12199011 0.075194135 0.31800002 4279254553
0.12302297 0.075194135 0.31800002 4279386139
0.12405583 0.075194135 0.31800002 4279845920
0.12508871 0.075194135 0.31800002 4280436260
0.12612157 0.075194135 0.31800002 4280171293
0.090946332 0.07886415 0.32900003 4282407490
0.092014931 0.07886415 0.32900003 4280302112
0.093083523 0.07886415 0.32900003 4280303393
0.093865931 0.078624435 0.32800001 4280434979
0.094931282 0.078624435 0.32800001 4280434979
0.095703945 0.078384727 0.32700002 4280632358
0.096470118 0.078145012 0.32600001 4279711004
0.097528972 0.078145012 0.32600001 4279446551
0.098285407 0.077905312 0.32500002 4280037407
0.099035338 0.077665597 0.324 4280497958
0.10008769 0.077665597 0.324 4280565032
0.10082789 0.07742589 0.32300001 4279709723
0.10187699 0.07742589 0.32300001 4280171039
0.10260744 0.07718619 0.32200003 4280105246
0.10333139 0.076946475 0.32100001 4279578902
0.104374 0.076946475 0.32100001 4279973660
0.10508821 0.076706767 0.32000002 4280303139
0.10612758 0.076706767 0.32000002 4280106014
0.10683203 0.076467052 0.31900001 4279974428
0.10786814 0.076467052 0.31900001 4279776281
0.10856286 0.076227352 0.31800002 4279513111
0.10959573 0.076227352 0.31800002 4279645211
0.1106286 0.076227352 0.31800002 4279777819
0.11131032 0.075987637 0.317 4279778332
0.11233994 0.075987637 0.317 4279647514
0.11336955 0.075987637 0.317 4279844893
0.11439916 0.075987637 0.317 4279713305
0.11542878 0.075987637 0.317 4279713305
0.1164584 0.075987637 0.317 4279319060
0.11748802 0.075987637 0.317 4279385369
0.11851764 0.075987637 0.317 4279582746
0.11954726 0.075987637 0.317 4279648539
0.12095724 0.076227352 0.31800002 4279451930
0.12199011 0.076227352 0.31800002 4279320344
0.12302297 0.076227352 0.31800002 4279320344
0.12405583 0.076227352 0.31800002 4279188758
0.12508871 0.076227352 0.31800002 4279648539
0.12612157 0.076227352 0.31800002 4279648539
0.12755428 0.076467052 0.31900001 4280108065
0.12859039 0.076467052 0.31900001 4280501540
0.13066262 0.076467052 0.31900001 4283656533
0.093366444 0.080176055 0.33000001 4284248161
0.094152115 0.079933099 0.32900003 4281616437
0.094931282 0.079690143 0.32800001 4280697383
0.095703945 0.079447187 0.32700002 4280501288
0.096766047 0.079447187 0.32700002 4280303909
0.097528972 0.079204224 0.32600001 4280303909
0.098285407 0.078961268 0.32500002 4280434725
0.099341013 0.078961268 0.32500002 4279973660
0.10008769 0.078718305 0.324 4278394117
0.10114004 0.078718305 0.324 4280104735
0.10187699 0.078475356 0.32300001 4280039455
0.10292609 0.078475356 0.32300001 4279776281
0.1036533 0.0782324 0.32200003 4280039453
0.10469916 0.0782324 0.32200003 4279513109
0.10541661 0.077989437 0.32100001 4280171039
0.10645922 0.077989437 0.32100001 4280171039
0.10716692 0.077746481 0.32000002 4279578902
0.10786814 0.077503517 0.31900001 4280171039
0.10890425 0.077503517 0.31900001 4280039967
0.10994036 0.077503517 0.31900001 4280171553
0.1106286 0.077260569 0.31800002 4279513877
0.11166146 0.077260569 0.31800002 4279184658
0.11269433 0.077260569 0.31800002 4279579416
0.11372718 0.077260569 0.31800002 4279908633
0.11439916 0.077017605 0.317 4279844121
0.11542878 0.077017605 0.317 4279779098
0.1164584 0.077017605 0.317 4279713818
0.11748802 0.077017605 0.317 4279582232
0.11851764 0.077017605 0.317 4279516439
0.11992438 0.077260569 0.31800002 4279516693
0.12095724 0.077260569 0.31800002 4279386391
0.12199011 0.077260569 0.31800002 4279386137
0.12302297 0.077260569 0.31800002 4279188760
0.12405583 0.077260569 0.31800002 4279386139
0.12508871 0.077260569 0.31800002 4279386137
0.12612157 0.077260569 0.31800002 4279320344
0.12755428 0.077503517 0.31900001 4279319574
0.12859039 0.077503517 0.31900001 4279780125
0.12922016 0.077260569 0.31800002 4279911197
0.13025302 0.077260569 0.31800002 4280305442
0.095996618 0.080755845 0.32800001 4284051032
0.096766047 0.08050964 0.32700002 4280828456
0.097528972 0.080263428 0.32600001 4280565797
0.098285407 0.080017224 0.32500002 4280369702
0.099341013 0.080017224 0.32500002 4280238116
0.10008769 0.079771012 0.324 4280500004
0.10114004 0.079771012 0.324 4280236832
0.10219239 0.079771012 0.324 4279776281
0.10292609 0.079524808 0.32300001 4279644184
0.1039752 0.079524808 0.32300001 4280104735
0.10469916 0.079278611 0.32200003 4280105248
0.10574502 0.079278611 0.32200003 4279644697
0.10645922 0.079032399 0.32100001 4280039455
0.10750182 0.079032399 0.32100001 4279710490
0.10820629 0.078786194 0.32000002 4279710488
0.10924565 0.078786194 0.32000002 4279579416
0.10994036 0.078539982 0.31900001 4279974174
0.11097648 0.078539982 0.31900001 4280171807
0.11201259 0.078539982 0.31900001 4280303393
0.11269433 0.078293778 0.31800002 4280302879
0.11372718 0.078293778 0.31800002 4279579156
0.11476005 0.078293778 0.31800002 4279315730
0.11579292 0.078293778 0.31800002 4280040221
0.11682578 0.078293778 0.31800002 4279712537
0.11785865 0.078293778 0.31800002 4279778330
0.11889151 0.078293778 0.31800002 4279844893
0.11992438 0.078293778 0.31800002 4279779098
0.12095724 0.078293778 0.31800002 4279582232
0.12199011 0.078293778 0.31800002 4279516439
0.12302297 0.078293778 0.31800002 4279648539
0.12405583 0.078293778 0.31800002 4279648539
0.12508871 0.078293778 0.31800002 4279715102
0.12612157 0.078293778 0.31800002 4279451932
0.12715442 0.078293778 0.31800002 4279451160
0.12818728 0.078293778 0.31800002 4279451414
0.12922016 0.078293778 0.31800002 4279451414
0.13025302 0.078293778 0.31800002 4279451414
0.13128589 0.078293778 0.31800002 4279976731
0.13231875 0.078293778 0.31800002 4280435745
0.098587818 0.08132264 0.32600001 4284182877
0.099341013 0.081073187 0.32500002 4280301344
0.10039661 0.081073187 0.32500002 4280960042
0.10114004 0.080823727 0.324 4280697637
0.10219239 0.080823727 0.324 4280369186
0.10324474 0.080823727 0.324 4280369186
0.1039752 0.080574274 0.32300001 4279842590
0.10502431 0.080574274 0.32300001 4279250453
0.10574502 0.080324821 0.32200003 4279446805
0.10679087 0.080324821 0.32200003 4280104735
0.10750182 0.080075361 0.32100001 4280434465
0.10854443 0.080075361 0.32100001 4280302879
0.10924565 0.079825908 0.32000002 4279578389
0.11028501 0.079825908 0.32000002 4279446805
0.11132438 0.079825908 0.32000002 4279381010
0.11201259 0.079576448 0.31900001 4280170780
0.11304871 0.079576448 0.31900001 4279645461
0.11408481 0.079576448 0.31900001 4280171805
0.11512093 0.079576448 0.31900001 4279974428
0.11579292 0.079326995 0.31800002 4279908635
0.11682578 0.079326995 0.31800002 4279513875
0.11785865 0.079326995 0.31800002 4279513361
0.11889151 0.079326995 0.31800002 4279448852
0.11992438 0.079326995 0.31800002 4279975198
0.12095724 0.079326995 0.31800002 4279778332
0.12199011 0.079326995 0.31800002 4279779100
0.12302297 0.079326995 0.31800002 4279911197
0.12405583 0.079326995 0.31800002 4279648025
0.12508871 0.079326995 0.31800002 4279188758
0.12612157 0.079326995 0.31800002 4279582746
0.12715442 0.079326995 0.31800002 4279648793
0.12818728 0.079326995 0.31800002 4279780379
0.12922016 0.079326995 0.31800002 4279517207
0.13025302 0.079326995 0.31800002 4279451414
0.13128589 0.079326995 0.31800002 4279516693
0.13231875 0.079326995 0.31800002 4279779352
0.13335162 0.079326995 0.31800002 4279647766
0.13438448 0.079326995 0.31800002 4280304161
0.10114004 0.081876434 0.324 4284051293
0.10219239 0.081876434 0.324 4281157421
0.10324474 0.081876434 0.324 4280236573
0.1039752 0.081623733 0.32300001 4280434979
0.10502431 0.081623733 0.32300001 4280500518
0.10607341 0.081623733 0.32300001 4280500004
0.10679087 0.081371032 0.32200003 4280236832
0.10783672 0.081371032 0.32200003 4279709975
0.10854443 0.081118323 0.32100001 4279709975
0.10958704 0.081118323 0.32100001 4280171293
0.11062965 0.081118323 0.32100001 4280302877
0.11132438 0.080865614 0.32000002 4279907608
0.11236374 0.080865614 0.32000002 4279709975
0.1134031 0.080865614 0.32000002 4279776281
0.11408481 0.080612905 0.31900001 4279513109
0.11512093 0.080612905 0.31900001 4279513363
0.11615704 0.080612905 0.31900001 4279645463
0.11719315 0.080612905 0.31900001 4280040989
0.11822927 0.080612905 0.31900001 4280171805
0.11926538 0.080612905 0.31900001 4280040221
0.1203015 0.080612905 0.31900001 4279250705
0.1213376 0.080612905 0.31900001 4279381523
0.12237372 0.080612905 0.31900001 4279579416
0.12340983 0.080612905 0.31900001 4279647262
0.12444595 0.080612905 0.31900001 4279779102
0.12508871 0.080360204 0.31800002 4279713305
0.12612157 0.080360204 0.31800002 4279713305
0.12715442 0.080360204 0.31800002 4279582232
0.12818728 0.080360204 0.31800002 4279451414
0.12922016 0.080360204 0.31800002 4279911965
0.13025302 0.080360204 0.31800002 4279648539
0.13128589 0.080360204 0.31800002 4279713818
0.13231875 0.080360204 0.31800002 4279516439
0.13335162 0.080360204 0.31800002 4279516439
0.13438448 0.080360204 0.31800002 4279647512
0.1039752 0.082673192 0.32300001 4283919705
0.10502431 0.082673192 0.32300001 4280893227
0.10607341 0.082673192 0.32300001 4280630309
0.10679087 0.082417242 0.32200003 4280565797
0.10783672 0.082417242 0.32200003 4280434211
0.10888258 0.082417242 0.32200003 4280434211
0.10958704 0.082161285 0.32100001 4280697383
0.11062965 0.082161285 0.32100001 4279315982
0.11167226 0.082161285 0.32100001 4279381262
0.11236374 0.081905335 0.32000002 4280105500
0.1134031 0.081905335 0.32000002 4280039967
0.11444245 0.081905335 0.32000002 4279579416
0.11548182 0.081905335 0.32000002 4279908381
0.11652118 0.081905335 0.32000002 4279513109
0.11756054 0.081905335 0.32000002 4279907606
0.1185999 0.081905335 0.32000002 4279447055
0.11926538 0.08164937 0.31900001 4280237086
0.1203015 0.08164937 0.31900001 4280106012
0.1213376 0.08164937 0.31900001 4280302877
0.12237372 0.08164937 0.31900001 4280302877
0.12340983 0.08164937 0.31900001 4279513109
0.12444595 0.08164937 0.31900001 4279381523
0.12548205 0.08164937 0.31900001 4280171805
0.12612157 0.081393421 0.31800002 4280040989
0.12715442 0.081393421 0.31800002 4279582234
0.12818728 0.081393421 0.31800002 4279582234
0.12922016 0.081393421 0.31800002 4279516953
0.13025302 0.081393421 0.31800002 4279319574
0.13128589 0.081393421 0.31800002 4279319574
0.13231875 0.081393421 0.31800002 4279845918
0.13335162 0.081393421 0.31800002 4279780125
0.13438448 0.081393421 0.31800002 4279779611
0.1349915 0.081137463 0.317 4279909401
0.10783672 0.083463453 0.32200003 4281682997
0.10888258 0.083463453 0.32200003 4280302112
0.10992844 0.083463453 0.32200003 4280631842
0.11062965 0.083204247 0.32100001 4280500256
0.11167226 0.083204247 0.32100001 4280302877
0.11271487 0.083204247 0.32100001 4280039707
0.11375748 0.083204247 0.32100001 4279513111
0.11444245 0.082945049 0.32000002 4279776281
0.11548182 0.082945049 0.32000002 4279973660
0.11652118 0.082945049 0.32000002 4280302625
0.11756054 0.082945049 0.32000002 4280237086
0.1185999 0.082945049 0.32000002 4280038424
0.11963926 0.082945049 0.32000002 4279906584
0.12067863 0.082945049 0.32000002 4279578389
0.12171797 0.082945049 0.32000002 4280237082
0.12237372 0.082685843 0.31900001 4280302875
0.12340983 0.082685843 0.31900001 4280302364
0.12444595 0.082685843 0.31900001 4278985482
0.12548205 0.082685843 0.31900001 4279842074
0.12651818 0.082685843 0.31900001 4280040991
0.12715442 0.082426637 0.31800002 4280107295
0.12818728 0.082426637 0.31800002 4279975707
0.12922016 0.082426637 0.31800002 4279779098
0.13025302 0.082426637 0.31800002 4280042270
0.13128589 0.082426637 0.31800002 4279779098
0.13231875 0.082426637 0.31800002 4279648025
0.13293228 0.082167432 0.317 4279582746
0.13396187 0.082167432 0.317 4279122195
0.1349915 0.082167432 0.317 4279515926
0.11167226 0.084247202 0.32100001 4280432415
0.11271487 0.084247202 0.32100001 4280827686
0.11375748 0.084247202 0.32100001 4280697383
0.11480008 0.084247202 0.32100001 4280434211
0.11584269 0.084247202 0.32100001 4279973660
0.1168853 0.084247202 0.32100001 4279644182
0.11792791 0.084247202 0.32100001 4279776022
0.11897052 0.084247202 0.32100001 4280236573
0.11963926 0.083984755 0.32000002 4280038940
0.12067863 0.083984755 0.32000002 4280104733
0.12171797 0.083984755 0.32000002 4279974426
0.12275734 0.083984755 0.32000002 4279975194
0.1237967 0.083984755 0.32000002 4279773717
0.12444595 0.083722293 0.31900001 4279576084
0.12548205 0.083722293 0.31900001 4280303393
0.12651818 0.083722293 0.31900001 4279975196
0.12715442 0.083459847 0.31800002 4279909916
0.12818728 0.083459847 0.31800002 4280173086
0.12922016 0.083459847 0.31800002 4280238620
0.13025302 0.083459847 0.31800002 4279910168
0.13128589 0.083459847 0.31800002 4279713307
0.13190265 0.083197393 0.317 4280042272
0.13293228 0.083197393 0.317 4280042272
0.13396187 0.083197393 0.317 4279647514
0.1349915 0.083197393 0.317 4279318549
0.11480008 0.085290164 0.32100001 4280366885
0.11584269 0.085290164 0.32100001 4280498723
0.1168853 0.085290164 0.32100001 4280631079
0.11792791 0.085290164 0.32100001 4280302114
0.11897052 0.085290164 0.32100001 4280104735
0.12001313 0.085290164 0.32100001 4279578391
0.12105574 0.085290164 0.32100001 4279841561
0.12171797 0.085024469 0.32000002 4280106014
0.12275734 0.085024469 0.32000002 4279908635
0.1237967 0.085024469 0.32000002 4279642131
0.12444595 0.084758759 0.31900001 4280630309
0.12548205 0.084758759 0.31900001 4280106014
0.12651818 0.084758759 0.31900001 4280172577
0.12715442 0.084493063 0.31800002 4280040989
0.12818728 0.084493063 0.31800002 4280040989
0.12922016 0.084493063 0.31800002 4280238366
0.13025302 0.084493063 0.31800002 4280172573
0.13087304 0.084227361 0.317 4280040987
0.13190265 0.084227361 0.317 4280040987
0.13293228 0.084227361 0.317 4280040989
0.13396187 0.084227361 0.317 4280040989
0.13456567 0.083961658 0.31600001 4279843610
0.11792791 0.086333133 0.32100001 4280367905
0.11897052 0.086333133 0.32100001 4280499491
0.12001313 0.086333133 0.32100001 4280762663
0.12105574 0.086333133 0.32100001 4280302112
0.12209834 0.086333133 0.32100001 4279907354
0.12275734 0.086064182 0.32000002 4280236319
0.1237967 0.086064182 0.32000002 4280170526
0.12483606 0.086064182 0.32000002 4280500004
0.12548205 0.085795231 0.31900001 4280304163
0.12651818 0.085795231 0.31900001 4280238370
0.12715442 0.08552628 0.31800002 4280238368
0.12818728 0.08552628 0.31800002 4280172575
0.12922016 0.08552628 0.31800002 4280172573
0.12984341 0.085257329 0.317 4280040987
0.13087304 0.085257329 0.317 4280172573
0.13190265 0.085257329 0.317 4280172573
0.13251293 0.084988378 0.31600001 4280172575
0.13353929 0.084988378 0.31600001 4280172577
0.13413982 0.084719434 0.31500003 4280172577
0.12105574 0.087376095 0.32100001 4281878579
0.12209834 0.087376095 0.32100001 4281024552
0.12275734 0.087103896 0.32000002 4280959272
0.1237967 0.087103896 0.32000002 4280631844
0.12483606 0.087103896 0.32000002 4280171807
0.12548205 0.086831696 0.31900001 4280304163
0.12651818 0.086831696 0.31900001 4280172577
0.12715442 0.086559497 0.31800002 4280172577
0.12818728 0.086559497 0.31800002 4280238370
0.1288138 0.08628729 0.317 4280434977
0.12984341 0.08628729 0.317 4280172573
0.13087304 0.08628729 0.317 4280040987
0.13148656 0.086015098 0.31600001 4280040987
0.13251293 0.086015098 0.31600001 4280040987
0.13311671 0.085742898 0.31500003 4280040989
0.12548205 0.087868161 0.31900001 4280960296
0.12651818 0.087868161 0.31900001 4280697124
0.12715442 0.087592714 0.31800002 4280565538
0.12818728 0.087592714 0.31800002 4280763430
0.1288138 0.087317258 0.317 4280631842
0.12984341 0.087317258 0.317 4280434461
0.13046019 0.087041818 0.31600001 4280500768
0.13148656 0.087041818 0.31600001 4280500768
0.12715442 0.088625923 0.31800002 4282207542
0.12818728 0.088625923 0.31800002 4281024806
0.1288138 0.088347219 0.317 4280631331
0.13046019 0.088068523 0.31600001 4280630307
0.099909365 0.073952161 0.32358718 4294967295
0.099909365 0.073952161 0.32358718 4294901760
0.10000569 0.073497072 0.32340384 4294901760
0.10010201 0.073041975 0.32322049 4294901760
0.10019834 0.072586887 0.32303715 4294901760
0.10029466 0.072131798 0.3228538 4294901760
0.10039098 0.071676709 0.32267046 4294901760
0.1004873 0.071221612 0.32248712 4294901760
0.10058362 0.070766523 0.3223038 4294901760
0.10067995 0.070311435 0.32212046 4294901760
0.10077627 0.069856338 0.32193711 4294901760
0.10087259 0.069401249 0.32175377 4294901760
0.10096891 0.06894616 0.32157043 4294901760
0.10106523 0.068491071 0.32138708 4294901760
0.10116155 0.068035975 0.32120374 4294901760
0.10125788 0.067580886 0.32102039 4294901760
0.1013542 0.067125797 0.32083705 4294901760
0.10145053 0.066670701 0.32065371 4294901760
0.10154685 0.066215612 0.32047036 4294901760
0.10164317 0.065760523 0.32028702 4294901760
0.1017395 0.065305427 0.3201037 4294901760
0.10183582 0.064850338 0.31992036 4294901760
0.10193214 0.064395249 0.31973702 4294901760
0.10202846 0.06394016 0.31955367 4294901760
0.10212478 0.063485064 0.31937033 4294901760
0.10222111 0.063029975 0.31918699 4294901760
0.10231743 0.062574886 0.31900364 4294901760
0.10241375 0.062119793 0.3188203 4294901760
0.10251007 0.061664701 0.31863695 4294901760
0.10260639 0.061209612 0.31845361 4294901760
0.10270272 0.060754519 0.31827027 4294901760
0.10279904 0.060299426 0.31808692 4294901760
0.10289536 0.059844337 0.31790358 4294901760
0.10299169 0.059389248 0.31772026 4294901760
0.10308801 0.058934156 0.31753692 4294901760
0.10318433 0.058479063 0.31735358 4294901760
0.10328066 0.058023974 0.31717023 4294901760
0.10337698 0.057568882 0.31698689 4294901760
0.1034733 0.057113789 0.31680354 4294901760
0.10356962 0.0566587 0.3166202 4294901760
0.10366594 0.056203611 0.31643686 4294901760
0.10376227 0.055748515 0.31625351 4294901760
0.10385859 0.055293426 0.31607017 4294901760
0.10395491 0.054838337 0.31588683 4294901760
0.10405123 0.054383244 0.31570348 4294901760
0.10414755 0.053928152 0.31552017 4294901760
0.10424388 0.053473063 0.31533682 4294901760
0.1043402 0.05301797 0.31515348 4294901760
0.10443652 0.052562881 0.31497014 4294901760
0.10453285 0.052107789 0.31478679 4294901760
0.10462917 0.0516527 0.31460345 4294901760
0.10472549 0.051197607 0.3144201 4294901760
0.10482182 0.050742514 0.31423676 4294901760
0.10491814 0.050287426 0.31405342 4294901760
0.10501446 0.049832337 0.31387007 4294901760
0.10511078 0.04937724 0.31368673 4294901760
0.1052071 0.048922151 0.31350338 4294901760
0.10530343 0.048467062 0.31332004 4294901760
0.10539975 0.04801197 0.31313673 4294901760
0.10549607 0.047556877 0.31295338 4294901760
0.10559239 0.047101788 0.31277004 4294901760
0.10568871 0.046646696 0.31258669 4294901760
0.10578504 0.046191603 0.31240335 4294901760
0.10588136 0.045736514 0.31222001 4294901760
0.10597768 0.045281425 0.31203666 4294901760
0.10607401 0.044826332 0.31185332 4294901760
0.10617033 0.04437124 0.31166998 4294901760
0.10626666 0.043916151 0.31148663 4294901760
0.10636298 0.043461058 0.31130329 4294901760
0.1064593 0.043005966 0.31111994 4294901760
0.10655562 0.042550877 0.31093663 4294901760
0.10665194 0.042095788 0.31075329 4294901760
0.10674826 0.041640695 0.31056994 4294901760
0.10684459 0.041185603 0.3103866 4294901760
0.10694091 0.04073051 0.31020325 4294901760
0.10703723 0.040275421 0.31001991 4294901760
0.10713355 0.039820328 0.30983657 4294901760
0.10722987 0.039365239 0.30965322 4294901760
0.1073262 0.038910151 0.30946988 4294901760
0.10742252 0.038455058 0.30928653 4294901760
0.10751884 0.037999965 0.30910319 4294901760
0.10761517 0.037544873 0.30891985 4294901760
0.10771149 0.037089784 0.3087365 4294901760
0.10780782 0.036634695 0.30855319 4294901760
0.10790414 0.036179602 0.30836985 4294901760
0.10800046 0.035724513 0.3081865 4294901760
0.10809678 0.035269417 0.30800316 4294901760
0.1081931 0.034814328 0.30781981 4294901760
0.10828942 0.034359235 0.30763647 4294901760
0.10838575 0.033904146 0.30745313 4294901760
0.10848207 0.033449057 0.30726978 4294901760
0.10857839 0.032993965 0.30708644 4294901760
0.10867471 0.032538872 0.30690309 4294901760
0.10877104 0.03208378 0.30671975 4294901760
0.10886736 0.031628691 0.30653641 4294901760
0.10896368 0.031173602 0.30635309 4294901760
0.10906 0.030718509 0.30616975 4294901760
0.10915633 0.03026342 0.3059864 4294901760
0.10925265 0.029808324 0.30580306 4294901760
0.10934898 0.029353235 0.30561972 4294901760
0.1094453 0.028898142 0.30543637 4294901760
0.10954162 0.028443053 0.30525303 4294901760
0.099909365 0.073952161 0.32358718 4278255360
0.10037174 0.074098855 0.32346597 4278255360
0.10083411 0.07424555 0.32334477 4278255360
0.10129648 0.074392252 0.32322353 4278255360
0.10175885 0.074538946 0.32310233 4278255360
0.10222123 0.074685641 0.32298112 4278255360
0.1026836 0.074832335 0.32285991 4278255360
0.10314597 0.07497903 0.32273871 4278255360
0.10360834 0.075125724 0.32261747 4278255360
0.10407072 0.075272426 0.32249627 4278255360
0.10453308 0.07541912 0.32237506 4278255360
0.10499546 0.075565815 0.32225385 4278255360
0.10545783 0.075712509 0.32213265 4278255360
0.1059202 0.075859204 0.32201144 4278255360
0.10638258 0.076005906 0.32189021 4278255360
0.10684495 0.0761526 0.321769 4278255360
0.10730732 0.076299295 0.32164779 4278255360
0.10776969 0.076445989 0.32152659 4278255360
0.10823207 0.076592684 0.32140538 4278255360
0.10869443 0.076739378 0.32128415 4278255360
0.10915681 0.07688608 0.32116294 4278255360
0.10961918 0.077032775 0.32104173 4278255360
0.11008155 0.077179469 0.32092053 4278255360
0.11054392 0.077326164 0.32079932 4278255360
0.1110063 0.077472858 0.32067809 4278255360
0.11146867 0.077619553 0.32055688 4278255360
0.11193104 0.077766255 0.32043567 4278255360
0.11239342 0.077912949 0.32031447 4278255360
0.11285578 0.078059644 0.32019326 4278255360
0.11331816 0.078206338 0.32007203 4278255360
0.11378053 0.078353032 0.31995082 4278255360
0.1142429 0.078499734 0.31982961 4278255360
0.11470527 0.078646429 0.31970841 4278255360
0.11516765 0.078793123 0.3195872 4278255360
0.11563002 0.078939818 0.31946599 4278255360
0.11609239 0.079086512 0.31934476 4278255360
0.11655477 0.079233214 0.31922355 4278255360
0.11701714 0.079379909 0.31910235 4278255360
0.1174795 0.079526603 0.31898114 4278255360
0.11794188 0.079673298 0.31885993 4278255360
0.11840425 0.079819992 0.3187387 4278255360
0.11886662 0.079966687 0.31861749 4278255360
0.11932899 0.080113389 0.31849629 4278255360
0.11979137 0.080260083 0.31837508 4278255360
0.12025374 0.080406778 0.31825387 4278255360
0.12071611 0.080553472 0.31813264 4278255360
0.12117849 0.080700167 0.31801143 4278255360
0.12164085 0.080846861 0.31789023 4278255360
0.12210323 0.080993563 0.31776902 4278255360
0.1225656 0.081140257 0.31764781 4278255360
0.12302797 0.081286952 0.31752658 4278255360
0.12349035 0.081433646 0.31740537 4278255360
0.12395272 0.081580341 0.31728417 4278255360
0.12441508 0.081727043 0.31716296 4278255360
0.12487746 0.081873737 0.31704175 4278255360
0.12533984 0.082020432 0.31692055 4278255360
0.1258022 0.082167126 0.31679931 4278255360
0.12626457 0.082313821 0.31667811 4278255360
0.12672696 0.082460515 0.3165569 4278255360
0.12718932 0.082607217 0.31643569 4278255360
0.12765169 0.082753912 0.31631449 4278255360
0.12811407 0.082900606 0.31619325 4278255360
0.12857644 0.083047301 0.31607205 4278255360
0.12903881 0.083193995 0.31595084 4278255360
0.12950118 0.08334069 0.31582963 4278255360
0.12996355 0.083487391 0.31570843 4278255360
0.13042593 0.083634086 0.31558719 4278255360
0.1308883 0.08378078 0.31546599 4278255360
0.13135067 0.083927475 0.31534478 4278255360
0.13181305 0.084074169 0.31522357 4278255360
0.13227542 0.084220871 0.31510237 4278255360
0.13273779 0.084367566 0.31498116 4278255360
0.13320017 0.08451426 0.31485993 4278255360
0.13366254 0.084660955 0.31473872 4278255360
0.1341249 0.084807649 0.31461751 4278255360
0.13458727 0.084954351 0.31449631 4278255360
0.13504964 0.085101046 0.3143751 4278255360
0.13551202 0.08524774 0.31425387 4278255360
0.13597439 0.085394435 0.31413266 4278255360
0.13643676 0.085541129 0.31401145 4278255360
0.13689914 0.085687824 0.31389025 4278255360
0.13736151 0.085834526 0.31376904 4278255360
0.13782388 0.08598122 0.31364781 4278255360
0.13828625 0.086127914 0.3135266 4278255360
0.13874862 0.086274609 0.31340539 4278255360
0.139211 0.086421303 0.31328419 4278255360
0.13967337 0.086567998 0.31316298 4278255360
0.14013574 0.0867147 0.31304175 4278255360
0.14059812 0.086861394 0.31292054 4278255360
0.14106049 0.087008089 0.31279933 4278255360
0.14152285 0.087154783 0.31267813 4278255360
0.14198524 0.087301478 0.31255692 4278255360
0.14244761 0.08744818 0.31243569 4278255360
0.14290997 0.087594874 0.31231448 4278255360
0.14337234 0.087741569 0.31219327 4278255360
0.14383471 0.087888263 0.31207207 4278255360
0.14429709 0.088034958 0.31195086 4278255360
0.14475946 0.08818166 0.31182966 4278255360
0.14522183 0.088328354 0.31170842 4278255360
0.14568421 0.088475049 0.31158721 4278255360
0.14614658 0.088621743 0.31146601 4278255360
0.099909365 0.073952161 0.32358718 4278190335
0.10006961 0.073804744 0.32403728 4278190335
