# .PCD v0.7 - Point Cloud Data file format
VERSION 0.7
FIELDS x y z rgb
SIZE 4 4 4 4
TYPE F F F U
COUNT 1 1 1 1
WIDTH 928
HEIGHT 1
VIEWPOINT 0 0 0 1 0 0 0
POINTS 928
DATA ascii
-0.06812337 0.0075895688 0.48900002 4283129939
-0.066671163 0.0076050893 0.49000001 4282933330
-0.065212458 0.0076206103 0.49100003 4283000152
-0.075598083 0.0091220709 0.48600003 4287339910
-0.06812337 0.0091783805 0.48900002 4283524699
-0.065212458 0.0092159193 0.49100003 4281879359
-0.063747257 0.0092346892 0.49200001 4283787356
-0.067984067 0.010745172 0.48800004 4283458906
-0.0665351 0.010767191 0.48900002 4283327320
-0.057821494 0.010921323 0.49600002 4283195219
-0.066399038 0.012330734 0.48800004 4283392080
-0.063617691 0.012406537 0.49100003 4281748288
-0.059312679 0.012507609 0.49500003 4281550909
-0.057704918 0.012507609 0.49500003 4281682495
-0.056097154 0.012507609 0.49500003 4280958257
-0.054489397 0.012507609 0.49500003 4281418808
-0.052881636 0.012507609 0.49500003 4281089325
-0.049666114 0.012507609 0.49500003 4279911463
-0.048155438 0.012532877 0.49600002 4279915051
-0.046732109 0.012583412 0.49800003 4279127841
-0.045205195 0.01260868 0.49900001 4279194918
-0.04375913 0.012659216 0.50100005 4279393582
-0.042215977 0.012684484 0.50200003 4282945634
-0.040747173 0.012735019 0.50400001 4281102667
-0.071993858 0.01377371 0.48300001 4283655523
-0.070425071 0.01377371 0.48300001 4287602305
-0.068998843 0.013802228 0.48400003 4282866228
-0.067705438 0.013859262 0.48600003 4280626968
-0.066262968 0.013887779 0.48700002 4286481003
-0.064946823 0.013944813 0.48900002 4283195471
-0.060797367 0.014087398 0.49400002 4280628522
-0.059312679 0.014115916 0.49500003 4281286452
-0.057704918 0.014115916 0.49500003 4281352245
-0.056097154 0.014115916 0.49500003 4280628522
-0.054489397 0.014115916 0.49500003 4281286452
-0.052881636 0.014115916 0.49500003 4281155118
-0.048155438 0.014144432 0.49600002 4280505135
-0.046638269 0.014172949 0.49700001 4279587363
-0.045205195 0.014229983 0.49900001 4279390754
-0.04375913 0.014287017 0.50100005 4279194658
-0.042300072 0.014344051 0.50300002 4279129892
-0.040747173 0.014372568 0.50400001 4279065128
-0.039342981 0.014458119 0.50700003 4279854644
-0.037770595 0.014486636 0.50800002 4279066416
-0.036120608 0.014486636 0.50800002 4279198515
-0.034470625 0.014486636 0.50800002 4279263795
-0.03288525 0.014515152 0.509 4279000107
-0.031232014 0.014515152 0.509 4279525681
-0.029578781 0.014515152 0.509 4279920439
-0.021480104 0.014629221 0.51300001 4280181563
-0.019813878 0.014629221 0.51300001 4279326254
-0.018147655 0.014629221 0.51300001 4280509244
-0.016513556 0.014657737 0.514 4280377147
-0.014844083 0.014657737 0.514 4281361991
-0.070425071 0.015343027 0.48300001 4285690962
-0.068998843 0.015374794 0.48400003 4286150482
-0.067566127 0.01540656 0.48500001 4285164618
-0.066262968 0.015470092 0.48700002 4283322162
-0.064946823 0.015533624 0.48900002 4282929719
-0.060797367 0.015692456 0.49400002 4281417524
-0.059192851 0.015692456 0.49400002 4281022766
-0.057588339 0.015692456 0.49400002 4281746489
-0.055983827 0.015692456 0.49400002 4280562215
-0.054379314 0.015692456 0.49400002 4281220145
-0.052774802 0.015692456 0.49400002 4280694053
-0.051273871 0.015724221 0.49500003 4281616691
-0.049666114 0.015724221 0.49500003 4279844643
-0.048155438 0.015755987 0.49600002 4279781158
-0.046638269 0.015787752 0.49700001 4279126047
-0.045205195 0.015851285 0.49900001 4279521316
-0.04375913 0.015914818 0.50100005 4279391267
-0.042300072 0.015978349 0.50300002 4279326244
-0.040828019 0.01604188 0.505 4278933029
-0.039342981 0.016105415 0.50700003 4279460656
-0.037770595 0.016137181 0.50800002 4279197486
-0.036120608 0.016137181 0.50800002 4278868521
-0.034470625 0.016137181 0.50800002 4278868521
-0.032820642 0.016137181 0.50800002 4278999337
-0.031170655 0.016137181 0.50800002 4279065128
-0.029578781 0.016168946 0.509 4279065128
-0.027925549 0.016168946 0.509 4279130921
-0.024764186 0.016264245 0.51200002 4278868521
-0.023101209 0.016264245 0.51200002 4278540070
-0.021480104 0.01629601 0.51300001 4279066414
-0.019813878 0.01629601 0.51300001 4279132207
-0.018183028 0.016327776 0.514 4279263277
-0.016513556 0.016327776 0.514 4279723058
-0.014872964 0.016359543 0.51500005 4279525168
-0.013200243 0.016359543 0.51500005 4279591474
-0.068998843 0.016947359 0.48400003 4284177462
-0.067566127 0.016982375 0.48500001 4284308530
-0.066262968 0.017052405 0.48700002 4283190567
-0.064946823 0.017122434 0.48900002 4282337066
-0.060797367 0.01729751 0.49400002 4280957227
-0.059192851 0.01729751 0.49400002 4280430370
-0.057588339 0.01729751 0.49400002 4281022507
-0.055983827 0.01729751 0.49400002 4281285938
-0.054379314 0.01729751 0.49400002 4280628262
-0.052774802 0.01729751 0.49400002 4281023532
-0.051170286 0.01729751 0.49400002 4280563749
-0.049666114 0.017332526 0.49500003 4279779363
-0.048155438 0.017367542 0.49600002 4279649574
-0.046638269 0.017402556 0.49700001 4278994463
-0.045205195 0.017472588 0.49900001 4279323428
-0.04375913 0.017542619 0.50100005 4279456806
-0.042300072 0.017612647 0.50300002 4279523623
-0.040828019 0.017682677 0.505 4279063847
-0.039265383 0.017717695 0.50600004 4279196203
-0.037696246 0.017752709 0.50700003 4279394095
-0.036120608 0.017787723 0.50800002 4278999337
-0.034470625 0.017787723 0.50800002 4279065130
-0.032820642 0.017787723 0.50800002 4278867751
-0.031170655 0.017787723 0.50800002 4278206999
-0.029578781 0.017822739 0.509 4278865439
-0.027925549 0.017822739 0.509 4278998822
-0.026323933 0.017857755 0.51000005 4278933029
-0.024764186 0.017927784 0.51200002 4278999335
-0.023101209 0.017927784 0.51200002 4278670370
-0.021480104 0.0179628 0.51300001 4278670370
-0.019852502 0.017997814 0.514 4279065128
-0.018218406 0.018032832 0.51500005 4278737447
-0.016545685 0.018032832 0.51500005 4278737447
-0.014901844 0.018067846 0.51600003 4278802726
-0.013251506 0.01810286 0.51700002 4279131693
-0.011594673 0.018137876 0.51800001 4278869035
-0.0083250673 0.018347967 0.52400005 4278671656
-0.0066483943 0.018417997 0.52600002 4279394865
-0.0049493364 0.018453013 0.52700001 4279919158
-0.003243783 0.018488027 0.528 4280050490
-0.0015317338 0.018523045 0.52900004 4280509762
-0.070425071 0.018481659 0.48300001 4283060019
-0.068998843 0.018519925 0.48400003 4283520565
-0.067705438 0.018596454 0.48600003 4283191080
-0.066262968 0.018634716 0.48700002 4284243768
-0.064946823 0.018711247 0.48900002 4282863156
-0.060797367 0.018902566 0.49400002 4280562729
-0.059192851 0.018902566 0.49400002 4280825641
-0.057588339 0.018902566 0.49400002 4280496676
-0.055983827 0.018902566 0.49400002 4280825641
-0.054379314 0.018902566 0.49400002 4280693801
-0.052774802 0.018902566 0.49400002 4281352245
-0.051170286 0.018902566 0.49400002 4280366883
-0.049666114 0.018940832 0.49500003 4279254301
-0.048155438 0.018979095 0.49600002 4279650596
-0.046638269 0.019017359 0.49700001 4279258148
-0.045205195 0.019093888 0.49900001 4278929951
-0.04375913 0.019170418 0.50100005 4279325990
-0.042300072 0.019246945 0.50300002 4279260965
-0.040747173 0.019285209 0.50400001 4278867236
-0.039265383 0.01936174 0.50600004 4279196201
-0.037696246 0.019400004 0.50700003 4279524398
-0.036049508 0.019400004 0.50700003 4278602783
-0.034402769 0.019400004 0.50700003 4279129640
-0.032820642 0.019438267 0.50800002 4279327019
-0.031170655 0.019438267 0.50800002 4278535454
-0.029578781 0.019476531 0.509 4279456295
-0.027925549 0.019476531 0.509 4279128095
-0.026323933 0.019514797 0.51000005 4279851305
-0.024764186 0.019591324 0.51200002 4279785771
-0.023146328 0.019629588 0.51300001 4279260197
-0.021521976 0.019667853 0.514 4278800160
-0.019891128 0.019706119 0.51500005 4279327017
-0.018253781 0.019744383 0.51600003 4278999337
-0.016577812 0.019744383 0.51600003 4278867751
-0.014930722 0.019782646 0.51700002 4278933544
-0.013277137 0.01982091 0.51800001 4278604579
-0.01163944 0.01989744 0.52000004 4278868521
-0.010007884 0.020012232 0.523 4278671142
-0.0083409548 0.020088762 0.52500004 4278868519
-0.0066483943 0.020127025 0.52600002 4278671140
-0.0049587279 0.020203553 0.528 4278934312
-0.0032560702 0.020280082 0.53000003 4278868521
-0.0015404202 0.02035661 0.53200001 4279132207
0.00018857402 0.020471403 0.53500003 4279131695
0.0019334558 0.020547932 0.537 4279525429
-0.070425071 0.020050975 0.48300001 4280430368
-0.067705438 0.020175517 0.48600003 4283454772
-0.066399038 0.020258544 0.48800004 4285034061
-0.060797367 0.020507623 0.49400002 4281023534
-0.059312679 0.020549137 0.49500003 4280957741
-0.057704918 0.020549137 0.49500003 4280826155
-0.056097154 0.020549137 0.49500003 4281088813
-0.054379314 0.020507623 0.49400002 4281219886
-0.052774802 0.020507623 0.49400002 4281286706
-0.051170286 0.020507623 0.49400002 4280959024
-0.049666114 0.020549137 0.49500003 4279583779
-0.048155438 0.02059065 0.49600002 4279520039
-0.046638269 0.020632163 0.49700001 4278863390
-0.045114607 0.020673677 0.49800003 4279258916
-0.043671783 0.020756703 0.5 4279391013
-0.042215977 0.02083973 0.50200003 4279194918
-0.040747173 0.020922758 0.50400001 4279195433
-0.039187778 0.02096427 0.505 4279919156
-0.037621893 0.021005785 0.50600004 4279590191
-0.036049508 0.021047298 0.50700003 4279195431
-0.034402769 0.021047298 0.50700003 4279326504
-0.032756034 0.021047298 0.50700003 4280116020
-0.031170655 0.021088811 0.50800002 4278199555
-0.02952067 0.021088811 0.50800002 4280377399
-0.027925549 0.021130323 0.509 4278660369
-0.026375549 0.021213353 0.51100004 4278789902
-0.024764186 0.021254865 0.51200002 4278854927
-0.023146328 0.021296378 0.51300001 4278329867
-0.021563848 0.021379406 0.51500005 4278396427
-0.01992975 0.021420918 0.51600003 4278331404
-0.018289156 0.021462431 0.51700002 4278862623
-0.016642066 0.021503944 0.51800001 4278201091
-0.014959602 0.021503944 0.51800001 4278200583
-0.0133284 0.021586973 0.52000004 4278665246
-0.011661824 0.021628486 0.52100003 4279258918
-0.010007884 0.021711512 0.523 4279127845
-0.0083409548 0.021794539 0.52500004 4279523373
-0.0066610333 0.021877564 0.52700001 4280115510
-0.0049681198 0.021960594 0.52900004 4279852850
-0.0032622137 0.022043619 0.53100002 4279195433
-0.0015462114 0.022168159 0.53400004 4279064617
0.00018927896 0.0222927 0.537 4278867751
0.0019370564 0.022334214 0.53800005 4278802728
0.0037118753 0.022500269 0.54200006 4279262509
0.0054823887 0.022541782 0.54300004 4279586348
-0.065212458 0.021978391 0.49100003 4283129426
-0.06092044 0.022157442 0.49500003 4281549364
-0.059312679 0.022157442 0.49500003 4281155120
-0.057704918 0.022157442 0.49500003 4281418292
-0.056097154 0.022157442 0.49500003 4281220399
-0.054489397 0.022157442 0.49500003 4281286192
-0.052881636 0.022157442 0.49500003 4281484855
-0.051273871 0.022157442 0.49500003 4279775518
-0.049666114 0.022157442 0.49500003 4279452963
-0.048155438 0.022202205 0.49600002 4279388453
-0.046638269 0.022246966 0.49700001 4279389732
-0.045114607 0.022291729 0.49800003 4279522086
-0.043671783 0.022381254 0.5 4279391783
-0.042215977 0.02247078 0.50200003 4279129125
-0.040666327 0.022515543 0.50300002 4279261224
-0.03911018 0.022560304 0.50400001 4279261224
-0.03754754 0.022605065 0.505 4279195431
-0.035978403 0.02264983 0.50600004 4279129638
-0.034334917 0.02264983 0.50600004 4279327017
-0.032756034 0.022694593 0.50700003 4279589676
-0.031109296 0.022694593 0.50700003 4279783213
-0.02952067 0.022739355 0.50800002 4279915313
-0.027925549 0.022784116 0.509 4279316766
-0.026375549 0.022873642 0.51100004 4278789138
-0.024764186 0.022918405 0.51200002 4278525453
-0.023191446 0.023007929 0.514 4278657039
-0.021563848 0.023052692 0.51500005 4278722832
-0.01992975 0.023097456 0.51600003 4278197001
-0.018289156 0.023142217 0.51700002 4280047664
-0.016642066 0.02318698 0.51800001 4279522090
-0.014988483 0.023231743 0.51900005 4279587113
-0.013354031 0.023321267 0.52100003 4279456297
-0.011684206 0.023366028 0.52200001 4279719469
-0.010027021 0.023455556 0.52400005 4279784238
-0.0083568422 0.023545079 0.52600002 4280573754
-0.0066736727 0.023634603 0.528 4279850031
-0.0049869027 0.023768893 0.53100002 4279585832
-0.0032745011 0.023858419 0.53300005 4278795548
-0.0015491069 0.023947943 0.53500003 4278335767
0.00018963145 0.02408223 0.53800005 4278200067
0.0019442573 0.024171755 0.54000002 4278865955
0.0037118753 0.024261281 0.54200006 4279063847
0.0054823887 0.024306044 0.54300004 4279784238
-0.073562644 0.02318961 0.48300001 4287076740
-0.069426522 0.023381656 0.48700002 4282998355
-0.06812337 0.023477679 0.48900002 4283129426
-0.066807225 0.023573702 0.49100003 4283064146
-0.0625282 0.02376575 0.49500003 4281154606
-0.061043512 0.02381376 0.49600002 4281746230
-0.059432499 0.02381376 0.49600002 4281417776
-0.057821494 0.02381376 0.49600002 4281813050
-0.056210481 0.02381376 0.49600002 4281286706
-0.054489397 0.02376575 0.49500003 4281286452
-0.051273871 0.02376575 0.49500003 4280565545
-0.049666114 0.02376575 0.49500003 4279585062
-0.048155438 0.02381376 0.49600002 4279322660
-0.046638269 0.023861771 0.49700001 4279258916
-0.045114607 0.023909785 0.49800003 4279390500
-0.043671783 0.024005806 0.5 4279391013
-0.042131882 0.024053819 0.50100005 4279326504
-0.040585477 0.024101831 0.50200003 4279130408
-0.03911018 0.024197852 0.50400001 4279393580
-0.037473191 0.024197852 0.50400001 4279196201
-0.035907295 0.024245864 0.505 4279196201
-0.034334917 0.024293877 0.50600004 4279064615
-0.032691427 0.024293877 0.50600004 4280181813
-0.031109296 0.024341889 0.50700003 4280704315
-0.02952067 0.0243899 0.50800002 4278268950
-0.027925549 0.02443791 0.509 4280963383
-0.026375549 0.024533935 0.51100004 4278198793
-0.024812553 0.024629958 0.51300001 4278198027
-0.023191446 0.024677968 0.514 4278329871
-0.021605721 0.024773993 0.51600003 4279712037
-0.019968374 0.024822004 0.51700002 4278196741
-0.018324532 0.024870016 0.51800001 4279717932
-0.016674194 0.024918029 0.51900005 4278201098
-0.015017362 0.024966041 0.52000004 4279915311
-0.013354031 0.025014052 0.52100003 4278863136
-0.01170659 0.025110073 0.523 4278732574
-0.010046156 0.025206098 0.52500004 4278272023
-0.0083727296 0.02530212 0.52700001 4279588394
-0.0066863131 0.025398144 0.52900004 4279785773
-0.0049962942 0.025542177 0.53200001 4280048432
-0.003286788 0.025686214 0.53500003 4279587881
-0.0015548979 0.025782235 0.537 4279653674
0.00018998391 0.02587826 0.53900003 4278202377
0.0019478577 0.025974283 0.54100001 4279522601
0.0037187238 0.026070308 0.54300004 4279063334
0.0054924851 0.026118318 0.54400003 4280113205
-0.062654518 0.025425315 0.49600002 4281483571
-0.061166581 0.025476575 0.49700001 4283325775
-0.059552323 0.025476575 0.49700001 4281680950
-0.057938065 0.025476575 0.49700001 4283457361
-0.054599475 0.025425315 0.49600002 4281484085
-0.052881636 0.025374055 0.49500003 4281288759
-0.051273871 0.025374055 0.49500003 4279777828
-0.049766447 0.025425315 0.49600002 4279716135
-0.048155438 0.025425315 0.49600002 4279586086
-0.046638269 0.025476575 0.49700001 4279323939
-0.045114607 0.025527837 0.49800003 4279193123
-0.04358444 0.025579097 0.49900001 4279391785
-0.042131882 0.02568162 0.50100005 4279260713
-0.040585477 0.02573288 0.50200003 4279261226
-0.039032582 0.02578414 0.50300002 4279524396
-0.037473191 0.0258354 0.50400001 4279327787
-0.035836194 0.0258354 0.50400001 4278933029
-0.034267057 0.02588666 0.505 4279130410
-0.032691427 0.025937922 0.50600004 4279127845
-0.031109296 0.025989184 0.50700003 4280769336
-0.02952067 0.026040444 0.50800002 4278199814
-0.027925549 0.026091704 0.509 4278660117
-0.026375549 0.026194226 0.51100004 4279185691
-0.024812553 0.026296746 0.51300001 4278790422
-0.023191446 0.026348006 0.514 4278527250
-0.021605721 0.02645053 0.51600003 4281291065
-0.019968374 0.02650179 0.51700002 4278529042
-0.018324532 0.02655305 0.51800001 4278729242
-0.016706323 0.026655573 0.52000004 4278726423
-0.015046241 0.026706833 0.52100003 4278663449
-0.013379663 0.026758093 0.52200001 4279783211
-0.011728975 0.026860617 0.52400005 4278862109
-0.010046156 0.026911877 0.52500004 4278204433
-0.0083886171 0.027065657 0.528 4278862111
-0.0066989521 0.027168179 0.53000003 4278993697
-0.0050056861 0.027321963 0.53300005 4279914027
-0.0032929312 0.027475743 0.53600001 4278795546
-0.0015577936 0.027578266 0.53800005 4279521066
0.00019033639 0.027680786 0.54000002 4278336792
0.0019514584 0.02778331 0.54200006 4279325740
0.0037187238 0.02783457 0.54300004 4279326254
0.0054924851 0.02788583 0.54400003 4279323687
-0.072739139 0.026600791 0.48800004 4280430366
-0.071299918 0.026655301 0.48900002 4280561954
-0.056210481 0.02703687 0.49600002 4283655252
-0.052988466 0.02703687 0.49600002 4283329367
-0.051377457 0.02703687 0.49600002 4280239660
-0.049766447 0.02703687 0.49600002 4279585834
-0.048155438 0.02703687 0.49600002 4279257894
-0.046638269 0.027091378 0.49700001 4279323941
-0.045114607 0.027145889 0.49800003 4279587881
-0.04358444 0.027200399 0.49900001 4279523371
-0.042131882 0.02730942 0.50100005 4279260713
-0.040585477 0.027363928 0.50200003 4279919156
-0.038954984 0.027363928 0.50200003 4279655982
-0.037398838 0.027418438 0.50300002 4279064615
-0.035836194 0.027472947 0.50400001 4279065128
-0.034267057 0.027527457 0.505 4278998824
-0.032691427 0.027581969 0.50600004 4279061539
-0.031109296 0.027636478 0.50700003 4280243762
-0.02952067 0.027690986 0.50800002 4278200329
-0.027980415 0.027800009 0.51000005 4279117849
-0.026375549 0.027854517 0.51100004 4279248152
-0.024812553 0.027963536 0.51300001 4279313686
-0.023191446 0.028018044 0.514 4279116307
-0.021605721 0.028127067 0.51600003 4278920211
-0.019968374 0.028181575 0.51700002 4280436526
-0.018359909 0.028290598 0.51900005 4280768053
-0.016706323 0.028345106 0.52000004 4278464017
-0.015046241 0.028399615 0.52100003 4280309037
-0.013379663 0.028454125 0.52200001 4280375600
-0.011728975 0.028563146 0.52400005 4279191842
-0.010065292 0.028672164 0.52600002 4279323174
-0.0083886171 0.028781181 0.528 4279717932
-0.0067115915 0.028944712 0.53100002 4280178737
-0.0050150775 0.029108243 0.53400004 4278204433
-0.0032929312 0.029217262 0.53600001 4278201352
-0.0015577936 0.029326282 0.53800005 4280573243
0.00019068885 0.02948981 0.54100001 4279323689
0.0019514584 0.029544322 0.54200006 4279194670
0.0037187238 0.029598832 0.54300004 4279326254
0.0054924851 0.029653341 0.54400003 4278927904
-0.051377457 0.028648423 0.49600002 4280437553
-0.049766447 0.028648423 0.49600002 4279913775
-0.048252523 0.028706182 0.49700001 4278928418
-0.046732109 0.028763942 0.49800003 4280047660
-0.045114607 0.028763942 0.49800003 4280311602
-0.043671783 0.028879458 0.5 4279523369
-0.042131882 0.028937221 0.50100005 4279327017
-0.040585477 0.028994977 0.50200003 4279524396
-0.038954984 0.028994977 0.50200003 4279261224
-0.037398838 0.029052736 0.50300002 4279261224
-0.035836194 0.029110495 0.50400001 4279129638
-0.034267057 0.029168252 0.505 4279787057
-0.032691427 0.029226014 0.50600004 4278534941
-0.031109296 0.029283771 0.50700003 4279718445
-0.02952067 0.02934153 0.50800002 4280178996
-0.027980415 0.029457049 0.51000005 4280310071
-0.026375549 0.029514808 0.51100004 4280769338
-0.024812553 0.029630324 0.51300001 4280306991
-0.023191446 0.029688083 0.514 4280306221
-0.021605721 0.029803602 0.51600003 4279517221
-0.019968374 0.029861361 0.51700002 4280241711
-0.018324532 0.02991912 0.51800001 4278465298
-0.016706323 0.030034639 0.52000004 4278200843
-0.015046241 0.030092398 0.52100003 4278199047
-0.013379663 0.030150155 0.52200001 4278198790
-0.011728975 0.030265674 0.52400005 4278200075
-0.010065292 0.030381192 0.52600002 4278201100
-0.0083886171 0.030496707 0.528 4278201868
-0.0067115915 0.030669985 0.53100002 4278269456
-0.0050150775 0.030843263 0.53400004 4278993179
-0.0032929312 0.030958779 0.53600001 4279256097
-0.0015606891 0.031132057 0.53900003 4279914029
0.00019068885 0.031247575 0.54100001 4279849520
0.0019514584 0.031305335 0.54200006 4279260463
0.0037187238 0.031363092 0.54300004 4279523633
0.0054924851 0.031420853 0.54400003 4283070810
-0.054599475 0.030259978 0.49600002 4281487165
-0.049766447 0.030259978 0.49600002 4280044082
-0.048252523 0.030320985 0.49700001 4279847984
-0.046732109 0.030381994 0.49800003 4279784238
-0.045205195 0.030443002 0.49900001 4279784238
-0.043671783 0.030504009 0.5 4279062050
-0.042131882 0.03056502 0.50100005 4279589678
-0.040585477 0.030626027 0.50200003 4279458605
-0.038954984 0.030626027 0.50200003 4279261226
-0.037398838 0.030687034 0.50300002 4279327021
-0.035836194 0.030748041 0.50400001 4279063849
-0.034267057 0.030809049 0.505 4279523887
-0.032691427 0.03087006 0.50600004 4279983924
-0.031109296 0.030931067 0.50700003 4279457580
-0.02952067 0.030992074 0.50800002 4279457580
-0.027980415 0.031114092 0.51000005 4279457580
-0.026375549 0.031175099 0.51100004 4279260715
-0.024812553 0.031297114 0.51300001 4279457578
-0.023191446 0.031358119 0.514 4279654187
-0.021605721 0.031480137 0.51600003 4279260199
-0.019968374 0.031541146 0.51700002 4279194920
-0.018324532 0.031602152 0.51800001 4279194920
-0.016674194 0.031663164 0.51900005 4279326508
-0.015046241 0.031785179 0.52100003 4279390763
-0.013379663 0.031846184 0.52200001 4278996005
-0.011728975 0.031968202 0.52400005 4279850801
-0.010065292 0.032090217 0.52600002 4279587629
-0.0083886171 0.032212231 0.528 4279390250
-0.0067115915 0.032395259 0.53100002 4280311352
-0.0050150775 0.032578282 0.53400004 4280311606
-0.0032929312 0.032700296 0.53600001 4279851055
-0.0015577936 0.032822315 0.53800005 4280244789
0.00019033639 0.032944329 0.54000002 4279719215
0.0019514584 0.033066347 0.54200006 4279392301
0.0037187238 0.033127356 0.54300004 4278931750
-0.049866781 0.031935789 0.49700001 4285764993
-0.048252523 0.031935789 0.49700001 4282805078
-0.040585477 0.032257076 0.50200003 4279521584
-0.039032582 0.032321334 0.50300002 4279587890
-0.037398838 0.032321334 0.50300002 4279391281
-0.035836194 0.032385591 0.50400001 4279851062
-0.034267057 0.032449845 0.505 4279917109
-0.032691427 0.032514106 0.50600004 4279917109
-0.031109296 0.032578364 0.50700003 4279785523
-0.02952067 0.032642618 0.50800002 4279588144
-0.027980415 0.032771137 0.51000005 4279457328
-0.026375549 0.03283539 0.51100004 4279589426
-0.024812553 0.032963905 0.51300001 4279589680
-0.023191446 0.033028159 0.514 4279589680
-0.021605721 0.033156678 0.51600003 4279523887
-0.019968374 0.033220932 0.51700002 4279589680
-0.018324532 0.033285189 0.51800001 4279326508
-0.016674194 0.033349451 0.51900005 4279523887
-0.015017362 0.033413704 0.52000004 4279457580
-0.013379663 0.03354222 0.52200001 4279260201
-0.01170659 0.033606477 0.523 4279918131
-0.010046156 0.033734992 0.52500004 4279786291
-0.0083886171 0.033927761 0.528 4279391533
-0.0067115915 0.034120534 0.53100002 4279523119
-0.0050056861 0.034249049 0.53300005 4279523119
-0.0032929312 0.034441818 0.53600001 4279654705
-0.0015577936 0.034570336 0.53800005 4279587629
0.00019033639 0.034698848 0.54000002 4279653935
0.0019514584 0.034827363 0.54200006 4279456304
0.0037187238 0.03489162 0.54300004 4282808671
-0.039032582 0.033955634 0.50300002 4286357900
-0.037398838 0.033955634 0.50300002 4285699968
-0.035836194 0.034023136 0.50400001 4284384621
-0.034267057 0.034090642 0.505 4283332449
-0.032691427 0.034158152 0.50600004 4282411093
-0.031109296 0.034225658 0.50700003 4281753415
-0.02952067 0.034293164 0.50800002 4281687622
-0.027980415 0.034428179 0.51000005 4280898876
-0.026375549 0.034495682 0.51100004 4280767803
-0.024812553 0.034630693 0.51300001 4280373815
-0.023191446 0.034698199 0.514 4280111156
-0.021563848 0.034765709 0.51500005 4280835647
-0.019968374 0.034900717 0.51700002 4280243764
-0.018324532 0.034968223 0.51800001 4280308787
-0.016674194 0.035035733 0.51900005 4280177201
-0.015017362 0.035103239 0.52000004 4279716396
-0.013379663 0.035238251 0.52200001 4280111154
-0.01170659 0.035305757 0.523 4280045361
-0.010046156 0.035440769 0.52500004 4280374328
-0.0083886171 0.035643287 0.528 4280307252
-0.0066989521 0.035778299 0.53000003 4280570424
-0.0050056861 0.035980821 0.53300005 4280373815
-0.003286788 0.036115833 0.53500003 4281820491
-0.0015548979 0.036250841 0.537 4283530596
0.00018998391 0.036385857 0.53900003 4285307007
-0.010046156 0.03714655 0.52500004 4287344795
-0.0083727296 0.037288059 0.52700001 4287279002
-0.0066989521 0.037500326 0.53000003 4287213209
-0.0050056861 0.037712593 0.53300005 4287015060
-0.003286788 0.037854102 0.53500003 4287015060
-0.0015520024 0.037924856 0.53600001 4286883474
-0.03156257 0.023732243 0.51006931 4294967295
-0.03156257 0.023732243 0.51006931 4294901760
-0.031492472 0.023237547 0.51008832 4294901760
-0.031422377 0.022742851 0.5101074 4294901760
-0.031352278 0.022248156 0.51012641 4294901760
-0.031282183 0.02175346 0.51014549 4294901760
-0.031212084 0.021258764 0.5101645 4294901760
-0.031141987 0.020764068 0.51018351 4294901760
-0.03107189 0.020269372 0.51020259 4294901760
-0.031001793 0.019774675 0.5102216 4294901760
-0.030931696 0.019279979 0.51024067 4294901760
-0.030861598 0.018785285 0.51025969 4294901760
-0.030791501 0.018290589 0.5102787 4294901760
-0.030721404 0.017795892 0.51029778 4294901760
-0.030651307 0.017301198 0.51031679 4294901760
-0.03058121 0.016806502 0.51033586 4294901760
-0.030511113 0.016311806 0.51035488 4294901760
-0.030441014 0.015817109 0.51037389 4294901760
-0.030370917 0.015322413 0.51039296 4294901760
-0.03030082 0.014827717 0.51041198 4294901760
-0.030230723 0.014333022 0.51043105 4294901760
-0.030160626 0.013838326 0.51045007 4294901760
-0.030090529 0.01334363 0.51046908 4294901760
-0.030020431 0.012848934 0.51048815 4294901760
-0.029950334 0.012354238 0.51050717 4294901760
-0.029880237 0.011859543 0.51052624 4294901760
-0.02981014 0.011364846 0.51054525 4294901760
-0.029740043 0.010870151 0.51056427 4294901760
-0.029669946 0.010375454 0.51058334 4294901760
-0.029599849 0.0098807588 0.51060236 4294901760
-0.02952975 0.0093860636 0.51062143 4294901760
-0.029459653 0.0088913664 0.51064044 4294901760
-0.029389556 0.0083966712 0.51065946 4294901760
-0.02931946 0.0079019759 0.51067853 4294901760
-0.029249363 0.0074072797 0.51069754 4294901760
-0.029179264 0.0069125835 0.51071662 4294901760
-0.029109167 0.0064178873 0.51073563 4294901760
-0.02903907 0.0059231911 0.51075464 4294901760
-0.028968973 0.0054284967 0.51077372 4294901760
-0.028898876 0.0049338005 0.51079273 4294901760
-0.028828779 0.0044391043 0.51081181 4294901760
-0.028758682 0.0039444081 0.51083082 4294901760
-0.028688584 0.0034497119 0.51084983 4294901760
-0.028618487 0.0029550176 0.51086891 4294901760
-0.02854839 0.0024603214 0.51088792 4294901760
-0.028478293 0.0019656252 0.51090699 4294901760
-0.028408196 0.001470929 0.51092601 4294901760
-0.028338099 0.00097623281 0.51094502 4294901760
-0.028268002 0.00048153661 0.5109641 4294901760
-0.028197903 -1.3157725e-05 0.51098311 4294901760
-0.028127806 -0.00050785393 0.51100218 4294901760
-0.028057709 -0.0010025501 0.5110212 4294901760
-0.027987612 -0.0014972463 0.51104021 4294901760
-0.027917515 -0.0019919407 0.51105928 4294901760
-0.027847419 -0.0024866369 0.5110783 4294901760
-0.02777732 -0.0029813349 0.51109737 4294901760
-0.027707223 -0.0034760293 0.51111639 4294901760
-0.027637126 -0.0039707255 0.5111354 4294901760
-0.027567029 -0.0044654217 0.51115447 4294901760
-0.027496932 -0.004960116 0.51117349 4294901760
-0.027426835 -0.0054548122 0.51119256 4294901760
-0.027356736 -0.0059495103 0.51121157 4294901760
-0.027286639 -0.0064442046 0.51123059 4294901760
-0.027216543 -0.0069389008 0.51124966 4294901760
-0.027146446 -0.007433597 0.51126868 4294901760
-0.027076349 -0.0079282913 0.51128775 4294901760
-0.027006252 -0.0084229875 0.51130676 4294901760
-0.026936153 -0.0089176837 0.51132578 4294901760
-0.026866056 -0.0094123799 0.51134485 4294901760
-0.026795959 -0.0099070761 0.51136386 4294901760
-0.026725862 -0.010401772 0.51138294 4294901760
-0.026655765 -0.010896469 0.51140195 4294901760
-0.026585668 -0.011391161 0.51142097 4294901760
-0.02651557 -0.011885861 0.51144004 4294901760
-0.026445473 -0.012380557 0.51145905 4294901760
-0.026375376 -0.01287525 0.51147813 4294901760
-0.026305279 -0.013369946 0.51149714 4294901760
-0.026235182 -0.013864642 0.51151615 4294901760
-0.026165085 -0.014359338 0.51153523 4294901760
-0.026094988 -0.014854034 0.51155424 4294901760
-0.026024889 -0.015348731 0.51157331 4294901760
-0.025954792 -0.015843427 0.51159233 4294901760
-0.025884695 -0.016338123 0.51161134 4294901760
-0.025814598 -0.016832819 0.51163042 4294901760
-0.025744502 -0.017327512 0.51164943 4294901760
-0.025674405 -0.017822208 0.5116685 4294901760
-0.025604306 -0.018316908 0.51168752 4294901760
-0.025534209 -0.0188116 0.51170653 4294901760
-0.025464112 -0.019306296 0.5117256 4294901760
-0.025394015 -0.019800993 0.51174462 4294901760
-0.025323918 -0.020295689 0.51176369 4294901760
-0.025253821 -0.020790385 0.51178271 4294901760
-0.025183722 -0.021285081 0.51180172 4294901760
-0.025113625 -0.021779777 0.51182079 4294901760
-0.025043529 -0.022274474 0.51183981 4294901760
-0.024973432 -0.02276917 0.51185888 4294901760
-0.024903335 -0.023263862 0.51187789 4294901760
-0.024833238 -0.023758559 0.51189691 4294901760
-0.024763139 -0.024253258 0.51191598 4294901760
-0.024693042 -0.024747951 0.511935 4294901760
-0.024622945 -0.025242647 0.51195407 4294901760
-0.024552848 -0.025737343 0.51197308 4294901760
-0.03156257 0.023732243 0.51006931 4278255360
-0.031162299 0.023800191 0.51036114 4278255360
-0.030762026 0.02386814 0.51065296 4278255360
-0.030361755 0.023936087 0.51094478 4278255360
-0.029961482 0.024004037 0.51123661 4278255360
-0.02956121 0.024071984 0.51152849 4278255360
-0.029160937 0.024139933 0.51182032 4278255360
-0.028760666 0.024207881 0.51211214 4278255360
-0.028360393 0.02427583 0.51240396 4278255360
-0.027960122 0.024343777 0.51269579 4278255360
-0.027559849 0.024411727 0.51298761 4278255360
-0.027159577 0.024479674 0.51327944 4278255360
-0.026759304 0.024547622 0.51357126 4278255360
-0.026359033 0.024615571 0.51386309 4278255360
-0.02595876 0.024683518 0.51415497 4278255360
-0.025558488 0.024751468 0.51444679 4278255360
-0.025158215 0.024819415 0.51473862 4278255360
-0.024757944 0.024887364 0.51503044 4278255360
-0.024357671 0.024955312 0.51532227 4278255360
-0.0239574 0.025023261 0.51561409 4278255360
-0.023557127 0.025091209 0.51590592 4278255360
-0.023156855 0.025159156 0.51619774 4278255360
-0.022756584 0.025227105 0.51648957 4278255360
-0.022356311 0.025295053 0.51678145 4278255360
-0.021956038 0.025363002 0.51707327 4278255360
-0.021555766 0.025430949 0.5173651 4278255360
-0.021155495 0.025498899 0.51765692 4278255360
-0.020755222 0.025566846 0.51794875 4278255360
-0.020354949 0.025634795 0.51824057 4278255360
-0.019954678 0.025702743 0.5185324 4278255360
-0.019554406 0.02577069 0.51882422 4278255360
-0.019154133 0.02583864 0.51911604 4278255360
-0.018753862 0.025906587 0.51940793 4278255360
-0.018353589 0.025974536 0.51969975 4278255360
-0.017953318 0.026042484 0.51999158 4278255360
-0.017553046 0.026110433 0.5202834 4278255360
-0.017152771 0.02617838 0.52057523 4278255360
-0.0167525 0.02624633 0.52086705 4278255360
-0.016352229 0.026314277 0.52115887 4278255360
-0.015951958 0.026382226 0.5214507 4278255360
-0.015551684 0.026450174 0.52174252 4278255360
-0.015151411 0.026518121 0.52203441 4278255360
-0.01475114 0.026586071 0.52232623 4278255360
-0.014350867 0.026654018 0.52261806 4278255360
-0.013950596 0.026721967 0.52290988 4278255360
-0.013550324 0.026789915 0.5232017 4278255360
-0.013150051 0.026857864 0.52349353 4278255360
-0.012749778 0.026925812 0.52378535 4278255360
-0.012349507 0.026993759 0.52407718 4278255360
-0.011949234 0.027061708 0.524369 4278255360
-0.011548962 0.027129658 0.52466083 4278255360
-0.011148691 0.027197605 0.52495271 4278255360
-0.010748418 0.027265552 0.52524453 4278255360
-0.010348147 0.027333502 0.52553636 4278255360
-0.0099478737 0.027401449 0.52582818 4278255360
-0.0095476005 0.027469398 0.52612001 4278255360
-0.0091473293 0.027537346 0.52641183 4278255360
-0.008747058 0.027605295 0.52670366 4278255360
-0.0083467867 0.027673243 0.52699548 4278255360
-0.0079465136 0.02774119 0.5272873 4278255360
-0.0075462405 0.027809139 0.52757919 4278255360
-0.0071459673 0.027877089 0.52787101 4278255360
-0.0067456961 0.027945036 0.52816284 4278255360
-0.0063454248 0.028012984 0.52845466 4278255360
-0.0059451535 0.028080933 0.52874649 4278255360
-0.0055448804 0.02814888 0.52903831 4278255360
-0.0051446073 0.02821683 0.52933013 4278255360
-0.0047443341 0.028284777 0.52962196 4278255360
-0.0043440629 0.028352726 0.52991378 4278255360
-0.0039437916 0.028420674 0.53020567 4278255360
-0.0035435203 0.028488621 0.53049749 4278255360
-0.0031432472 0.02855657 0.53078932 4278255360
-0.0027429741 0.02862452 0.53108114 4278255360
-0.0023427028 0.028692467 0.53137296 4278255360
-0.0019424297 0.028760415 0.53166479 4278255360
-0.0015421584 0.028828364 0.53195661 4278255360
-0.0011418872 0.028896311 0.53224844 4278255360
-0.00074161403 0.028964259 0.53254026 4278255360
-0.00034134276 0.029032208 0.53283215 4278255360
5.8930367e-05 0.029100157 0.53312397 4278255360
0.00045920163 0.029168105 0.53341579 4278255360
0.0008594729 0.029236052 0.53370762 4278255360
0.0012597479 0.029304001 0.53399944 4278255360
0.0016600192 0.029371949 0.53429127 4278255360
0.0020602904 0.029439898 0.53458309 4278255360
0.0024605654 0.029507846 0.53487492 4278255360
0.0028608367 0.029575795 0.53516674 4278255360
0.003261108 0.029643742 0.53545862 4278255360
0.0036613792 0.02971169 0.53575045 4278255360
0.0040616505 0.029779639 0.53604227 4278255360
0.0044619218 0.029847588 0.5363341 4278255360
0.0048621967 0.029915536 0.53662592 4278255360
0.005262468 0.029983483 0.53691775 4278255360
0.0056627393 0.030051433 0.53720957 4278255360
0.0060630143 0.03011938 0.53750139 4278255360
0.0064632855 0.030187329 0.53779322 4278255360
0.0068635568 0.030255277 0.5380851 4278255360
0.0072638318 0.030323226 0.53837693 4278255360
0.0076641031 0.030391173 0.53866875 4278255360
0.0080643743 0.030459121 0.53896058 4278255360
0.0084646456 0.03052707 0.5392524 4278255360
-0.03156257 0.023732243 0.51006931 4278190335
-0.03185457 0.023706455 0.51047438 4278190335
-0.032146569 0.023680668 0.5108794 4278190335
-0.032438569 0.02365488 0.51128447 4278190335
-0.032730572 0.023629092 0.51168954 4278190335
-0.033022571 0.023603305 0.51209462 4278190335
-0.033314571 0.023577517 0.51249963 4278190335
-0.03360657 0.023551729 0.5129047 4278190335
-0.03389857 0.023525942 0.51330978 4278190335
-0.034190569 0.023500154 0.51371485 4278190335
-0.034482569 0.023474365 0.51411986 4278190335
-0.034774572 0.023448579 0.51452494 4278190335
-0.035066571 0.023422791 0.51493001 4278190335
-0.035358571 0.023397002 0.51533502 4278190335
-0.03565057 0.023371216 0.5157401 4278190335
-0.035942569 0.023345428 0.51614517 4278190335
-0.036234569 0.023319639 0.51655024 4278190335
-0.036526572 0.023293853 0.51695526 4278190335
-0.036818571 0.023268064 0.51736033 4278190335
-0.037110571 0.023242276 0.5177654 4278190335
-0.03740257 0.02321649 0.51817048 4278190335
-0.03769457 0.023190701 0.51857549 4278190335
-0.037986569 0.023164913 0.51898056 4278190335
-0.038278572 0.023139127 0.51938564 4278190335
-0.038570568 0.023113338 0.51979071 4278190335
-0.038862571 0.02308755 0.52019572 4278190335
-0.039154571 0.023061763 0.5206008 4278190335
-0.03944657 0.023035975 0.52100587 4278190335
-0.039738569 0.023010187 0.52141088 4278190335
-0.040030569 0.0229844 0.52181596 4278190335
-0.040322572 0.022958612 0.52222103 4278190335
-0.040614571 0.022932824 0.5226261 4278190335
-0.040906571 0.022907037 0.52303112 4278190335
-0.04119857 0.022881249 0.52343619 4278190335
-0.04149057 0.022855461 0.52384126 4278190335
-0.041782569 0.022829674 0.52424634 4278190335
-0.042074569 0.022803886 0.52465135 4278190335
-0.042366572 0.022778098 0.52505642 4278190335
-0.042658571 0.022752311 0.52546149 4278190335
-0.042950571 0.022726523 0.52586651 4278190335
-0.04324257 0.022700734 0.52627158 4278190335
-0.043534569 0.022674948 0.52667665 4278190335
-0.043826569 0.02264916 0.52708173 4278190335
-0.044118568 0.022623371 0.52748674 4278190335
-0.044410571 0.022597585 0.52789181 4278190335
-0.044702571 0.022571797 0.52829689 4278190335
-0.04499457 0.022546008 0.52870196 4278190335
-0.04528657 0.022520222 0.52910697 4278190335
-0.045578569 0.022494433 0.52951205 4278190335
-0.045870572 0.022468645 0.52991712 4278190335
-0.046162568 0.022442859 0.53032219 4278190335
-0.046454571 0.02241707 0.53072721 4278190335
-0.046746571 0.022391282 0.53113228 4278190335
-0.04703857 0.022365496 0.53153735 4278190335
-0.047330573 0.022339707 0.53194237 4278190335
-0.047622569 0.022313919 0.53234744 4278190335
-0.047914572 0.022288132 0.53275251 4278190335
-0.048206568 0.022262344 0.53315759 4278190335
-0.048498571 0.022236556 0.5335626 4278190335
-0.048790567 0.022210769 0.53396767 4278190335
-0.04908257 0.022184981 0.53437275 4278190335
-0.049374573 0.022159193 0.53477782 4278190335
-0.049666569 0.022133404 0.53518283 4278190335
-0.049958572 0.022107618 0.53558791 4278190335
-0.050250567 0.02208183 0.53599298 4278190335
-0.050542571 0.022056043 0.53639799 4278190335
-0.05083457 0.022030255 0.53680307 4278190335
-0.05112657 0.022004467 0.53720814 4278190335
-0.051418573 0.021978678 0.53761321 4278190335
-0.051710568 0.021952892 0.53801823 4278190335
-0.052002572 0.021927103 0.5384233 4278190335
-0.052294567 0.021901315 0.53882837 4278190335
-0.05258657 0.021875529 0.53923345 4278190335
-0.05287857 0.02184974 0.53963846 4278190335
-0.053170569 0.021823952 0.54004353 4278190335
-0.053462569 0.021798166 0.54044861 4278190335
-0.053754568 0.021772377 0.54085362 4278190335
-0.054046571 0.021746589 0.54125869 4278190335
-0.054338567 0.021720802 0.54166377 4278190335
-0.05463057 0.021695014 0.54206884 4278190335
-0.05492257 0.021669226 0.54247385 4278190335
-0.055214569 0.021643439 0.54287893 4278190335
-0.055506568 0.021617651 0.543284 4278190335
-0.055798568 0.021591863 0.54368907 4278190335
-0.056090571 0.021566076 0.54409409 4278190335
-0.05638257 0.021540288 0.54449916 4278190335
-0.05667457 0.0215145 0.54490423 4278190335
-0.056966569 0.021488713 0.54530931 4278190335
-0.057258569 0.021462925 0.54571432 4278190335
-0.057550568 0.021437136 0.54611939 4278190335
-0.057842568 0.02141135 0.54652447 4278190335
-0.058134571 0.021385562 0.54692948 4278190335
-0.05842657 0.021359773 0.54733455 4278190335
-0.05871857 0.021333987 0.54773962 4278190335
-0.059010569 0.021308199 0.5481447 4278190335
-0.059302568 0.02128241 0.54854971 4278190335
-0.059594568 0.021256624 0.54895478 4278190335
-0.059886571 0.021230835 0.54935986 4278190335
-0.06017857 0.021205047 0.54976493 4278190335
-0.06047057 0.021179261 0.55016994 4278190335
-0.060762569 0.021153472 0.55057502 4278190335
-0.03156257 0.023732243 0.51006931 4294967295
-0.02981057 0.023886969 0.50763899 4294967295
-0.02805857 0.024041696 0.50520861 4294967295
-0.026306571 0.024196422 0.50277829 4294967295
-0.024554571 0.024351148 0.50034797 4294967295
-0.022802571 0.024505874 0.49791759 4294967295
-0.021050572 0.0246606 0.49548727 4294967295
-0.019298572 0.024815327 0.49305692 4294967295
-0.017546572 0.024970053 0.49062657 4294967295
-0.015794571 0.025124779 0.48819625 4294967295
-0.014042571 0.025279505 0.4857659 4294967295
-0.012290573 0.025434231 0.48333555 4294967295
-0.010538572 0.025588958 0.48090523 4294967295
-0.008786574 0.025743684 0.47847489 4294967295
-0.0070345718 0.02589841 0.47604454 4294967295
-0.0052825715 0.026053138 0.47361419 4294967295
-0.0035305731 0.026207864 0.47118387 4294967295
-0.0017785728 0.02636259 0.46875352 4294967295
-2.6572496e-05 0.026517317 0.46632317 4294967295
0.0017254278 0.026672043 0.46389282 4294967295
0.0034774281 0.026826769 0.4614625 4294967295
0.0052294247 0.026981495 0.45903215 4294967295
0.006981425 0.027136222 0.4566018 4294967295
0.0087334253 0.027290948 0.45417148 4294967295
0.010485426 0.027445674 0.45174113 4294967295
0.012237426 0.0276004 0.44931078 4294967295
0.013989422 0.027755126 0.44688046 4294967295
0.015741426 0.027909853 0.44445011 4294967295
0.017493427 0.028064579 0.44201976 4294967295
0.019245423 0.028219305 0.43958944 4294967295
0.020997427 0.028374031 0.43715906 4294967295
0.022749424 0.028528757 0.43472874 4294967295
0.024501424 0.028683484 0.43229839 4294967295
0.026253428 0.02883821 0.42986804 4294967295
0.028005425 0.028992936 0.42743772 4294967295
0.029757425 0.029147662 0.42500737 4294967295
0.031509425 0.029302388 0.42257702 4294967295
0.033261422 0.029457115 0.4201467 4294967295
0.035013426 0.029611841 0.41771635 4294967295
0.036765423 0.029766567 0.415286 4294967295
0.038517427 0.029921293 0.41285568 4294967295
0.040269423 0.030076019 0.41042534 4294967295
0.04202142 0.030230746 0.40799499 4294967295
0.043773424 0.030385472 0.40556467 4294967295
0.04552542 0.030540198 0.40313432 4294967295
0.047277424 0.030694924 0.40070397 4294967295
0.049029421 0.030849651 0.39827362 4294967295
0.050781425 0.031004377 0.3958433 4294967295
0.052533422 0.031159103 0.39341295 4294967295
0.054285426 0.031313829 0.3909826 4294967295
0.056037422 0.031468555 0.38855225 4294967295
0.057789419 0.031623282 0.38612193 4294967295
0.059541415 0.031778008 0.38369158 4294967295
0.061293419 0.031932734 0.38126123 4294967295
0.063045427 0.03208746 0.37883091 4294967295
0.064797416 0.032242186 0.37640056 4294967295
0.06654942 0.032396913 0.37397021 4294967295
0.068301424 0.032551639 0.37153989 4294967295
0.070053414 0.032706365 0.36910954 4294967295
0.071805418 0.032861091 0.36667919 4294967295
0.073557422 0.033015817 0.36424884 4294967295
0.075309426 0.033170544 0.36181849 4294967295
0.077061415 0.03332527 0.35938817 4294967295
0.078813419 0.033479996 0.35695785 4294967295
0.080565423 0.033634722 0.35452747 4294967295
0.082317412 0.033789448 0.35209715 4294967295
0.084069431 0.033944175 0.3496668 4294967295
0.08582142 0.034098901 0.34723645 4294967295
0.087573424 0.034253627 0.34480613 4294967295
0.089325413 0.034408353 0.34237579 4294967295
0.091077417 0.034563079 0.33994544 4294967295
0.092829421 0.034717806 0.33751512 4294967295
0.094581425 0.034872536 0.33508474 4294967295
0.096333429 0.035027262 0.33265442 4294967295
0.098085418 0.035181988 0.3302241 4294967295
0.099837422 0.035336711 0.32779375 4294967295
0.10158943 0.035491437 0.3253634 4294967295
0.10334142 0.035646163 0.32293308 4294967295
0.10509342 0.035800889 0.32050273 4294967295
0.10684542 0.035955619 0.31807238 4294967295
0.10859743 0.036110345 0.31564203 4294967295
0.11034942 0.036265071 0.31321168 4294967295
0.11210142 0.036419798 0.31078136 4294967295
0.11385342 0.036574524 0.30835101 4294967295
0.11560541 0.03672925 0.30592066 4294967295
0.11735742 0.036883976 0.30349034 4294967295
0.11910942 0.037038703 0.30105999 4294967295
0.12086143 0.037193429 0.29862964 4294967295
0.12261342 0.037348155 0.29619932 4294967295
0.12436542 0.037502881 0.29376897 4294967295
0.12611742 0.037657607 0.29133862 4294967295
0.12786943 0.037812334 0.28890827 4294967295
0.12962142 0.03796706 0.28647792 4294967295
0.13137342 0.038121786 0.2840476 4294967295
0.13312542 0.038276512 0.28161728 4294967295
0.13487741 0.038431238 0.2791869 4294967295
0.13662942 0.038585965 0.27675658 4294967295
0.13838142 0.038740691 0.27432624 4294967295
0.14013343 0.038895417 0.27189589 4294967295
0.14188541 0.039050143 0.26946557 4294967295
0.14363742 0.039204869 0.26703522 4294967295
