# .PCD v0.7 - Point Cloud Data file format
VERSION 0.7
FIELDS x y z rgb
SIZE 4 4 4 4
TYPE F F F U
COUNT 1 1 1 1
WIDTH 867
HEIGHT 1
VIEWPOINT 0 0 0 1 0 0 0
POINTS 867
DATA ascii
-0.017510895 0.031807277 0.49500003 4279059740
-0.015935261 0.031871535 0.49600002 4279060767
-0.014324252 0.031871535 0.49600002 4279323941
-0.012738874 0.031935789 0.49700001 4279652652
-0.019002784 0.033213064 0.49200001 4279843871
-0.017440144 0.03328057 0.49300003 4278993945
-0.015838878 0.03328057 0.49300003 4278994459
-0.014266494 0.033348076 0.49400002 4278863388
-0.01266198 0.033348076 0.49400002 4279126560
-0.020517059 0.034670111 0.49000001 4278854416
-0.018925538 0.034670111 0.49000001 4279779102
-0.017369393 0.034740865 0.49100003 4279058970
-0.015774623 0.034740865 0.49100003 4278928154
-0.014150975 0.034670111 0.49000001 4279059740
-0.012559454 0.034670111 0.49000001 4278862361
-0.0074035903 0.032971982 0.46600002 4278993949
-0.0058773826 0.032901227 0.46500003 4278928156
-0.0043576704 0.032830473 0.46400002 4278928156
-0.0028444538 0.032759719 0.46300003 4278993949
-0.001340629 0.032759719 0.46300003 4279059488
0.00016284335 0.03268896 0.46200001 4279125281
0.0016598196 0.032618206 0.46100003 4278731037
0.0031502999 0.032547452 0.46000001 4278731037
0.0046342839 0.032476697 0.45900002 4278533658
0.0061251172 0.032476697 0.45900002 4278796830
0.0075993575 0.032405943 0.45800003 4279191590
-0.017263265 0.036114164 0.48800004 4279058459
-0.015678242 0.036114164 0.48800004 4279058972
-0.014064336 0.036040157 0.48700002 4278927386
-0.012456928 0.035966154 0.48600003 4278862363
-0.0089362953 0.034560069 0.46700001 4278993949
-0.0074035903 0.034486063 0.46600002 4278928156
-0.0058773826 0.03441206 0.46500003 4278928156
-0.0043576704 0.034338053 0.46400002 4278862363
-0.0028444538 0.03426405 0.46300003 4278203409
-0.001340629 0.03426405 0.46300003 4278201098
0.00016284335 0.034190048 0.46200001 4278729753
0.0016598196 0.034116041 0.46100003 4278731291
0.0031502999 0.034042038 0.46000001 4278731291
0.0046342839 0.033968035 0.45900002 4278731291
0.0061251172 0.033968035 0.45900002 4278731291
0.0075993575 0.033894029 0.45800003 4278797084
0.0090671014 0.033820026 0.45700002 4278862877
0.010551439 0.033820026 0.45700002 4278862877
-0.018809667 0.03762247 0.48700002 4279910947
-0.017192515 0.037545215 0.48600003 4279058972
-0.015613986 0.037545215 0.48600003 4279190558
-0.014006577 0.037467964 0.48500001 4279124765
-0.012380033 0.037313454 0.48300001 4278993179
-0.0089554312 0.036154654 0.46800002 4279124765
-0.0074035903 0.036000147 0.46600002 4279059742
-0.0058773826 0.035922892 0.46500003 4278993949
-0.0043576704 0.035845637 0.46400002 4279059742
-0.0028444538 0.035768386 0.46300003 4278200585
-0.001340629 0.035768386 0.46300003 4278792468
0.00016284335 0.035691131 0.46200001 4279517473
0.0016598196 0.03561388 0.46100003 4279058972
0.0031502999 0.035536624 0.46000001 4278993179
0.0046443804 0.035536624 0.46000001 4279058972
0.0061251172 0.035459369 0.45900002 4278796570
0.0075993575 0.035382118 0.45800003 4278862363
0.0090869423 0.035382118 0.45800003 4278862363
0.010551439 0.035304863 0.45700002 4278928154
-0.018732419 0.039043777 0.48500001 4279451682
-0.017121764 0.038963273 0.48400003 4278993179
-0.015517603 0.03888277 0.48300001 4279124765
-0.013919939 0.03880227 0.48200002 4278993179
-0.012303138 0.038641263 0.48000002 4279058972
-0.0089745661 0.037755735 0.46900001 4279124765
-0.0074194777 0.037594728 0.46700001 4279124765
-0.0058773826 0.037433725 0.46500003 4279124765
-0.0043576704 0.037353221 0.46400002 4279124765
-0.0028444538 0.037272722 0.46300003 4278858773
-0.001340629 0.037272722 0.46300003 4279515676
0.00016284335 0.037192214 0.46200001 4279320348
0.0016598196 0.037111714 0.46100003 4278530832
0.0031571484 0.037111714 0.46100003 4278198530
0.0046443804 0.037031211 0.46000001 4278462988
0.0061251172 0.036950707 0.45900002 4279976740
0.0076159495 0.036950707 0.45900002 4279254555
0.0090869423 0.036870208 0.45800003 4279254555
0.010574528 0.036870208 0.45800003 4279386652
0.01500445 0.036789704 0.45700002 4278795798
0.016488785 0.036789704 0.45700002 4278927384
-0.020223958 0.040452085 0.48300001 4280106793
-0.018655173 0.040452085 0.48300001 4279254816
-0.017051013 0.040368337 0.48200002 4278993177
-0.015453348 0.040284585 0.48100004 4279124761
-0.01386218 0.040200833 0.48000002 4278993947
-0.012226244 0.039949577 0.47700003 4278928154
-0.010632181 0.039782073 0.47500002 4278928154
-0.0089745661 0.039279561 0.46900001 4278993947
-0.0074194777 0.039112058 0.46700001 4279058970
-0.0058773826 0.038944557 0.46500003 4279058970
-0.0043576704 0.038860805 0.46400002 4279058972
-0.0028444538 0.038777053 0.46300003 4278198788
-0.001340629 0.038777053 0.46300003 4279383320
0.00016284335 0.038693301 0.46200001 4279320348
0.0016598196 0.038609549 0.46100003 4278195200
0.0031571484 0.038609549 0.46100003 4278721549
0.0046443804 0.038525797 0.46000001 4278786572
0.0061384616 0.038525797 0.46000001 4278720779
0.0076159495 0.038442045 0.45900002 4278720779
0.0091067832 0.038442045 0.45900002 4278654986
0.010574528 0.038358297 0.45800003 4278524170
0.012088448 0.038442045 0.45900002 4278195459
0.013549698 0.038358297 0.45800003 4278262790
0.01500445 0.038274541 0.45700002 4278197511
0.016488785 0.038274541 0.45700002 4278529808
0.017933793 0.038190793 0.45600003 4278925336
0.019414883 0.038190793 0.45600003 4279188508
0.020850148 0.038107038 0.45500001 4278860056
0.022327987 0.038107038 0.45500001 4278991896
0.023753507 0.038023289 0.45400003 4278992664
0.025172532 0.037939534 0.45300001 4278400527
0.026643876 0.037939534 0.45300001 4278861078
0.028053159 0.037855785 0.45200002 4278795798
0.029521253 0.037855785 0.45200002 4278599189
0.039445736 0.037520777 0.44800001 4278994461
0.040900841 0.037520777 0.44800001 4278731802
0.043517675 0.037269522 0.44500002 4278863388
0.044963036 0.037269522 0.44500002 4279521320
0.046408396 0.037269522 0.44500002 4279323941
0.047853757 0.037269522 0.44500002 4279717932
-0.018577926 0.041847404 0.48100004 4279320094
-0.017015638 0.041847404 0.48100004 4278927384
-0.01542122 0.0417604 0.48000002 4278796568
-0.013804421 0.041586399 0.47800002 4278928156
-0.012200613 0.041412398 0.47600001 4279059742
-0.010587414 0.041151397 0.47300002 4278928156
-0.0089745661 0.040803391 0.46900001 4278928156
-0.0074194777 0.040629391 0.46700001 4279124763
-0.0058773826 0.04045539 0.46500003 4279058970
-0.0043576704 0.040368386 0.46400002 4279058972
-0.0028444538 0.040281389 0.46300003 4278198532
-0.001340629 0.040281389 0.46300003 4279976227
0.00016284335 0.040194385 0.46200001 4279780645
0.0016598196 0.040107384 0.46100003 4278722832
0.0031571484 0.040107384 0.46100003 4279445272
0.0046443804 0.040020384 0.46000001 4278917644
0.0061384616 0.040020384 0.46000001 4278851851
0.0076159495 0.039933383 0.45900002 4278785291
0.0091067832 0.039933383 0.45900002 4278720013
0.010597616 0.039933383 0.45900002 4278916879
0.012088448 0.039933383 0.45900002 4278916879
0.013549698 0.039846383 0.45800003 4278720013
0.015037282 0.039846383 0.45800003 4278851599
0.016488785 0.039759383 0.45700002 4278460683
0.017973121 0.039759383 0.45700002 4279581471
0.019414883 0.039672382 0.45600003 4279778080
0.020850148 0.039585378 0.45500001 4278725392
0.022327987 0.039585378 0.45500001 4278196736
0.023753507 0.039498381 0.45400003 4278196480
0.025228102 0.039498381 0.45400003 4278195200
0.026643876 0.039411377 0.45300001 4278196736
0.028115222 0.039411377 0.45300001 4278397710
0.029586565 0.039411377 0.45300001 4278989847
0.031057913 0.039411377 0.45300001 4278793750
0.032457449 0.039324377 0.45200002 4278728211
0.033925544 0.039324377 0.45200002 4278729494
0.03539364 0.039324377 0.45200002 4278335249
0.036780186 0.03923738 0.45100003 4278795800
0.038245037 0.03923738 0.45100003 4278795798
0.039533786 0.039063375 0.44900003 4278336017
0.040992137 0.039063375 0.44900003 4278599189
0.042450495 0.039063375 0.44900003 4278468117
0.04371326 0.038889375 0.44700003 4278731289
0.045165118 0.038889375 0.44700003 4278994461
0.046616975 0.038889375 0.44700003 4278928668
0.048068829 0.038889375 0.44700003 4279191840
0.04952069 0.038889375 0.44700003 4279126047
0.05120061 0.039063375 0.44900003 4279191840
0.052776244 0.039150376 0.45000002 4279323426
0.054358374 0.03923738 0.45100003 4279191842
0.055823222 0.03923738 0.45100003 4278993949
0.057288069 0.03923738 0.45100003 4281094460
-0.018539302 0.043319974 0.48000002 4279386400
-0.016944887 0.043229725 0.47900003 4278862363
-0.015356964 0.043139473 0.47800002 4278993949
-0.013746661 0.042958971 0.47600001 4278796570
-0.01214935 0.042778477 0.47400004 4278993947
-0.01056503 0.042597976 0.47200003 4278928154
-0.0089745661 0.042327221 0.46900001 4278928154
-0.0074194777 0.042146724 0.46700001 4278928156
-0.0058773826 0.041966226 0.46500003 4278993949
-0.0043576704 0.041875973 0.46400002 4279124765
-0.0028444538 0.041785724 0.46300003 4278196480
-0.0013377335 0.041695476 0.46200001 4279648029
0.00016284335 0.041695476 0.46200001 4279912485
0.0016598196 0.041605227 0.46100003 4278655756
0.0031571484 0.041605227 0.46100003 4279972127
0.0046443804 0.041514974 0.46000001 4279511576
0.0061384616 0.041514974 0.46000001 4278458888
0.0076325419 0.041514974 0.46000001 4279247123
0.0091067832 0.041424725 0.45900002 4279774237
0.010597616 0.041424725 0.45900002 4279576858
0.012088448 0.041424725 0.45900002 4280233764
0.013549698 0.041334476 0.45800003 4279641627
0.015037282 0.041334476 0.45800003 4279181076
0.016488785 0.041244224 0.45700002 4278854927
0.017973121 0.041244224 0.45700002 4279516191
0.019414883 0.041153975 0.45600003 4279385371
0.020895973 0.041153975 0.45600003 4279516443
0.022327987 0.041063726 0.45500001 4279516443
0.023805827 0.041063726 0.45500001 4279319064
0.025228102 0.040973477 0.45400003 4279779615
0.026702695 0.040973477 0.45400003 4279516443
0.028115222 0.040883224 0.45300001 4279910947
0.029586565 0.040883224 0.45300001 4279450396
0.031057913 0.040883224 0.45300001 4279185941
0.032529257 0.040883224 0.45300001 4278528011
0.034000598 0.040883224 0.45300001 4278197506
0.03539364 0.040792976 0.45200002 4278195968
0.036861736 0.040792976 0.45200002 4278195200
0.038245037 0.040702727 0.45100003 4278197506
0.039621834 0.040612474 0.45000002 4278199561
0.041083433 0.040612474 0.45000002 4279187226
0.042545035 0.040612474 0.45000002 4279188508
0.043908846 0.040522225 0.44900003 4279255068
0.045266159 0.040431976 0.44800001 4278597908
0.046721261 0.040431976 0.44800001 4278730005
0.048176363 0.040431976 0.44800001 4278927384
0.049742259 0.040522225 0.44900003 4278993177
0.051314641 0.040612474 0.45000002 4278862875
0.052893527 0.040702727 0.45100003 4278862875
0.054358374 0.040702727 0.45100003 4278928668
0.055946995 0.040792976 0.45200002 4279191840
0.057415091 0.040792976 0.45200002 4279519271
0.05888319 0.040792976 0.45200002 4281950796
-0.021702504 0.044973042 0.48100004 4279575574
-0.020056473 0.044786043 0.47900003 4279976229
-0.01850068 0.044786043 0.47900003 4279254814
-0.01690951 0.044692542 0.47800002 4278862109
-0.015324838 0.044599045 0.47700003 4278927902
-0.013717782 0.044412047 0.47500002 4278664982
-0.012123718 0.044225048 0.47300002 4278862361
-0.010542646 0.04403805 0.47100002 4278928154
-0.0089554312 0.043757554 0.46800002 4278928154
-0.0074035903 0.043570556 0.46600002 4278862363
-0.0058773826 0.043477058 0.46500003 4278928156
-0.0043576704 0.043383557 0.46400002 4278530580
-0.0028444538 0.04329006 0.46300003 4278526476
-0.0013377335 0.043196559 0.46200001 4279187478
0.00016284335 0.043196559 0.46200001 4279845922
0.0016598196 0.043103062 0.46100003 4278655756
0.0031571484 0.043103062 0.46100003 4279050514
0.0046443804 0.043009561 0.46000001 4278656269
0.0061384616 0.043009561 0.46000001 4279051025
0.0076325419 0.043009561 0.46000001 4278523146
0.0091067832 0.042916063 0.45900002 4280432167
0.010597616 0.042916063 0.45900002 4278654986
0.012088448 0.042916063 0.45900002 4279840028
0.013549698 0.042822566 0.45800003 4279117586
0.015037282 0.042822566 0.45800003 4278589191
0.016524866 0.042822566 0.45800003 4279250453
0.017973121 0.042729065 0.45700002 4279385371
0.019457459 0.042729065 0.45700002 4278196736
0.020895973 0.042635567 0.45600003 4278787851
0.022377061 0.042635567 0.45600003 4278197508
0.023805827 0.042542066 0.45500001 4278660367
0.025283668 0.042542066 0.45500001 4278660880
0.026702695 0.042448569 0.45400003 4278200069
0.028177287 0.042448569 0.45400003 4279056406
0.029651878 0.042448569 0.45400003 4278199555
0.031057913 0.042355068 0.45300001 4279648029
0.032529257 0.042355068 0.45300001 4279385371
0.034000598 0.042355068 0.45300001 4278991383
0.035471946 0.042355068 0.45300001 4279057176
0.036861736 0.042261571 0.45200002 4278991383
0.038329836 0.042261571 0.45200002 4279582750
0.039709885 0.04216807 0.45100003 4279516443
0.041174732 0.04216807 0.45100003 4279647775
0.042639583 0.04216807 0.45100003 4279713055
0.044006635 0.042074572 0.45000002 4278660367
0.045468237 0.042074572 0.45000002 4278198533
0.04692984 0.042074572 0.45000002 4278196480
0.048391439 0.042074572 0.45000002 4278991896
0.049853042 0.042074572 0.45000002 4278795285
0.051428676 0.04216807 0.45100003 4278795798
0.052893527 0.04216807 0.45100003 4278993177
0.054478899 0.042261571 0.45200002 4278927384
0.055946995 0.042261571 0.45200002 4278927384
0.057415091 0.042261571 0.45200002 4279453476
0.05888319 0.042261571 0.45200002 4279124000
-0.021657383 0.046439111 0.48000002 4279836946
-0.020056473 0.046342365 0.47900003 4280897329
-0.018462054 0.046245612 0.47800002 4279320861
-0.016874135 0.046148866 0.47700003 4278993949
-0.01529271 0.046052117 0.47600001 4278862363
-0.013688903 0.045858625 0.47400004 4278928156
-0.012123718 0.045761872 0.47300002 4278993949
-0.010520263 0.045471631 0.47000003 4278993947
-0.0089554312 0.045278132 0.46800002 4278928154
-0.0074035903 0.045084637 0.46600002 4278862363
-0.0058773826 0.044987891 0.46500003 4278862363
-0.0043576704 0.044891141 0.46400002 4279058459
-0.0028444538 0.044794392 0.46300003 4278923539
-0.0013377335 0.044697642 0.46200001 4279516189
0.00016249088 0.044600897 0.46100003 4279648289
0.0016598196 0.044600897 0.46100003 4278786572
0.0031571484 0.044600897 0.46100003 4278983183
0.0046443804 0.044504147 0.46000001 4278851597
0.0061384616 0.044504147 0.46000001 4278785804
0.0076159495 0.044407401 0.45900002 4278851597
0.0091067832 0.044407401 0.45900002 4278785804
0.010597616 0.044407401 0.45900002 4278785804
0.012088448 0.044407401 0.45900002 4278260228
0.013549698 0.044310652 0.45800003 4278787853
0.015037282 0.044310652 0.45800003 4278655754
0.016524866 0.044310652 0.45800003 4279580188
0.017973121 0.044213902 0.45700002 4279648289
0.019457459 0.044213902 0.45700002 4278787855
0.020895973 0.044117156 0.45600003 4279049490
0.022377061 0.044117156 0.45600003 4278656267
0.023805827 0.044020407 0.45500001 4278196228
0.025283668 0.044020407 0.45500001 4279319324
0.026761509 0.044020407 0.45500001 4278331915
0.028177287 0.043923661 0.45400003 4278462220
0.029651878 0.043923661 0.45400003 4279581471
0.031126473 0.043923661 0.45400003 4278660369
0.032529257 0.043826912 0.45300001 4278726162
0.034000598 0.043826912 0.45300001 4278661396
0.035471946 0.043826912 0.45300001 4278727957
0.03694329 0.043826912 0.45300001 4278859797
0.038329836 0.043730162 0.45200002 4278859797
0.039797932 0.043730162 0.45200002 4278859797
0.041266028 0.043730162 0.45200002 4278991383
0.042734127 0.043730162 0.45200002 4279320861
0.044104431 0.043633416 0.45100003 4278926103
0.045569282 0.043633416 0.45100003 4279188508
0.04703413 0.043633416 0.45100003 4278989845
0.048498977 0.043633416 0.45100003 4279188508
0.049963828 0.043633416 0.45100003 4278861078
0.051542707 0.043730162 0.45200002 4278795285
0.053010803 0.043730162 0.45200002 4278992664
0.054478899 0.043730162 0.45200002 4278795798
0.055946995 0.043730162 0.45200002 4278927384
0.057415091 0.043730162 0.45200002 4279058972
0.05901346 0.043826912 0.45300001 4279320607
0.060484808 0.043826912 0.45300001 4285369722
-0.020014601 0.047798686 0.47800002 4281094192
-0.018423432 0.047698688 0.47700003 4279254553
-0.016838759 0.04759869 0.47600001 4279058970
-0.015260583 0.047498692 0.47500002 4278993179
-0.013688903 0.047398698 0.47400004 4278795800
-0.012098087 0.047198702 0.47200003 4279256351
-0.010520263 0.046998709 0.47000003 4278993179
-0.0089554312 0.046798714 0.46800002 4278862361
-0.0074035903 0.046598718 0.46600002 4278533396
-0.0058773826 0.046498723 0.46500003 4278796570
-0.0043576704 0.046398722 0.46400002 4278199300
-0.0028444538 0.046298727 0.46300003 4278791955
-0.0013377335 0.046198729 0.46200001 4279450910
0.00016249088 0.046098731 0.46100003 4279254301
0.0016598196 0.046098731 0.46100003 4279713055
0.0031502999 0.045998733 0.46000001 4279514395
0.0046443804 0.045998733 0.46000001 4278854929
0.0061251172 0.045898739 0.45900002 4278195972
0.0076159495 0.045898739 0.45900002 4278720779
0.0091067832 0.045898739 0.45900002 4278917644
0.010597616 0.045898739 0.45900002 4279048463
0.012062112 0.045798741 0.45800003 4278917390
0.013549698 0.045798741 0.45800003 4278851597
0.015037282 0.045798741 0.45800003 4278851597
0.016488785 0.045698743 0.45700002 4279580188
0.017973121 0.045698743 0.45700002 4279318810
0.019457459 0.045698743 0.45700002 4278986002
0.020895973 0.045598745 0.45600003 4278654986
0.022377061 0.045598745 0.45600003 4278789136
0.023805827 0.045498747 0.45500001 4278922006
0.025283668 0.045498747 0.45500001 4278196480
0.026761509 0.045498747 0.45500001 4278858007
0.028177287 0.045398753 0.45400003 4278265611
0.029651878 0.045398753 0.45400003 4279515678
0.031126473 0.045398753 0.45400003 4278397197
0.032529257 0.045298751 0.45300001 4279384092
0.034000598 0.045298751 0.45300001 4278462220
0.035471946 0.045298751 0.45300001 4278462220
0.03694329 0.045298751 0.45300001 4278988564
0.038414635 0.045298751 0.45300001 4278923541
0.039885979 0.045298751 0.45300001 4278595089
0.041357324 0.045298751 0.45300001 4279121433
0.042734127 0.045198757 0.45200002 4278200074
0.044202223 0.045198757 0.45200002 4278398224
0.045670319 0.045198757 0.45200002 4278925849
0.047138415 0.045198757 0.45200002 4278727187
0.048606511 0.045198757 0.45200002 4278990359
0.050074611 0.045198757 0.45200002 4278927386
0.051542707 0.045198757 0.45200002 4278795798
0.053010803 0.045198757 0.45200002 4278927384
0.054478899 0.045198757 0.45200002 4278993177
0.056070771 0.045298751 0.45300001 4278927384
0.057542115 0.045298751 0.45300001 4278992666
0.05901346 0.045298751 0.45300001 4278729494
0.060484808 0.045298751 0.45300001 4283988328
-0.020014601 0.049351756 0.47800002 4279249424
-0.016838759 0.049145263 0.47600001 4279320861
-0.015260583 0.049042016 0.47500002 4279255068
-0.013688903 0.048938774 0.47400004 4278991896
-0.012098087 0.048732277 0.47200003 4278794517
-0.010520263 0.048525784 0.47000003 4278992666
-0.0089554312 0.048319291 0.46800002 4278993179
-0.0074035903 0.048112798 0.46600002 4278599191
-0.0058773826 0.048009556 0.46500003 4278599191
-0.004348279 0.047803063 0.46300003 4278992925
-0.0028383103 0.047699813 0.46200001 4278991642
-0.0013377335 0.047699813 0.46200001 4279189021
0.00016249088 0.047596566 0.46100003 4279189021
0.0016562191 0.04749332 0.46000001 4279189791
0.0031502999 0.04749332 0.46000001 4279123998
0.0046342839 0.047390074 0.45900002 4278991642
0.0061251172 0.047390074 0.45900002 4279189021
0.0076159495 0.047390074 0.45900002 4279452193
0.0090869423 0.047286831 0.45800003 4279254303
0.010574528 0.047286831 0.45800003 4279515937
0.012062112 0.047286831 0.45800003 4279647523
0.013549698 0.047286831 0.45800003 4280238377
0.01500445 0.047183581 0.45700002 4279053592
0.016488785 0.047183581 0.45700002 4279843106
0.017973121 0.047183581 0.45700002 4278195200
0.019414883 0.047080338 0.45600003 4278196997
0.020895973 0.047080338 0.45600003 4278196997
0.022377061 0.047080338 0.45600003 4278789134
0.023805827 0.046977088 0.45500001 4279381785
0.025283668 0.046977088 0.45500001 4279514654
0.026702695 0.046873845 0.45400003 4279975975
0.028177287 0.046873845 0.45400003 4279450398
0.029651878 0.046873845 0.45400003 4278989847
0.031057913 0.046770595 0.45300001 4279516191
0.032529257 0.046770595 0.45300001 4279056154
0.034000598 0.046770595 0.45300001 4278858261
0.035471946 0.046770595 0.45300001 4278792468
0.03694329 0.046770595 0.45300001 4279384092
0.038414635 0.046770595 0.45300001 4278265611
0.039885979 0.046770595 0.45300001 4278199563
0.041357324 0.046770595 0.45300001 4278726421
0.042828668 0.046770595 0.45300001 4279054103
0.044300012 0.046770595 0.45300001 4278462990
0.04577136 0.046770595 0.45300001 4279189275
0.047138415 0.046667352 0.45200002 4278200329
0.048606511 0.046667352 0.45200002 4279451680
0.050074611 0.046667352 0.45200002 4278992666
0.051542707 0.046667352 0.45200002 4278861080
0.053128082 0.046770595 0.45300001 4278992664
0.054599427 0.046770595 0.45300001 4279058457
0.056070771 0.046770595 0.45300001 4278992664
0.057542115 0.046770595 0.45300001 4278992666
0.05901346 0.046770595 0.45300001 4280044330
0.060484808 0.046770595 0.45300001 4282277964
-0.016838759 0.050691836 0.47600001 4278789388
-0.015260583 0.050585341 0.47500002 4278658832
-0.013660023 0.050372347 0.47300002 4279515424
-0.012098087 0.050265856 0.47200003 4279450144
-0.010520263 0.050052863 0.47000003 4279648037
-0.0089554312 0.049839873 0.46800002 4279517221
-0.0074035903 0.049626879 0.46600002 4279649574
-0.0058773826 0.049520388 0.46500003 4279452195
-0.004348279 0.049307395 0.46300003 4280044332
-0.0028383103 0.0492009 0.46200001 4279320609
-0.001334838 0.049094405 0.46100003 4279254816
0.0001621384 0.048987906 0.46000001 4279254814
0.0016562191 0.048987906 0.46000001 4279387683
0.0031434514 0.048881412 0.45900002 4278795546
0.0046342839 0.048881412 0.45900002 4278598167
0.0061251172 0.048881412 0.45900002 4278795546
0.0075993575 0.04877492 0.45800003 4278663960
0.0090869423 0.04877492 0.45800003 4278795546
0.010574528 0.04877492 0.45800003 4279058718
0.012035775 0.048668422 0.45700002 4278927132
0.013520112 0.048668422 0.45700002 4279058718
0.01500445 0.048668422 0.45700002 4278992412
0.016488785 0.048668422 0.45700002 4279254814
0.017933793 0.048561927 0.45600003 4279189021
0.019414883 0.048561927 0.45600003 4279188508
0.020895973 0.048561927 0.45600003 4279056152
0.022327987 0.048455428 0.45500001 4279976742
0.023805827 0.048455428 0.45500001 4279713570
0.025228102 0.048348937 0.45400003 4278923287
0.026702695 0.048348937 0.45400003 4278856724
0.028177287 0.048348937 0.45400003 4278198025
0.029586565 0.048242439 0.45300001 4278196483
0.031057913 0.048242439 0.45300001 4278196226
0.032529257 0.048242439 0.45300001 4278196481
0.034000598 0.048242439 0.45300001 4278462990
0.035471946 0.048242439 0.45300001 4279252506
0.03694329 0.048242439 0.45300001 4279647775
0.038414635 0.048242439 0.45300001 4279647775
0.039885979 0.048242439 0.45300001 4279187738
0.041357324 0.048242439 0.45300001 4279187738
0.042828668 0.048242439 0.45300001 4279779875
0.044300012 0.048242439 0.45300001 4279121945
0.04577136 0.048242439 0.45300001 4278991383
0.047242705 0.048242439 0.45300001 4278198016
0.048714045 0.048242439 0.45300001 4279121945
0.050185394 0.048242439 0.45300001 4279189275
0.051656738 0.048242439 0.45300001 4279058459
0.053128082 0.048242439 0.45300001 4278992664
0.054599427 0.048242439 0.45300001 4279124250
0.056070771 0.048242439 0.45300001 4278795285
0.057542115 0.048242439 0.45300001 4279058457
0.05901346 0.048242439 0.45300001 4279584031
0.060484808 0.048242439 0.45300001 4282409037
-0.010497879 0.051470194 0.46900001 4285171059
-0.0089554312 0.051360451 0.46800002 4283986785
-0.0074035903 0.05114096 0.46600002 4282145865
-0.0058647431 0.050921474 0.46400002 4280895798
-0.004348279 0.05081173 0.46300003 4279579934
-0.0028383103 0.050701983 0.46200001 4279448861
-0.001334838 0.05059224 0.46100003 4279844389
0.0001621384 0.050482493 0.46000001 4279713316
0.0016562191 0.050482493 0.46000001 4279648807
0.0031434514 0.05037275 0.45900002 4279780393
0.0046342839 0.05037275 0.45900002 4279385889
0.0061117732 0.050263006 0.45800003 4279583781
0.0075993575 0.050263006 0.45800003 4279254814
0.0090671014 0.050153259 0.45700002 4279255584
0.010551439 0.050153259 0.45700002 4279255584
0.012035775 0.050153259 0.45700002 4279058205
0.013520112 0.050153259 0.45700002 4278992412
0.014971618 0.050043516 0.45600003 4279058205
0.016452705 0.050043516 0.45600003 4278992925
0.017933793 0.050043516 0.45600003 4278927132
0.019414883 0.050043516 0.45600003 4278860826
0.020850148 0.049933773 0.45500001 4278992412
0.022327987 0.049933773 0.45500001 4279123228
0.023753507 0.049824029 0.45400003 4279189021
0.025228102 0.049824029 0.45400003 4278925849
0.026643876 0.049714282 0.45300001 4278991642
0.028115222 0.049714282 0.45300001 4278991642
0.029586565 0.049714282 0.45300001 4278991642
0.030989353 0.049604539 0.45200002 4278991131
0.032457449 0.049604539 0.45200002 4279319326
0.033925544 0.049604539 0.45200002 4279384092
0.03539364 0.049604539 0.45200002 4279515678
0.03694329 0.049714282 0.45300001 4279383322
0.038414635 0.049714282 0.45300001 4278988564
0.039885979 0.049714282 0.45300001 4278264587
0.041357324 0.049714282 0.45300001 4278197253
0.042828668 0.049714282 0.45300001 4278195456
0.044300012 0.049714282 0.45300001 4278197510
0.04577136 0.049714282 0.45300001 4278396427
0.047242705 0.049714282 0.45300001 4278197509
0.048714045 0.049714282 0.45300001 4278991129
0.050185394 0.049714282 0.45300001 4279123480
0.051656738 0.049714282 0.45300001 4279058457
0.053128082 0.049714282 0.45300001 4279124250
0.054599427 0.049714282 0.45300001 4279190043
0.056070771 0.049714282 0.45300001 4279124250
0.057542115 0.049714282 0.45300001 4278992664
0.05901346 0.049714282 0.45300001 4278596625
0.060484808 0.049714282 0.45300001 4286027400
-0.0043388871 0.052203067 0.46200001 4284381030
-0.0028321669 0.052090075 0.46100003 4284841579
-0.001334838 0.052090075 0.46100003 4285038956
0.0001621384 0.051977079 0.46000001 4285170542
0.0016526188 0.051864088 0.45900002 4284710506
0.0031434514 0.051864088 0.45900002 4282738000
0.0046241879 0.051751096 0.45800003 4280961589
0.0061117732 0.051751096 0.45800003 4279448863
0.0075827646 0.0516381 0.45700002 4279055388
0.0090671014 0.0516381 0.45700002 4279779111
0.010551439 0.0516381 0.45700002 4279582244
0.012009439 0.051525109 0.45600003 4279779623
0.013490528 0.051525109 0.45600003 4279714600
0.014971618 0.051525109 0.45600003 4279714600
0.016452705 0.051525109 0.45600003 4279649320
0.017894465 0.051412113 0.45500001 4279912492
0.019372307 0.051412113 0.45500001 4279386402
0.020850148 0.051412113 0.45500001 4279254816
0.022278916 0.051299121 0.45400003 4279189023
0.023753507 0.051299121 0.45400003 4278991644
0.025172532 0.051186126 0.45300001 4278992414
0.026643876 0.051186126 0.45300001 4278860826
0.028053159 0.051073134 0.45200002 4278860826
0.029521253 0.051073134 0.45200002 4278992666
0.030989353 0.051073134 0.45200002 4278861080
0.032457449 0.051073134 0.45200002 4278861080
0.033925544 0.051073134 0.45200002 4278860310
0.03539364 0.051073134 0.45200002 4278991896
0.036861736 0.051073134 0.45200002 4278991642
0.038414635 0.051186126 0.45300001 4278925336
0.039885979 0.051186126 0.45300001 4279320094
0.041357324 0.051186126 0.45300001 4279780645
0.042828668 0.051186126 0.45300001 4279450396
0.044300012 0.051186126 0.45300001 4279516189
0.04577136 0.051186126 0.45300001 4279976740
0.047242705 0.051186126 0.45300001 4279910947
0.048714045 0.051186126 0.45300001 4279254814
0.050185394 0.051186126 0.45300001 4278992666
0.051656738 0.051186126 0.45300001 4279058457
0.053128082 0.051186126 0.45300001 4279124250
0.054599427 0.051186126 0.45300001 4279058459
0.056070771 0.051186126 0.45300001 4279058459
0.057542115 0.051186126 0.45300001 4279320861
0.05901346 0.051186126 0.45300001 4279581732
0.0031434514 0.053355426 0.45900002 4284708710
0.0046241879 0.053239185 0.45800003 4284972395
0.0061117732 0.053239185 0.45800003 4284906604
0.0075827646 0.053122938 0.45700002 4285169776
0.0090671014 0.053122938 0.45700002 4285564532
0.01052835 0.053006697 0.45600003 4286222462
0.012009439 0.053006697 0.45600003 4285960060
0.013490528 0.053006697 0.45600003 4284513129
0.014971618 0.053006697 0.45600003 4282539339
0.016416624 0.052890453 0.45500001 4280698678
0.017894465 0.052890453 0.45500001 4279252002
0.019372307 0.052890453 0.45500001 4279186461
0.020804323 0.052774213 0.45400003 4279778598
0.022278916 0.052774213 0.45400003 4279713318
0.023701187 0.052657969 0.45300001 4279648039
0.025172532 0.052657969 0.45300001 4279319844
0.026585061 0.052541725 0.45200002 4279846186
0.028053159 0.052541725 0.45200002 4279649059
0.029455941 0.052425485 0.45100003 4279517727
0.030920792 0.052425485 0.45100003 4279517727
0.03238564 0.052425485 0.45100003 4279320348
0.033850487 0.052425485 0.45100003 4279320607
0.03539364 0.052541725 0.45200002 4279452193
0.036861736 0.052541725 0.45200002 4279320609
0.038329836 0.052541725 0.45200002 4279320609
0.039885979 0.052657969 0.45300001 4279452195
0.041357324 0.052657969 0.45300001 4279320607
0.042828668 0.052657969 0.45300001 4279320607
0.044300012 0.052657969 0.45300001 4279254814
0.04577136 0.052657969 0.45300001 4279189021
0.047242705 0.052657969 0.45300001 4279254814
0.048714045 0.052657969 0.45300001 4279058205
0.050185394 0.052657969 0.45300001 4279124252
0.051656738 0.052657969 0.45300001 4279190045
0.053128082 0.052657969 0.45300001 4279190045
0.054599427 0.052657969 0.45300001 4279189791
0.056070771 0.052657969 0.45300001 4279386400
0.057542115 0.052657969 0.45300001 4279450146
0.05901346 0.052657969 0.45300001 4284777846
0.0031434514 0.054846764 0.45900002 4284708710
0.0046241879 0.054727271 0.45800003 4284708712
0.0061117732 0.054727271 0.45800003 4284774505
0.0075827646 0.054607779 0.45700002 4285169263
0.0090671014 0.054607779 0.45700002 4285366642
0.023701187 0.054129809 0.45300001 4284776563
0.025116963 0.05401032 0.45200002 4284118631
0.026585061 0.05401032 0.45200002 4283723359
0.027991094 0.053890828 0.45100003 4282474060
0.029455941 0.053890828 0.45100003 4280632626
0.030920792 0.053890828 0.45100003 4279383070
0.03238564 0.053890828 0.45100003 4279646242
0.033850487 0.053890828 0.45100003 4279515426
0.03539364 0.05401032 0.45200002 4279252254
0.036861736 0.05401032 0.45200002 4279515424
0.038329836 0.05401032 0.45200002 4279581219
0.039885979 0.054129809 0.45300001 4279713318
0.041357324 0.054129809 0.45300001 4279581217
0.042828668 0.054129809 0.45300001 4279779363
0.044300012 0.054129809 0.45300001 4279648037
0.04577136 0.054129809 0.45300001 4279648037
0.047242705 0.054129809 0.45300001 4279648037
0.048714045 0.054129809 0.45300001 4279648291
0.050185394 0.054129809 0.45300001 4279582498
0.051656738 0.054129809 0.45300001 4279648291
0.053128082 0.054129809 0.45300001 4279845670
0.054599427 0.054129809 0.45300001 4279582244
0.056070771 0.054129809 0.45300001 4279055388
0.057542115 0.054129809 0.45300001 4284842354
0.054599427 0.055601653 0.45300001 4285830021
0.018858517 0.044680692 0.45917314 4294967295
0.018858517 0.044680692 0.45917314 4294901760
0.018858517 0.044680692 0.45967314 4294901760
0.018858517 0.044680692 0.46017313 4294901760
0.018858517 0.044680692 0.46067315 4294901760
0.018858517 0.044680692 0.46117315 4294901760
0.018858517 0.044680692 0.46167314 4294901760
0.018858517 0.044680692 0.46217313 4294901760
0.018858517 0.044680692 0.46267316 4294901760
0.018858517 0.044680692 0.46317315 4294901760
0.018858517 0.044680692 0.46367314 4294901760
0.018858517 0.044680692 0.46417314 4294901760
0.018858517 0.044680692 0.46467313 4294901760
0.018858517 0.044680692 0.46517316 4294901760
0.018858517 0.044680692 0.46567315 4294901760
0.018858517 0.044680692 0.46617314 4294901760
0.018858517 0.044680692 0.46667314 4294901760
0.018858517 0.044680692 0.46717316 4294901760
0.018858517 0.044680692 0.46767315 4294901760
0.018858517 0.044680692 0.46817315 4294901760
0.018858517 0.044680692 0.46867314 4294901760
0.018858517 0.044680692 0.46917313 4294901760
0.018858517 0.044680692 0.46967316 4294901760
0.018858517 0.044680692 0.47017315 4294901760
0.018858517 0.044680692 0.47067314 4294901760
0.018858517 0.044680692 0.47117314 4294901760
0.018858517 0.044680692 0.47167313 4294901760
0.018858517 0.044680692 0.47217315 4294901760
0.018858517 0.044680692 0.47267315 4294901760
0.018858517 0.044680692 0.47317314 4294901760
0.018858517 0.044680692 0.47367314 4294901760
0.018858517 0.044680692 0.47417316 4294901760
0.018858517 0.044680692 0.47467315 4294901760
0.018858517 0.044680692 0.47517315 4294901760
0.018858517 0.044680692 0.47567314 4294901760
0.018858517 0.044680692 0.47617316 4294901760
0.018858517 0.044680692 0.47667316 4294901760
0.018858517 0.044680692 0.47717315 4294901760
0.018858517 0.044680692 0.47767314 4294901760
0.018858517 0.044680692 0.47817314 4294901760
0.018858517 0.044680692 0.47867316 4294901760
0.018858517 0.044680692 0.47917315 4294901760
0.018858517 0.044680692 0.47967315 4294901760
0.018858517 0.044680692 0.48017314 4294901760
0.018858517 0.044680692 0.48067313 4294901760
0.018858517 0.044680692 0.48117316 4294901760
0.018858517 0.044680692 0.48167315 4294901760
0.018858517 0.044680692 0.48217314 4294901760
0.018858517 0.044680692 0.48267314 4294901760
0.018858517 0.044680692 0.48317316 4294901760
0.018858517 0.044680692 0.48367316 4294901760
0.018858517 0.044680692 0.48417315 4294901760
0.018858517 0.044680692 0.48467314 4294901760
0.018858517 0.044680692 0.48517314 4294901760
0.018858517 0.044680692 0.48567316 4294901760
0.018858517 0.044680692 0.48617315 4294901760
0.018858517 0.044680692 0.48667315 4294901760
0.018858517 0.044680692 0.48717314 4294901760
0.018858517 0.044680692 0.48767316 4294901760
0.018858517 0.044680692 0.48817316 4294901760
0.018858517 0.044680692 0.48867315 4294901760
0.018858517 0.044680692 0.48917314 4294901760
0.018858517 0.044680692 0.48967314 4294901760
0.018858517 0.044680692 0.49017316 4294901760
0.018858517 0.044680692 0.49067315 4294901760
0.018858517 0.044680692 0.49117315 4294901760
0.018858517 0.044680692 0.49167314 4294901760
0.018858517 0.044680692 0.49217317 4294901760
0.018858517 0.044680692 0.49267316 4294901760
0.018858517 0.044680692 0.49317315 4294901760
0.018858517 0.044680692 0.49367315 4294901760
0.018858517 0.044680692 0.49417314 4294901760
0.018858517 0.044680692 0.49467316 4294901760
0.018858517 0.044680692 0.49517316 4294901760
0.018858517 0.044680692 0.49567315 4294901760
0.018858517 0.044680692 0.49617314 4294901760
0.018858517 0.044680692 0.49667317 4294901760
0.018858517 0.044680692 0.49717316 4294901760
0.018858517 0.044680692 0.49767315 4294901760
0.018858517 0.044680692 0.49817315 4294901760
0.018858517 0.044680692 0.49867314 4294901760
0.018858517 0.044680692 0.49917316 4294901760
0.018858517 0.044680692 0.49967316 4294901760
0.018858517 0.044680692 0.50017315 4294901760
0.018858517 0.044680692 0.50067317 4294901760
0.018858517 0.044680692 0.50117314 4294901760
0.018858517 0.044680692 0.50167316 4294901760
0.018858517 0.044680692 0.50217319 4294901760
0.018858517 0.044680692 0.50267315 4294901760
0.018858517 0.044680692 0.50317317 4294901760
0.018858517 0.044680692 0.50367314 4294901760
0.018858517 0.044680692 0.50417316 4294901760
0.018858517 0.044680692 0.50467318 4294901760
0.018858517 0.044680692 0.50517315 4294901760
0.018858517 0.044680692 0.50567317 4294901760
0.018858517 0.044680692 0.50617313 4294901760
0.018858517 0.044680692 0.50667316 4294901760
0.018858517 0.044680692 0.50717318 4294901760
0.018858517 0.044680692 0.50767314 4294901760
0.018858517 0.044680692 0.50817317 4294901760
0.018858517 0.044680692 0.50867313 4294901760
0.018858517 0.044680692 0.50917315 4294901760
0.018858517 0.044680692 0.45917314 4278255360
0.018978057 0.044769447 0.45965046 4278255360
0.019097598 0.044858202 0.46012777 4278255360
0.019217137 0.044946961 0.46060508 4278255360
0.019336678 0.045035716 0.46108243 4278255360
0.019456219 0.045124471 0.46155974 4278255360
0.01957576 0.045213226 0.46203706 4278255360
0.019695301 0.045301981 0.46251437 4278255360
0.019814841 0.045390736 0.46299168 4278255360
0.019934382 0.045479495 0.463469 4278255360
0.020053921 0.04556825 0.46394631 4278255360
0.020173462 0.045657005 0.46442366 4278255360
0.020293003 0.04574576 0.46490097 4278255360
0.020412544 0.045834515 0.46537828 4278255360
0.020532085 0.04592327 0.4658556 4278255360
0.020651624 0.046012029 0.46633291 4278255360
0.020771164 0.046100784 0.46681023 4278255360
0.020890705 0.046189539 0.46728754 4278255360
0.021010246 0.046278294 0.46776488 4278255360
0.021129787 0.046367049 0.4682422 4278255360
0.021249328 0.046455804 0.46871951 4278255360
0.021368867 0.046544563 0.46919683 4278255360
0.021488408 0.046633318 0.46967414 4278255360
0.021607948 0.046722073 0.47015145 4278255360
0.021727489 0.046810828 0.47062877 4278255360
0.02184703 0.046899583 0.47110611 4278255360
0.021966569 0.046988338 0.47158343 4278255360
0.02208611 0.047077097 0.47206074 4278255360
0.022205651 0.047165852 0.47253805 4278255360
0.022325192 0.047254607 0.47301537 4278255360
0.022444732 0.047343362 0.47349268 4278255360
0.022564273 0.047432117 0.47397 4278255360
0.022683814 0.047520872 0.47444731 4278255360
0.022803355 0.047609631 0.47492465 4278255360
0.022922894 0.047698386 0.47540197 4278255360
0.023042435 0.047787141 0.47587928 4278255360
0.023161976 0.047875896 0.4763566 4278255360
0.023281517 0.047964651 0.47683391 4278255360
0.023401055 0.048053406 0.47731122 4278255360
0.023520596 0.048142165 0.47778854 4278255360
0.023640137 0.04823092 0.47826588 4278255360
0.023759678 0.048319675 0.4787432 4278255360
0.023879219 0.04840843 0.47922051 4278255360
0.02399876 0.048497185 0.47969782 4278255360
0.024118301 0.048585944 0.48017514 4278255360
0.02423784 0.048674699 0.48065245 4278255360
0.02435738 0.048763454 0.48112977 4278255360
0.024476921 0.048852209 0.48160711 4278255360
0.024596462 0.048940964 0.48208442 4278255360
0.024716003 0.049029719 0.48256174 4278255360
0.024835542 0.049118474 0.48303905 4278255360
0.024955083 0.049207233 0.48351637 4278255360
0.025074624 0.049295988 0.48399368 4278255360
0.025194164 0.049384743 0.48447099 4278255360
0.025313705 0.049473498 0.48494834 4278255360
0.025433246 0.049562253 0.48542565 4278255360
0.025552787 0.049651012 0.48590297 4278255360
0.025672326 0.049739767 0.48638028 4278255360
0.025791867 0.049828522 0.48685759 4278255360
0.025911408 0.049917277 0.48733491 4278255360
0.026030948 0.050006032 0.48781222 4278255360
0.026150489 0.050094787 0.48828956 4278255360
0.026270028 0.050183542 0.48876688 4278255360
0.026389569 0.050272301 0.48924419 4278255360
0.02650911 0.050361056 0.48972151 4278255360
0.026628651 0.050449811 0.49019882 4278255360
0.026748192 0.050538566 0.49067613 4278255360
0.026867732 0.050627321 0.49115345 4278255360
0.026987273 0.05071608 0.49163079 4278255360
0.027106814 0.050804835 0.49210811 4278255360
0.027226353 0.05089359 0.49258542 4278255360
0.027345894 0.050982345 0.49306273 4278255360
0.027465435 0.0510711 0.49354005 4278255360
0.027584974 0.051159859 0.49401736 4278255360
0.027704515 0.051248614 0.49449468 4278255360
0.027824055 0.051337369 0.49497199 4278255360
0.027943596 0.051426124 0.49544933 4278255360
0.028063137 0.051514879 0.49592665 4278255360
0.028182678 0.051603634 0.49640396 4278255360
0.028302219 0.051692389 0.49688128 4278255360
0.02842176 0.051781148 0.49735859 4278255360
0.028541299 0.051869903 0.4978359 4278255360
0.028660839 0.051958658 0.49831325 4278255360
0.02878038 0.052047413 0.49879056 4278255360
0.028899919 0.052136168 0.49926788 4278255360
0.02901946 0.052224927 0.49974519 4278255360
0.029139001 0.052313682 0.5002225 4278255360
0.029258542 0.052402437 0.50069982 4278255360
0.029378083 0.052491192 0.50117713 4278255360
0.029497623 0.052579947 0.50165445 4278255360
0.029617164 0.052668702 0.50213176 4278255360
0.029736705 0.052757457 0.50260907 4278255360
0.029856246 0.052846216 0.50308639 4278255360
0.029975785 0.052934971 0.50356376 4278255360
0.030095326 0.053023726 0.50404108 4278255360
0.030214867 0.053112481 0.50451839 4278255360
0.030334406 0.053201236 0.5049957 4278255360
0.030453946 0.053289995 0.50547302 4278255360
0.030573487 0.05337875 0.50595033 4278255360
0.030693028 0.053467505 0.50642765 4278255360
0.030812569 0.05355626 0.50690496 4278255360
