# .PCD v0.7 - Point Cloud Data file format
VERSION 0.7
FIELDS x y z rgb
SIZE 4 4 4 4
TYPE F F F U
COUNT 1 1 1 1
WIDTH 1068
HEIGHT 1
VIEWPOINT 0 0 0 1 0 0 0
POINTS 1068
DATA ascii
0.049220819 0.074484758 0.31500003 4283917658
0.050243936 0.074484758 0.31500003 4280758052
0.051267058 0.074484758 0.31500003 4280494880
0.054163922 0.074248292 0.31400001 4281486388
0.049220819 0.075508229 0.31500003 4283128396
0.050243936 0.075508229 0.31500003 4280363553
0.051267058 0.075508229 0.31500003 4280494626
0.052290183 0.075508229 0.31500003 4281417776
0.0533133 0.075508229 0.31500003 4281090608
0.054336421 0.075508229 0.31500003 4280107813
0.049220819 0.076531693 0.31500003 4281942835
0.050243936 0.076531693 0.31500003 4280824358
0.051267058 0.076531693 0.31500003 4280298014
0.052290183 0.076531693 0.31500003 4280367653
0.0533133 0.076531693 0.31500003 4280107815
0.054336421 0.076531693 0.31500003 4279255584
0.052456178 0.077801362 0.31600001 4280042274
0.0533133 0.077555157 0.31500003 4279386654
0.051429808 0.078828081 0.31600001 4280303909
0.052456178 0.078828081 0.31600001 4279190043
0.050403439 0.079854794 0.31600001 4280566311
0.051429808 0.079854794 0.31600001 4279713820
0.052456178 0.079854794 0.31600001 4279124763
0.050403439 0.080881514 0.31600001 4280108065
0.051267058 0.080625564 0.31500003 4279451932
0.050243936 0.081649035 0.31500003 4279911713
0.051267058 0.081649035 0.31500003 4279320859
0.052124176 0.081389822 0.31400001 4279255836
0.04789168 0.082147583 0.31300002 4281090860
0.049064562 0.082410038 0.31400001 4280961069
0.050084431 0.082410038 0.31400001 4279517725
0.051104303 0.082410038 0.31400001 4279256347
0.052124176 0.082410038 0.31400001 4279124761
0.047738668 0.082898855 0.31200001 4281355313
0.048908304 0.083164558 0.31300002 4280568364
0.049924929 0.083164558 0.31300002 4279124765
0.050941553 0.083164558 0.31300002 4279125535
0.051958181 0.083164558 0.31300002 4278928156
0.05280555 0.082898855 0.31200001 4279387937
0.047738668 0.083912574 0.31200001 4281948734
0.048752047 0.083912574 0.31200001 4279779361
0.049765419 0.083912574 0.31200001 4279125531
0.050778799 0.083912574 0.31200001 4279125531
0.051792175 0.083912574 0.31200001 4279059740
0.052636303 0.08364363 0.31100002 4279257119
0.047585662 0.0846541 0.31100002 4280567596
0.048595794 0.0846541 0.31100002 4279911461
0.049605917 0.0846541 0.31100002 4279126047
0.050616048 0.0846541 0.31100002 4279389219
0.051626176 0.0846541 0.31100002 4279323428
0.052467052 0.084381893 0.31 4279257121
0.044412009 0.085389122 0.31 4283061822
0.045418892 0.085389122 0.31 4282406205
0.046425767 0.085389122 0.31 4281552694
0.047585662 0.08566457 0.31100002 4280305194
0.048439533 0.085389122 0.31 4280438059
0.049446411 0.085389122 0.31 4280111658
0.05045329 0.085389122 0.31 4279521318
0.051460173 0.085389122 0.31 4279783979
0.052467052 0.085389122 0.31 4279124765
0.044412009 0.086396337 0.31 4283521090
0.045418892 0.086396337 0.31 4282210109
0.046425767 0.086396337 0.31 4281092657
0.04743265 0.086396337 0.31 4281621052
0.048439533 0.086396337 0.31 4281424440
0.049446411 0.086396337 0.31 4280045865
0.05045329 0.086396337 0.31 4279323426
0.051294174 0.08611764 0.30900002 4285176436
0.052297805 0.08611764 0.30900002 4280832815
0.053128943 0.085838944 0.30800003 4279780899
0.054129332 0.085838944 0.30800003 4279911715
0.044412009 0.087403558 0.31 4281809695
0.045418892 0.087403558 0.31 4280829483
0.046425767 0.087403558 0.31 4281751868
0.04743265 0.087403558 0.31 4281883708
0.048439533 0.087403558 0.31 4281687099
0.049446411 0.087403558 0.31 4280505903
0.05029054 0.087121613 0.30900002 4279849256
0.051294174 0.087121613 0.30900002 4280176938
0.052297805 0.087121613 0.30900002 4285111415
0.053128943 0.086839668 0.30800003 4279649826
0.054129332 0.086839668 0.30800003 4279979561
0.055129718 0.086839668 0.30800003 4279912485
0.044555277 0.088695981 0.31100002 4281809693
0.045565408 0.088695981 0.31100002 4281685816
0.046425767 0.08841078 0.31 4281883454
0.04743265 0.08841078 0.31 4281883708
0.048439533 0.08841078 0.31 4281687099
0.049446411 0.08841078 0.31 4281228345
0.05029054 0.088125587 0.30900002 4280176170
0.051294174 0.088125587 0.30900002 4279980070
0.052128557 0.087840393 0.30800003 4284716655
0.053128943 0.087840393 0.30800003 4280440371
0.054129332 0.087840393 0.30800003 4279124765
0.054950722 0.087555192 0.30700001 4279387937
0.055947855 0.087555192 0.30700001 4279782182
0.056944992 0.087555192 0.30700001 4280567848
0.044555277 0.089706458 0.31100002 4282203681
0.045565408 0.089706458 0.31100002 4282211388
0.046575531 0.089706458 0.31100002 4281883708
0.04743265 0.089418001 0.31 4281950271
0.048439533 0.089418001 0.31 4281884478
0.049446411 0.089418001 0.31 4281687612
0.05029054 0.08912956 0.30900002 4281688126
0.051294174 0.08912956 0.30900002 4280440110
0.052128557 0.088841125 0.30800003 4279848486
0.053128943 0.088841125 0.30800003 4280508215
0.053953584 0.088552669 0.30700001 4279521066
0.054950722 0.088552669 0.30700001 4279125281
0.055947855 0.088552669 0.30700001 4279256351
0.056944992 0.088552669 0.30700001 4279848488
0.057753395 0.088264227 0.30600002 4279912998
0.05874728 0.088264227 0.30600002 4280368934
0.044555277 0.090716921 0.31100002 4281741849
0.045565408 0.090716921 0.31100002 4282144566
0.046575531 0.090716921 0.31100002 4281817400
0.047585662 0.090716921 0.31100002 4282015292
0.048439533 0.090425216 0.31 4282081855
0.049446411 0.090425216 0.31 4281950269
0.05029054 0.090133525 0.30900002 4281621819
0.051294174 0.090133525 0.30900002 4281162552
0.052128557 0.089841835 0.30800003 4281097788
0.052956443 0.089550138 0.30700001 4279520293
0.053953584 0.089550138 0.30700001 4279455014
0.054950722 0.089550138 0.30700001 4279191842
0.055765618 0.089258447 0.30600002 4279388707
0.056759506 0.089258447 0.30600002 4279190558
0.057753395 0.089258447 0.30600002 4279585316
0.05874728 0.089258447 0.30600002 4279716389
0.059741173 0.089258447 0.30600002 4280109094
0.046575531 0.091727391 0.31100002 4282342974
0.047585662 0.091727391 0.31100002 4282277951
0.048439533 0.091432445 0.31 4282015292
0.049446411 0.091432445 0.31 4281819196
0.05029054 0.091137506 0.30900002 4281687612
0.051294174 0.091137506 0.30900002 4281489979
0.052128557 0.090842567 0.30800003 4281555772
0.052956443 0.090547614 0.30700001 4280965686
0.053953584 0.090547614 0.30700001 4279585316
0.054950722 0.090547614 0.30700001 4279585316
0.055765618 0.090252675 0.30600002 4279586086
0.056759506 0.090252675 0.30600002 4279125795
0.057753395 0.090252675 0.30600002 4278994209
0.05874728 0.090252675 0.30600002 4279257119
0.059545934 0.089957729 0.30500001 4279257119
0.060536578 0.089957729 0.30500001 4279584803
0.061527215 0.089957729 0.30500001 4280503086
0.046575531 0.092737861 0.31100002 4282669629
0.047585662 0.092737861 0.31100002 4282277953
0.048595794 0.092737861 0.31100002 4282277953
0.049446411 0.092439666 0.31 4281884991
0.05045329 0.092439666 0.31 4281819198
0.051294174 0.092141479 0.30900002 4281556026
0.052128557 0.091843292 0.30800003 4281621565
0.052956443 0.09154509 0.30700001 4281358393
0.053953584 0.09154509 0.30700001 4280503598
0.054771729 0.091246903 0.30600002 4280045867
0.055765618 0.091246903 0.30600002 4279520293
0.056759506 0.091246903 0.30600002 4279191842
0.057753395 0.091246903 0.30600002 4279257635
0.058555294 0.090948708 0.30500001 4279191840
0.059545934 0.090948708 0.30500001 4279126047
0.060536578 0.090948708 0.30500001 4279059740
0.061527215 0.090948708 0.30500001 4279585316
0.062517859 0.090948708 0.30500001 4280305194
0.046725292 0.094049774 0.31200001 4282533425
0.047585662 0.093748339 0.31100002 4282146367
0.048595794 0.093748339 0.31100002 4281883708
0.049605917 0.093748339 0.31100002 4281687612
0.05045329 0.093446888 0.31 4281687612
0.051294174 0.093145452 0.30900002 4281490233
0.052128557 0.092844017 0.30800003 4281556026
0.053128943 0.092844017 0.30800003 4281292854
0.053953584 0.092542566 0.30700001 4281030196
0.054771729 0.092241131 0.30600002 4280834098
0.055765618 0.092241131 0.30600002 4280505903
0.056759506 0.092241131 0.30600002 4278862361
0.057753395 0.092241131 0.30600002 4279388705
0.058555294 0.091939688 0.30500001 4279191840
0.059545934 0.091939688 0.30500001 4279323426
0.060536578 0.091939688 0.30500001 4278994461
0.061527215 0.091939688 0.30500001 4279126047
0.062517859 0.091939688 0.30500001 4279453728
0.063508496 0.091939688 0.30500001 4279781410
0.064710617 0.092241131 0.30600002 4281027116
0.046725292 0.095063485 0.31200001 4282464805
0.047738668 0.095063485 0.31200001 4282470968
0.048752047 0.095063485 0.31200001 4281948218
0.049605917 0.094758801 0.31100002 4281621052
0.05045329 0.094454102 0.31 4281687099
0.051294174 0.094149418 0.30900002 4281621304
0.052297805 0.094149418 0.30900002 4281687097
0.053128943 0.093844734 0.30800003 4281292852
0.053953584 0.093540035 0.30700001 4281292852
0.054950722 0.093540035 0.30700001 4281161782
0.055765618 0.093235351 0.30600002 4280636208
0.056759506 0.093235351 0.30600002 4280374319
0.057753395 0.093235351 0.30600002 4279519010
0.058555294 0.092930652 0.30500001 4279388705
0.059545934 0.092930652 0.30500001 4279323426
0.060536578 0.092930652 0.30500001 4279258146
0.061527215 0.092930652 0.30500001 4279258146
0.062517859 0.092930652 0.30500001 4279191840
0.063508496 0.092930652 0.30500001 4279322912
0.06449914 0.092930652 0.30500001 4279650594
0.047738668 0.096077211 0.31200001 4282333732
0.048752047 0.096077211 0.31200001 4281877035
0.049605917 0.095769271 0.31100002 4282277183
0.050616048 0.095769271 0.31100002 4281817402
0.051460173 0.095461331 0.31 4281948988
0.052297805 0.095153391 0.30900002 4281751609
0.053128943 0.094845459 0.30800003 4281685812
0.053953584 0.094537511 0.30700001 4281554739
0.054950722 0.094537511 0.30700001 4281161268
0.055765618 0.094229579 0.30600002 4281161782
0.056759506 0.094229579 0.30600002 4280898610
0.057753395 0.094229579 0.30600002 4280701999
0.05874728 0.094229579 0.30600002 4280242731
0.059545934 0.093921632 0.30500001 4279913766
0.060536578 0.093921632 0.30500001 4279519521
0.061527215 0.093921632 0.30500001 4279388705
0.062517859 0.093921632 0.30500001 4279191840
0.063508496 0.093921632 0.30500001 4279126047
0.06449914 0.093921632 0.30500001 4279388705
0.065489776 0.093921632 0.30500001 4279519521
0.066480421 0.093921632 0.30500001 4279781410
0.067471065 0.093921632 0.30500001 4280043301
0.048752047 0.09709093 0.31200001 4283126850
0.049765419 0.09709093 0.31200001 4282669890
0.050616048 0.096779749 0.31100002 4282407488
0.051460173 0.096468553 0.31 4282014011
0.052297805 0.096157365 0.30900002 4281685816
0.053128943 0.095846184 0.30800003 4281686327
0.054129332 0.095846184 0.30800003 4281358132
0.054950722 0.095534988 0.30700001 4281226548
0.055947855 0.095534988 0.30700001 4281423927
0.056759506 0.095223807 0.30600002 4281292854
0.057753395 0.095223807 0.30600002 4281029682
0.05874728 0.095223807 0.30600002 4280832817
0.059741173 0.095223807 0.30600002 4280702001
0.060536578 0.094912611 0.30500001 4280241959
0.061527215 0.094912611 0.30500001 4279716385
0.062517859 0.094912611 0.30500001 4279387933
0.063508496 0.094912611 0.30500001 4279585566
0.06449914 0.094912611 0.30500001 4279125531
0.065489776 0.094912611 0.30500001 4279257117
0.066262454 0.094601423 0.30400002 4279387933
0.067249849 0.094601423 0.30400002 4279716385
0.068237238 0.094601423 0.30400002 4279912485
0.051460173 0.097475775 0.31 4282932551
0.052297805 0.097161345 0.30900002 4282210622
0.053128943 0.096846908 0.30800003 4281423927
0.054129332 0.096846908 0.30800003 4281358393
0.055129718 0.096846908 0.30800003 4281555513
0.055947855 0.096532464 0.30700001 4281423925
0.056944992 0.096532464 0.30700001 4281160753
0.05794213 0.096532464 0.30700001 4281226546
0.05874728 0.096218035 0.30600002 4281357110
0.059741173 0.096218035 0.30600002 4280634159
0.060735062 0.096218035 0.30600002 4280700717
0.061527215 0.09590359 0.30500001 4280899376
0.062517859 0.09590359 0.30500001 4279716385
0.063508496 0.09590359 0.30500001 4279519519
0.06449914 0.09590359 0.30500001 4279718184
0.065275058 0.095589153 0.30400002 4279323426
0.066262454 0.095589153 0.30400002 4279191842
0.067249849 0.095589153 0.30400002 4278994463
0.068012767 0.095274709 0.303 4279715619
0.068996914 0.095274709 0.303 4279912485
0.0697501 0.09496028 0.30200002 4280567594
0.070730999 0.09496028 0.30200002 4280696872
0.07171189 0.09496028 0.30200002 4285563249
0.051294174 0.098165318 0.30900002 4283983442
0.052297805 0.098165318 0.30900002 4283654990
0.053128943 0.097847633 0.30800003 4282539587
0.054129332 0.097847633 0.30800003 4281817148
0.055129718 0.097847633 0.30800003 4281488696
0.055947855 0.09752994 0.30700001 4281620282
0.056944992 0.09752994 0.30700001 4281423673
0.05794213 0.09752994 0.30700001 4281357880
0.058939263 0.09752994 0.30700001 4280305194
0.059741173 0.097212255 0.30600002 4280435497
0.060735062 0.097212255 0.30600002 4280764462
0.061728947 0.097212255 0.30600002 4281225524
0.062517859 0.09689457 0.30500001 4280570413
0.063508496 0.09689457 0.30500001 4280505133
0.06428767 0.096576884 0.30400002 4279848486
0.065275058 0.096576884 0.30400002 4279519521
0.066262454 0.096576884 0.30400002 4279322912
0.067028627 0.096259192 0.303 4279454498
0.068012767 0.096259192 0.303 4279387933
0.068996914 0.096259192 0.303 4279058968
0.0697501 0.095941506 0.30200002 4279584803
0.070730999 0.095941506 0.30200002 4279715106
0.07171189 0.095941506 0.30200002 4280763692
0.072452091 0.095623821 0.30100003 4281880124
0.073429734 0.095623821 0.30100003 4286482039
0.051294174 0.099169284 0.30900002 4284311637
0.052297805 0.099169284 0.30900002 4284180051
0.053128943 0.09884835 0.30800003 4284311637
0.054129332 0.09884835 0.30800003 4283457611
0.055129718 0.09884835 0.30800003 4282407488
0.056130096 0.09884835 0.30800003 4282079550
0.057130482 0.09884835 0.30800003 4281554230
0.05794213 0.098527409 0.30700001 4280764714
0.058939263 0.098527409 0.30700001 4280169506
0.059936401 0.098527409 0.30700001 4280169506
0.060735062 0.098206475 0.30600002 4281157936
0.061728947 0.098206475 0.30600002 4281159218
0.062517859 0.097885534 0.30500001 4281029682
0.063508496 0.097885534 0.30500001 4280898094
0.06428767 0.0975646 0.30400002 4280307243
0.065275058 0.0975646 0.30400002 4279912485
0.066262454 0.0975646 0.30400002 4279387935
0.067028627 0.097243659 0.303 4279322912
0.068012767 0.097243659 0.303 4279586084
0.068769202 0.096922733 0.30200002 4279059740
0.0697501 0.096922733 0.30200002 4279190556
0.070730999 0.096922733 0.30200002 4279584801
0.07171189 0.096922733 0.30200002 4279846690
0.072452091 0.096601799 0.30100003 4279911715
0.073429734 0.096601799 0.30100003 4281023530
0.074407384 0.096601799 0.30100003 4285100899
0.053128943 0.099849075 0.30800003 4284705882
0.054129332 0.099849075 0.30800003 4284574296
0.055129718 0.099849075 0.30800003 4284312407
0.056130096 0.099849075 0.30800003 4282800965
0.057130482 0.099849075 0.30800003 4280959272
0.058130872 0.099849075 0.30800003 4281419825
0.058939263 0.099524885 0.30700001 4280562981
0.059936401 0.099524885 0.30700001 4282077501
0.060933538 0.099524885 0.30700001 4281750839
0.061728947 0.099200703 0.30600002 4281685046
0.062517859 0.098876514 0.30500001 4281553460
0.063508496 0.098876514 0.30500001 4281291058
0.06428767 0.098552331 0.30400002 4281094962
0.065275058 0.098552331 0.30400002 4280963887
0.06604448 0.098228142 0.303 4280176938
0.067028627 0.098228142 0.303 4279453728
0.068012767 0.098228142 0.303 4279651107
0.068769202 0.097903959 0.30200002 4279651107
0.0697501 0.097903959 0.30200002 4279519521
0.070730999 0.097903959 0.30200002 4279387933
0.07171189 0.097903959 0.30200002 4279256347
0.072452091 0.097579777 0.30100003 4279584801
0.073429734 0.097579777 0.30100003 4279911715
0.074407384 0.097579777 0.30100003 4280502571
0.075635478 0.097903959 0.30200002 4282208828
0.056130096 0.1008498 0.30800003 4284640602
0.057130482 0.1008498 0.30800003 4283852883
0.058130872 0.1008498 0.30800003 4282274621
0.05913125 0.1008498 0.30800003 4282077755
0.059936401 0.10052236 0.30700001 4281946937
0.060933538 0.10052236 0.30700001 4281554230
0.061728947 0.10019493 0.30600002 4281422644
0.062517859 0.099867493 0.30500001 4280037405
0.063508496 0.099867493 0.30500001 4280497956
0.06428767 0.099540062 0.30400002 4280566311
0.065275058 0.099540062 0.30400002 4281029167
0.06604448 0.099212624 0.303 4280636206
0.067028627 0.099212624 0.303 4280505133
0.068012767 0.099212624 0.303 4279980074
0.068769202 0.098885193 0.30200002 4279519523
0.0697501 0.098885193 0.30200002 4279519521
0.070730999 0.098885193 0.30200002 4279387935
0.07147444 0.098557763 0.30100003 4279124761
0.072452091 0.098557763 0.30100003 4279387933
0.073429734 0.098557763 0.30100003 4279256349
0.074654587 0.098885193 0.30200002 4279585316
0.075635478 0.098885193 0.30200002 4280042533
0.076616377 0.098885193 0.30200002 4280303141
0.077597275 0.098885193 0.30200002 4284180571
0.058130872 0.10185052 0.30800003 4284640602
0.05913125 0.10185052 0.30800003 4283260746
0.059936401 0.10151984 0.30700001 4282144316
0.060933538 0.10151984 0.30700001 4282013497
0.061728947 0.10118916 0.30600002 4280762665
0.062517859 0.10085847 0.30500001 4280365090
0.063508496 0.10085847 0.30500001 4280693542
0.06428767 0.10052779 0.30400002 4280562979
0.065275058 0.10052779 0.30400002 4280037659
0.06604448 0.1001971 0.303 4280896559
0.067028627 0.1001971 0.303 4281094708
0.068012767 0.1001971 0.303 4280702001
0.068769202 0.09986642 0.30200002 4280176686
0.0697501 0.09986642 0.30200002 4279716389
0.070730999 0.09986642 0.30200002 4279584803
0.07147444 0.099535741 0.30100003 4279453730
0.072452091 0.099535741 0.30100003 4279387937
0.073429734 0.099535741 0.30100003 4279387937
0.074654587 0.09986642 0.30200002 4279190558
0.075635478 0.09986642 0.30200002 4279649826
0.076616377 0.09986642 0.30200002 4280175657
0.077597275 0.09986642 0.30200002 4280698669
0.059936401 0.10251731 0.30700001 4284838751
0.060933538 0.10251731 0.30700001 4282406718
0.061728947 0.10218338 0.30600002 4281748790
0.062517859 0.10184944 0.30500001 4280496674
0.063508496 0.10184944 0.30500001 4280496676
0.06428767 0.10151551 0.30400002 4280957737
0.065275058 0.10151551 0.30400002 4280628772
0.06604448 0.10118157 0.303 4280431393
0.067028627 0.10118157 0.303 4280761641
0.068012767 0.10118157 0.303 4280963376
0.068769202 0.10084765 0.30200002 4280964403
0.0697501 0.10084765 0.30200002 4280372782
0.070730999 0.10084765 0.30200002 4279912744
0.07171189 0.10084765 0.30200002 4279781412
0.072452091 0.10051372 0.30100003 4279651109
0.073429734 0.10051372 0.30100003 4279716902
0.074407384 0.10051372 0.30100003 4279190558
0.075635478 0.10084765 0.30200002 4279519008
0.076616377 0.10084765 0.30200002 4279716387
0.077597275 0.10084765 0.30200002 4279715617
0.078838356 0.10118157 0.303 4279978278
0.080085948 0.10151551 0.30400002 4280959274
0.081073344 0.10151551 0.30400002 4283063115
0.082330674 0.10184944 0.30500001 4286154107
0.083594494 0.10218338 0.30600002 4286416763
0.061728947 0.10317761 0.30600002 4283194953
0.062517859 0.10284042 0.30500001 4282865988
0.063300274 0.10250324 0.30400002 4281549360
0.06428767 0.10250324 0.30400002 4280628260
0.065275058 0.10250324 0.30400002 4281615155
0.06604448 0.10216605 0.303 4280825641
0.067028627 0.10216605 0.303 4280627747
0.068012767 0.10216605 0.303 4280235036
0.068769202 0.10182887 0.30200002 4281487153
0.0697501 0.10182887 0.30200002 4281030196
0.070730999 0.10182887 0.30200002 4280570415
0.07171189 0.10182887 0.30200002 4280175655
0.072692789 0.10182887 0.30200002 4279847201
0.073429734 0.1014917 0.30100003 4279453213
0.074407384 0.1014917 0.30100003 4279650592
0.075635478 0.10182887 0.30200002 4279453726
0.076616377 0.10182887 0.30200002 4279387935
0.077597275 0.10182887 0.30200002 4279387935
0.078838356 0.10216605 0.303 4279584801
0.079822503 0.10216605 0.303 4280043299
0.08080665 0.10216605 0.303 4280436008
0.082060739 0.10250324 0.30400002 4282076218
0.083594494 0.10317761 0.30600002 4285036391
0.08486481 0.10351478 0.30700001 4286087798
0.085861951 0.10351478 0.30700001 4286350970
0.062517859 0.1038314 0.30500001 4284115541
0.063300274 0.10349097 0.30400002 4282536509
0.06428767 0.10349097 0.30400002 4282799943
0.065275058 0.10349097 0.30400002 4280300581
0.06604448 0.10315053 0.303 4281088813
0.067028627 0.10315053 0.303 4281417776
0.068012767 0.10315053 0.303 4280759331
0.068996914 0.10315053 0.303 4280496672
0.0697501 0.10281011 0.30200002 4280697385
0.070730999 0.10281011 0.30200002 4281357880
0.07171189 0.10281011 0.30200002 4281160753
0.072692789 0.10281011 0.30200002 4280767022
0.073673688 0.10281011 0.30200002 4280175655
0.074407384 0.10246968 0.30100003 4279649824
0.075385034 0.10246968 0.30100003 4279650594
0.076616377 0.10281011 0.30200002 4279651107
0.077597275 0.10281011 0.30200002 4279453728
0.078578167 0.10281011 0.30200002 4279387935
0.079559065 0.10281011 0.30200002 4279321629
0.080539964 0.10281011 0.30200002 4279912483
0.081520863 0.10281011 0.30200002 4280502823
0.082228571 0.10246968 0.30100003 4280830505
0.08486481 0.10451226 0.30700001 4282337595
0.083065145 0.10110795 0.29700002 4286613629
0.084029801 0.10110795 0.29700002 4286350457
0.063300274 0.10447869 0.30400002 4285495398
0.06428767 0.10447869 0.30400002 4282997322
0.065275058 0.10447869 0.30400002 4282406468
0.066262454 0.10447869 0.30400002 4280695337
0.067028627 0.10413501 0.303 4280497190
0.068012767 0.10413501 0.303 4280627747
0.068996914 0.10413501 0.303 4281220395
0.069981061 0.10413501 0.303 4280825639
0.070730999 0.10379133 0.30200002 4280299297
0.07171189 0.10379133 0.30200002 4281750839
0.072692789 0.10379133 0.30200002 4281225776
0.073673688 0.10379133 0.30200002 4280767022
0.074654587 0.10379133 0.30200002 4280438057
0.075385034 0.10344766 0.30100003 4280044582
0.076362684 0.10344766 0.30100003 4279715617
0.077597275 0.10379133 0.30200002 4279519521
0.078578167 0.10379133 0.30200002 4279519519
0.079559065 0.10379133 0.30200002 4279386904
0.080273278 0.10344766 0.30100003 4279650076
0.081250928 0.10344766 0.30100003 4279649822
0.081955381 0.10310397 0.30000001 4279781408
0.08237692 0.10241661 0.29800001 4280633128
0.083065145 0.10207294 0.29700002 4281287726
0.084029801 0.10207294 0.29700002 4284969317
0.084422112 0.10138558 0.29500002 4286021492
0.085090838 0.10104189 0.294 4286678652
0.085753076 0.10069822 0.29300001 4286612859
0.086408824 0.10035454 0.29200003 4286415996
0.066262454 0.10546643 0.30400002 4282209087
0.067028627 0.10511949 0.303 4282209087
0.068012767 0.10511949 0.303 4280693538
0.068996914 0.10511949 0.303 4280628258
0.069981061 0.10511949 0.303 4280431395
0.070965201 0.10511949 0.303 4280628776
0.07171189 0.10477257 0.30200002 4280365600
0.072692789 0.10477257 0.30200002 4280827173
0.073673688 0.10477257 0.30200002 4281094192
0.074654587 0.10477257 0.30200002 4281226546
0.075635478 0.10477257 0.30200002 4281030194
0.076616377 0.10477257 0.30200002 4280175657
0.077340335 0.10442565 0.30100003 4279782180
0.078317977 0.10442565 0.30100003 4279519519
0.079295628 0.10442565 0.30100003 4279651359
0.080273278 0.10442565 0.30100003 4279585053
0.080980986 0.10407871 0.30000001 4279650592
0.081955381 0.10407871 0.30000001 4279519006
0.08237692 0.10338485 0.29800001 4279780895
0.083344825 0.10338485 0.29800001 4280503338
0.084029801 0.10303792 0.29700002 4281025583
0.084708281 0.10269099 0.296 4282406466
0.085090838 0.10199713 0.294 4286087285
0.085753076 0.10165021 0.29300001 4286481789
0.086408824 0.10130328 0.29200003 4286612605
0.087058067 0.10095634 0.29100001 4286546812
0.088003241 0.10095634 0.29100001 4286350205
0.068237238 0.10645415 0.30400002 4283063367
0.069224633 0.10645415 0.30400002 4281615667
0.069981061 0.10610396 0.303 4280562467
0.070965201 0.10610396 0.303 4280825128
0.071949348 0.10610396 0.303 4281088811
0.072933495 0.10610396 0.303 4280825637
0.073673688 0.10575379 0.30200002 4280694305
0.074654587 0.10575379 0.30200002 4281418540
0.075635478 0.10575379 0.30200002 4281159985
0.076616377 0.10575379 0.30200002 4280898096
0.077340335 0.10540362 0.30100003 4280372266
0.078317977 0.10540362 0.30100003 4279846690
0.079295628 0.10540362 0.30100003 4279649822
0.080006585 0.10505343 0.30000001 4279781408
0.080980986 0.10505343 0.30000001 4279650592
0.081682198 0.10470325 0.29900002 4279453213
0.082653359 0.10470325 0.29900002 4279321627
0.083344825 0.10435308 0.29800001 4279321627
0.084029801 0.1040029 0.29700002 4280239399
0.084994465 0.1040029 0.29700002 4280633387
0.086248539 0.10435308 0.29800001 4281551159
0.087216437 0.10435308 0.29800001 4284115037
0.086408824 0.10225201 0.29200003 4286547582
0.087058067 0.10190183 0.29100001 4286152824
0.088003241 0.10190183 0.29100001 4286218619
0.068237238 0.10744188 0.30400002 4285168227
0.069224633 0.10744188 0.30400002 4282537023
0.069981061 0.10708845 0.303 4282076472
0.070965201 0.10708845 0.303 4280890917
0.071949348 0.10708845 0.303 4280890919
0.072933495 0.10708845 0.303 4281286188
0.073917635 0.10708845 0.303 4281219882
0.074901782 0.10708845 0.303 4280693538
0.075635478 0.10673502 0.30200002 4280234786
0.076616377 0.10673502 0.30200002 4281290034
0.077340335 0.1063816 0.30100003 4280897583
0.078317977 0.1063816 0.30100003 4280898610
0.079295628 0.1063816 0.30100003 4280372264
0.080006585 0.10602816 0.30000001 4279517725
0.080980986 0.10602816 0.30000001 4280044580
0.081682198 0.10567474 0.29900002 4279453213
0.082653359 0.10567474 0.29900002 4279388187
0.083344825 0.10532131 0.29800001 4279453980
0.08431273 0.10532131 0.29800001 4279584029
0.084994465 0.10496788 0.29700002 4279715104
0.086248539 0.10532131 0.29800001 4280240680
0.087216437 0.10532131 0.29800001 4280567596
0.087888427 0.10496788 0.29700002 4281746741
0.088853084 0.10496788 0.29700002 4285430638
0.08981774 0.10496788 0.29700002 4286218617
0.069224633 0.1084296 0.30400002 4285233509
0.070212021 0.1084296 0.30400002 4283194953
0.071199417 0.1084296 0.30400002 4282602814
0.072186805 0.1084296 0.30400002 4281088296
0.072933495 0.10807292 0.303 4280758563
0.073917635 0.10807292 0.303 4280758050
0.074901782 0.10807292 0.303 4280824356
0.075885922 0.10807292 0.303 4280301092
0.076616377 0.10771625 0.30200002 4281421108
0.077597275 0.10771625 0.30200002 4281093679
0.078317977 0.10735958 0.30100003 4281028399
0.079295628 0.10735958 0.30100003 4280765997
0.080006585 0.1070029 0.30000001 4280568364
0.080980986 0.1070029 0.30000001 4279846692
0.081682198 0.10664622 0.29900002 4279715617
0.082653359 0.10664622 0.29900002 4279980324
0.083344825 0.10628954 0.29800001 4279848738
0.08431273 0.10628954 0.29800001 4279781662
0.085280634 0.10628954 0.29800001 4279452697
0.086248539 0.10628954 0.29800001 4279519008
0.087216437 0.10628954 0.29800001 4279716389
0.087888427 0.10593287 0.29700002 4280174373
0.088853084 0.10593287 0.29700002 4280500518
0.090120159 0.10628954 0.29800001 4283917145
0.088657923 0.1023661 0.287 4284309601
0.089590102 0.1023661 0.287 4282401606
0.090522274 0.1023661 0.287 4281744705
0.091454454 0.1023661 0.287 4281876291
0.071199417 0.10941733 0.30400002 4285495911
0.072186805 0.10941733 0.30400002 4282799168
0.073174201 0.10941733 0.30400002 4281417774
0.074161589 0.10941733 0.30400002 4280759846
0.074901782 0.1090574 0.303 4281352497
0.075885922 0.1090574 0.303 4281421620
0.076616377 0.10869748 0.30200002 4281750839
0.077597275 0.10869748 0.30200002 4281290804
0.078317977 0.10833756 0.30100003 4280830253
0.079295628 0.10833756 0.30100003 4281225011
0.080006585 0.10797763 0.30000001 4281028145
0.080711059 0.10761771 0.29900002 4280700463
0.081682198 0.10761771 0.29900002 4280569129
0.082653359 0.10761771 0.29900002 4279715869
0.083344825 0.10725778 0.29800001 4279781662
0.08431273 0.10725778 0.29800001 4279912994
0.085280634 0.10725778 0.29800001 4279716385
0.086248539 0.10725778 0.29800001 4279321629
0.087216437 0.10725778 0.29800001 4279321631
0.088184342 0.10725778 0.29800001 4279715619
0.088853084 0.10689785 0.29700002 4279912485
0.090120159 0.10725778 0.29800001 4280894510
0.088966846 0.10365853 0.28800002 4282206276
0.089590102 0.1032986 0.287 4281744959
0.090522274 0.1032986 0.287 4281745729
0.091454454 0.1032986 0.287 4281679936
0.092386626 0.1032986 0.287 4281745729
0.092993662 0.10293867 0.28600001 4282008901
0.093922585 0.10293867 0.28600001 4281943108
0.094519876 0.10257875 0.28500003 4282074440
0.095445544 0.10257875 0.28500003 4282140233
0.096371226 0.10257875 0.28500003 4282074440
0.096955515 0.10221882 0.28400001 4282206026
0.072186805 0.11040506 0.30400002 4285692777
0.073174201 0.11040506 0.30400002 4284115028
0.074161589 0.11040506 0.30400002 4281289009
0.074901782 0.11004187 0.303 4280828204
0.075885922 0.11004187 0.303 4280960555
0.076870069 0.11004187 0.303 4281223981
0.077597275 0.1096787 0.30200002 4280763430
0.078317977 0.10931554 0.30100003 4281158188
0.079295628 0.10931554 0.30100003 4281092141
0.080006585 0.10895235 0.30000001 4280895276
0.080711059 0.10858919 0.29900002 4281159731
0.081682198 0.10858919 0.29900002 4280963122
0.082653359 0.10858919 0.29900002 4280503852
0.083344825 0.108226 0.29800001 4279846690
0.08431273 0.108226 0.29800001 4279453215
0.085280634 0.108226 0.29800001 4279716387
0.086248539 0.108226 0.29800001 4279453215
0.087216437 0.108226 0.29800001 4279584801
0.087888427 0.10786283 0.29700002 4279715104
0.088853084 0.10786283 0.29700002 4279649311
0.08981774 0.10786283 0.29700002 4279845922
0.090782404 0.10786283 0.29700002 4280108840
0.088966846 0.10459426 0.28800002 4280763692
0.089902267 0.10459426 0.28800002 4281419573
0.090522274 0.10423108 0.287 4281614905
0.091454454 0.10423108 0.287 4281746238
0.092386626 0.10423108 0.287 4281745727
0.092993662 0.10386791 0.28600001 4282074692
0.093922585 0.10386791 0.28600001 4282008899
0.094519876 0.10350474 0.28500003 4282140487
0.095445544 0.10350474 0.28500003 4282140233
0.096371226 0.10350474 0.28500003 4282469198
0.096955515 0.10314156 0.28400001 4282403407
0.065744348 0.097028345 0.30441427 4294967295
0.065744348 0.097028345 0.30441427 4294901760
0.065930337 0.09658543 0.30427557 4294901760
0.066116326 0.096142523 0.30413687 4294901760
0.066302314 0.095699608 0.30399817 4294901760
0.066488303 0.095256701 0.30385947 4294901760
0.066674292 0.094813786 0.30372077 4294901760
0.066860281 0.094370879 0.30358207 4294901760
0.06704627 0.093927965 0.30344337 4294901760
0.067232259 0.093485057 0.30330467 4294901760
0.067418247 0.093042143 0.30316597 4294901760
0.067604236 0.092599235 0.30302727 4294901760
0.067790225 0.092156321 0.30288857 4294901760
0.067976214 0.091713414 0.30274987 4294901760
0.068162203 0.091270499 0.30261114 4294901760
0.068348192 0.090827592 0.30247244 4294901760
0.068534181 0.090384677 0.30233374 4294901760
0.068720169 0.08994177 0.30219504 4294901760
0.068906158 0.089498855 0.30205634 4294901760
0.069092147 0.089055948 0.30191764 4294901760
0.069278136 0.088613033 0.30177894 4294901760
0.069464125 0.088170126 0.30164024 4294901760
0.069650114 0.087727211 0.30150154 4294901760
0.069836102 0.087284304 0.30136284 4294901760
0.070022091 0.08684139 0.30122414 4294901760
0.07020808 0.086398482 0.30108544 4294901760
0.070394069 0.085955568 0.30094674 4294901760
0.070580058 0.08551266 0.30080804 4294901760
0.070766047 0.085069746 0.30066934 4294901760
0.070952035 0.084626839 0.30053064 4294901760
0.071138024 0.084183924 0.30039194 4294901760
0.071324013 0.083741017 0.30025324 4294901760
0.071510002 0.083298102 0.30011454 4294901760
0.071695991 0.082855195 0.29997584 4294901760
0.07188198 0.08241228 0.29983714 4294901760
0.072067969 0.081969373 0.29969844 4294901760
0.072253957 0.081526458 0.29955974 4294901760
0.072439946 0.081083551 0.29942104 4294901760
0.072625935 0.080640636 0.29928234 4294901760
0.072811924 0.080197729 0.29914361 4294901760
0.072997913 0.079754815 0.29900491 4294901760
0.073183902 0.079311907 0.29886621 4294901760
0.07336989 0.078868993 0.29872751 4294901760
0.073555879 0.078426085 0.29858881 4294901760
0.073741868 0.077983171 0.29845011 4294901760
0.07392785 0.077540264 0.29831141 4294901760
0.074113846 0.077097349 0.29817271 4294901760
0.074299827 0.076654442 0.29803401 4294901760
0.074485824 0.076211527 0.29789531 4294901760
0.074671805 0.07576862 0.29775661 4294901760
0.074857801 0.075325705 0.29761791 4294901760
0.075043783 0.074882798 0.29747921 4294901760
0.075229779 0.074439883 0.29734051 4294901760
0.07541576 0.073996976 0.29720181 4294901760
0.075601749 0.073554069 0.29706311 4294901760
0.075787738 0.073111147 0.29692441 4294901760
0.075973734 0.072668239 0.29678571 4294901760
0.076159716 0.072225332 0.29664701 4294901760
0.076345704 0.071782418 0.29650831 4294901760
0.076531693 0.07133951 0.29636961 4294901760
0.076717682 0.070896596 0.29623091 4294901760
0.076903671 0.070453689 0.29609221 4294901760
0.07708966 0.070010774 0.29595351 4294901760
0.077275649 0.069567867 0.29581481 4294901760
0.077461638 0.069124952 0.29567608 4294901760
0.077647626 0.068682045 0.29553738 4294901760
0.077833615 0.06823913 0.29539868 4294901760
0.078019604 0.067796215 0.29525998 4294901760
0.078205593 0.067353308 0.29512128 4294901760
0.078391582 0.066910401 0.29498258 4294901760
0.078577571 0.066467486 0.29484388 4294901760
0.078763559 0.066024579 0.29470518 4294901760
0.078949548 0.065581664 0.29456648 4294901760
0.079135537 0.065138757 0.29442778 4294901760
0.079321526 0.064695843 0.29428908 4294901760
0.079507515 0.064252928 0.29415038 4294901760
0.079693504 0.063810021 0.29401168 4294901760
0.079879493 0.063367113 0.29387298 4294901760
0.080065481 0.062924199 0.29373428 4294901760
0.08025147 0.062481292 0.29359558 4294901760
0.080437459 0.062038377 0.29345688 4294901760
0.080623448 0.061595466 0.29331818 4294901760
0.080809437 0.061152555 0.29317948 4294901760
0.080995426 0.060709644 0.29304078 4294901760
0.081181414 0.060266733 0.29290208 4294901760
0.081367403 0.059823822 0.29276338 4294901760
0.081553392 0.059380911 0.29262468 4294901760
0.081739381 0.058938 0.29248598 4294901760
0.08192537 0.058495089 0.29234728 4294901760
0.082111359 0.058052178 0.29220855 4294901760
0.082297347 0.057609268 0.29206985 4294901760
0.082483336 0.057166357 0.29193115 4294901760
0.082669325 0.056723446 0.29179245 4294901760
0.082855314 0.056280535 0.29165375 4294901760
0.083041303 0.055837624 0.29151505 4294901760
0.083227292 0.055394713 0.29137635 4294901760
0.083413281 0.054951802 0.29123765 4294901760
0.083599269 0.054508891 0.29109895 4294901760
0.083785258 0.05406598 0.29096025 4294901760
0.083971247 0.053623069 0.29082155 4294901760
0.084157236 0.053180158 0.29068285 4294901760
0.084343225 0.052737247 0.29054415 4294901760
0.065744348 0.097028345 0.30441427 4278255360
0.066154912 0.097255036 0.30424091 4278255360
0.066565476 0.097481728 0.30406758 4278255360
0.066976033 0.097708419 0.30389422 4278255360
0.067386597 0.09793511 0.30372089 4278255360
0.067797162 0.098161794 0.30354753 4278255360
0.068207726 0.098388486 0.30337417 4278255360
0.06861829 0.098615177 0.30320084 4278255360
0.069028847 0.098841868 0.30302748 4278255360
0.069439411 0.09906856 0.30285415 4278255360
0.069849975 0.099295251 0.30268079 4278255360
0.07026054 0.099521942 0.30250743 4278255360
0.070671104 0.099748634 0.3023341 4278255360
0.071081668 0.099975318 0.30216074 4278255360
0.071492225 0.10020201 0.30198741 4278255360
0.071902789 0.1004287 0.30181405 4278255360
0.072313353 0.10065539 0.30164069 4278255360
0.072723918 0.10088208 0.30146736 4278255360
0.073134482 0.10110877 0.301294 4278255360
0.073545039 0.10133547 0.30112067 4278255360
0.073955603 0.10156216 0.30094731 4278255360
0.074366167 0.10178884 0.30077395 4278255360
0.074776731 0.10201553 0.30060062 4278255360
0.075187296 0.10224222 0.30042726 4278255360
0.075597852 0.10246892 0.30025393 4278255360
0.076008417 0.10269561 0.30008057 4278255360
0.076418981 0.1029223 0.29990721 4278255360
0.076829545 0.10314899 0.29973388 4278255360
0.077240109 0.10337568 0.29956052 4278255360
0.077650666 0.10360236 0.29938719 4278255360
0.07806123 0.10382906 0.29921383 4278255360
0.078471795 0.10405575 0.29904047 4278255360
0.078882359 0.10428244 0.29886714 4278255360
0.079292923 0.10450913 0.29869378 4278255360
0.07970348 0.10473582 0.29852045 4278255360
0.080114044 0.10496251 0.29834709 4278255360
0.080524608 0.1051892 0.29817373 4278255360
0.080935173 0.1054159 0.2980004 4278255360
0.081345737 0.10564258 0.29782704 4278255360
0.081756294 0.10586927 0.2976537 4278255360
0.082166865 0.10609596 0.29748034 4278255360
0.082577422 0.10632265 0.29730698 4278255360
0.082987987 0.10654934 0.29713365 4278255360
0.083398551 0.10677604 0.29696029 4278255360
0.083809115 0.10700273 0.29678696 4278255360
0.084219679 0.10722942 0.2966136 4278255360
0.084630236 0.1074561 0.29644024 4278255360
0.0850408 0.10768279 0.29626691 4278255360
0.085451365 0.10790949 0.29609355 4278255360
0.085861929 0.10813618 0.29592022 4278255360
0.086272493 0.10836287 0.29574686 4278255360
0.08668305 0.10858956 0.2955735 4278255360
0.087093614 0.10881625 0.29540017 4278255360
0.087504178 0.10904294 0.29522681 4278255360
0.087914743 0.10926963 0.29505348 4278255360
0.088325307 0.10949632 0.29488012 4278255360
0.088735864 0.10972301 0.29470676 4278255360
0.089146428 0.1099497 0.29453343 4278255360
0.089556992 0.11017639 0.29436007 4278255360
0.089967556 0.11040308 0.29418674 4278255360
0.090378121 0.11062977 0.29401338 4278255360
0.090788677 0.11085647 0.29384002 4278255360
0.091199242 0.11108316 0.29366669 4278255360
0.091609806 0.11130984 0.29349333 4278255360
0.09202037 0.11153653 0.29332 4278255360
0.092430934 0.11176322 0.29314664 4278255360
0.092841491 0.11198992 0.29297328 4278255360
0.093252055 0.11221661 0.29279995 4278255360
0.09366262 0.1124433 0.29262659 4278255360
0.094073184 0.11266999 0.29245326 4278255360
0.094483748 0.11289668 0.2922799 4278255360
0.094894305 0.11312337 0.29210654 4278255360
0.095304877 0.11335006 0.29193321 4278255360
0.095715433 0.11357675 0.29175985 4278255360
0.096125998 0.11380344 0.29158652 4278255360
0.096536562 0.11403013 0.29141316 4278255360
0.096947119 0.11425682 0.2912398 4278255360
0.09735769 0.11448351 0.29106647 4278255360
0.097768247 0.1147102 0.29089311 4278255360
0.098178811 0.11493689 0.29071978 4278255360
0.098589376 0.11516358 0.29054642 4278255360
0.098999932 0.11539027 0.29037306 4278255360
0.099410504 0.11561696 0.29019973 4278255360
0.099821061 0.11584365 0.29002637 4278255360
0.10023163 0.11607035 0.28985304 4278255360
0.10064219 0.11629704 0.28967968 4278255360
0.10105275 0.11652373 0.28950632 4278255360
0.10146332 0.11675042 0.28933299 4278255360
0.10187387 0.11697711 0.28915963 4278255360
0.10228444 0.11720379 0.2889863 4278255360
0.102695 0.11743049 0.28881294 4278255360
0.10310557 0.11765718 0.28863958 4278255360
0.10351613 0.11788387 0.28846624 4278255360
0.10392669 0.11811056 0.28829288 4278255360
0.10433725 0.11833725 0.28811955 4278255360
0.10474782 0.11856394 0.28794619 4278255360
0.10515837 0.11879063 0.28777283 4278255360
0.10556895 0.11901732 0.2875995 4278255360
0.1059795 0.11924401 0.28742614 4278255360
0.10639007 0.1194707 0.28725281 4278255360
0.10680063 0.11969739 0.28707945 4278255360
0.065744348 0.097028345 0.30441427 4278190335
0.065915532 0.096954919 0.30487829 4278190335
0.066086717 0.096881494 0.30534229 4278190335
0.066257901 0.096808068 0.30580631 4278190335
0.066429079 0.096734643 0.3062703 4278190335
0.066600263 0.096661225 0.30673432 4278190335
0.066771448 0.096587799 0.30719832 4278190335
0.066942632 0.096514374 0.30766234 4278190335
0.067113817 0.096440949 0.30812636 4278190335
0.067285001 0.096367523 0.30859035 4278190335
0.067456186 0.096294098 0.30905437 4278190335
0.067627363 0.096220672 0.30951837 4278190335
0.067798547 0.096147247 0.30998239 4278190335
0.067969732 0.096073829 0.31044641 4278190335
0.068140917 0.096000403 0.3109104 4278190335
0.068312101 0.095926978 0.31137443 4278190335
0.068483286 0.095853552 0.31183842 4278190335
0.068654463 0.095780127 0.31230244 4278190335
0.068825647 0.095706701 0.31276643 4278190335
0.068996832 0.095633276 0.31323045 4278190335
0.069168016 0.09555985 0.31369448 4278190335
0.069339201 0.095486432 0.31415847 4278190335
0.069510385 0.095413007 0.31462249 4278190335
0.06968157 0.095339581 0.31508648 4278190335
0.069852747 0.095266156 0.31555051 4278190335
0.070023932 0.09519273 0.31601453 4278190335
0.070195116 0.095119305 0.31647852 4278190335
0.070366301 0.095045879 0.31694254 4278190335
0.070537485 0.094972454 0.31740654 4278190335
0.07070867 0.094899029 0.31787056 4278190335
0.070879847 0.094825611 0.31833455 4278190335
0.071051031 0.094752185 0.31879857 4278190335
0.071222216 0.09467876 0.31926259 4278190335
0.0713934 0.094605334 0.31972659 4278190335
0.071564585 0.094531909 0.32019061 4278190335
0.07173577 0.094458483 0.3206546 4278190335
0.071906954 0.094385058 0.32111862 4278190335
0.072078131 0.094311632 0.32158262 4278190335
0.072249316 0.094238214 0.32204664 4278190335
0.0724205 0.094164789 0.32251066 4278190335
0.072591685 0.094091363 0.32297465 4278190335
0.072762869 0.094017938 0.32343867 4278190335
0.072934054 0.093944512 0.32390267 4278190335
0.073105238 0.093871087 0.32436669 4278190335
0.073276415 0.093797661 0.32483071 4278190335
0.0734476 0.093724236 0.3252947 4278190335
0.073618785 0.093650818 0.32575873 4278190335
0.073789969 0.093577392 0.32622272 4278190335
0.073961154 0.093503967 0.32668674 4278190335
0.074132338 0.093430541 0.32715073 4278190335
0.074303523 0.093357116 0.32761475 4278190335
0.0744747 0.093283691 0.32807878 4278190335
0.074645884 0.093210265 0.32854277 4278190335
0.074817069 0.09313684 0.32900679 4278190335
0.074988253 0.093063414 0.32947078 4278190335
0.075159438 0.092989996 0.32993481 4278190335
0.075330622 0.092916571 0.3303988 4278190335
0.0755018 0.092843145 0.33086282 4278190335
0.075672984 0.09276972 0.33132684 4278190335
0.075844169 0.092696294 0.33179083 4278190335
0.076015353 0.092622869 0.33225486 4278190335
0.076186538 0.092549443 0.33271885 4278190335
0.076357722 0.092476018 0.33318287 4278190335
0.076528907 0.0924026 0.33364689 4278190335
0.076700084 0.092329174 0.33411089 4278190335
0.076871268 0.092255749 0.33457491 4278190335
0.077042453 0.092182323 0.3350389 4278190335
0.077213638 0.092108898 0.33550292 4278190335
0.077384822 0.092035472 0.33596694 4278190335
0.077556007 0.091962047 0.33643094 4278190335
0.077727184 0.091888621 0.33689496 4278190335
0.077898368 0.091815203 0.33735895 4278190335
0.078069553 0.091741778 0.33782297 4278190335
0.078240737 0.091668352 0.33828697 4278190335
0.078411922 0.091594927 0.33875099 4278190335
0.078583106 0.091521502 0.33921498 4278190335
0.078754291 0.091448076 0.339679 4278190335
0.078925468 0.091374651 0.34014302 4278190335
0.079096653 0.091301225 0.34060702 4278190335
0.079267837 0.0912278 0.34107104 4278190335
0.079439022 0.091154382 0.34153503 4278190335
0.079610206 0.091080956 0.34199905 4278190335
0.079781391 0.091007531 0.34246308 4278190335
0.079952568 0.090934105 0.34292707 4278190335
0.080123752 0.09086068 0.34339109 4278190335
0.080294937 0.090787254 0.34385508 4278190335
0.080466121 0.090713829 0.34431911 4278190335
0.080637306 0.090640403 0.34478313 4278190335
0.080808491 0.090566985 0.34524712 4278190335
0.080979675 0.09049356 0.34571114 4278190335
0.08115086 0.090420134 0.34617513 4278190335
0.081322037 0.090346709 0.34663916 4278190335
0.081493221 0.090273283 0.34710315 4278190335
0.081664406 0.090199858 0.34756717 4278190335
0.08183559 0.090126432 0.34803116 4278190335
0.082006775 0.090053007 0.34849519 4278190335
0.082177952 0.089979589 0.34895921 4278190335
0.082349136 0.089906164 0.3494232 4278190335
0.082520321 0.089832738 0.34988722 4278190335
0.082691506 0.089759313 0.35035121 4278190335
0.08286269 0.089685887 0.35081524 4278190335
0.065744348 0.097028345 0.30441427 4294967295
0.064717248 0.09746889 0.3016302 4294967295
0.063690148 0.097909443 0.29884616 4294967295
0.062663049 0.098349988 0.29606208 4294967295
0.061635945 0.098790534 0.29327804 4294967295
0.060608845 0.099231079 0.29049397 4294967295
0.059581745 0.099671632 0.28770992 4294967295
0.058554646 0.10011218 0.28492585 4294967295
0.057527546 0.10055272 0.2821418 4294967295
0.056500442 0.10099328 0.27935773 4294967295
0.055473343 0.10143382 0.27657369 4294967295
0.054446243 0.10187437 0.27378961 4294967295
0.053419143 0.10231491 0.27100557 4294967295
0.052392043 0.10275546 0.2682215 4294967295
0.051364943 0.10319601 0.26543745 4294967295
0.050337844 0.10363656 0.26265338 4294967295
0.049310744 0.1040771 0.25986934 4294967295
0.04828364 0.10451765 0.25708526 4294967295
0.047256541 0.1049582 0.25430122 4294967295
0.046229441 0.10539874 0.25151715 4294967295
0.045202337 0.1058393 0.2487331 4294967295
0.044175241 0.10627984 0.24594904 4294967295
0.043148138 0.10672039 0.24316499 4294967295
0.042121038 0.10716094 0.24038091 4294967295
0.041093938 0.10760149 0.23759687 4294967295
0.040066838 0.10804203 0.2348128 4294967295
0.039039738 0.10848258 0.23202875 4294967295
0.038012639 0.10892313 0.22924468 4294967295
0.036985539 0.10936368 0.22646064 4294967295
0.035958439 0.10980422 0.22367656 4294967295
0.034931336 0.11024477 0.2208925 4294967295
0.033904236 0.11068532 0.21810845 4294967295
0.032877136 0.11112586 0.2153244 4294967295
0.031850033 0.11156641 0.21254033 4294967295
0.030822933 0.11200696 0.20975628 4294967295
0.029795837 0.11244751 0.20697221 4294967295
0.028768733 0.11288805 0.20418815 4294967295
0.027741633 0.11332861 0.20140409 4294967295
0.026714534 0.11376914 0.19862005 4294967295
0.025687434 0.1142097 0.19583598 4294967295
0.02466033 0.11465024 0.19305192 4294967295
0.023633234 0.11509079 0.19026786 4294967295
0.022606134 0.11553134 0.18748382 4294967295
0.021579031 0.11597189 0.18469974 4294967295
0.020551931 0.11641243 0.18191569 4294967295
0.019524831 0.11685298 0.17913163 4294967295
0.018497728 0.11729353 0.17634757 4294967295
0.017470632 0.11773407 0.17356351 4294967295
0.016443532 0.11817463 0.17077945 4294967295
0.015416428 0.11861517 0.16799539 4294967295
0.014389329 0.11905572 0.16521133 4294967295
0.013362229 0.11949626 0.16242728 4294967295
0.012335129 0.11993681 0.15964322 4294967295
0.011308029 0.12037736 0.15685916 4294967295
0.010280926 0.12081791 0.1540751 4294967295
0.009253826 0.12125845 0.15129104 4294967295
0.0082267262 0.12169901 0.14850698 4294967295
0.0071996264 0.12213955 0.14572293 4294967295
0.0061725266 0.1225801 0.14293887 4294967295
0.0051454268 0.12302064 0.14015481 4294967295
0.0041183233 0.12346119 0.13737074 4294967295
0.0030912235 0.12390174 0.13458669 4294967295
0.0020641237 0.12434229 0.13180263 4294967295
0.001037024 0.12478283 0.12901857 4294967295
9.9241734e-06 0.12522338 0.12623452 4294967295
-0.0010171756 0.12566394 0.12345046 4294967295
-0.0020442829 0.12610447 0.12066638 4294967295
-0.0030713826 0.12654503 0.11788233 4294967295
-0.0040984824 0.12698558 0.11509828 4294967295
-0.0051255748 0.12742612 0.11231422 4294967295
-0.0061526746 0.12786667 0.10953017 4294967295
-0.0071797743 0.12830722 0.10674611 4294967295
-0.0082068816 0.12874776 0.10396203 4294967295
-0.0092339814 0.12918831 0.10117798 4294967295
-0.010261081 0.12962887 0.098393917 4294967295
-0.011288181 0.1300694 0.095609874 4294967295
-0.012315281 0.13050994 0.092825815 4294967295
-0.013342381 0.1309505 0.090041757 4294967295
-0.01436948 0.13139105 0.087257698 4294967295
-0.015396588 0.13183159 0.084473625 4294967295
-0.016423687 0.13227214 0.081689566 4294967295
-0.017450787 0.13271269 0.078905508 4294967295
-0.018477879 0.13315323 0.076121449 4294967295
-0.019504979 0.13359378 0.073337406 4294967295
-0.020532079 0.13403434 0.070553347 4294967295
-0.021559186 0.13447487 0.067769274 4294967295
-0.022586286 0.13491543 0.064985216 4294967295
-0.023613386 0.13535598 0.062201157 4294967295
-0.024640486 0.13579652 0.059417099 4294967295
-0.025667585 0.13623707 0.05663304 4294967295
-0.026694685 0.13667762 0.053848982 4294967295
-0.027721792 0.13711816 0.051064909 4294967295
-0.028748892 0.13755871 0.048280865 4294967295
-0.029775992 0.13799927 0.045496821 4294967295
-0.030803084 0.1384398 0.042712748 4294967295
-0.031830184 0.13888036 0.039928705 4294967295
